0,0,0,0,0,0,0,0,0,0,0,0,0,0,0,0,0,0,0,0,0,0,0,0,0,0,0,0,0,0,0,0,0,0,0,0,0,0,0,0,0,0,0,0,0,0,0,0,0,0,0,0,0,0,0,0,0,0,0,0,0,0,0,0,0,0,0,0,0,0,0,0,0,0,0,0,0,0,0,0,0,0,0,0,0,0,0,0,0,0,0,0,0,0,0,0,0,0,0,0,0,0,0,0,0,0,0,0,0,0,0,0,0,0,0,0,0,0,0,0,0,0,0,0,0,0,0,0,0,0,0,0,0,0,0,0,0,0,0,0,0,0,0,0,0,0,0,0,0,0,0,0,0,0,0,0,0,0,0,0,0,0,0,0,0,0,0,0,0,0,0,0,0,0,0,0,0,0,0,0,0,0,0,0,0,0,0,0,0,0,0,0,0,0,0,0,0,0,0,0,0,0,0
0.306317094622113,0.304389182723748,0.305010568393831,0.467635818633866,0.915098153938121,0.338991923759383,0.340143103570144,0.339698615265677,0.338872495588688,0.338157722476858,0.337848825554158,0.340891999016459,0.341744159422397,0.346750265073718,0.434081890405539,0.325938334906781,0.415647748178459,0.372493770529813,0.495645765464658,0.297324063573148,0.29644406652592,0.297265696422056,0.298442019005595,0.299829361289235,0.300594419946621,0.299865279536061,0.294631093017397,0.300890745482932,0.299508790936316,0.297686837866087,0.306710399424854,0.31507306524203,0.315008412397744,0.314433720448534,0.314003599442797,0.313488172600849,0.360053485741758,0.309217493053282,0.30687382744791,0.305077017150459,0.304838160809068,0.304580447388094,0.30273784132594,0.303451716481599,0.301415151886586,0.300349277912036,0.30048127746912,0.303446328744575,0.302821351249809,0.301481600643214,0.300028707559117,0.300345686087353,0.299689280126615,0.299034670078218,0.297211819051818,0.296396474848876,0.29537819255137,0.301587559471349,0.303199390797649,0.303431063489674,0.301148458903906,0.31141479180284,0.310926303646011,0.31121903735764,0.315785144485348,0.311896994266474,0.31431608819018,0.312856011456718,0.312426788407152,0.450255876951118,0.449261839470218,0.32899228384313,0.59647636590972,0.880763901797507,0.425568367951696,0.324982909541219,0.32541841828398,0.326676454879047,0.32597874293446,0.325479479303584,0.32543188762654,0.324999970708461,0.325234337268999,0.327840206076198,0.325471397698048,0.343773540368044,0.344740639163824,0.345047740174183,0.345034270831624,0.34387949919618,0.343575990010503,0.342122198970236,0.630185640555568,0.31852211489346,0.318140483520938,0.329671138708134,0.38193757557644,0.382454798330729,0.383332999465616,0.374754824167486,0.374084948864188,0.373001115766225,0.535525794915148,0.325132868221716,0.357543698244818,0.402785423990203,0.368543661335165,0.346421613115263,0.347041202873005,0.346289613558179,0.425124777603399,0.44166602822277,0.440566929869906,0.395851406440516,0.467819899648848,0.409677237599869,0.445813687774959,0.450597998252132,0.450250489214094,0.44993710251054,0.666538498167781,0.666569028677583,0.665986255122837,0.432065978802451,0.419072553013282,0.387552495511456,0.39678258698947,0.396457526855699,0.37896534065162,0.380105744988333,0.37846068928372,0.379187135825768,0.384281241181812,0.399708128193417,0.399421680174983,0.399686577245322,0.398060378620292,0.393945943446417,0.396061528184446,0.359837976260804,0.359010958627645,0.374909272628836,0.381888187987055,0.424259147854902,0.42742444335641,0.427846482756611,0.460459352918107,0.461676083529325,0.468319163279724,0.452422645190873,0.391874358560749,0.422060053193003,0.388726124226483,0.390415179783458,0.388783593421404,0.351486085917676,0.341134447182532,0.444083326234134,0.425266654678361,0.520037846883939,0.52012225476398,0.466989290191005,0.365479834880939,0.493474507444049,0.508148009228487,0.480687611574127,0.424826656154747,0.381205741297368,0.274307651007288,0.27498381200378,0.277381354979391,0.276452868298948,0.275762340003726,0.274079570139945,0.273891897300282,0.277202661701433,0.278540616395688,0.2790479616321,0.278610656976998,0.27543189213293,0.385906541850672,0.27513736250896,0.278469677858207,0.278703146462574,0.276937764631094,0.329871382934187,0.318180891548617,0.318926195170249,0.318081218413676,0.318516727156436,0.319582601130987,0.31993729381839,0.592194910888105,0.304300285062855,0.30482648737885,0.309866715364656,0.282866071269664,0.281875625613447,0.281843299191304,0.281877421525788,0.274718016977271,0.277833026933223,0.25978769972803
0.307389254289858,0.305319465316532,0.301435804878511,0.34783230225934,0.914370809439902,0.338992821715554,0.339208331196508,0.33933763688508,0.340451102536674,0.33996890007304,0.339275677909306,0.724453079349417,0.344582598877791,0.586577297084578,0.329850729942262,0.327108371797126,0.39737074828124,0.30727970363704,0.297905939171723,0.298197774927181,0.297123819347095,0.296720637026477,0.296169291937704,0.290610943241439,0.292762446226294,0.295132152560614,0.297857449538508,0.297611409547753,0.3005369507517,0.299344464957089,0.299166669635302,0.315005718529232,0.315370288734512,0.315525635152033,0.313927273168292,0.313246622390947,0.309545247055566,0.309274064292033,0.353406814166677,0.304549916878293,0.305071629413435,0.303940204638428,0.302043721206035,0.301549845312182,0.300718337898169,0.300694093081562,0.299277118244291,0.301777926179525,0.302220618571651,0.302263720467842,0.301299315540574,0.300364543166937,0.299532137796753,0.29895385402286,0.297717368375888,0.296269863028816,0.299483648163538,0.299879646834791,0.303031472993739,0.302016782520916,0.300622256587911,0.301405274368709,0.308862800365879,0.306252441777827,0.30509228240536,0.312616257159157,0.313244826478605,0.312239115567488,0.311450710049666,0.31006965345922,0.452385828987877,0.452819541818297,0.660418028908695,0.66043868190062,0.427224199130357,0.324724298164075,0.324925440346298,0.324887726187131,0.326468129047459,0.3282775107313,0.325161602819177,0.324067892203337,0.323687158786985,0.459231846832841,0.343364970310403,0.344268314218067,0.345080066596326,0.345593697525933,0.345160882651684,0.344179416557174,0.343518520815582,0.630669638931543,0.630266456610925,0.319120153703107,0.318589461606258,0.314519026284744,0.313008664005727,0.284747289447156,0.283153417244269,0.374707232490442,0.374537518774191,0.372623076218385,0.49456911601606,0.462078367893772,0.326051477384282,0.316756733061981,0.31693812020845,0.396015732419743,0.346943325650406,0.428734561409375,0.354451137193132,0.422454255951914,0.483896008971826,0.410604826324141,0.414652812741389,0.414830608063176,0.42188764560824,0.42195768618955,0.434763439139056,0.440358604038317,0.420828955283055,0.42499996169568,0.412216657650441,0.406941165147927,0.374186417911471,0.372499158266837,0.372182179738601,0.359333324892905,0.378660933509773,0.379513093915711,0.378731872047253,0.378635790736995,0.388158615926638,0.399876045997327,0.399976617088439,0.399159476973156,0.398737437572955,0.397746093960568,0.398585682980117,0.359351284016317,0.359290222996714,0.359881976113166,0.382661328249976,0.381918718496857,0.414149059329659,0.453787538570247,0.453671702224234,0.455077901587458,0.459151030777483,0.49597082559843,0.48912929753432,0.337575846878283,0.337843437817134,0.3892119185148,0.38816130979515,0.352275389391669,0.341387670822652,0.418184474360518,0.418875002655741,0.423271396067197,0.423014580602394,0.502674068412262,0.372875401902335,0.367158114963867,0.377476529320698,0.294199176099319,0.29439762441303,0.382836429703251,0.275862013138667,0.276854254707225,0.277014090905599,0.277625599057805,0.276386419542321,0.275071811708503,0.274920057115665,0.273865856571333,0.279305675053074,0.280787302734631,0.280672364344789,0.281659218176323,0.282141420639957,0.307652355447856,0.308394965200976,0.287547116787213,0.331149174565008,0.331987865628387,0.332163865037832,0.318538278104532,0.317991422796612,0.317613383248772,0.316776488097735,0.313631845588152,0.303287390502372,0.30500877248149,0.303764205228982,0.303907878216285,0.298653038705696,0.297967000191326,0.281184199362054,0.281421259791103,0.276532786398135,0.275423810527394,0.261297164050877
0.305349097870163,0.303890817049042,0.300914092343369,0.307093826709717,0.457495199598822,0.337776989060506,0.338770128585235,0.339140984483709,0.3395755952703,0.338969474855117,0.338348987141204,0.436439923309641,0.755683994964297,0.756050361081918,0.759761613935176,0.735805041258655,0.306945663941562,0.304807630299266,0.306297339586359,0.298969119277761,0.298551569658413,0.296132475734708,0.296119904348319,0.292023428297856,0.291391267153725,0.295178846281487,0.294472154775193,0.293775340786776,0.295730191370261,0.298569528781826,0.297614103416265,0.31403592586494,0.31461061781415,0.313946130247876,0.313683029089878,0.508945394308016,0.508561967023153,0.353336773585367,0.595014493263917,0.304705263295813,0.304662161399623,0.303856694714558,0.301941354202582,0.300556705787454,0.300428298055052,0.297659899180967,0.297336634959537,0.298094509967557,0.296172883762387,0.301018255259163,0.302366087471295,0.302113761787345,0.300037687120824,0.298808385123217,0.297331247222513,0.297826021072536,0.299476464514173,0.301609110419445,0.302129027042246,0.303437349182869,0.299955973109295,0.299661443485325,0.300810827383745,0.303276615028324,0.30446281512974,0.311493811945856,0.303373594294753,0.303520859106738,0.303358329039853,0.303548695748028,0.447643722450724,0.312859603281401,0.31371355959968,0.661638351344596,0.661110353116259,0.321985531843621,0.323223813402934,0.325181357854931,0.327956940378381,0.32446478883076,0.32446478883076,0.324076871765043,0.467479574260175,0.595924122864776,0.34375288737612,0.344431742241124,0.345150107177636,0.345353943228372,0.344385048520251,0.34364064285479,0.635298602991195,0.633648159549558,0.633253058834476,0.318962113417074,0.31828325855207,0.31546637004477,0.310568917090096,0.28436116829378,0.284508433105765,0.285805979772341,0.284897248127653,0.284476106683622,0.284327943915466,0.493499650216827,0.31864782875735,0.318849868895744,0.474170245687618,0.472675148663501,0.473108861493921,0.400885348733127,0.347997526194738,0.461903266440497,0.46207567402526,0.412845226969889,0.409822706499513,0.418223984432026,0.414357385161248,0.414743506314623,0.435002295480446,0.437864979752448,0.412262453415144,0.406766063694652,0.377921915581335,0.389932079363653,0.372810749058049,0.373556950635851,0.373178911088012,0.36567738523848,0.366018608583324,0.378510076873105,0.378692361975745,0.378894402114139,0.377410978520241,0.399914658112665,0.399409108788594,0.411790128469387,0.387607270837865,0.40944017717082,0.387706943972806,0.38764229112852,0.439921299383215,0.43996978901643,0.382532920517575,0.335087610329438,0.369567331369695,0.455243125522856,0.452442400226628,0.450394162201396,0.456308101541235,0.444772956573186,0.61033991122824,0.613628226725126,0.343815744308064,0.35327122278491,0.350311559246478,0.444209938054195,0.385355196761898,0.317235343700932,0.424047230198631,0.422732622364813,0.422987641917275,0.425254083291972,0.378798320803881,0.292109632090238,0.292792078779925,0.294211747485707,0.294297053321918,0.294310522664478,0.276790499819109,0.276812050767205,0.276505847713016,0.277818659634493,0.27785727174983,0.430652595789863,0.430339209086309,0.427639054881193,0.291683102909184,0.291249390078764,0.291366124380947,0.301975476537066,0.300923071905075,0.307668518658927,0.30692950073049,0.307276111812357,0.331620601554595,0.332999862232699,0.333379697692879,0.333236922661748,0.317403261504842,0.315975511193523,0.3152697176434,0.314479516213236,0.304796854825219,0.304483468121665,0.303556777353564,0.300305278059674,0.297838592458925,0.579763605661757,0.46454235962601,0.275163403237909,0.27576772774075,0.275299892575846,0.26287217917418
0.306282074331458,0.305563709394946,0.301356784735495,0.458875358233097,0.4582207481847,0.458475767737162,0.337177154338519,0.337693479136637,0.33774017285751,0.337726703514951,0.335209732368645,0.436385147983232,0.756738195508629,0.75615093217303,0.792408606431156,0.30446281512974,0.735310267408632,0.305341914220798,0.304170979374282,0.300877276140373,0.297681450129063,0.296958595411697,0.296576066083004,0.294833133155791,0.294783745566406,0.293933381072809,0.294390440763665,0.292467018646153,0.291945306111011,0.292089877054484,0.294260237118922,0.300450746959318,0.312627032633205,0.309580267346221,0.309337819180148,0.308699372342823,0.303581920126342,0.303625919978703,0.595935796294994,0.30370583807789,0.303321512836856,0.302409189367485,0.301944048071094,0.301079316278767,0.300497440680192,0.299565362175067,0.298257937990614,0.298068469238609,0.296439576745067,0.297571001520074,0.298384549810674,0.297412063277871,0.297179492629675,0.295500314590577,0.295721211808554,0.297235165912254,0.300585440384914,0.29753687918559,0.300835970156523,0.299649770055107,0.298453692435814,0.29523900934492,0.301030826645552,0.303147309339752,0.304012041132079,0.303926735295868,0.303905184347773,0.303908776172455,0.304120693828726,0.302030251863475,0.30130829510228,0.303998571789519,0.662181614827833,0.661950840091979,0.493560711236431,0.309738307632254,0.319081541587769,0.31927819398914,0.322339326574853,0.314062864550059,0.321805940609493,0.629331684237288,0.629472663356079,0.597389587335261,0.551624353142393,0.343716071173123,0.344176722688662,0.343507745341535,0.343373949872109,0.831802841593329,0.474274408603412,0.635726928084591,0.634511993385714,0.596488937296109,0.306316196665943,0.289436416570241,0.288917397903611,0.288107441437693,0.285745816708908,0.285639857880772,0.284745493534814,0.284538963615567,0.296970268841915,0.297528797580054,0.297401287803823,0.319359010044497,0.318602032992647,0.394882511732395,0.472596128520485,0.390471751022208,0.461219921794639,0.621060609949518,0.456125816438595,0.437744653625582,0.447294417500345,0.385460257633863,0.451846157329322,0.458462298394602,0.414427425742558,0.405838474970381,0.396588628456612,0.412684492815345,0.366811503881999,0.366679504324915,0.372537770382174,0.372386913745507,0.366170363176162,0.367315257293729,0.367262277879661,0.365902772237311,0.375277434658799,0.37734003998276,0.379107217726581,0.385122626113702,0.468593039911769,0.411995760432463,0.396404547441631,0.379378400490114,0.372946340439816,0.386382458621111,0.441787252305806,0.316566366353805,0.31585787893517,0.313196336845391,0.317353873915457,0.319039337647749,0.300066421718284,0.450323223663916,0.299964054714831,0.377919221712823,0.487288487384506,0.486666203758252,0.332617332904006,0.43655037191863,0.444152468859274,0.304453835568034,0.418529289530044,0.418240147643098,0.418857941488499,0.428603459808461,0.427962319102624,0.427198158401409,0.293757381663363,0.349314827897067,0.292444569741887,0.292713956593079,0.294726276371485,0.294843010673668,0.29211322391492,0.275856625401643,0.278093434222709,0.27941253183738,0.279366736072677,0.405899535989984,0.383520672305279,0.291828571808827,0.292509222586173,0.292888160090183,0.301957517413653,0.302061680329448,0.304446651918669,0.309282145897569,0.309308186626517,0.309320758012906,0.30858353599681,0.332169252774856,0.332874148368809,0.325570172876818,0.319638274413566,0.302092210839249,0.301745599757382,0.304104530617655,0.306792113436382,0.305223384006273,0.305926483687885,0.300469604038902,0.299750341146219,0.296099251356394,0.573618891586063,0.300334910613306,0.273538102569049,0.263333728645889,0.263570789074939
0,0,0,0,0,0,0,0,0,0,0,0,0,0,0,0,0,0,0,0,0,0,0,0,0,0,0,0,0,0,0,0,0,0,0,0,0,0,0,0,0,0,0,0,0,0,0,0,0,0,0,0,0,0,0,0,0,0,0,0,0,0,0,0,0,0,0,0,0,0,0,0,0,0,0,0,0,0,0,0,0,0,0,0,0,0,0,0,0,0,0,0,0,0,0,0,0,0,0,0,0,0,0,0,0,0,0,0,0,0,0,0,0,0,0,0,0,0,0,0,0,0,0,0,0,0,0,0,0,0,0,0,0,0,0,0,0,0,0,0,0,0,0,0,0,0,0,0,0,0,0,0,0,0,0,0,0,0,0,0,0,0,0,0,0,0,0,0,0,0,0,0,0,0,0,0,0,0,0,0,0,0,0,0,0,0,0,0,0,0,0,0,0,0,0,0,0,0,0,0,0,0,0
0.30702737795309,0.306379053597887,0.456563121093697,0.458617644812123,0.458486543211209,0.415759992699789,0.353884526849457,0.354608279522994,0.527736025134841,0.526849742394419,0.325761437541165,0.324588706782308,0.570282086455963,0.568491561851706,0.303925837339697,0.302067068066471,0.301039806207259,0.301039806207259,0.301430417141487,0.298513855499247,0.296577861995345,0.297241451605449,0.296723330894989,0.294535909663309,0.294020482821361,0.293519423278144,0.292511916454685,0.292951017022128,0.292671752653059,0.291827673852657,0.293966605451123,0.294242277995509,0.300342992218841,0.30021458448644,0.300150829598324,0.302972207886477,0.304637018626845,0.304358652213946,0.303684287129795,0.303275717072154,0.302829432855345,0.302174822806948,0.301871313621272,0.301857844278712,0.301497763854285,0.300857521104618,0.299077771974409,0.298733854761053,0.298171734198232,0.297188472191381,0.297469532472792,0.297805368080611,0.296497045939988,0.296122598216831,0.295309947882401,0.294464971125828,0.296662269875386,0.297305206493564,0.296848146802708,0.296333617916931,0.297432716269795,0.297890673916822,0.296389291199511,0.295295580583671,0.297502756851105,0.296716147245624,0.303637593408922,0.303203880578502,0.303907878216285,0.303950980112475,0.30247114834326,0.301516620933869,0.305591546036236,0.304160203900235,0.314419353149803,0.313269969251383,0.312982623276778,0.320771495100915,0.321541941495325,0.316481958473765,0.3158722462339,0.314909637218973,0.31525535034467,0.324648869845741,0.456141081693496,0.450676120438977,0.342412238813353,0.341262854914933,0.62616638873578,0.471120786532122,0.468726835381195,0.63704333183075,0.636103171720089,0.577492674506207,0.307342560568985,0.306115054483719,0.290326291135346,0.289997639176891,0.28814605355303,0.284911615426383,0.284770636307592,0.284846064625926,0.290717800025745,0.297729041806107,0.29802806121093,0.319414683327077,0.473552451842217,0.473202248935667,0.406428432174492,0.384582954455147,0.639952709823625,0.622834073386533,0.361832336915797,0.381346720416159,0.457038139907966,0.455835776595478,0.461862858412818,0.458015116221623,0.411368987025356,0.37155091655064,0.396294098832642,0.383921160757385,0.375323230423502,0.367173380218767,0.366339178936242,0.365222121459966,0.36590097632497,0.360186383255013,0.360337239891681,0.360170220043942,0.360757483379541,0.379180850132574,0.384294710524372,0.403098810693756,0.372623974174556,0.401373836889956,0.402838403404271,0.388353472415667,0.381970799954754,0.39340357791935,0.317026119913173,0.316991997578689,0.317062038159999,0.315434043622627,0.312940419336758,0.301755477275259,0.391541216821441,0.39089468837858,0.292386202590795,0.292009060999126,0.412671921428956,0.410611112017335,0.604098217886117,0.633029467747986,0.297949939024084,0.297438104006819,0.297192961972234,0.346974754116378,0.366325709593683,0.365960241432232,0.366033873838225,0.294684970387635,0.29383729976255,0.294918438992002,0.293858850710646,0.293376648247012,0.293954034064734,0.326522904373868,0.29153763400954,0.338268171085847,0.279882162914625,0.280402977493596,0.305221588093932,0.305846565588698,0.384046874621275,0.302987473141378,0.292543344920657,0.293549953787945,0.303834245810292,0.303576532389318,0.307537417058014,0.310432427752159,0.309547042967908,0.309343206917172,0.309287533634592,0.401708774541605,0.407124348206738,0.314281067899525,0.315228411659551,0.316332897749438,0.306321584402966,0.303489430640766,0.305254812472246,0.305199139189666,0.3066906443891,0.306448196223027,0.298723079287006,0.296044476029985,0.301541763706647,0.301187071019244,0.303293676195566,0.263112831427912,0.263072423400233
0.304204203752596,0.303416696190944,0.303790245957931,0.304892038179307,0.304243713824104,0.303237104956816,0.302845596066417,0.398227398468031,0.325309765587332,0.325744376373923,0.32551719346275,0.552758471785912,0.303208370359356,0.301043398031941,0.301664783702024,0.300731807240729,0.301309193058451,0.299578831517626,0.300696786950074,0.298438427180913,0.296488964334452,0.295432069921608,0.294868153446446,0.294441624265391,0.294891500306882,0.294980397967776,0.294239584126997,0.293833707937868,0.292474202295518,0.292079101580436,0.295285703065794,0.294108482526084,0.301593845164544,0.301857844278712,0.300826092638646,0.300558501699795,0.300459726521025,0.304091959231266,0.303606164942949,0.303039554599275,0.302886004094096,0.302012292740062,0.301860538147224,0.302153271858853,0.302754902493182,0.30207874149669,0.299809606253481,0.300140054124277,0.298692548777204,0.298035244860295,0.298600059291628,0.298959241759884,0.296140557340243,0.295870272532881,0.294303339015113,0.295094438401447,0.294853786147716,0.296201618359847,0.294752317100433,0.293839993631062,0.297137288689654,0.297694919471622,0.297342920652731,0.29743989991916,0.297097778618146,0.297273778027592,0.291642694881505,0.291144329206799,0.455021330348707,0.298618018415041,0.30039776754525,0.303701348297037,0.300477685644437,0.301096377446009,0.31447053665153,0.314313394321668,0.319225214575072,0.320475169564604,0.319130929177155,0.315410696762191,0.315454696614552,0.315418778367726,0.31507306524203,0.316161388120846,0.315915348130091,0.612070272769064,0.415496891541791,0.450641100148322,0.741073350111804,0.673905330591717,0.381266802316972,0.467955491030614,0.319332071359378,0.31874570597995,0.3173862003376,0.28971568093931,0.290055108371812,0.2903460461711,0.287587524814892,0.283581742337664,0.293027343296633,0.293778034655288,0.293637055536497,0.292916894687644,0.297460552911085,0.725252260341287,0.316402040374578,0.343845376861696,0.406640349830763,0.702159521500923,0.349524949640997,0.353193100598064,0.350606088870449,0.350488456612095,0.350739884339874,0.357773575024502,0.357329984676205,0.35678941506148,0.372481199143424,0.372841279567851,0.372034914926616,0.48541535081255,0.497422820726356,0.369584392536937,0.470365605392614,0.362788660237529,0.361918540708179,0.362008336325243,0.361201971684008,0.35995830238767,0.359545242549176,0.366292485215369,0.381672678506101,0.382097411774814,0.50154892933045,0.612080150286941,0.400219065254512,0.386802702108971,0.398512050574124,0.387517475220801,0.316377795557971,0.319267418515092,0.316852814372239,0.315619022593779,0.310423448190453,0.391723501924081,0.30086021497313,0.391677706159379,0.293778932611459,0.293082118623042,0.414536976395376,0.411792822337899,0.586361787603624,0.297774837570809,0.298239080911031,0.298484222945615,0.297291737151005,0.347070835426637,0.271023825291255,0.367223665764323,0.272465044945134,0.281433831177492,0.364511838128989,0.357637085686564,0.28494932958555,0.289778537871255,0.289378049419149,0.295720313852384,0.328591795391024,0.395789447464742,0.349284297387266,0.296847248846538,0.307652355447856,0.308562883004885,0.308283618635816,0.307234805828508,0.559247103074961,0.478010804229448,0.307650559535515,0.30966287931392,0.308104925357859,0.308868188102903,0.309486879904475,0.308960677588479,0.308910392042923,0.301684538737778,0.29986438157989,0.316038368125468,0.317237139613274,0.317168894944305,0.315947674552234,0.305404771152742,0.305129996564526,0.30586362675594,0.305566403263458,0.305734321067368,0.295361131384127,0.295591008163811,0.301768048661648,0.412942206236319,0.306174319590981,0.28030959005185,0.257139626980811
0.306118646308402,0.305718157856296,0.304660365487281,0.304665753224305,0.301151152772418,0.300327726963941,0.302221516527822,0.306847786718962,0.310700916647181,0.309274064292033,0.306085421930088,0.305052772333851,0.304537345491904,0.303413104366262,0.303014411826497,0.300489359074656,0.300614174982375,0.299770096181973,0.299548301007825,0.297300716712711,0.296833779503978,0.296053455591691,0.294741541626385,0.29450986893436,0.2944811343369,0.294377869377276,0.293453872477687,0.293252730295463,0.292298202886072,0.297619491153289,0.29729892080037,0.296080394276811,0.295438355614803,0.301369356121884,0.300879072052714,0.301154744597101,0.300616868850887,0.299146914599548,0.303145513427411,0.303552287572711,0.304230244481545,0.301642334797758,0.301556131005377,0.301583069690496,0.301807558733156,0.30120951992351,0.300422012361858,0.299841034719453,0.299673116915544,0.299181036934032,0.29937319955455,0.2983225908349,0.298265121639979,0.297272880071421,0.295876558226075,0.294336563393427,0.293788810129336,0.292894445783378,0.294006115522631,0.289592660943932,0.295200397229583,0.296436882876555,0.296586841557052,0.297637450276701,0.296088475882346,0.292303590623096,0.292175182890695,0.290961146147989,0.29999009544378,0.301372947946566,0.30078927643565,0.300427400098882,0.300030503471458,0.301394498894662,0.300937439203806,0.314719270510797,0.314324169795715,0.316827671599461,0.314651923797999,0.315387349901754,0.316312244757514,0.316078776153147,0.31412033374498,0.316527754238467,0.316022204914397,0.312354951913501,0.309551532748761,0.309729328070548,0.309043289556178,0.465121541356073,0.465499580903912,0.465845294029609,0.319450601573903,0.318786114007629,0.318000402358318,0.317179670418353,0.509500331221472,0.288412746535711,0.533806208848371,0.294497297547971,0.294686766299976,0.295323417224961,0.294304236971283,0.294605950244619,0.294778357829382,0.29546349838758,0.295727497501749,0.649110964807989,0.649889492807934,0.351796778752718,0.35292101987836,0.352860856814927,0.352757591855303,0.351628860948808,0.351522902120673,0.351127801405591,0.358032186401646,0.357372188616225,0.377868038211097,0.372519811258762,0.473889185406208,0.472989433323226,0.472122905618557,0.498888285196842,0.484679924708795,0.363116414239813,0.362080172818894,0.361305236643631,0.360324668505292,0.360046302092393,0.361104992417578,0.360656014332258,0.371457529108894,0.372376138271459,0.481936668607488,0.47963969672299,0.402629179616511,0.396449445250163,0.383417407345656,0.45545953295998,0.370034268578428,0.371759242382229,0.318682849048005,0.36142915459518,0.270221950430873,0.270376398892224,0.268388323930425,0.268396405535961,0.270226440211727,0.383583529237224,0.412690778508539,0.363495351743824,0.466209864234889,0.466043742343321,0.27962265358131,0.284126801733243,0.284342311214197,0.283607783066613,0.274895812299058,0.27278202347337,0.27185712861761,0.386009806810295,0.284280352238423,0.365935098659454,0.375325026335843,0.374532131037167,0.373856867996845,0.461153473038012,0.313507029680433,0.314255027170576,0.314579189348177,0.314657311535023,0.313971273020654,0.3131532349492,0.312434870012688,0.310942466857083,0.316105714838266,0.316425387235014,0.341059916820368,0.309318064144394,0.30935488034739,0.30791006886883,0.294931908334561,0.295792150346035,0.295931333552484,0.299330097658359,0.301048785768965,0.316000653966301,0.31618024520043,0.316005143747155,0.316772896273052,0.314943759553457,0.306151870686715,0.304444856006328,0.304807630299266,0.305930973468738,0.305111139484943,0.311272016771708,0.553780345908101,0.304484366077836,0.44010987017905,0.311380669468356,0.571410817362458
0.306174319590981,0.306123136089255,0.30485432402014,0.305157833205816,0.304886650442283,0.306294645717847,0.305949830548321,0.306870235623228,0.307267132250651,0.307215050792754,0.308534148407425,0.307324601445572,0.30657839986777,0.305587056255382,0.302343638567029,0.300334910613306,0.300594419946621,0.299823075596041,0.298586589949068,0.297351900214438,0.297600634073705,0.297617695240947,0.297164227374774,0.295241703213432,0.294223420915926,0.293743014364633,0.294048319462651,0.290307434055762,0.289079030014326,0.288545644048965,0.289151764464148,0.296016639388695,0.295233621607897,0.295054030373768,0.295215662484484,0.300321441270746,0.301583069690496,0.301092785621326,0.299736871803659,0.298723079287006,0.300701276730927,0.300552216006601,0.300187645801321,0.30062135863174,0.298135815951407,0.299447729916713,0.299300465104728,0.298668303960597,0.298515651411588,0.29874283432276,0.298194183102499,0.297866429100215,0.298313611273194,0.297499165026423,0.297163329418603,0.29244905952274,0.29355623948114,0.291305961317515,0.289667191306095,0.290912656514774,0.290756412141082,0.295451824957362,0.297135492777313,0.297108554092194,0.29648627046594,0.294087829534159,0.293822034507649,0.29253256944661,0.292361059818017,0.29784577610829,0.297612307503923,0.296224067264113,0.296090271794688,0.300618664763228,0.301277764592478,0.301363070428689,0.318750195760803,0.318747501892291,0.304113510179361,0.304007551351226,0.303385267724972,0.313841069375911,0.315867756453047,0.318540971973044,0.317546934492144,0.312633318326399,0.311002629920516,0.308341087830737,0.308053741856132,0.307945987115655,0.621453016796088,0.469174017554174,0.471376704040755,0.318256319866951,0.363305882991818,0.363252903577751,0.510182777911159,0.306486808338364,0.306616114026937,0.459127683917047,0.294772970092358,0.295207580878948,0.294489215942435,0.296792473520128,0.297000799351717,0.296677535130287,0.295635905972343,0.637908961579247,0.638406429297782,0.352614816824172,0.353624119559972,0.35349571182757,0.352882407763022,0.352516041645401,0.352361593184051,0.351627962992638,0.354629830471089,0.359097162420026,0.35920132533582,0.346661367412824,0.346693693834968,0.347108549585804,0.341571751837634,0.341433466587355,0.341604976215947,0.341745955334738,0.344737047339142,0.345317127025375,0.338957801424899,0.339279269733988,0.338789883620989,0.337817397088185,0.337745560594534,0.591794422436,0.353085345857587,0.344209049110805,0.401818325194423,0.383982221776989,0.38366165142407,0.383853814044587,0.382679287373389,0.382660430293806,0.381549658510723,0.269139015289081,0.270280317581965,0.2705820308553,0.270691581508118,0.271171090103241,0.269878931173689,0.270274031888771,0.337166378864471,0.338434292977415,0.320639495543831,0.467559492359362,0.468109041535794,0.285282471324857,0.28445904551638,0.284255209465645,0.283663456349192,0.353879139112434,0.314482210081748,0.282718806457679,0.282589500769106,0.28245480734351,0.452396604461925,0.374287886958753,0.429619048237456,0.313832987770375,0.315170044508459,0.31588661353263,0.316358938478387,0.316187428849795,0.31561992054995,0.31489078013939,0.314580985260519,0.316413713804796,0.317886361924647,0.317915096522107,0.31780734178163,0.317640321933891,0.307850803761567,0.360641647033528,0.360099281506461,0.297015166650447,0.297302512625052,0.297766755965274,0.296859820232927,0.296265373247962,0.315298452240861,0.314528903802621,0.314220904836092,0.313898538570832,0.313810538866109,0.302932697814969,0.305156935249646,0.304567876001705,0.577026635253645,0.555631931531962,0.555507115624243,0.556315276177819,0.308143537473196,0.30905945276725,0.272430024654479
0,0,0,0,0,0,0,0,0,0,0,0,0,0,0,0,0,0,0,0,0,0,0,0,0,0,0,0,0,0,0,0,0,0,0,0,0,0,0,0,0,0,0,0,0,0,0,0,0,0,0,0,0,0,0,0,0,0,0,0,0,0,0,0,0,0,0,0,0,0,0,0,0,0,0,0,0,0,0,0,0,0,0,0,0,0,0,0,0,0,0,0,0,0,0,0,0,0,0,0,0,0,0,0,0,0,0,0,0,0,0,0,0,0,0,0,0,0,0,0,0,0,0,0,0,0,0,0,0,0,0,0,0,0,0,0,0,0,0,0,0,0,0,0,0,0,0,0,0,0,0,0,0,0,0,0,0,0,0,0,0,0,0,0,0,0,0,0,0,0,0,0,0,0,0,0,0,0,0,0,0,0,0,0,0,0,0,0,0,0,0,0,0,0,0,0,0,0,0,0,0,0,0
0.303419390059456,0.310496182640275,0.309827205293147,0.30953716545003,0.303267635466618,0.307497009030335,0.306722072855072,0.306049503683262,0.30597587127727,0.305368852905917,0.307819375295595,0.308803535258617,0.308138149736172,0.306246156084633,0.302315801925739,0.30301890160735,0.298755405709149,0.298979894751809,0.299239404085124,0.29794455128706,0.2977200622444,0.29675296344862,0.296345291347149,0.293011180085561,0.290872248487095,0.291134451688922,0.290357719601318,0.288973969142361,0.289686048385679,0.289582783426055,0.290927921769675,0.289397804454903,0.296489862290623,0.2964997398085,0.296382107550146,0.29546349838758,0.299751239102389,0.298575814475021,0.298072959019462,0.29877067096405,0.301362172472519,0.300403155282274,0.299649770055107,0.299271730507267,0.299150506424231,0.298529120754147,0.2989251194254,0.299059812850996,0.29779010282571,0.298656630530378,0.29861712045887,0.29872846702403,0.297687735822257,0.297133696864972,0.29696308519255,0.295614355024248,0.291392165109896,0.290897391259873,0.290652249225288,0.289880006918537,0.289450783868971,0.291223349349816,0.292142856468552,0.291175757672772,0.289806374512545,0.291612164371703,0.294760398705969,0.293408076712984,0.291099431398267,0.291104819135291,0.298411488495794,0.297597042249023,0.297589858599657,0.300406747106957,0.301325356269522,0.302159557552047,0.303484940859913,0.304177265067477,0.30531766940419,0.304351468564581,0.304637916583015,0.308537740232108,0.314030538127916,0.314126619438175,0.313552825445135,0.313837477551228,0.312152911775107,0.309823613468465,0.309300105020981,0.308174965939169,0.308104027401688,0.309243533782231,0.303783062308566,0.303323308749198,0.304003061570372,0.308899616568876,0.527109251727734,0.308017823609307,0.30793880346629,0.307211458968071,0.29443982835305,0.294214441354219,0.292526283753415,0.29013592442717,0.296840065197172,0.296841861109514,0.295740966844308,0.467883654536963,0.710656880743695,0.709197701966404,0.352952448344332,0.353169753737627,0.354265260265809,0.359351284016317,0.351081107684717,0.356946557391342,0.356484109963462,0.359412345035921,0.360137893621798,0.347765853502712,0.348508463255832,0.348255239615712,0.345319820893887,0.343300317466117,0.342653789023256,0.34330480724697,0.346484470047208,0.346787979232885,0.346453939537406,0.341129957401678,0.340859672594316,0.333225249231529,0.338086783939377,0.343572398185821,0.342089872548093,0.350795557622454,0.31311103100918,0.383862793606294,0.383983119733159,0.316470285043547,0.315196085237407,0.313897640614661,0.288499848284263,0.269098607261402,0.267246123681371,0.272334841300391,0.269932808543927,0.270688887639606,0.26989509438476,0.269158770324835,0.246606601099196,0.247475822672377,0.266720819321546,0.266343677729877,0.266893226906309,0.284494963763206,0.284552432958127,0.28626752924405,0.285928101811548,0.285920918162183,0.282013012907555,0.282738561493433,0.282722398282361,0.630729801994976,0.379102727945728,0.450446243659294,0.449135227650158,0.31539543150729,0.316218857315767,0.317202119322619,0.317352078003116,0.317283833334147,0.316723508683667,0.315542696319275,0.315371186690682,0.318249136217585,0.318581380000723,0.319174031073345,0.318758277366339,0.318448482487468,0.317520893763196,0.298189693321645,0.360788013889342,0.360390219305748,0.295758925967721,0.296568882433639,0.296160312375998,0.29700528913257,0.314720168466968,0.314688740000996,0.315049718381593,0.3149608207207,0.314842290506175,0.446608378985976,0.300610583157692,0.294653541921663,0.295089050664423,0.556542459088991,0.556173399102858,0.55584025736355,0.554440343693522,0.564356473685906,0.264654622172902
0.302449597395164,0.312733889417511,0.31158270960675,0.310002306746422,0.309529083844495,0.307180928458269,0.307242887434044,0.307414397062636,0.305940850986615,0.305046486640657,0.305928279600226,0.302064374197959,0.300928459642099,0.296997207527035,0.296280638502863,0.296070516758934,0.299687484214274,0.299217853137029,0.297478512034498,0.297302512625052,0.296929860814237,0.293042608551533,0.290102700048856,0.288683031343073,0.289415763578316,0.290587596381002,0.288236747126265,0.288396583324639,0.28630973318407,0.288956010018948,0.29110392117912,0.286972424838003,0.295696966991947,0.296919085340189,0.295578436777422,0.287519280145923,0.28733250526243,0.299184628758715,0.298767977095538,0.297406675540847,0.299396546414986,0.29800022456964,0.297107656136023,0.297423736708089,0.297630266627336,0.297200145621599,0.298093612011387,0.298465365866032,0.298274999157856,0.299518668454193,0.298432141487718,0.298274999157856,0.298623406152065,0.299282505981315,0.299215159268517,0.299220547005541,0.28901437717004,0.288379522157397,0.286096917571628,0.288746786231189,0.281942074370074,0.291904898083332,0.292236243910298,0.291462205691206,0.290638779882729,0.294262033031263,0.293634361667986,0.292803752210143,0.293408974669155,0.291712735462815,0.296596719074929,0.297400389847652,0.297113043873047,0.303776776615371,0.302782739134472,0.304407141847161,0.303263145685765,0.303636695452751,0.304869589275041,0.30405514302827,0.303246084518522,0.302671392569313,0.399336374338772,0.312220258487905,0.313525886760016,0.313979354626189,0.312213074838539,0.310173816375015,0.308931942991019,0.307846313980714,0.307066888024598,0.311799117043874,0.306988765837752,0.305968687627905,0.306040524121556,0.303717511508109,0.303599879249755,0.307903783175635,0.308568270741909,0.307733171503214,0.300192135582174,0.296087577926176,0.296075006539787,0.291069798844636,0.295703252685142,0.474301347288532,0.474239388312757,0.708049216024155,0.845846876102148,0.712310916010015,0.489650112113291,0.36100980906349,0.361977805815441,0.361886214286036,0.361773969764706,0.358518878646133,0.355992927938122,0.359577568971319,0.36138695065516,0.361605154004625,0.348686258577619,0.351526493945355,0.350520783034238,0.344618517124617,0.349207073156591,0.349624622775938,0.349425276506056,0.347964301816424,0.346740387555841,0.334072021900443,0.33417887868475,0.333152514781707,0.332464680354997,0.331089909457746,0.337741070813681,0.316336489574121,0.315822858644515,0.314061966593888,0.314114946007956,0.319186602459734,0.382193493085073,0.352699224704212,0.35306110104098,0.480276347647974,0.268965709748147,0.26979721716216,0.270298276705378,0.271448558559968,0.271329130389273,0.247541373472833,0.248452798986034,0.249696468282371,0.262698873633247,0.268878607999595,0.269448810167952,0.268914526246421,0.285898469257917,0.287575851384674,0.286723690978736,0.28670214003064,0.284337821433344,0.283997496044671,0.282149502245492,0.281590973507354,0.45229154358996,0.452953337287722,0.45487137166821,0.31561992054995,0.316472978912058,0.317308078150754,0.317509220332978,0.316961467068887,0.316156000383822,0.314797392697643,0.314723760291651,0.31797525958554,0.318708889776953,0.319191092240587,0.319002521444753,0.3186065227735,0.318282360595899,0.360435117114281,0.294321298138526,0.361509970650537,0.290867758706242,0.291377797811166,0.29536472320881,0.295978027273358,0.296126190041513,0.314151762210952,0.313842865288252,0.313732416679263,0.313453152310194,0.298442916961766,0.297203737446282,0.296894840523582,0.295528151231867,0.575801823036891,0.554917158420132,0.553104184911609,0.553369081981947,0.304594814686825,0.265525639658423
0.312178054547884,0.312477971908878,0.313928171124463,0.310182795936721,0.310403693154699,0.316089551627195,0.3074063154571,0.307137826562079,0.307282397505552,0.306371869948522,0.306166237985446,0.304044367554222,0.303280206853007,0.298853282931749,0.298599161335457,0.297370757294021,0.29877067096405,0.29809810179224,0.297223492482036,0.294114768219278,0.292133876906845,0.293604729114354,0.291849224800752,0.290891105566679,0.290872248487095,0.290845309801976,0.28928107015272,0.28817389019432,0.287155607896814,0.286395039020281,0.286226223260201,0.288346297779083,0.291097635485926,0.289874619181513,0.289157152201172,0.28837054259569,0.287403443799911,0.297388716417434,0.297255818904179,0.298160060768014,0.294816071988549,0.297252227079497,0.296281536459034,0.296718841114136,0.29676643279118,0.297010676869594,0.297639246189043,0.297885286179798,0.297920306470453,0.298044224422002,0.299721606548758,0.299026588472682,0.298794915780657,0.299146914599548,0.300676133958149,0.298906262345816,0.288507929889798,0.288168502457296,0.287344178692648,0.285444103435573,0.283157907025122,0.280936363458957,0.280393099975719,0.291420899707357,0.288949724325754,0.291041064247176,0.290531923098422,0.289484008247285,0.293690932906736,0.29260350798409,0.297471328385133,0.299143322774866,0.297795490562734,0.296999901395546,0.303377186119436,0.304348774696069,0.305170404592205,0.301219397441387,0.30311588087378,0.300611481113863,0.300037687120824,0.298011897999858,0.299497117506098,0.405240436160734,0.404553499690194,0.31290090926525,0.309890062225092,0.309556022529614,0.309128595392389,0.308869984015245,0.307479049906922,0.312113401703598,0.31068565139228,0.304662161399623,0.306611624246083,0.300360951342254,0.303598083337414,0.302419964841533,0.306972602626681,0.301764456836965,0.299899401870545,0.296835575416319,0.294771174180017,0.482021974443699,0.635412643424867,0.479013821272053,0.456290142417822,0.406688839463977,0.409500340234253,0.713057117587817,0.713277116849624,0.361969724209905,0.361795520712801,0.362134050189133,0.362064907563993,0.362529150904214,0.365045224094349,0.36276172155241,0.484004661668474,0.472440782102964,0.354055138521879,0.350199314725148,0.345741860294088,0.349987397068877,0.350483068875071,0.350090662028501,0.350559395149575,0.350057437650187,0.346870591200584,0.334273164082667,0.334916100700845,0.331602642431182,0.331641254546519,0.320710434081311,0.320636801675319,0.313451356397853,0.314040415645793,0.315993470316936,0.31562081850612,0.309963694631085,0.310822140730217,0.310647937233113,0.478004518536253,0.279222165129204,0.278632207925093,0.483548499933788,0.27555850395299,0.272609615888607,0.269507177319044,0.372975972993447,0.249474673108223,0.251067647354939,0.249852712656062,0.265018294422011,0.26432956203913,0.264405888313634,0.269351830901523,0.285449491172597,0.286558467043338,0.285269001982298,0.281006404040267,0.282591296681448,0.280432610047228,0.433861891143732,0.489879090936804,0.488504320039554,0.632332653759569,0.315344248005563,0.316044653818663,0.316419999497991,0.316143428997433,0.315848899373463,0.298706018119764,0.297402185759994,0.298185203540792,0.306964521021145,0.318422441758519,0.318540971973044,0.318628073721596,0.318547257666238,0.412780574125603,0.324025688263316,0.289217315264604,0.291295185843467,0.291513389192933,0.292583752948336,0.293072241105164,0.292693303601154,0.295151907596368,0.346310266550104,0.313099357578962,0.312823685034575,0.312925154081857,0.296726024763501,0.2964018625859,0.295362927296469,0.294975010230752,0.294964234756704,0.400689594287928,0.551205905566874,0.289144580814783,0.314448985703434,0.266613064581069
0.312231033961952,0.312952990723147,0.311622219678258,0.312445645486735,0.311885320836256,0.315963837763305,0.316458611613328,0.308230639221748,0.307283295461723,0.306613420158425,0.306220115355684,0.304379305205871,0.30299016700989,0.301772538442501,0.298914343951352,0.298879323660697,0.298485120901786,0.298167244417379,0.295749048449844,0.295679007868534,0.293972891144317,0.292654691485817,0.292311672228632,0.292150040117917,0.291693878383231,0.290693555209138,0.290143108076535,0.289630375103099,0.287454627301637,0.287928748159735,0.286937404547348,0.286398630844964,0.290418780620922,0.290830942503246,0.290537310835446,0.289414865622145,0.287875768745667,0.286165162240597,0.297108554092194,0.296533862142984,0.295062111979304,0.294385950982812,0.29261787528282,0.293698116556101,0.29620521018453,0.296845452934196,0.296863412057609,0.297287247370151,0.298191489233987,0.300105931789792,0.299988299531438,0.299871565229255,0.300423808274199,0.29794365333089,0.299299567148557,0.297543164878784,0.297276471896104,0.286335773913019,0.284494963763206,0.284846962582097,0.284452759823186,0.282027380206285,0.282036359767992,0.28628099858661,0.289456171605995,0.289906047647486,0.291042860159517,0.290903676953068,0.291402940583944,0.292157223767282,0.297980469533886,0.298584794036727,0.297572797432415,0.300582746516402,0.343455663883638,0.279045267763588,0.297427328532771,0.297476716122157,0.298194183102499,0.295221050221507,0.297210023139476,0.294770276223846,0.298327080615753,0.407058797406281,0.585876891271478,0.641616622607822,0.640706993006963,0.307290479111088,0.306762480882751,0.307858885367103,0.307558070049939,0.302617515199074,0.302894085699631,0.30650835928646,0.30471424285752,0.295482355467164,0.295944802895044,0.297430022401283,0.297329451310172,0.297755082535055,0.297885286179798,0.297420144883406,0.297426430576601,0.295713130203019,0.296078598364469,0.48992847852619,0.459035194431471,0.354986319070833,0.717158981375303,0.389421142302559,0.714408541624631,0.36243845733098,0.362464498059928,0.362839843739256,0.362629721995326,0.362548905939968,0.366393056306481,0.44676821518435,0.475298976594113,0.359863119033582,0.357860676773054,0.353150896658044,0.350515395297214,0.349132542794427,0.349911968750543,0.347948138605352,0.34941629694435,0.348247158010176,0.347380630305508,0.318343421615503,0.3808438649606,0.380798069195897,0.373336053417874,0.322266592125032,0.321699083825187,0.31972717207446,0.314785719267425,0.314954535027505,0.311752423323001,0.310282469071662,0.311024180868611,0.311124751959723,0.333399452728634,0.334015450661693,0.278838737844341,0.277146988418854,0.278323311002393,0.276897356603416,0.3171904458924,0.315771675142788,0.250643812042397,0.249955977615686,0.250913198893589,0.265029069896059,0.26885795500767,0.276214909913729,0.276025441161724,0.282529337705673,0.284490473982352,0.281625993798009,0.280888771781913,0.281326076437015,0.620313510415545,0.281244362425487,0.607539185932012,0.440983581533083,0.444054591636674,0.44957253230526,0.455701981126053,0.314774045837206,0.438629140453663,0.302728861764233,0.300421114405687,0.299313036491117,0.299914667125446,0.51490872123724,0.309933164121283,0.318104565274112,0.31791868834679,0.317347588222262,0.323074752678608,0.322958916332595,0.28878988812738,0.292059346544682,0.292551426526193,0.293830116113185,0.294164155808664,0.293069547236653,0.295921456034607,0.29603819033679,0.296124394129172,0.30373277676301,0.496435068938651,0.297320471748465,0.296603902724294,0.296091169750858,0.294198278143148,0.284665575435627,0.281590075551183,0.661093291949017,0.28867764360605,0.546863389525656,0.329993504973394
0,0,0,0,0,0,0,0,0,0,0,0,0,0,0,0,0,0,0,0,0,0,0,0,0,0,0,0,0,0,0,0,0,0,0,0,0,0,0,0,0,0,0,0,0,0,0,0,0,0,0,0,0,0,0,0,0,0,0,0,0,0,0,0,0,0,0,0,0,0,0,0,0,0,0,0,0,0,0,0,0,0,0,0,0,0,0,0,0,0,0,0,0,0,0,0,0,0,0,0,0,0,0,0,0,0,0,0,0,0,0,0,0,0,0,0,0,0,0,0,0,0,0,0,0,0,0,0,0,0,0,0,0,0,0,0,0,0,0,0,0,0,0,0,0,0,0,0,0,0,0,0,0,0,0,0,0,0,0,0,0,0,0,0,0,0,0,0,0,0,0,0,0,0,0,0,0,0,0,0,0,0,0,0,0,0,0,0,0,0,0,0,0,0,0,0,0,0,0,0,0,0,0
0.313402866764638,0.312668338617054,0.313133479913446,0.313092173929597,0.316616651899361,0.317902525135718,0.316598692775948,0.315686369306577,0.306835215332573,0.306687950520588,0.306203054188442,0.305610403115819,0.303239798825328,0.302657025270582,0.302327475355957,0.298951160154349,0.298582998124386,0.298239080911031,0.296641616883461,0.294964234756704,0.294856480016227,0.293793299910189,0.292475100251689,0.29162204188958,0.291358042775412,0.288675847693708,0.28973004823804,0.288462134125096,0.28814515559686,0.287307362489652,0.287055036805702,0.282089339182059,0.280804363901873,0.291274532851542,0.289002703739821,0.286184917276351,0.286181325451669,0.285583286642022,0.285392919933846,0.293606525026696,0.289202050009704,0.290100006180344,0.286895200607328,0.293658606484593,0.287863197359279,0.287250791250902,0.295372804814346,0.297040309423225,0.297629368671166,0.297518022106006,0.298472549515397,0.30046691017039,0.300013442304216,0.296295903757764,0.294737051845532,0.298230999305495,0.295095336357618,0.293699014512272,0.285146879943091,0.284738309885449,0.284478800552134,0.282746643098968,0.283655374743657,0.287336097087112,0.283455130517604,0.285304022272953,0.288806949294622,0.289375355550637,0.288623766235811,0.294297951278089,0.295307254013889,0.293450280653004,0.289708497289945,0.287694381599198,0.287368423509256,0.279558898693194,0.279927958679328,0.279733102190299,0.297945449243231,0.296741290018402,0.296437780832725,0.293758279619534,0.291922857206745,0.391363421499654,0.586311502058068,0.642282008130267,0.642088947553579,0.30611595243989,0.30569570895203,0.304944119637204,0.304030898211662,0.30355138961654,0.304165591637258,0.302493597247526,0.302918330516239,0.29787451070575,0.297153451900726,0.296593127250246,0.29619174084197,0.295089948620594,0.295108805700177,0.294638276666762,0.296400066673559,0.295397049630953,0.295786762609011,0.297590756555828,0.492880060459085,0.357796023928768,0.374329192942602,0.363289719780747,0.713797033472425,0.361119359716309,0.361907765234131,0.362173560260641,0.609882851537384,0.605725314467318,0.455941735423614,0.480216184584541,0.468269775690339,0.475087956894013,0.356935781917294,0.348398912603014,0.351767146199087,0.351086495421741,0.350646496898127,0.349343562494528,0.348943074042422,0.348889196672184,0.44997930645056,0.372024139452568,0.319351826395132,0.317421220628255,0.318962113417074,0.317763341929269,0.317264078298393,0.315859674847511,0.314233476222481,0.313832089814204,0.310768263359979,0.309917898866382,0.310641651539918,0.309986143535351,0.345450922494801,0.334743693116083,0.522555715986415,0.277613027671416,0.282493419458848,0.27740829366451,0.276189767140951,0.290768983527471,0.289577395689031,0.449283390418314,0.447739803760983,0.264264909194844,0.444008795871971,0.276853356751054,0.587151989033788,0.283550313871692,0.282771785871746,0.280993832653878,0.274046345761632,0.273720387671689,0.276154746850296,0.489921294876825,0.620579305442055,0.440008401131767,0.438350774040765,0.442730106284979,0.697188436140257,0.529123367418481,0.525536032516772,0.296465617474015,0.297827816984877,0.292335019089069,0.291732490498569,0.511808078580018,0.310720671682935,0.315762695581082,0.309879286751045,0.312803929998821,0.307778069311746,0.30664933840525,0.323397118943868,0.291461307735035,0.29177559239476,0.29253346740278,0.290392739891973,0.290652249225288,0.29645843382465,0.29641622988463,0.297350104302096,0.304483468121665,0.301900946174903,0.295719415896213,0.29626178142328,0.286134631730795,0.28249611332736,0.281662810001005,0.281900768386225,0.290555269958859,0.657613711787784,0.545529924612255,0.397289932225882
0.364100574202835,0.309948429376184,0.309664675226261,0.316905793786307,0.31413380308754,0.314334945269763,0.315832736162392,0.315912654261579,0.30660713446523,0.306792113436382,0.305817830991237,0.305670566179252,0.303783062308566,0.302692943517408,0.302773759572766,0.299478260426515,0.29927622028812,0.298124142521189,0.295800231951571,0.293563423130505,0.293089302272407,0.292783997174389,0.29134187956434,0.291300573580491,0.289650130138853,0.290929717682016,0.290213148657845,0.287536341313165,0.287844340279695,0.287295689059434,0.286110386914188,0.282532031574185,0.282136032902933,0.283969659403381,0.286250468076808,0.287551606568066,0.286703037986811,0.286053815675438,0.285206145050353,0.284045087721715,0.290562453608224,0.289794701082326,0.288746786231189,0.287283117673045,0.28864980696476,0.297666184874162,0.297219900657353,0.297413859190212,0.298914343951352,0.29898079270798,0.299908381432251,0.297745205017178,0.296549127397885,0.296647004620485,0.292211999093691,0.292641222143257,0.292460732952958,0.29394954428388,0.284407862014654,0.283988516482964,0.282715214632996,0.283476681465699,0.283255784247722,0.284920594988089,0.285652429267161,0.285560837737756,0.286511773322464,0.286113978738871,0.285530307227954,0.293558035393481,0.29178995969349,0.291217961612792,0.291320328616245,0.289592660943932,0.284036108160008,0.280314977788874,0.280992934697707,0.27956698029873,0.297093288837293,0.29619174084197,0.293662198309275,0.293679259476518,0.292164407416647,0.291293389931126,0.484042375827641,0.586080727322214,0.58607623754136,0.305729831286514,0.305474811734052,0.304809426211608,0.304949507374228,0.303683389173624,0.303351145390487,0.301647722534782,0.300234339522194,0.298521039148612,0.297462348823426,0.29701875847513,0.296972962710427,0.294643664403786,0.293926197423444,0.29372505524122,0.293932483116638,0.293567912911358,0.293980074793682,0.294546685137356,0.297879000486604,0.368977374165584,0.356662803241419,0.391514278136322,0.392111418989798,0.41625297063747,0.410672173036939,0.514919496711288,0.408675118513434,0.428037747420958,0.494381443176396,0.501277746566916,0.483675111753849,0.490922516007089,0.356828027176817,0.355882479329133,0.352761183679986,0.352507062083695,0.350471395444853,0.348628789382698,0.349539316939728,0.349409113294985,0.348397116690673,0.37309180933946,0.511703915664224,0.371817609533321,0.318695420434394,0.318572400439016,0.31838203373084,0.288560011347696,0.287988013266997,0.287948503195489,0.286993077829928,0.285533001096466,0.309162717726873,0.403401421923262,0.402214323865675,0.509177067000041,0.283107621479566,0.284670963172651,0.28451561675513,0.280091386702384,0.294675092869758,0.293782524436141,0.293464647951734,0.292291917192878,0.292400569889525,0.45259954255649,0.278859390836265,0.27030097057389,0.269582605637377,0.269784645775771,0.278346657862829,0.4599457219885,0.267612489798992,0.268223997951198,0.267995019127685,0.267827101323775,0.609094446019561,0.60844701962053,0.487137630747839,0.430861819577622,0.70124360620687,0.697328517302877,0.297226186350548,0.294568236085452,0.289977884141137,0.288620174411129,0.293425137880226,0.291891428740772,0.514439090159995,0.310536590667953,0.310306713888269,0.308590719646175,0.307866966972639,0.30823243513409,0.307193499844659,0.323499485947321,0.290859677100706,0.290811187467492,0.291236818692375,0.292036897640416,0.297487491596204,0.297098676574317,0.297204635402453,0.298899078696451,0.299726096329611,0.288361563033984,0.287433076353542,0.287576749340844,0.287106220307428,0.282307542531525,0.282084849401206,0.398485111889005,0.286229815084883,0.544725355883361,0.542194915394496
0.45679120196104,0.331842396728743,0.371714344573697,0.316158694252334,0.316058123161222,0.316266448992811,0.316252979650251,0.315553471793322,0.304232040393886,0.304338897178192,0.30549905655066,0.306292849805506,0.305225179918614,0.303212860140209,0.302081435365202,0.29753687918559,0.298732956804883,0.297030431905348,0.295677211956193,0.294536807619479,0.291967755015277,0.292343100694604,0.292013550779979,0.290632494189534,0.290034455379887,0.288920091772122,0.289138295121588,0.28890303060488,0.288366052814837,0.288401073105492,0.2864219777054,0.286862874185185,0.285805979772341,0.285031941553249,0.286895200607328,0.287442953871419,0.287645891965984,0.286287284279804,0.284482392376817,0.283713741894748,0.28332402891669,0.289087111619862,0.287530953576141,0.285693735251011,0.28545487890962,0.298682671259327,0.298890997090916,0.298579406299703,0.298414182364305,0.299272628463438,0.298722181330835,0.298001122525811,0.296522188712766,0.292845956150163,0.294024972602214,0.293479913206635,0.292577467255142,0.291920163338233,0.28736034190372,0.28185138079684,0.28220158370339,0.282430562526903,0.282849908058592,0.283064519583375,0.285529409271784,0.284878391048069,0.28672997667193,0.286543201788437,0.286011611735418,0.288983846660238,0.292150040117917,0.291895918521625,0.291361634600094,0.291651674443211,0.281854074665352,0.283283620889011,0.282956764842898,0.284421331357213,0.289535191749011,0.289906945603656,0.28989796604195,0.289874619181513,0.289837802978517,0.289658211744389,0.641070665256073,0.580425399359519,0.579369402902846,0.303776776615371,0.303863878363923,0.305183873934765,0.304641508407698,0.304541835272757,0.303886327268189,0.303203880578502,0.294394930544518,0.297343818608902,0.29710316635517,0.296851738627391,0.295173458544464,0.294960642932022,0.295004642784383,0.294667909220393,0.294526032145432,0.293576892473065,0.292466120689982,0.294591582945888,0.508517069214621,0.520167152572512,0.348965522946688,0.348266015089759,0.558845716666685,0.432144998945468,0.411759597959585,0.440325379660003,0.420575731642934,0.472727230121399,0.494153362309054,0.524133424978231,0.523494978140906,0.523920609365789,0.374249274843415,0.352130818448196,0.35056568084277,0.350796455578624,0.349899397364154,0.350013437797826,0.350203804506002,0.349877846416059,0.348860462074723,0.521662249596628,0.475103222148913,0.446585032125539,0.318144973301791,0.317837872291432,0.685377618627821,0.506117730326669,0.280150651809646,0.289237070300359,0.288268175592237,0.285641653793114,0.284566800256857,0.284181577059652,0.291941714286328,0.509501229177643,0.509867595295264,0.28335186555798,0.282746643098968,0.282224032607656,0.27597874744085,0.293872320053205,0.303651960707652,0.3046720389175,0.305292526631412,0.305257506340757,0.270486847501212,0.271848149055903,0.271023825291255,0.261576428419946,0.25903072267618,0.259015457421279,0.258710152323261,0.269050117628187,0.270107909997202,0.267482286154249,0.272858349747874,0.367203012772399,0.277027560248158,0.37128332561179,0.432352426820886,0.701927848808898,0.30545775056681,0.294246767776362,0.291048247896541,0.29058490251249,0.289473232773237,0.290505882369474,0.29064057579507,0.512219342506172,0.309758062668008,0.307947783027997,0.432530222142672,0.307501498811188,0.307445825528609,0.29893858876796,0.299423485100105,0.573728442238882,0.291554695176782,0.291731592542398,0.290507678281815,0.297179492629675,0.29725671686035,0.300023319822093,0.297137288689654,0.287768014005191,0.288235849170094,0.28748695372378,0.420306344791742,0.420006427430748,0.267252409374565,0.267375429369943,0.268021957812804,0.391157789536578,0.545963637442675
0.291674123347477,0.434343195651196,0.300392379808227,0.370895408546073,0.31668489656833,0.317713056383713,0.317187752023888,0.315954858201599,0.304416121408867,0.304540039360416,0.304124285653409,0.304535549579562,0.304918078908255,0.304801344606072,0.297836796546584,0.298987078401174,0.298821854465776,0.29729981875654,0.295471579993116,0.29006588384586,0.2934718316011,0.292849547974846,0.292537059227463,0.290773473308325,0.290589392293343,0.290637881926558,0.289697721815897,0.289346620953177,0.288522297188529,0.287768014005191,0.287513892408899,0.285415368838112,0.285360593511703,0.28490712564553,0.292313468140973,0.289237070300359,0.286446222522008,0.28562189875736,0.284575779818563,0.285034635421761,0.284547045221103,0.28486492170551,0.28451471879896,0.285979285313274,0.285434225917696,0.299040057815242,0.351957512907263,0.303706736034061,0.594272781466968,0.302930003946457,0.300977847231484,0.297973285884521,0.296475494991892,0.294602358419936,0.293604729114354,0.293527504883679,0.292286529455854,0.29205665267617,0.282795132732183,0.283092356224665,0.282710724852143,0.282419787052855,0.28169693233549,0.282229420344679,0.279830979412898,0.285652429267161,0.285829326632778,0.287579443209356,0.286370794203674,0.288583358208132,0.294048319462651,0.291757633271347,0.29159330729212,0.292712160680738,0.283601497373418,0.285027451772395,0.285500674674323,0.28485145236295,0.285046308851979,0.291950693848034,0.291829469764998,0.290699840902332,0.290390046023461,0.290584004556319,0.289526212187305,0.582535596360525,0.635267174525223,0.302958738543917,0.303885429312019,0.303465185824159,0.303364614733047,0.304558896439999,0.303216451964891,0.297740715236325,0.295270437810893,0.295454518825874,0.295872068445222,0.295885537787782,0.294520644408408,0.294468562950511,0.294625705280373,0.294152482378445,0.294590684989718,0.29376725918124,0.293123424606891,0.293804075384237,0.293620892325426,0.475279221558359,0.509206699553673,0.00430205413616884,0.707999828434769,0.445730177851089,0.447059152983637,0.447773926095467,0.489182276948387,0.508456906151188,0.570464371558603,0.49047623179028,0.532726865531261,0.531646624257981,0.529353244198165,0.332109089711423,0.331455377619197,0.349372297091988,0.349256460745976,0.349544704676751,0.349937111523321,0.34941629694435,0.495628704297416,0.493754669769289,0.462805712391991,0.676192424958338,0.517216468595787,0.516739653869176,0.5178522215646,0.281438320958345,0.281727462845291,0.281635871315886,0.280636446097963,0.285672184302915,0.284738309885449,0.2844033722338,0.267216491127739,0.267162613757501,0.266492738454203,0.510525797168344,0.282960356667581,0.275730911537753,0.276128706121347,0.275914094596564,0.294765786442993,0.306434726880467,0.306373665860864,0.306337747614038,0.306215625574831,0.270115093646567,0.269155178500152,0.261712917757883,0.260606635755654,0.258305174090302,0.259158232452411,0.26594139336543,0.266003352341204,0.447384213117409,0.263472013896168,0.269654442131029,0.273952060363714,0.432329079960449,0.473270493604636,0.437956571281854,0.297773041658468,0.289378049419149,0.288343603910571,0.291157798549359,0.288864418489543,0.28867764360605,0.293715177723343,0.502926394096212,0.406219208386732,0.406605329540108,0.433530545316766,0.434042380334031,0.431766959397628,0.291580735905731,0.307540110926526,0.291572654300195,0.289210131615239,0.290406209234533,0.292032407859563,0.296862514101438,0.296602106811953,0.293955829977075,0.293118036869867,0.574355215645989,0.801292984783474,0.421661360653239,0.421805931596712,0.421391973802046,0.268901954860032,0.269309626961503,0.269102199086085,0.268584078375625,0.386349234242797
0,0,0,0,0,0,0,0,0,0,0,0,0,0,0,0,0,0,0,0,0,0,0,0,0,0,0,0,0,0,0,0,0,0,0,0,0,0,0,0,0,0,0,0,0,0,0,0,0,0,0,0,0,0,0,0,0,0,0,0,0,0,0,0,0,0,0,0,0,0,0,0,0,0,0,0,0,0,0,0,0,0,0,0,0,0,0,0,0,0,0,0,0,0,0,0,0,0,0,0,0,0,0,0,0,0,0,0,0,0,0,0,0,0,0,0,0,0,0,0,0,0,0,0,0,0,0,0,0,0,0,0,0,0,0,0,0,0,0,0,0,0,0,0,0,0,0,0,0,0,0,0,0,0,0,0,0,0,0,0,0,0,0,0,0,0,0,0,0,0,0,0,0,0,0,0,0,0,0,0,0,0,0,0,0,0,0,0,0,0,0,0,0,0,0,0,0,0,0,0,0,0,0
0.291473879121424,0.291017717386739,0.372311485427173,0.520273111400647,0.317279343553294,0.317748076674368,0.317025221957002,0.304346080827557,0.304733997893274,0.306066564850505,0.305146159775598,0.303921347558844,0.30408387762573,0.30345351239394,0.298891895047086,0.298005612306664,0.299885034571815,0.296463821561674,0.291687592690037,0.292466120689982,0.293534688533044,0.289286457889744,0.289734538018893,0.288842867541447,0.290577718863125,0.289150866507977,0.288796173820574,0.293685545169712,0.288351685516107,0.292097060703849,0.286975118706515,0.287371117377767,0.294203665880172,0.294048319462651,0.293947748371539,0.29400521756646,0.294059992892869,0.294105788657572,0.285560837737756,0.285091206660511,0.284744595578644,0.28373080306199,0.283641007444926,0.285505164455176,0.282283297714918,0.37268593315033,0.372353689367193,0.306315298709772,0.306744521759338,0.306683460739735,0.304548120965951,0.300871888403349,0.296932554682748,0.293928891291956,0.293830116113185,0.293771748962094,0.2914684913844,0.290324495223004,0.284664677479457,0.284062148888957,0.28244044004478,0.280851057622746,0.279375715634384,0.281246158337828,0.28123448490761,0.279287715929661,0.285105573959241,0.288207114572634,0.290518453755863,0.289077234101985,0.289190376579485,0.289563028390301,0.291428981312892,0.284406066102312,0.284139373119632,0.283729007149649,0.285936183417084,0.285861653054921,0.275911400728052,0.291002452131838,0.290811187467492,0.29103298264164,0.290764493746618,0.290681881778919,0.290026373774352,0.289442702263435,0.335475527395155,0.632287755951037,0.471514989291034,0.465283173466788,0.309473410561915,0.295988802747405,0.300363645210766,0.294278196242335,0.294612235937813,0.294194686318465,0.282228522388509,0.281821748243209,0.281313505050626,0.281448198476222,0.29471999067829,0.294917541035831,0.294440726309221,0.29425754325041,0.294176727195052,0.293901054650666,0.293795993778701,0.470942991210336,0.527597739884562,0.527487291275574,0.384470709933817,0.336397728382403,0.429241008689616,0.447046581597248,0.43978840186996,0.508176743825948,0.502996434677522,0.558677798862775,0.533031272673109,0.533381475579659,0.488408238729295,0.52923381602747,0.530322138906286,0.347196549290526,0.347553037890271,0.344810679745134,0.538152316714272,0.523232774939079,0.611280969295071,0.480757652155437,0.490035335310496,0.489263093003745,0.67047513801987,0.516773776203661,0.518501443875973,0.281573014383941,0.281610728543108,0.281325178480844,0.360284260477613,0.283180355929388,0.284855942143803,0.28291725477139,0.661993941988169,0.269314116742356,0.268752894135705,0.267977060004272,0.277066172363496,0.278032373203105,0.277600456285027,0.277453191473042,0.293942360634515,0.295876558226075,0.294966030669046,0.300418420537175,0.268187181748202,0.268854363182988,0.269360810463229,0.258503622404014,0.258616764881514,0.257093831216108,0.258845743705028,0.258506316272526,0.25694297457944,0.256786730205749,0.264536989914548,0.263220586168389,0.368328151854211,0.363006863586995,0.412251677941096,0.594860942758737,0.48670481587359,0.288772826960137,0.290950370673941,0.28984229275937,0.289759680791671,0.288671357912855,0.425901509691003,0.406392513927666,0.405582557461748,0.29099167665779,0.434161808504726,0.434485970682328,0.433376994811586,0.296258189598597,0.294468562950511,0.297853857713826,0.288150543333884,0.288897642867856,0.286784751998339,0.288728827107776,0.291416409926503,0.287504014891022,0.286911363818399,0.375765922815627,0.502106560112417,0.534617961226631,0.420166263629122,0.509513800564032,0.269407504184102,0.269627503445909,0.267867509351454,0.267672652862425,0.531531685868139
0.289307110881669,0.290763595790448,0.288501644196604,0.290592086161855,0.289990455527526,0.300035891208482,0.300713848117316,0.304400856153966,0.306945663941562,0.303151799120605,0.302888697962608,0.304909997302719,0.303906082303943,0.30329906393259,0.299994585224633,0.299066098544191,0.298043326465831,0.295313539707083,0.292856731624211,0.29159330729212,0.290371188943878,0.28887429600742,0.290465474341795,0.289867435532148,0.289806374512545,0.290660330830824,0.286101407352482,0.293973789100488,0.295608069331054,0.295520967582501,0.296183659236434,0.457854382067078,0.299190016495739,0.294906765561783,0.29525247868748,0.295792150346035,0.294653541921663,0.293529300796021,0.291945306111011,0.285248348990373,0.284847860538267,0.284348596907391,0.283510803800184,0.280060856192582,0.279554408912341,0.287475280293562,0.287911686992493,0.308098639664664,0.308465903738456,0.308188435281728,0.306969908758169,0.307180030502099,0.299830259245406,0.291564572694659,0.294194686318465,0.291273634895371,0.290685473603602,0.289762374660183,0.288343603910571,0.283163294762146,0.281743626056363,0.28016950888923,0.276882989304685,0.278951880321841,0.279924366854645,0.280040203200658,0.285092104616682,0.288181971799856,0.288894051043174,0.288937152939365,0.305109343572602,0.304552610746805,0.471027399090376,0.284573085950051,0.284488678070011,0.284154638374533,0.277025764335817,0.27628674640738,0.276378337936785,0.275342096515866,0.27369344898657,0.289593558900103,0.289711191158457,0.289665395393754,0.415954849188818,0.284930472505966,0.284309984792054,0.284303699098859,0.631650207069882,0.630409231642057,0.296188149017287,0.297722756112912,0.297735327499301,0.29420186996783,0.293022853515779,0.279569674167242,0.276878499523832,0.276744704054407,0.282120767648032,0.282170155237417,0.292705874987543,0.291657960136406,0.290976411402889,0.292937547679568,0.294861867753251,0.294095911139695,0.295209376791289,0.524407301610276,0.350190335163442,0.725138219907616,0.726104420747225,0.337573153009771,0.337703356654514,0.437757225011971,0.507163849265465,0.546004045470353,0.508360824840929,0.537329788861965,0.581376334944228,0.461958041766906,0.534382696709923,0.539408557396998,0.538855416395884,0.542297282397949,0.542833362231821,0.623353092053163,0.476043382259574,0.40264085304673,0.42968100721323,0.430614881630696,0.670170730878022,0.672726314139666,0.67276043647415,0.672753252824785,0.503179617736333,0.521694576018771,0.495236297450846,0.257986399649725,0.258522479483597,0.259727536664597,0.283447946868239,0.268259018241853,0.268748404354852,0.269233300686998,0.268883995736619,0.268512241881974,0.487538119199944,0.27785637379366,0.277456783297725,0.276799479380816,0.294890602350712,0.295235417520238,0.296733208412866,0.296227659088796,0.269777462126406,0.271048968064033,0.269962441097558,0.257403626094979,0.260078637527317,0.258535948826157,0.258925661804215,0.258296194528596,0.258227949859627,0.258600601670443,0.258887049688877,0.258406643137584,0.258090562565519,0.264233480728871,0.263128994638983,0.601726715639455,0.703775842608076,0.601492349078918,0.278537024571005,0.277823149415346,0.277278987975938,0.277704619200821,0.279932448460181,0.279962978969983,0.406760675957629,0.405345497032699,0.434264175508179,0.434288420324787,0.716237678344226,0.431688837210782,0.430375127333135,0.309473410561915,0.284709575287989,0.291164982198724,0.284917901119577,0.28542614431216,0.288568092953231,0.287537239269336,0.287620749193206,0.43629714827851,0.394610431012691,0.345369208483273,0.343953131602172,0.346933448132529,0.267718448627127,0.266911186029722,0.264857560267466,0.265671108558067,0.265793230597274
0.283182151841729,0.290123353040781,0.288788092215038,0.289936578157288,0.289392416717879,0.298455488348155,0.298248060472737,0.303506491808008,0.303339471960269,0.304983629708712,0.303604369030608,0.303064697372053,0.303275717072154,0.302984779272866,0.301664783702024,0.297156145769238,0.296497943896158,0.295654763051927,0.294781949654064,0.291363430512436,0.291359838687753,0.288642623315394,0.290330780916199,0.288662378351149,0.285779041087222,0.285633572187578,0.285195369576305,0.286794629516216,0.285557245913073,0.297669776698844,0.299356138387307,0.300539644620212,0.300852133367595,0.295741864800479,0.296267169160304,0.296155822595144,0.294628399148885,0.293678361520347,0.292540651052145,0.291836653414363,0.284645820399873,0.284307290923542,0.282373093331982,0.281563136866064,0.281106077175208,0.281889992912177,0.287567769779138,0.308781984310522,0.309082799627686,0.308702964167505,0.307710722598947,0.315555267705664,0.300985030880849,0.292093468879166,0.292341304782263,0.29244905952274,0.289977884141137,0.289907843559827,0.289955435236871,0.288833887979741,0.278876452003507,0.278323311002393,0.278619636538704,0.27932812395734,0.280572691209847,0.279583143509802,0.28148681059156,0.28765487152769,0.287856911666084,0.29450986893436,0.286143611292502,0.307730477634702,0.378230812504036,0.284763452658227,0.28354762000318,0.282358726033252,0.277794414817886,0.277710006937845,0.276299317793769,0.274904791860764,0.275313361918406,0.275611483367058,0.278899798863944,0.274303161226435,0.274066100797386,0.274680302818104,0.28469790185777,0.284738309885449,0.769028521616187,0.632847182645346,0.772422795941208,0.30753202932099,0.297641042101384,0.297432716269795,0.285135206512872,0.279755551094565,0.279703469636667,0.278903390688627,0.278607963108486,0.277167641410778,0.292509222586173,0.291936326549304,0.293151261248181,0.294898683956248,0.293939666766003,0.641612132826969,0.299614749764452,0.30060699133301,0.527002394943428,0.375302577431577,0.396798750200542,0.337498622647608,0.560823016154435,0.448903554958133,0.562038848809482,0.312176258635543,0.310488101034739,0.309238146045207,0.539975167740673,0.287064914323579,0.287600994157451,0.287629728754912,0.28821519617817,0.530912096110397,0.427154158549047,0.375281924439652,0.375544127641479,0.471701764174527,0.334662877060725,0.33475446859013,0.339350208271469,0.509106128462561,0.669926486799608,0.670238077590821,0.383552100771252,0.494398504343639,0.50303594474903,0.259947535926404,0.261477653241175,0.261131940115479,0.262947607492514,0.267246123681371,0.267389796668673,0.267871101176136,0.269311422873844,0.262558792470627,0.261588999806335,0.654211355857227,0.267037797849782,0.443902837043835,0.289522620362622,0.29006588384586,0.296734106369037,0.29689214665507,0.296147740989609,0.270816397415838,0.270208481088314,0.260249249199739,0.260807777937877,0.259781414034835,0.259568598422393,0.259612598274755,0.259673659294358,0.259431211128285,0.25980206702676,0.259975372567694,0.242037800102977,0.241891433247163,0.267285633752879,0.271780802343105,0.493510425690875,0.702269072153741,0.279203308049621,0.280458650776176,0.27847326968289,0.277532211616058,0.277619313364611,0.281246158337828,0.281224607389733,0.404416112396086,0.403149096239312,0.433750544578573,0.431648429183103,0.431462552255781,0.71456029621747,0.316583427521047,0.314082619585813,0.278555881650589,0.278325106914734,0.278505596105033,0.278679799602137,0.280409263186791,0.280024937945757,0.279346083080752,0.285880510134504,0.284928676593625,0.285357001687021,0.434886459134433,0.265207763174016,0.265900985337751,0.265979107524597,0.266065311316978,0.26637690210819
0.286732670540442,0.290266128071913,0.287761728311996,0.285852673493214,0.519103074510302,0.298314509229364,0.301253519775871,0.304029102299321,0.304650487969404,0.304735793805615,0.305197343277324,0.304593916730654,0.303022493432033,0.299349852694113,0.297923898295136,0.297887082092139,0.298445610830278,0.297283655545469,0.296231250913478,0.672810722019706,0.285291450886564,0.285546470439026,0.286405814494329,0.287762626268167,0.287299280884116,0.286424671573912,0.286455202083714,0.285979285313274,0.285803285903829,0.284987941700887,0.301319070576328,0.302335556961493,0.301512131153016,0.301887476832343,0.295591008163811,0.294815174032378,0.294440726309221,0.294848398410692,0.293860646622987,0.293234771172051,0.284201332095406,0.283493742632941,0.282481746028629,0.281847788972157,0.281366484464694,0.281611626499279,0.283306069793277,0.522639225910285,0.308158802728097,0.2988272422028,0.298447406742619,0.297121125478583,0.434292012149469,0.292576569298971,0.29096294206033,0.28979919086318,0.288554623610672,0.289450783868971,0.289067356584108,0.287840748455012,0.278192209401479,0.278321515090052,0.278422984137334,0.278367310854754,0.277213437175481,0.275522585706165,0.279177267320672,0.282073175970988,0.282687377991706,0.28321088643919,0.282180032755294,0.279044369807417,0.272427330785967,0.273211246522936,0.272352800423803,0.271463823814869,0.271430599436556,0.276508541581528,0.273702428548276,0.274247487943855,0.276126012252835,0.275051158716579,0.277831231020882,0.278050332326518,0.276575888294326,0.275244219293266,0.273191491487182,0.583082451668445,0.511596160923747,0.635120807669408,0.769754070202064,0.314609719857979,0.642143722879988,0.275995808608092,0.276450174430437,0.277052703020936,0.280195549618178,0.280069835754289,0.279414327749721,0.277583395117785,0.277395722278121,0.291287104237931,0.292490365506589,0.295096234313788,0.297849367932973,0.531130299459863,0.533764902864522,0.530982136691707,0.530956993918929,0.531226380770121,0.406071045618577,0.433495525026111,0.324598584300185,0.49114880096209,0.511054693352851,0.312187034109591,0.310872426275773,0.309852348065925,0.539965290222795,0.487618935255302,0.28873511280097,0.288520501276187,0.534476084151669,0.462002041619267,0.546808614199247,0.539687821766068,0.37763367165056,0.334172592991555,0.337498622647608,0.335724261254422,0.336527034070975,0.542454424727811,0.310058877985173,0.849161232327982,0.365921629316895,0.372259403969276,0.27096007040314,0.261843121402626,0.265634292355071,0.26466629560312,0.264394214883416,0.270615255233614,0.268359589332965,0.264149970805002,0.263633646006883,0.260981981434982,0.262124181684037,0.260163045407358,0.26162491805316,0.446685603216651,0.294396726456859,0.290175434498678,0.291679511084501,0.29061273915378,0.427577993861589,0.27438038545711,0.275154423676202,0.256791219986602,0.257233014422557,0.258956192314017,0.259294721790348,0.25896068209487,0.25880713158969,0.258735295096039,0.258467704157188,0.258522479483597,0.256058487751359,0.254613676272799,0.263821318846547,0.262532751741678,0.5645585138243,0.278699554637891,0.278598085590609,0.278801023685174,0.279389184976943,0.278259556114277,0.27788421043495,0.278691473032355,0.278663636391066,0.276180787579244,0.486070858817118,0.394888797425589,0.397965195266204,0.422983152136422,0.714355562210564,0.398999640774782,0.279260777244542,0.279043471851247,0.279768122480954,0.280340120561652,0.281288362277848,0.281984278310095,0.281896278605372,0.284566800256857,0.28588859174004,0.285942469110278,0.285095696441364,0.284550637045785,0.264654622172902,0.265791434684933,0.265960250445013,0.266395759187774,0.266766615086248
0,0,0,0,0,0,0,0,0,0,0,0,0,0,0,0,0,0,0,0,0,0,0,0,0,0,0,0,0,0,0,0,0,0,0,0,0,0,0,0,0,0,0,0,0,0,0,0,0,0,0,0,0,0,0,0,0,0,0,0,0,0,0,0,0,0,0,0,0,0,0,0,0,0,0,0,0,0,0,0,0,0,0,0,0,0,0,0,0,0,0,0,0,0,0,0,0,0,0,0,0,0,0,0,0,0,0,0,0,0,0,0,0,0,0,0,0,0,0,0,0,0,0,0,0,0,0,0,0,0,0,0,0,0,0,0,0,0,0,0,0,0,0,0,0,0,0,0,0,0,0,0,0,0,0,0,0,0,0,0,0,0,0,0,0,0,0,0,0,0,0,0,0,0,0,0,0,0,0,0,0,0,0,0,0,0,0,0,0,0,0,0,0,0,0,0,0,0,0,0,0,0,0
0.286959853451614,0.287037077682289,0.28831397135694,0.286009815823076,0.285570715255633,0.299287893718339,0.298877527748356,0.304536447535733,0.305130894520697,0.304297591194343,0.305091384449189,0.305082404887482,0.302519637976474,0.297998428657299,0.297619491153289,0.297522511886859,0.298081938581168,0.297430022401283,0.297157043725409,0.292683426083277,0.288084094577256,0.287462708907173,0.287784177216262,0.287597402332769,0.286084346185239,0.28556622547478,0.286031366771172,0.285455776865791,0.286453406171373,0.287451933433125,0.302214332878456,0.303317921012174,0.303959061718011,0.303302655757273,0.302967718105624,0.30228976119679,0.30210747609415,0.291525062623151,0.291599592985314,0.290952166586282,0.290722289806598,0.290773473308325,0.282066890277793,0.282275216109382,0.281692442554636,0.281524524750727,0.281309913225943,0.281541585917969,0.300729113372217,0.300140952080447,0.299312138534946,0.298655732574208,0.508557477242299,0.289703109552921,0.290899187172214,0.28857976638345,0.286391447195599,0.285937081373254,0.285480021682398,0.280675058213301,0.281324280524674,0.279839061018434,0.279414327749721,0.278483147200767,0.276550745521548,0.272984961567935,0.277477436289649,0.275713850370511,0.27599221678341,0.281425749571956,0.281120444473938,0.274225039039589,0.265410701268581,0.266265555543031,0.272467738813645,0.272407575750213,0.272875410915116,0.271894842776777,0.273498592497541,0.272554840562198,0.273564143297998,0.273625204317601,0.278942002803964,0.275243321337096,0.274691976248322,0.274283406190681,0.274130753641672,0.381680760111637,0.334778713406738,0.641810581140681,0.637979900116728,0.666808782975144,0.503144597445678,0.275916788465076,0.277682170296555,0.277663313216972,0.279549021175317,0.279786081604366,0.278867472441801,0.278999471998885,0.278859390836265,0.406077331311771,0.406485003413242,0.387935922796319,0.298530018710318,0.297884388223628,0.532341642334057,0.532347030071081,0.531707685277584,0.320889127359269,0.321905613744434,0.422402174494017,0.508264743530671,0.498650326811622,0.307180928458269,0.306883704965787,0.309004677440841,0.304285917764124,0.287574055472332,0.288775520828649,0.290236495518282,0.289669885174607,0.288658786526466,0.586484807599002,0.674237574374854,0.405629251182621,0.330144361610061,0.329818403520119,0.334289327293738,0.333516187030817,0.332465578311167,0.660964884216615,0.37759236566671,0.365147591097802,0.269973216571606,0.270224644299385,0.270250685028334,0.270127665032956,0.269281790320213,0.265883026214338,0.264815356327446,0.26716081784516,0.269217137475927,0.266407432617992,0.263830298408254,0.261387857624111,0.261714713670224,0.260830226842143,0.261403122879012,0.362209478507466,0.361858377644746,0.290870452574754,0.292011754867638,0.289469640948554,0.45564181806262,0.275428300308248,0.257121667857398,0.257723298491727,0.25883496823098,0.259601822800707,0.259617088055608,0.258553009993399,0.259666475644993,0.259462639594258,0.259616190099437,0.258654479040681,0.25684419940067,0.257689176157243,0.257664931340635,0.256808281153844,0.487722200214926,0.485872410503406,0.278281107062373,0.278184127795944,0.278799227772832,0.278128454513364,0.277039233678377,0.276883887260856,0.389979671040697,0.389285550920792,0.388406451829735,0.399386659884328,0.427973094576671,0.422287236104175,0.422093277571317,0.400346575030743,0.399905678550958,0.27910363491468,0.279923468898474,0.280995628566219,0.28105309776114,0.283188437534924,0.284135781294949,0.284908921557871,0.285512348104541,0.28577634721871,0.285021166079201,0.284529984053861,0.283430885700997,0.26518531426975,0.27566985051815,0.265878536433485,0.273425858047719
0.284512024930448,0.284723044630548,0.287801238383504,0.285420756575136,0.285235777603984,0.285262716289103,0.350310661290308,0.351171801257952,0.303770490922177,0.304126979521921,0.304029102299321,0.301593845164544,0.298964629496908,0.300222666091976,0.298858670668773,0.298478835208592,0.294331175656403,0.294605950244619,0.294289869672553,0.291235022780034,0.286241488515102,0.285583286642022,0.285625490582042,0.28731903591987,0.284883778785093,0.285603939633947,0.285278879500175,0.285427042268331,0.285363287380215,0.286653650397426,0.296476392948063,0.303849511065193,0.304886650442283,0.304900119784842,0.304092857187437,0.303194901016796,0.301512131153016,0.291733388454739,0.292572079518118,0.292229958217104,0.291992897788055,0.29062620849634,0.283026805424208,0.282416195228173,0.282095624875254,0.282531133618015,0.280259304506294,0.280434405959569,0.300084380841697,0.300080789017014,0.299324709921335,0.421059730018909,0.420831649151567,0.608438040058823,0.28144460665154,0.281298239795725,0.28558059277351,0.28555185817605,0.283714639850919,0.281090811920307,0.280921996160227,0.280545752524728,0.279552613,0.277892292040485,0.271962189489575,0.271568884686834,0.27170357811243,0.27718380462185,0.276456460123631,0.275876380437397,0.266349963423071,0.266112005037851,0.264935682454312,0.265807597896004,0.267730122057346,0.267807346288021,0.271865210223146,0.272496473411106,0.271177375796435,0.270407827358196,0.274626425447866,0.273997856128417,0.276462745816826,0.276041604372795,0.27613229794603,0.276011971819164,0.275253198854973,0.274420793484789,0.274741363837707,0.76869717578922,0.638398347692246,0.70251960192535,0.275527075487018,0.277942577586041,0.27579556438204,0.277903965470704,0.27921587943601,0.279545429350635,0.279110818564045,0.278651962960847,0.287670136782591,0.287755442618802,0.289106866655616,0.387750045868997,0.294471256819023,0.447373437643361,0.431194063360759,0.544677764206317,0.321776308055862,0.322921202173429,0.322398591682116,0.322078021329197,0.322074429504514,0.546603880192341,0.307607457639324,0.308492842423575,0.306395216808959,0.304534651623392,0.288702786378827,0.289837802978517,0.290001231001574,0.290498698720109,0.53366433177341,0.603694137609329,0.586697623211444,0.33133415353616,0.331757090892532,0.331805580525746,0.331304520982529,0.331043215736873,0.48412498779534,0.443561613698992,0.471183643464067,0.642605272351698,0.366407423605211,0.27135247724971,0.272264800719081,0.272198351962453,0.269564646513965,0.265101804345881,0.267871101176136,0.267564000165777,0.267801060594826,0.265566945642273,0.260901165379624,0.262412425614812,0.261042144498415,0.261905978334571,0.260603043930971,0.260189086136306,0.456294632198676,0.290888411698167,0.290585800468661,0.279842652843117,0.393326353688675,0.269987583870336,0.269322198347892,0.268990852520925,0.259630557398168,0.256502078099656,0.259806556807613,0.260758390348492,0.260808675894048,0.258364439197564,0.258406643137584,0.257323707995792,0.25646526189666,0.256009998118145,0.258378806496295,0.256744526265729,0.252831233274077,0.253144619977631,0.484163599910677,0.27806739349376,0.275787482776504,0.488644401202174,0.274835649235625,0.499857179904963,0.372126506456021,0.402164038320119,0.393625373093498,0.374672212199787,0.283018723818672,0.426890159434879,0.423978087573491,0.422575480034951,0.314897963788755,0.277398416146633,0.27296520653218,0.27287990069597,0.279644204529405,0.280158733415182,0.283958883929333,0.284723942586719,0.285533899052637,0.28581855115873,0.285410879057259,0.284644024487532,0.284211209613283,0.282823867329643,0.446365032863732,0.278121270863999,0.852337303303538
0.284425821138066,0.284413249751677,0.282734071712579,0.287377403070962,0.28471137120033,0.284749983315668,0.294633786885909,0.350346579537133,0.511623997565037,0.298035244860295,0.296115414567465,0.299477362470344,0.299816789902846,0.299674014871714,0.29865842644272,0.296497045939988,0.295810109469448,0.295356641603274,0.29422880865295,0.285914632468988,0.286853894623478,0.285419858618965,0.284676350909675,0.28465569791775,0.28472484054289,0.283783782476058,0.285721571892301,0.287674626563444,0.290317311573639,0.297598838161364,0.297434512182137,0.304047959378905,0.305051874377681,0.305034813210439,0.303896204786066,0.30329816597642,0.299272628463438,0.633224324237015,0.293174608108618,0.291598695029143,0.291199104533208,0.279464613295277,0.280831302586992,0.280664282739253,0.282184522536147,0.281860360358546,0.281937584589221,0.281412280229396,0.281489504460072,0.422591643246022,0.42010699852186,0.421664952477921,0.421126178775537,0.419610428759496,0.285509654236029,0.280343712386334,0.280274569761195,0.280061754148753,0.284319862309931,0.283006152432283,0.280634650185622,0.28008510100919,0.273561449429486,0.273622510449089,0.27292210463599,0.27365124504655,0.273027165507955,0.27276855413081,0.277063478494984,0.276261603634602,0.267725632276493,0.268127916640939,0.268055182191118,0.267942039713617,0.26890015894769,0.267989631390661,0.273028961420296,0.272764064349957,0.271891250952094,0.271202518569213,0.2708756625231,0.27443695669586,0.276229277212459,0.276274175020991,0.27568421781688,0.276571398513473,0.276460051948314,0.275243321337096,0.274063406928874,0.636361783097234,0.275733605406265,0.276052379846843,0.276619888146688,0.275568381470867,0.273570428991192,0.273093614264582,0.280007876778515,0.279408042056527,0.279233838559422,0.278780370693249,0.290403515366021,0.289928496551752,0.289475028685578,0.28998147596582,0.293867830272352,0.297192961972234,0.505307773860751,0.489397786429341,0.322411163068505,0.323822750168752,0.323794913527462,0.323314506976169,0.322246837089277,0.508380579876683,0.307200683494024,0.304877670880576,0.487504894821631,0.495705030571921,0.54211589525148,0.542381690277989,0.289501967370698,0.60571453899327,0.58548717829342,0.58621542074781,0.542664546471741,0.502355293971685,0.332969331722897,0.333530554329547,0.332920842089682,0.332145905914419,0.331537091630725,0.310066061634538,0.52526664566558,0.291551103352099,0.29186089823097,0.291543021746564,0.269816074241744,0.269705625632755,0.266522371007834,0.267195838135815,0.26273120005539,0.261237000987444,0.261072675008216,0.264004501905358,0.263311279741623,0.263052668364479,0.260860757351945,0.263037403109578,0.264639356918001,0.264308909047205,0.45505365677085,0.455044677209144,0.495472459923725,0.370573940236983,0.275296300751163,0.275202913309417,0.271028315072109,0.263344504119937,0.258397663575878,0.258365337153735,0.257353340549423,0.25803578723911,0.2595775779841,0.263217892299877,0.255847468051259,0.257224932817021,0.256992362168826,0.25650746583668,0.255936365712152,0.254352371027142,0.253556781859955,0.253456210768843,0.484904413751456,0.48771411860939,0.27400234590927,0.490401701428117,0.570451800172214,0.263498952581287,0.273689857161887,0.254302085481586,0.390398118616216,0.38977314112145,0.363075108255964,0.349974825682488,0.403083545438855,0.425151716288519,0.331043215736873,0.272915818942795,0.274140631159549,0.274112794518259,0.27342765396006,0.281894482693031,0.283454232561433,0.284476106683622,0.285337246651266,0.285595858028411,0.285534797008807,0.284846064625926,0.284469820990428,0.283488354895918,0.282407215666466,0.439191261016484,0.435377641159774
0.284647616312215,0.282892111998612,0.28344974278058,0.282627214928273,0.283269253590281,0.285321981396366,0.435250131383543,0.507627194649516,0.506196750469685,0.506344913237841,0.29441199171176,0.298248958428908,0.297975979753033,0.298012795956029,0.297096880661976,0.296833779503978,0.296353372952685,0.29652757644979,0.292384406678454,0.28339317154183,0.285867938748115,0.2859173263375,0.284896350171482,0.28315611111278,0.282535623398868,0.281939380501562,0.281536198180945,0.291054533589735,0.290245475079988,0.289649232182683,0.299049037376948,0.301624375674346,0.304411631628014,0.303568450783782,0.303053023941835,1.014870064058,0.298119652740335,0.296532964186813,0.294459583388804,0.293745708233145,0.349546500589093,0.280971383749612,0.280945343020663,0.279824693719704,0.279589429202996,0.282224032607656,0.283979536921258,0.284945737760867,0.282711622808313,0.281483218766877,0.421435075698237,0.41887410469957,0.420978016007381,0.284540759527908,0.284076516187687,0.283797251818618,0.282016604732238,0.281188689142907,0.284639534706679,0.28211807377952,0.28029522275312,0.275601605849181,0.275063730102967,0.275064628059138,0.275303484400528,0.275129280903424,0.272549452825174,0.272732635883984,0.276046992109819,0.269814278329403,0.270058522407817,0.269219831344439,0.269155178500152,0.268892975298325,0.269064484926918,0.268242855030782,0.266299677877515,0.272396800276165,0.272117535907096,0.271957699708722,0.271173783971752,0.662823653489841,0.275483973590827,0.27292300259216,0.272766758218469,0.272004393429595,0.275096954481281,0.273677285775498,0.275021526162947,0.27503858733019,0.275730911537753,0.276596541286251,0.276983560395797,0.276003890213628,0.27600658408214,0.274139733203378,0.273098104045435,0.279069512580195,0.278468779902037,0.278887227477555,0.291370614161801,0.290716004113404,0.291226043218328,0.291885143047578,0.291826775896486,0.294519746452237,0.514855741823173,0.301360376560177,0.320495822556528,0.321362350261196,0.319785539225552,0.322527897370688,0.518023731193192,0.517488549315491,0.484168987647701,0.303089840144831,0.542078181092313,0.286574630254409,0.287403443799911,0.287292097234751,0.542742668658587,0.623950232906639,0.591868054841992,0.540166432405019,0.508582620015077,0.440908153214749,0.44285761606121,0.333270147040061,0.332506884295017,0.349494419131195,0.350632129599397,0.334794876617809,0.326019150962139,0.29358407612243,0.291772000570077,0.292806446078655,0.270474276114823,0.26766546921306,0.268272487584413,0.267107838431092,0.264462459552385,0.263081402961939,0.262910791289518,0.263075117268745,0.26304009697809,0.262933240193784,0.263792584249087,0.262909893333347,0.262931444281442,0.360719769220374,0.265873148696461,0.26873134318761,0.270990600912942,0.35807977807869,0.277858169706001,0.270504806624625,0.270870274786076,0.265048824931813,0.260455779118986,0.26030671839466,0.258136358330222,0.258031297458257,0.257441340254146,0.258859213047587,0.258581744590859,0.263916502200635,0.26198948825844,0.257030974284163,0.256357507156183,0.256345833725964,0.255279061795243,0.253925841846088,0.245174361007025,0.2449579535699,0.244782852116625,0.491123658189312,0.393476312369172,0.257251871502141,0.256601751234597,0.386695845324665,0.248557859857998,0.370501205787162,0.396236629637721,0.397033116761079,0.323640465066112,0.434410542363994,0.426654894918171,0.425143634682983,0.26233879320882,0.260734145531885,0.275591728331304,0.277988373350744,0.282646072007857,0.284362964206121,0.284574881862393,0.284890962434458,0.284999615131106,0.284524596316837,0.284356678512927,0.283521579274231,0.470616135164223,0.436945472633712,0.304647794100892
0,0,0,0,0,0,0,0,0,0,0,0,0,0,0,0,0,0,0,0,0,0,0,0,0,0,0,0,0,0,0,0,0,0,0,0,0,0,0,0,0,0,0,0,0,0,0,0,0,0,0,0,0,0,0,0,0,0,0,0,0,0,0,0,0,0,0,0,0,0,0,0,0,0,0,0,0,0,0,0,0,0,0,0,0,0,0,0,0,0,0,0,0,0,0,0,0,0,0,0,0,0,0,0,0,0,0,0,0,0,0,0,0,0,0,0,0,0,0,0,0,0,0,0,0,0,0,0,0,0,0,0,0,0,0,0,0,0,0,0,0,0,0,0,0,0,0,0,0,0,0,0,0,0,0,0,0,0,0,0,0,0,0,0,0,0,0,0,0,0,0,0,0,0,0,0,0,0,0,0,0,0,0,0,0,0,0,0,0,0,0,0,0,0,0,0,0,0,0,0,0,0,0
0.284184270928164,0.284466229165745,0.283487456939747,0.284477902595963,0.283529660879767,0.282772683827917,0.284098965091953,0.504560674326778,0.731289219676504,0.594224291833753,0.295348559997738,0.293118036869867,0.293680157432688,0.296918187384018,0.296490760246793,0.295951088588238,0.295951986544409,0.294659827614857,0.285207043006524,0.28490712564553,0.28423545442989,0.283609578978954,0.283549415915521,0.282893009954783,0.283591619855541,0.282375787200494,0.281640361096739,0.291095839573585,0.39986527052328,0.298875731836015,0.299315730359629,0.300435481704417,0.301368458165713,0.300825194682475,0.38723551698322,0.296254597773915,1.11223545164056,0.360095689681778,0.290927023813504,0.289004499652163,0.284829901414855,0.28196452327434,0.281394321105984,0.282416195228173,0.284190556621358,0.283869088312269,0.287328015481577,0.286469569382444,0.28569283729484,0.281693340510807,0.282471868510752,0.285547368395196,0.284982553963863,0.28523038986696,0.285475531901545,0.284894554259141,0.282382072893688,0.281546973654993,0.28145897395027,0.280933669590445,0.277465762859431,0.27586560496335,0.27662347997137,0.275208301046441,0.274146916852743,0.273409694836648,0.272873615002775,0.273098104045435,0.272400392100847,0.269244974117216,0.269129137771204,0.268910934421738,0.268876812087254,0.268905546684714,0.26888579164896,0.267851346140382,0.267916896940839,0.267194940179644,0.272012475035131,0.271064233318934,0.27051109231782,0.663612956963834,0.272043005544933,0.27222169882289,0.272227984516084,0.272564718080075,0.268230283644393,0.270382684585418,0.273591979939288,0.275153525720032,0.275644707745372,0.276636051357759,0.276362174725714,0.274276222541316,0.271898434601459,0.270912478726096,0.273622510449089,0.272842186536803,0.278755227920471,0.282731377844067,0.282261746766822,0.290773473308325,0.293351505474234,0.292124897345139,0.292460732952958,0.294662521483369,0.561929298156664,0.39833784707702,0.318976480715804,0.319749620978726,0.319930110169025,0.31927909194531,0.547646407306455,0.509193230211113,0.548919709156423,0.286243284427443,0.28745911708249,0.287520178102094,0.28786589122779,0.28755699430509,0.617332295929018,0.540484308889426,0.539737209355453,0.663799731847327,0.453144601952068,0.453916844258819,0.551081987615326,0.552171208450313,0.439326852398251,0.533197394564677,0.943240100325997,0.943078468215282,0.700822464762839,0.294709215204242,0.294833133155791,0.51436186592932,0.293830116113185,0.271582354029394,0.271853536792927,0.272080719704099,0.269772972345553,0.269862767962617,0.263514217836188,0.263746788484384,0.264346623206372,0.263285239012675,0.265565149729931,0.263864420742738,0.263284341056504,0.263178382228369,0.263001484862752,0.269977706352459,0.270562275819546,0.27028660327516,0.273813775113436,0.274873363394792,0.272173209189675,0.268968403616659,0.263744094615872,0.259365660327829,0.25841382678695,0.258480275543577,0.257943297753534,0.257113586251862,0.256983382607119,0.313580662086425,0.257282402011942,0.253943800969501,0.252072460309886,0.254058739359343,0.25411082081724,0.25380192389454,0.247588067193707,0.246843661528246,0.246550029860446,0.252687560286775,0.252483724236039,0.25196560352558,0.256991464212655,0.490878516154727,0.490145783919485,0.392265867451148,0.273696142855082,0.279411633881209,0.403408605572627,0.00385463849458546,0.25579359068102,0.255774733601437,0.256128528332669,0.255556530251971,0.261144511501868,0.645625996909733,0.281684360949101,0.282877744699882,0.283468599860163,0.284299209318006,0.284312678660566,0.283959781885504,0.283330314609885,0.28221684895829,0.47415947021357,0.47525318082941,0.60197185767404
