0.607517620211646,0.592357536982739,0.572737000696436,0.567917837679413,0.582817583865089,0.593794161228138,0.58967130005188,0.609804776472062,0.655880038333829,0.679806061986508,0.799944142820053,0.80621090124887,0.77053411268678,0.76577054114649,0.765658712362901,0.747055138412066,0.747949183224251,0.758531308915426,0.758741097253993,0.75805543937924,0.764645406406542,0.763909864701085,0.8050079482445,0.878976620681865,0.812239048641661,0.894969467126903,0.914642376684956,0.916809920777781,0.848481130469148,0.846696159792739,0.890405979459064,0.924657553904839,0.92466336660267,0.904930677551838,0.873049342999808,0.912448852797904,0.880647403674844,0.900810747183894,0.904573832967422,0.966598558095472,0.966724176845122,0.905143224566151,1.02406610808866,0.939490717946357,0.970129659280973,1.01213785761783,0.988943171216246,0.988797947910984,0.981858086309651,0.962626030170935,0.96640685475695,0.953791826361235,0.956046716870554,0.975975041877234,0.982317303331143,1.02722200080173,1.07976501054727,1.13644403807016,1.03383285273097,1.03308060745453,1.00193499199625,1.00200889834712,1.00796770537782,1.02089520714958,1.15245095391656,1.03773328451736,1.08945927167217,1.06039099112437,1.09339713406526,1.09117945479289,1.17250732635779,1.16171234397074,1.20733320601934,1.19814965951725,1.13579711117038,1.08760428858887,1.02178630709018,1.07056902031996,1.07906957604501,1.10550389703794,1.06814257306061,1.04263859910241,1.05827482533474,0.974733266279317,0.975497764447252,0.976014589851258,1.06355082578527,1.02891683067995,1.02618407499972,1.03488814564666,0.962672512705717,0.917075866470911,0.915398216105204,0.856651195807798,0.856844649073042,0.79772929886787,0.776678560653674,0.764744664252429,0.765045040807281,0.757268265184097,0.760646928860515,0.720079780905672,0.719383185457706,0.708498206116921,0.716835063848875,0.679759895803301,0.739054519748215,0.725726050724287,0.682796273463363,0.667900000368715,0.596904930446183,0.527525308523964,0.528345808764545,0.528216522671876,0.476321509564302,0.443108977088336,0.428692172084108,0.429079789141985,0.429023388948712,0.428647417189032,0.468963083834478,0.43985239413611,0.434323249713817,0.398744218632074,0.407096694956017,0.304855525108002,0.276607595954447,0.276051150522246,0.274868505137128,0.273152065802221,0.304051268120234,0.289705454385986,0.268784466847182,0.260435759685418,0.261374637617815,0.26187875847695,0.264201012609412,0.265217323193377,0.266295018527661,0.266181742785622,0.26685071052388,0.267270056289642,0.266873881799601,0.279614690097474,0.280112873008746,0.439479859760032,0.286948196846357,0.287586980504609,0.289129856634626,0.290343113641145,0.290322521210635,0.290458521864112,0.450088821361553,0.425855570360828,0.411248183170278,0.423865611779759,0.421268602307678,0.446849235424201,0.414585102258678,0.363971332603134,0.449273359067337,0.390898728059061,0.392428209640566,0.264135880683662,0.265005187892914,0.265789653086028,0.265965184506816
0.623199769375411,0.56252894935299,0.560514306052214,0.604589500445463,0.593152353369285,0.591963195410557,0.620807501717221,0.655576545695515,0.655428761536719,0.654925006352471,0.768296334195642,0.803370639415107,0.790649362464285,0.799001130684651,0.754327915558259,0.74769533958428,0.754273069988045,0.756795051184237,0.760205968687234,0.760333685385145,0.77037031252401,0.837926315696828,0.834457363765667,0.852387980413276,0.851205912352999,0.869792679931966,0.842685340148824,0.841507241418301,0.852352193366124,0.913855927251435,0.888674268227733,0.885312830704738,0.934198376678101,0.921992274403065,0.921020164617295,0.925055719384753,1.00511005901742,0.90615305091179,0.906201606976292,0.888238445718905,0.942928561711237,0.897699488608063,1.03132950358158,0.950000200936949,1.01541850534965,1.01440270162096,0.991391332251338,0.985702343455151,0.983739258558855,0.968428720646259,0.969534605583747,0.971929738924726,0.97122339187157,1.03495695050974,1.06773178574587,1.06871759881607,1.04794522884652,1.04798807722235,1.03565633957126,1.0223092802287,1.05145014630875,1.04401960389824,1.03172704276757,1.01828206134913,1.01555990593142,1.0389643440699,1.20684055655192,1.29150103959319,1.16290292203022,1.13867693717741,1.21983263385319,1.17034610943756,1.20429310208748,1.20345410454697,1.14344092712101,1.12714378276273,1.12713840972473,1.10512550017733,1.08669129967054,1.06143990968062,1.01022647761194,1.00943539728103,1.00259952141355,1.03103580333904,0.990011652402435,1.00141269559963,1.11605613802157,1.0580204695595,1.01896608559011,1.00868304028522,0.925475664256278,0.908884093109975,0.954347628230531,0.843804680218427,0.834082405411439,0.830715465512243,0.79268110811623,0.792627791733073,0.784074373912678,0.745060904276196,0.748114259517044,0.745309350488535,0.729176140615158,0.730979390774371,0.715005009581285,0.722948903872236,0.704251507415133,0.70505352777094,0.690061299897218,0.705301037820697,0.604068770777221,0.623560542462171,0.528371660856072,0.528552582872714,0.53894814180589,0.538828174578628,0.53552951120878,0.428127945644931,0.428538473667053,0.428543556846745,0.501865344437945,0.441592019431949,0.441962570039412,0.386214590983759,0.394568409449432,0.30153217425122,0.29998073488049,0.29722724511433,0.29982374064783,0.325494271432288,0.288234726755581,0.283159514714808,0.259684326529147,0.259625846501697,0.260536252294759,0.713339469858261,0.272001262628753,0.265538256887309,0.268439785533252,0.271793165561852,0.266634680553117,0.266565084763749,0.266246116059845,0.390450879249201,0.442516728545414,0.28297008060554,0.562652100773013,0.331165377251117,0.353489851752492,0.674020300025424,0.450249667436416,0.449824822976312,0.449715121829412,0.449470770096627,0.410820710583731,0.3713247308619,0.423130835104474,0.460179103733286,0.463574073664939,0.476189389093132,0.477898963927374,0.390719172067372,0.390327164776976,0.264097166682526,0.264600669490311,0.265342167885658,0.265778509121438
0.621577410289954,0.592175994493829,0.592273467622681,0.602957281217859,0.604382312441688,0.604298124419273,0.617601092997408,0.657267479091425,0.666574252002569,0.683448753738988,0.80358129738669,0.812917401368309,0.868301631220519,0.867134636802707,0.806260958687525,0.807893153304085,0.768213063465017,0.766578773851487,0.768104055218172,0.768928416500741,0.770396182081979,0.832819431562853,0.792380604902172,0.79116615416879,0.82016094984907,0.872102801278485,0.835565242982261,0.861706114209643,0.86326746528936,0.861886713223392,0.896886347235893,0.89701916809816,0.940477103523318,0.923300149806989,1.04889158745074,1.06451140546477,0.930488039344968,0.90912113313626,0.915131540935932,0.922293455014479,0.918823361630753,0.976318221644316,0.934945961782341,0.969837012180609,0.992338593090363,0.996858904188224,1.03447607311919,1.01995339871474,0.997464395253953,0.996435494600473,0.997229477973991,0.981768183080466,0.980579061880963,0.993860977339353,1.07868868424143,1.03797669680332,1.03993733622726,1.04022039083752,1.03834436147923,1.03637845880041,1.03692014844437,1.03085692956224,1.02524377877846,1.01600607201167,1.04520739556812,1.12224598976191,1.16661365619306,1.1692241751121,1.17073529356224,1.17309276111224,1.26519361669557,1.13878999726457,1.27637010259473,1.26494238869607,1.16135405897451,1.14796640257658,1.12394053628579,1.10583524162709,1.09400521002369,1.0469129879504,1.03603201540868,1.08016065305781,1.01257897678211,1.01900750536468,1.04139115421328,1.056833327208,1.0946885298459,0.928845946748144,0.958683858954145,0.928270435109013,0.903779421026835,0.889085597627204,0.853653160005659,0.837559322952965,0.84032771775255,0.804037096008693,0.800819785842757,0.799664667824982,0.790697497902679,0.751797143350248,0.755255183055824,0.756073940073597,0.744391045491518,0.825130479007931,0.837836474425625,0.856889122222704,0.703441216336174,0.704619569258262,0.682728592715547,0.677101224410118,0.645485631033438,0.647519592842132,0.605718147049437,0.579428570757033,0.579716549542622,0.592837993724203,0.592850628645368,0.529537582944798,0.52843444088286,0.526909387131685,0.491422664438406,0.442012944189897,0.442338385639261,0.414086737272009,0.413576343505058,0.299359373438131,0.298878405482171,0.308145645137376,0.301885568860398,0.287387996123357,0.276446908366866,0.270507548006081,0.270459879311126,0.258390236664291,0.286367441654016,0.26346526117526,0.271134166760046,0.271939476836606,0.271118477990723,0.271879561512411,0.266238015175062,0.265824624542974,0.265908648457632,0.376454466284755,0.441569062163721,0.441370260716965,0.424490077445864,0.342480018373925,0.360342905457349,0.465460145974994,0.443097991297626,0.451316026899147,0.450802573829464,0.549928903700818,0.478249740895467,0.458885057944419,0.458500638366986,0.459124245585011,0.467035105962459,0.470979898127647,0.456441376813239,0.299643101540365,0.357236807975879,0.374839318155156,0.265815122786107,0.264485339469966,0.264702401632725
0.645625632494192,0.591206932839584,0.637489058820138,0.602968266369087,0.594807070676255,0.653858594063221,0.668126288710567,0.690000858306053,0.709648955386253,0.748570055262639,0.746043740708389,0.803629219813681,0.78873472417284,0.788717218023369,0.801432952441629,0.786786675244166,0.785943422146464,0.775088545712601,0.779782762962774,0.783946405246628,0.833927159901,0.790391852688274,0.79042598412022,0.789833064698546,0.818334695966672,0.814266739586209,0.829465624273255,0.846757617740726,0.867732686759966,0.908159267707378,0.888174555828869,0.882515925852799,0.928660134640982,0.928875389771993,1.02785324559757,0.994727993206624,0.996455209969121,0.934339117108337,0.921758837579343,0.911545084787459,0.944458493911871,0.944410652236008,0.944362731742979,0.954355790907475,0.99591196156186,1.00469981910543,1.00485420125294,1.00545994674665,0.99848965080767,0.998812050030364,0.976382625880814,0.978805035711222,1.01783356476413,1.017066978526,1.02640264251568,1.03826987122201,1.04021213460431,1.04081263322927,1.04246316967221,1.04677236901501,1.03404300380825,1.13032013663264,1.0242279976908,1.0492114855082,1.07126693444334,1.08497513064234,1.10335124258954,1.29905698299808,1.20654304700394,1.31459281526351,1.26728167032389,1.29737997565782,1.32782041611513,1.1973364179211,1.19992648939088,1.19816859135634,1.19849649299259,1.1449976029729,1.10744397209857,1.1044251069652,1.04619726220325,1.0464968068211,1.03219800561463,1.02802072943742,1.01953067090583,1.06858043956652,1.05085736957189,1.05103793876835,0.967307142345211,0.929932993232796,0.892419802100261,0.87162663305158,0.861848290999844,0.846816500669478,0.857118464162164,0.866667389989638,0.867007470012376,0.867745898939063,0.799690580427397,0.785019180849033,0.754822470241986,0.826108677383348,0.824440352939731,0.839500571429702,0.820498529197029,0.856320071388812,0.798646259046694,0.671005472572018,0.67121761103318,0.655797559182857,0.647055404607815,0.647706382308092,0.64811048533869,0.581673674312904,0.579742608658954,0.592681337595172,0.593604263726564,0.594650768977491,0.546345783019376,0.54914463781101,0.507482312100953,0.417033558284096,0.416231067622347,0.412975895217172,0.412971093175886,0.407126375894288,0.310102112089812,0.304646341386404,0.303374703812244,0.285749674825035,0.285156551227642,0.268344137543186,0.2705367342033,0.270131959445134,0.270100594694649,0.328577085821612,0.712052509921719,0.271964249432461,0.271639368726749,0.272026007425316,0.272091682027457,0.350997991709937,0.309452282844719,0.375722219859845,0.369496658099428,0.312760078788869,0.312975690594264,0.667784291372441,0.372248581923662,0.319925427428474,0.426651123045844,0.00422870936796795,0.556855054056341,0.549216586163878,0.550079675970872,0.467670667801279,0.458590032353235,0.458445660786208,0.503057418595945,0.951031360334293,0.299590341718464,0.356123471271252,0.356796798175325,0.357293609801699,0.46174445508973,0.263376550878158,0.263983164436772
0.647113185236213,0.636847114464358,0.637081178430119,0.651705815683821,0.665170940556228,0.676401982095319,0.692213850242369,0.705501825648806,0.726864955182621,0.748199484063915,0.777815621277682,0.80273916654516,0.80201697034977,0.801699074919232,0.801826743698172,0.80280332674003,0.803194167260078,0.802741289411893,0.803022786806946,0.804112593396372,0.804702491650316,0.804870559446599,0.8111584981676,0.814681984436732,0.818774931283809,0.821228029617798,0.829274097781228,0.863012072488764,0.869627095756159,0.885925912651888,0.886063798118549,0.901636148923408,0.93792672859033,0.962620288054397,0.99391346631327,0.994422683373294,0.990177411953857,0.941037585727676,0.943990832465029,0.945565122920327,0.947201343958274,0.950492570385966,0.960499716150782,0.963745261321849,0.998103800385635,1.00441635278913,1.00430194144528,1.00377656914795,1.00107708636034,0.996239113647433,0.995515761340822,1.00887023557341,1.01703364589256,1.01751436573672,1.02115398398064,1.0398018769316,1.04031308836684,1.04081096093382,1.04122005918401,1.0414355316798,1.04003726435362,1.0672290447479,1.07843571864392,1.07980429305634,1.08254666290746,1.08784198657428,1.09441893278114,1.15595814310089,1.17420474445107,1.19091561218928,1.20337789906674,1.21107521518737,1.2057806025064,1.19738572778526,1.19821987831222,1.19766292495784,1.19830885095764,1.12321230013288,1.10852611869425,1.1058185006385,1.08258875549458,1.0378943578807,1.03180836392848,1.03117746708848,1.03099833575569,1.06349316444408,1.05898185980704,1.01968330513947,0.974588960858545,0.951477737778534,0.894812354202439,0.885886218197012,0.877940482250209,0.876044095543869,0.874883185275723,0.872034988153824,0.845136442372546,0.831469848261131,0.824125890381026,0.821506894248101,0.817445789576492,0.823716370635165,0.824947425933904,0.823534346291021,0.821760487768676,0.796769150078977,0.75169638492283,0.670523266118047,0.670454750997536,0.655835362567711,0.646759737951805,0.647212652676594,0.642964353565284,0.591707659471729,0.576805474793739,0.575310845362496,0.570025925546605,0.564216665885878,0.544205608601995,0.54301584728229,0.490253593049971,0.417570312713581,0.416455334399245,0.399466565058267,0.385575093931991,0.374754734107297,0.34728155612609,0.33165852655235,0.317927453873873,0.285625963814983,0.285201045166369,0.269450429174539,0.270064902688806,0.269780376500994,0.269693535690264,0.329110688281656,0.329194495715303,0.325399308588994,0.322928896688454,0.318312331845412,0.307060243051311,0.308384365661029,0.309142935170106,0.310078185204056,0.311166953613422,0.312787451775962,0.313303801951231,0.358669900314531,0.381837574581853,0.40762042384841,0.43082332424648,0.45655174890304,0.512781652710402,0.547343755384334,0.547925003464606,0.547866771722871,0.549169025807652,0.551020128839939,0.553336708149158,0.568479085234583,0.40953731641021,0.356758291270033,0.356926208485368,0.357194821413971,0.315865242297188,0.263093565544403,0.263493433927141
0.64685402978481,0.637819642976103,0.637855444547948,0.695195494896427,0.667164763880134,0.718034343517562,0.718638452300777,0.718014512738372,0.73600119566713,0.748195969450771,0.803365011973323,0.817153582503902,0.820612026033439,0.851802721189544,0.851757971102963,0.811141226662601,0.892672504485438,0.800886725564618,0.805621925816843,0.811138145842972,0.796400099407361,0.806135513375033,0.818174088276947,0.832867295576581,0.818928036408536,0.892775191267403,0.827953767351164,0.91230559429984,0.87374471243243,0.884482573305513,0.88479196633757,0.917937304312705,0.947013862497486,1.00434939327788,0.994112824928995,0.994409207860147,0.983663757101934,0.919322319067197,0.946438368878887,0.967716255928452,0.95884174432555,0.955656606163518,0.968803805951157,0.975863311161246,1.02489430077633,1.00262004966372,1.04748408957702,1.02923856098385,1.01540497777723,0.995942896511311,0.996943215221666,1.01271266014254,1.01615844357574,1.01856631963204,1.01691255449066,1.07357445935054,1.04499900515057,1.11866585438717,1.04475981358275,1.03594848195667,1.03720392534302,1.0573248961239,1.12534357650827,1.12688076390585,1.12739842113175,1.1302860064985,1.08362539504199,1.1181360395557,1.12115234883969,1.10428013461873,1.19591792745626,1.23014699729093,1.10957760737373,1.10934000960216,1.10923520770759,1.20479417535259,1.21852841812496,1.11798330422995,1.11046717536586,1.10654696386733,1.13452340849766,1.03295705915119,1.03193945853461,1.04396982706104,1.03107444913115,1.09312754305058,1.06225211692751,1.00254043639938,0.987222432992508,0.981944191846698,0.897643902318115,0.897381079058105,0.880153691764852,0.893842029915639,0.89551762996466,0.890499387349566,0.820865671596805,0.797993016517837,0.825971524273595,0.82687891468761,0.813172785708704,0.803922856650196,0.827373062459522,0.824477959351994,0.880925959832671,0.76186041128493,0.659700806833129,0.670509032632218,0.669011144278217,0.656562210046249,0.645784559837059,0.6468501665851,0.631011070038924,0.609456809887396,0.575721230781538,0.573535208300316,0.513803282146926,0.556981417436757,0.543224479726633,0.542114018279447,0.471733601116006,0.418826907328633,0.416586814946802,0.364927175670116,0.373806339906376,0.349368761577483,0.369185851999479,0.375713347859388,0.333997577709816,0.28611667018345,0.285034795630869,0.269464264261639,0.269738894748681,0.269243235045572,0.269241570537344,0.329801952867267,0.329674018551097,0.328138200351189,0.324610270301362,0.347809758743849,0.307217780773657,0.307960441468728,0.308406812717904,0.308419440398157,0.310366649367623,0.31399844175178,0.314390378437457,0.314416051200268,0.391132532363264,0.662386471167656,0.434980392955162,0.498246738385705,0.497368666313529,0.546863035376243,0.462621585275954,0.547804657350973,0.549268868081254,0.55032100139226,0.553593094695456,0.950337947105164,0.948431060639677,0.357185469717585,0.356913250851334,0.357168821297658,0.262138159267581,0.26244713651099,0.262832733814033
0.671100942625517,0.670943919134699,0.694275224424619,0.695666995331497,0.68095057402984,0.725637412834421,0.717496011513513,0.760472882253329,0.773009016652584,0.782873823463842,0.813259773028005,0.820842956363417,0.842500492356227,0.84146131708852,0.865121041972436,0.842072586235858,0.842186269559911,0.824476647368342,0.824190280257465,0.824171237872627,0.81375716141923,0.826232937285988,0.824743239232977,0.824169992330284,0.820038971456441,0.846273164405205,0.817270717013085,0.858749823890615,0.87001343322825,0.863042348543565,0.92607978858779,0.924420582038192,0.923904085998036,0.959956431914593,0.994692100760287,0.959055314956649,0.95213578413767,0.951187196228636,0.951171380597679,0.957861985835058,0.958971106171696,0.961750044423434,0.973092644003824,0.988678807172442,1.16767575117164,1.28263170995806,1.04472999225784,1.04499609249894,1.01853032437812,0.995471579315186,0.996208070699034,0.989784197847519,0.990199173089439,1.03659244664842,1.03632072141841,1.02554656847144,1.08608204557254,1.08497032296846,1.05762382586322,1.05693669457751,1.04514538393805,1.05778340060915,1.0864735537138,1.0864561429479,1.08412767618804,1.07637830488453,1.09588688898622,1.13160098914678,1.12414750755307,1.12592985456883,1.10762673198832,1.21679902998429,1.10930094813606,1.10845858710574,1.10905545404982,1.17056838943836,1.18797104570196,1.18801501264077,1.13276016785241,1.15878102864918,1.12359177054988,1.05849156697421,1.12871850270371,1.04177837773245,1.08554996516197,1.08354400744609,1.04899266718481,0.99417064039906,0.993399269979327,0.994753716838399,0.941649583369118,0.913564094117778,0.88951881858341,0.891973717387899,0.889736786076854,0.86614071577994,0.842322466024016,0.843266463281977,0.826822241312184,0.825906615035606,0.819281071275583,0.819432524740324,0.803449961817819,0.81590633902734,0.774530932124374,0.761111669067745,0.760983846355108,0.66322622857883,0.66713602279481,0.661855169960693,0.646453056035356,0.629017206952417,0.587026255775557,0.569921777693253,0.570823978713957,0.549459752996897,0.560593005014381,0.525076199271168,0.51909256793228,0.468770814106069,0.500918757903105,0.440005069544014,0.393223256026097,0.392946100285194,0.374291642344014,0.37357235029706,0.304501693928689,0.406492763759574,0.348962412125989,0.383138093029202,0.28542268719888,0.285242035212364,0.270096145218736,0.269068104486846,0.31184248615536,0.311690528067727,0.311813554861967,0.312928048849017,0.312167294803221,0.312950074681511,0.314595818873568,0.308169188362313,0.308570448632766,0.309430014047046,0.310726504536241,0.313672931019258,0.314330290344194,0.314733416912905,0.399434513566644,0.660723284290102,0.325746184675346,0.326854161622844,0.328040648447574,0.328388949723853,0.328465391070973,0.475535294888705,0.463821740051686,0.788277493137571,0.541320463901276,0.452686737293711,0.94803159430527,0.425506051697961,0.355730210462745,0.393470678201953,0.380684755149099,0.261857293492477,0.263028764617046
0.755764847439895,0.779023748111055,0.764419940217312,0.721569155418134,0.713108551730419,0.724097151329249,0.763361074686471,0.760650207238798,0.787015711006838,0.803244618685675,0.889475859225501,0.828405196691256,0.835074623326327,0.839215629480517,0.838925554354015,0.868745274618011,0.95336758468236,0.940705389124695,0.881909266089987,0.848576841437468,0.840684492756964,0.862249464086417,0.856616262189643,0.836009680829773,0.819999295716187,0.930061588425922,0.854473287280378,0.855934293239269,0.896128630065965,0.927896139698274,0.91430610565163,0.92241693046854,0.953470877677593,0.953077052160474,0.953038014314631,0.967720316886212,0.960766879218546,0.951324441653797,0.953610228655196,0.956347231429853,0.957352626015227,1.09974777764506,1.1654909659128,1.1682490000063,1.16883497422381,1.2891399853616,1.27159377647888,1.02786184062221,1.02364132112985,1.02143693091657,1.02219688666162,1.01183319586947,1.00536915508577,1.03524862573815,1.03770564981065,1.04871448915214,1.02073720571786,1.03441738534098,1.05616873664816,1.05890660436923,1.09629033847586,1.068535107567,1.09581412518695,1.07450807939524,1.07630962711565,1.0767914976525,1.0775260324778,1.10405295880945,1.10859689979366,1.21018531469648,1.21828976538382,1.21663186292768,1.19460223027562,1.13881838692165,1.20870598891725,1.117978098998,1.07823115492283,1.07951874159606,1.12404548985053,1.10615457502857,1.14199741939674,1.13954819780482,1.06396738173558,1.07671613911442,1.08618843008994,1.07295313027379,1.03954856383298,0.987229590679265,0.990858255980354,0.973888347085995,0.960891436504559,0.914349836199469,0.957437816041898,0.894256693952908,0.883030084713691,0.88737715025617,0.880758944481184,0.85787371440391,0.827420047073069,0.82334861841076,0.823116524209374,0.803518875435168,0.804113664808733,0.804104493268869,0.773801642411552,0.761685514593179,0.689462148680519,0.667863074253511,0.669266020667119,0.679999238253926,0.631129310321048,0.611148449151911,0.61161333135989,0.586769298242532,0.586575715058462,0.538280180264367,0.580058968346798,0.508836193658028,0.515257126614809,0.471593805181112,0.451008307211672,0.453671744562971,0.451724934684596,0.393408657237824,0.373897702630338,0.373608052890576,0.373183546310367,0.312077467517099,0.31707197699563,0.290629375492464,0.291034568592184,0.271720254990547,0.27192937644858,0.285488196346716,0.312838515178589,0.266978326776102,0.266333622564467,0.313198323181578,0.311786410910627,0.310555697236858,0.309217582702997,0.308674342192011,0.308926263424869,0.308631601718952,0.309855489214069,0.314117187762256,0.314252056967705,0.313969392875278,0.407158973381868,0.738588757046646,0.326716125916195,0.327997241430188,0.329397294677192,0.329659305364735,0.329837243366635,0.329363205045127,0.464617331381193,0.794555097959318,0.537592549197576,0.424500000820224,0.417335786183204,0.416173111710889,0.590158749653394,0.442457930366673,0.395020720309479,0.382095304197782,0.380681749874709
0.723068984089442,0.723774180098025,0.793245410102311,0.793266137245568,0.739814872248381,0.72671431223614,0.828049081833527,0.892356916023911,0.817709553786544,0.81583746330381,0.831370832490087,0.774472135661058,0.774706414297588,0.849712425670371,0.850667845804307,0.859799832574516,0.969876933724832,0.931323592537506,0.946403043067222,0.959908451568332,0.921114870100927,0.93950407752495,0.917030968405162,0.946934986065529,0.962857800283712,0.929031222573619,0.928691046316665,0.892727241508953,0.915769369614384,0.93753215517777,0.920705300322123,0.946930695492111,1.00602250402075,1.00710427171659,0.96269760963868,0.964336758763707,0.966526770618717,0.936056934853638,0.961941783159293,0.96657526402822,0.967189725461572,0.982201337148759,1.15921504292826,1.6630895231742,1.17162492895695,1.22310428613559,1.23529065797924,1.09331246475534,1.04384033400426,1.03777168245001,1.08156605792695,1.06520378080639,1.06477261970502,1.00206766804156,1.01611421735231,1.03701212532062,1.03544297891848,1.04577519550096,1.05350547722426,1.05125980937091,1.08150914173391,1.10719988582569,1.07744665828234,1.08893966647178,1.09726476005593,1.07478587527172,1.09714045544825,1.10110475966937,1.10349361134973,1.16320019238939,1.31205848162493,1.22270597203462,1.22346370729251,1.16471725762687,1.09530804953623,1.09466349838612,1.09316062133587,1.16984012463554,1.14908701440756,1.14492915478001,1.12887753066956,1.08330745016479,1.06257227436878,1.06264692489273,1.03672581441408,1.03796469870211,1.03436198182279,1.03133510969423,1.00649284427335,1.03150859260764,0.946791498117181,0.939810955691531,0.920597529461657,0.885231157192188,0.884898070386344,0.878113040304351,0.887456717370871,0.949646418089258,0.829529895212158,0.824054663397281,0.832455332292267,0.832603614111892,0.807002498753576,0.761460496572074,0.739519758389288,0.812369419707847,0.687182803134408,0.721896071090334,0.672741049062112,0.667098766163422,0.661038502115255,0.623942058729109,0.605447992150791,0.586050033921513,0.585829328297179,0.633554787519817,0.633800708452895,0.634522543434626,0.528676640915241,0.466028503546989,0.4527471908571,0.419631693123986,0.409915016384311,0.423511217794313,0.423871553417866,0.376941939426445,0.38783544306971,0.413031172139677,0.322020131613084,0.308977382652206,0.301739518851155,0.285830680809872,0.276658254349024,0.285950483157565,0.313172613756842,0.312340695177905,0.267141963627069,0.312401868089028,0.312069262181468,0.313214307531929,0.30868891086209,0.308602900484064,0.306925010237466,0.298369176991964,0.304320974552023,0.313419282917292,0.312962135999366,0.313234761938923,0.415069087347789,0.65708443490392,0.327946178290273,0.32931675319159,0.330203065332926,0.330810513616323,0.330558355805806,0.330441747737812,0.329630877165296,0.53193832026063,0.532469691592481,0.533589152740009,0.422619488682127,0.542883235238565,0.645446201674522,0.396806283647917,0.396117549034444,0.381014927138745,0.380382497300512
0.723950136717512,0.723701399697715,0.7520301183282,0.76891382559306,0.751449309620941,0.751848525122393,0.82673682376113,0.825136237937952,0.8181202573703,0.817705613862936,0.821012139340462,0.800689582523627,0.818418680408346,0.849448313631417,0.853141467064437,0.856750775151253,0.966846311616119,0.966668240965578,0.965243117999125,0.962920292558444,0.949831976114381,0.945606577709558,0.945387412413045,0.944988544943054,0.943142044322138,0.941267185522244,0.940086018311637,0.940426879687545,0.94441000386963,0.947172516459223,0.950164331788653,0.952236216497591,1.0059074834968,1.00615474443902,0.979166224969512,0.965114156618362,0.964555292325645,0.961942916677355,0.966488330122605,0.971596490121798,0.976204501864223,0.982913098342236,1.06231506817339,1.09096930512417,1.19455980499202,1.20740476954583,1.16661310236504,1.06387460055198,1.05318290030414,1.05577108030157,1.05990810795104,1.06218693471215,1.05064037829034,1.03477879118086,1.03167655413786,1.04012217155799,1.04236454333343,1.05971181361862,1.0634916162764,1.07196404213284,1.08344541473393,1.08677776651675,1.08875277953517,1.08919564409012,1.09283967321568,1.08641450715514,1.09066223041543,1.09238671661426,1.09976700849742,1.1438308999606,1.18865353109238,1.22323776679813,1.22311925900235,1.14143259829581,1.09447779692194,1.09427774265944,1.14377064717979,1.15762041153601,1.15166359923287,1.1497039152544,1.13152025736654,1.11523271792252,1.0974350813967,1.08023247988576,1.05443740994571,1.03764267660181,1.03699357473019,1.0037211540999,0.98832186497238,0.974234618481222,0.948165275799181,0.919266023361261,0.907605640324684,0.884289425021575,0.88309862198636,0.880097186614448,0.880573120790492,0.861458005445175,0.835767850157141,0.833604925845159,0.833181422426524,0.832918990831763,0.799353662548858,0.766601442001124,0.757778856827379,0.752473306105544,0.727176900150016,0.695995326620123,0.675617355630859,0.669380754347499,0.664827372286439,0.621510920759288,0.593971916056761,0.585736893820554,0.585943822213438,0.576061765521689,0.570396780558274,0.56257707252219,0.533782531731766,0.501459828377583,0.458723788096362,0.421699137936828,0.423230408550912,0.424400340956272,0.418641166840798,0.375597080264762,0.369007837278566,0.352842842819636,0.326036137535568,0.323280792618014,0.29051590078888,0.288658006797524,0.280781068080738,0.286395352223947,0.2999609137049,0.29078569637655,0.276896712892963,0.311930416751676,0.311440258335631,0.310999307931693,0.309598353393416,0.307752066815301,0.306062712130691,0.300930731701206,0.303650188022318,0.311182510561902,0.339948622251359,0.3487032662783,0.423592458827357,0.449824631905871,0.328625494783395,0.329362317457268,0.330345284422409,0.330527774731131,0.330776521484422,0.330405505357744,0.33013492854815,0.533376365071281,0.533172271351154,0.533096120761608,0.532864163215051,0.567694676937954,0.593035365533504,0.512453055788861,0.395971273961214,0.390578400284699,0.34065584762507
0.724780414913054,0.722982536922185,0.722723027963343,0.791260235959777,0.751201434783441,0.752395620532816,0.841058425975277,0.746533402306534,0.784392258719639,0.803296482089933,0.84143973423663,0.781990237926582,0.843719455570787,0.849537689528923,0.855089822450832,0.853669773675312,1.04828521500303,1.04840786382308,1.04962841631237,1.0665618660708,1.02203084858308,0.94660322021065,0.945776230382913,0.944250501892497,0.943700333118708,0.952276536091768,0.938687776473257,0.938945282765474,0.947195281919894,0.958222439637098,0.959044818834244,0.954317858851863,1.0056497620455,1.0063155259394,1.00806218876324,0.955870875251609,0.964488050694928,0.960507535259055,0.969133591954689,0.99053124103523,0.998279629736307,0.982419022099494,1.0149628103725,1.0489665524339,1.39582393400998,1.28816587260048,1.10452441887318,1.04439852834675,1.05048386668475,1.06345422339581,1.04747639784673,1.08413620953041,1.02462981048394,1.03747476163391,1.02975549054966,1.06164835665267,1.04575537429143,1.0893605841833,1.08885285138266,1.11550887733044,1.09087760948242,1.08824725213212,1.08978146265555,1.08407500228857,1.10350456856565,1.07847036467379,1.07887313580831,1.08421208745188,1.09700282415167,1.1002497399665,1.12519488201044,1.23204865195491,1.22646901485698,1.09189644989523,1.09440924310761,1.09425258528858,1.18118614427379,1.20183715431093,1.17860839486624,1.2032980660587,1.13467084603659,1.13356895721965,1.12305546570443,1.10276256054137,1.07328269497877,1.03877576541908,1.03836695820588,0.970787711441998,0.961207982985158,0.95772990795182,0.949304324868949,0.892309964157866,0.892300442507195,0.884301177662578,0.88291843101027,0.880184666350082,0.881506894687645,0.853865506297514,0.83754504596852,0.838630276746981,0.920786859687967,0.83285603765937,0.792958275324488,0.771513683289806,0.803727891980494,0.730434282177217,0.767164506810157,0.681296761759076,0.675572471889089,0.669695533539672,0.676053392711969,0.619581794061682,0.583760281400354,0.584990503469106,0.607681787085987,0.569519750464163,0.543780895694129,0.540415560375614,0.539668833926291,0.53946979446874,0.46525240489966,0.421912545710257,0.422648314194239,0.424609663881567,0.41027306127481,0.374515090559361,0.358320026033775,0.302562834927353,0.327336236543462,0.351071979443954,0.276406143514128,0.290055080641858,0.275982245896557,0.285777410640657,0.314171328026363,0.266287508264017,0.265924188422555,0.312667145464779,0.311807904727344,0.310074282439432,0.309675017430993,0.299085719720461,0.298999944445985,0.299599205697832,0.305232111504248,0.30769219256777,0.453797800918473,0.356612844058421,0.432571071270129,0.530422516288485,0.328433788728682,0.329973319995922,0.330357267614536,0.331443953587953,0.330697237419097,0.331101489182866,0.330289938327538,0.534284675440979,0.533335589023284,0.532314168404852,0.532784500714712,0.621916340286116,0.647307520597278,0.647487008242298,0.3962312527969,0.396242620789775,0.28733300738096
0.699561886024284,0.7540529048626,0.753452243622537,0.765418832581933,0.772661560404799,0.751500708557977,0.750884969355277,0.763807096573888,0.765056984498,0.74842691982896,0.746520981570905,0.762530918448055,0.85138545048188,0.813684114138543,0.822489780528045,1.1637377622375,1.32749338706509,1.05261742156436,1.05064816498231,1.08644433354758,1.05382788556302,1.07309524689106,1.0658395931068,0.956388483194594,0.943820319683519,0.953756170188322,0.954011350780101,0.94318076430541,0.96688331413511,1.02511055232253,0.971169091461009,0.945130684255331,0.928475658551614,1.01342467833029,1.00698303003014,1.04839051405391,1.04809394374004,0.972338588136156,0.973565174034591,0.973979292474276,0.992205679610681,1.02416626005319,1.01152513295602,1.01328618185408,1.22948169289159,1.22986482884147,1.04387935403533,1.04422289875776,1.04611320518444,1.04471473031455,1.04609853943709,1.05444921592353,1.02454781127714,1.05478412462133,1.0420273194251,1.07097484956648,1.10384216424664,1.08728452506156,1.08813375208415,1.06967083464656,1.09697520774298,1.09305812230288,1.10028844048604,1.10947683900043,1.09432099034988,1.0988643596525,1.10063384268102,1.09015088489098,1.09373050397792,1.07405941925607,1.07444866812106,1.23047456382385,1.2284768047695,1.2263579153493,1.14637173805296,1.14723669884139,1.1446013046302,1.13528413967088,1.17171228787577,1.26258683721217,1.18926618708419,1.19091035309589,1.1125310395794,1.07064964600827,1.04139183899687,1.0121057106148,1.03948666219789,0.950730160062582,0.953727151002473,0.94838736526168,0.933883351657603,0.899291329908611,0.887132141357438,0.876173559375191,0.884802353318032,0.885684968720829,0.856318833800884,0.842089043312568,0.83956052722075,0.919799499502391,0.801982209087802,0.805211226537676,0.784281194579767,0.769308312914189,0.769498444325394,0.739622614140574,0.720027752760278,0.721365527788746,0.720275069331764,0.719179074045103,0.67192265528247,0.641640931360322,0.694886753984286,0.657460356098334,0.596053711107858,0.569644740288747,0.597603362072316,0.539403527531322,0.539589158100541,0.539704379959498,0.512700918910946,0.44334685675721,0.427013556991695,0.465214069100929,0.41913848919506,0.374826474060768,0.374464874836319,0.365225951665001,0.329533887484021,0.290579468045229,0.322761793913293,0.291096917806282,0.274724482133921,0.350963203357738,0.277510525268106,0.276635220616783,0.289839158116168,0.292005708969869,0.313808161406292,0.31768575330822,0.317990268713984,0.299689976038687,0.301056469168197,0.300037037816267,0.305947908684041,0.306023714656679,0.450609269542697,0.454235195111708,0.441473142508352,0.647968311617468,0.328536770901888,0.329184405420956,0.331227506949692,0.330334127521847,0.331570968050998,0.330397149838202,0.330302386506928,0.533040041871073,0.533232463089183,0.532933169425037,0.532938972928813,0.439136136727876,0.438872966296733,0.647829081899504,0.311411329920576,0.448945202007231,0.284897271630016
0.772830935226365,0.775028547385103,0.751834073719365,0.767601182580091,0.769160275508335,0.885696631436497,0.885740597856974,0.766409679970099,0.766265362660122,0.759865668786616,0.761291695941569,0.771757232827207,0.81302281625896,0.814996002065472,0.831221120922009,1.21017572359098,1.32788100938419,1.32820941162715,1.04644996734283,1.03159837502417,1.03188101625832,1.12375344317932,0.95268914235386,0.953655869162069,0.957029214964472,1.00325396799645,0.954372716889427,1.01481401958713,0.984166243098694,1.01810319259972,0.937072863270593,0.930717263546298,0.928720235757212,0.946443145916197,0.996690069380198,1.05551216562071,1.0050359128944,0.970642378868987,0.977094839711232,1.06396820559631,1.06435636991876,1.06509124039269,1.01185656813342,1.02595303803118,1.03191773535141,1.08205432228365,1.0579681815029,1.05816191858115,1.05104085916516,1.04441037459354,1.06465474143309,1.07454659849811,1.06072130153907,1.15222484174468,1.07154963720704,1.10755491885604,1.0853965978515,1.09456958955502,1.09983505698363,1.10476770767425,1.10330860120902,1.10817412783984,1.11477849108842,1.10629966456447,1.10042827345374,1.11860260744134,1.1102494373399,1.24090820232777,1.1105933516017,1.08382473242732,1.1206809615313,1.07691039677516,1.07657122803819,1.30207025305325,1.3018755446197,1.09715376994927,1.09823408782027,1.17187567688543,1.16711685916487,1.10742639328836,1.12662680738612,1.19323824180306,1.10533693752593,1.07695713270459,1.07654655216127,1.00581713407918,1.03548446951407,0.954476136246321,0.954605503808269,0.938605600202273,0.918452756141148,0.900715981599035,0.888657161541958,0.888132503965572,0.886165268572559,1.03211172061162,0.869259489430297,0.814067484380377,0.821468006797854,0.816717930632507,0.796835260116303,0.784159916703437,0.78611214170437,0.786872786162045,0.756512612985497,0.738681229141128,0.755812814840793,0.741570075007203,0.747220474484419,0.75291454899492,0.754681926159927,0.755560932016428,0.7287917032163,0.72999496709958,0.651492061866073,0.651075104329888,0.594245584151495,0.53651835180467,0.540855463292707,0.543115438403738,0.54182176698589,0.553230477872905,0.563538458321474,0.463400525109269,0.396018177657285,0.408623480408969,0.392058607850815,0.336791080413442,0.333685450690316,0.335341247210321,0.290393841410656,0.35372152171113,0.361043466664542,0.276933018558707,0.293213233754793,0.292463666196073,0.290347364739969,0.33194363116213,0.316830183326872,0.316774644189617,0.300199917929934,0.300617473880649,0.300194501595915,0.300502065902113,0.30016238284877,0.452122152462734,0.450810100288052,0.453895364102866,0.409014736982411,0.367481706564326,0.327754837761944,0.329180894197285,0.329518468638112,0.331167799199965,0.330035559115839,0.330527386205029,0.329736741752375,0.532480160291497,0.533590437803815,0.533889050388396,0.533960978853641,0.536050405261006,0.643840672312119,0.380603727056707,0.381326507307753,0.451446263240671,0.383884654063991
0.771025862559904,0.771657243185678,0.808020593507188,0.809224637287276,0.778886765222186,0.771672094520668,0.782776720944523,0.766556940597034,0.766182781680478,0.765808716025963,0.819012704495754,0.817205829081262,0.834475144405984,0.835084315275024,0.882666295515289,1.03903643192949,1.08523884559173,1.04171805251791,1.04403655209827,1.08699120336934,1.18054549660155,0.985890440786457,0.950351192323444,0.95192637239743,0.999212185338343,0.955669840561145,0.94995951265574,0.940910983221297,0.945719515256295,0.945733229100759,0.949255788222848,0.944466666599997,0.980281419604231,0.986331863313843,1.00464139649144,1.00065758227491,0.999605019364912,0.98565019078945,0.985930424465119,0.98513011041663,1.06651575155519,1.01594826233981,1.010652083776,1.02512437866645,1.03980536597199,1.04437395591033,1.09924321731619,1.06359732204309,1.06403160708829,1.06511027720854,1.06265042435089,1.07519412488151,1.10754290362334,1.08281826654187,1.1377812416441,1.09759528874343,1.09306239964885,1.13054518904556,1.1271653967525,1.11963850266048,1.13853703142044,1.13935493296665,1.13258607118869,1.12653113135594,1.18717249288944,1.17969381773203,1.22800441610697,1.21357311493478,1.11794414837391,1.11597605853617,1.12246566647673,1.09425511142252,1.17042704181014,1.21222766849823,1.21218370271822,1.15949596005545,1.16605387314101,1.17823669193123,1.16323490134202,1.12887866167366,1.20328866257689,1.14415054369024,1.08391258018166,1.07634614225316,1.07657780913217,1.01258566510789,1.04074020722487,0.957783509208898,0.955242290585861,0.936974734180852,0.955678448405567,0.927021677605648,0.887308566786014,0.885760591293909,0.874877079241519,0.87437408557209,0.881847144514028,0.835740397028896,0.825704260364081,0.80739461391912,0.797046191647491,0.786774112967558,0.815849684530508,0.830911983602473,0.791935901385423,0.774898408496513,0.825655918168187,0.796866699336541,0.809300920508621,0.831816183168731,0.81369816011459,0.813473303451226,0.72693849219454,0.727308063728802,0.711892121258945,0.658218732185373,0.646657384053955,0.627467589075618,0.572585456169597,0.543098580321907,0.572953394297561,0.507414144277861,0.466176149983241,0.464285630479683,0.501801236966521,0.397384915738752,0.377222336903586,0.398307578587187,0.363694304019482,0.331193523494708,0.346702951933237,0.343059833433825,0.359471874942335,0.36276962450874,0.293013647446796,0.292809998680017,0.29226277381452,0.331661617162405,0.304724335177174,0.300476566301545,0.301550616039429,0.301665991934801,0.301996079300834,0.301180041449437,0.302570931832007,0.303714662533161,0.303610856209646,0.302485292794761,0.38071523276032,0.45329630739502,0.326869519138634,0.327558744456798,0.329071677260022,0.328792945167077,0.329489916035103,0.329342342227295,0.624677676926261,0.536544887369132,0.534864493710661,0.534588975510869,0.533761510226386,0.64285708067687,0.643248471546292,0.380589127306688,0.380542224052082,0.380199560586752,0.453274791256723
0.768800331231108,0.774731106451288,0.795159111730876,0.806656440011852,0.803608274484885,0.800095804782461,0.796624378309649,0.793840109917558,0.792093699811661,0.791358432750938,0.824383932237534,0.826377256931198,0.830748217683743,0.871676828808711,0.892688862320872,0.942928765874893,0.947413845055291,0.945412900679088,0.943404612707705,0.94156859622529,0.941046710778568,0.942883642589424,0.94689992386975,0.948612794326104,0.947777335901742,0.947940792598312,0.947776798214495,0.945844928073248,0.946076387551268,0.947033267524338,0.948446419659543,0.955988119128574,0.965004869337705,0.980209060895143,1.00385480772114,1.00236100307215,1.0023500879182,1.00408753532718,1.00507053041369,1.00506654514143,1.01087617456097,1.02258448951103,1.02810698881076,1.03276339068957,1.04120854196687,1.04219501019096,1.09959495193377,1.09942677276679,1.09921006166239,1.09947300114949,1.10019881816484,1.10111018513217,1.10239338522237,1.09935073436221,1.0977872098935,1.0972446193776,1.1125668068418,1.12946474110558,1.12978156176348,1.12908070508392,1.13785491846435,1.1412174810908,1.18009765886687,1.18436702618368,1.1929925878971,1.20447267778977,1.21521195275129,1.18573370799317,1.1242764283417,1.12467579387583,1.13053019322809,1.13586327872422,1.18367448429446,1.20324693866319,1.19962601073988,1.18189761392747,1.16408351484922,1.16347280494301,1.16080628586931,1.14935219899114,1.14754159392902,1.12588130567819,1.09539832801623,1.07736410153644,1.07750226690395,1.05912878941402,1.05261931078714,0.961437069454542,0.960702292846685,0.94807341721605,0.946436863195722,0.916286482211246,0.89831213084966,0.89319645470878,0.889264234830382,0.886506760527192,0.884149587146718,0.841373014764559,0.830442217630241,0.809775039297956,0.803254284576246,0.787432856881538,0.788423667233784,0.79001291305842,0.791915379936485,0.794366222616973,0.800146115393554,0.806092426345212,0.816165115308714,0.824192631364061,0.805438049210498,0.766795173485711,0.727656016439774,0.728052825169614,0.704293779774622,0.653026391272975,0.646785570468162,0.62820610761949,0.581255105669211,0.577547914766747,0.572808351145776,0.501543618354155,0.465799564265735,0.464861951875239,0.476406293659165,0.435332101494007,0.414359860777324,0.404131793427843,0.373151669117729,0.365469590420717,0.346464352395811,0.344449476266407,0.345392964623922,0.345611798657652,0.292616691593313,0.2919858844338,0.294317917028508,0.30274458020576,0.302026504134667,0.301235483977338,0.301562475031043,0.302075140784576,0.30205830889888,0.302124991412741,0.302485457950395,0.302892551925916,0.302747406867704,0.302599738013082,0.309317773068771,0.312781470408622,0.328374934669395,0.327962174639114,0.327987253903008,0.328230832231793,0.32807143822696,0.400216548224772,0.598195746015183,0.583433903990113,0.570235034176129,0.554630147975851,0.535097445430183,0.536161359015886,0.536911912356332,0.410827573909069,0.429797356649208,0.448866037209587,0.463790693852552
0.766158995279863,0.777687422689429,0.781501639774038,0.821351765487642,0.915855950129654,0.915601971321512,0.915429839884732,0.826612209068723,0.810354455977498,0.791306906302927,0.826154614076717,0.894749403412213,0.82681841062484,0.932993612695843,0.898846170894349,0.929940309275462,0.949626083630186,0.935362661331627,0.937277909911764,0.938483074501259,0.925410109902137,0.925688270951755,0.969551349404095,0.930914605545173,0.929420186544307,0.947464674983052,0.948197271857584,0.946279830432084,0.946350465689666,1.04163673156217,0.922781912034052,0.968105905396612,0.947166529949963,0.973837072546514,1.00398271147552,1.00279481016774,1.00316417431829,1.00425668079488,1.00467912818944,1.00373991709738,0.982367486372425,1.04109617435046,1.04078195417541,1.09478305963508,1.04131360508464,1.04072042342563,1.12989579608732,1.11957573110055,1.10599981073132,1.13748985525271,1.14592350163549,1.1460428403812,1.16529160578745,1.14762724079693,1.09561860031238,1.09450994940453,1.16240098756207,1.16440459768895,1.13814246780009,1.12704029983701,1.13832125077097,1.1519346942049,1.22129292104198,1.31421593729564,1.28515675791934,1.27775246884769,1.22747583692554,1.12891223953999,1.12604556176166,1.12725856728609,1.17548595276938,1.14643014328383,1.20869928671517,1.20835767245537,1.19598234106033,1.22443951985981,1.16177473271428,1.15398263930584,1.15774891044832,1.21993624568984,1.14251502627188,1.10434976954521,1.10583758718091,1.0662143249613,1.10392135837788,1.06446470437242,1.06465866376638,0.972630878295624,0.962004762089961,0.949341969613185,0.945368934038106,0.907598985075601,0.903303376360353,0.910580354237093,0.907786682834778,1.00936286662668,1.0096040538478,0.84642533258335,0.835203065681957,0.812655641064842,0.813387732065426,0.785999701832614,0.786366856904968,0.785643296050331,0.792971450248827,0.797196695534512,0.784697657797068,0.822962882894033,0.819632230760967,0.829384664234349,0.787553071135951,0.725031715306194,0.727992237531192,0.729211050758612,0.69709350752887,0.647078573337004,0.647066493187576,0.628519403697816,0.590981889487798,0.611699567161088,0.57240394916252,0.495955964614538,0.465725103124116,0.455846438645865,0.488417734565152,0.473644892113289,0.423621013452423,0.437208245833239,0.38940703804066,0.393830949182427,0.348320429324253,0.343234026526239,0.346447308451341,0.3461772414395,0.288926408977851,0.291234129646986,0.352015604742494,0.30182316750379,0.30142775957569,0.300553217387127,0.301742928856752,0.30206738008865,0.302751689117173,0.30197942641012,0.302926917565663,0.302354405905014,0.302108428947271,0.302606728247822,0.302499148984256,0.302436658987878,0.650242631739585,0.326301110681065,0.326955571901205,0.3272041888822,0.327115129810346,0.616688561021432,0.627076243299192,0.627490077893067,0.595552279419404,0.627144193597189,0.535151397003574,0.536012663778039,0.536990668716171,0.307248966141308,0.64450318345954,0.535136029462618,0.509115576412307
0.788399428998895,0.801406016798006,0.800770387985277,0.843955126889869,0.918464717546094,0.91737153390918,0.900684034977925,0.914243008910771,0.901831637391185,0.914380056270285,0.841436257481947,0.901106580553278,0.917530200844085,0.918433779782793,0.949074101443492,0.930188585180376,0.934889472885606,0.935544934049627,0.93673936301145,0.942797955862314,0.924743926973362,0.924937200834172,0.925340981328784,0.924313598160343,0.923142195406204,0.940674065385304,0.924654727226417,0.924873181198797,0.932738565785201,0.925096205411631,0.923872714948337,0.972045989908284,0.994269035589896,0.990806466694661,0.986575243803509,0.986310936002871,1.0148169291562,1.01290002088359,1.01185459085795,1.01199112201598,1.01130663420112,1.00867409792539,1.01531652855581,1.10998783708373,1.03826797081162,1.03875804139415,1.04043568323868,1.08393464385581,1.10026182284698,1.11028954161809,1.20168706393391,1.12987748785349,1.09231482316409,1.13204475405398,1.10094498967281,1.12191999368917,1.11996209797792,1.12246467563246,1.17014305304772,1.18749745424271,1.18485305886125,1.17771789273111,1.15282032894726,1.17084746123416,1.26306741279645,1.28050335912127,1.23403728245066,1.20590614997741,1.21850217758884,1.22050918053597,1.22025356502947,1.19160643297451,1.20334407216273,1.20270784604851,1.1414373476309,1.12335377228199,1.12203719179753,1.12205283819023,1.13626428235684,1.14216549929637,1.12439523845404,1.09933502792717,1.13202520288403,1.05031089625967,1.05075056356262,1.06526672842193,0.996782013605383,1.05678784043496,0.982858545559084,0.950300393113125,0.947832174829562,0.952300972836288,0.942370501148425,0.930580825942634,0.936931154677704,1.1117129249321,1.0111642336828,0.844482103198604,0.839633510669392,0.809882650379622,0.808181652129155,0.785634036612721,0.793449854553515,0.843905565249675,0.785533500467273,0.85367056383636,0.853538036229997,0.814657008917687,0.817542928511512,0.824335403336743,0.787747391776391,0.787839398848261,0.73066766688754,0.73046275665274,0.696524295715336,0.638869362684261,0.63864253368314,0.630920310683794,0.584395487709562,0.576398254635473,0.510623189967421,0.495163441420129,0.471423469102193,0.445972580580018,0.446994267157207,0.42424603347186,0.423295677735851,0.424066988398889,0.387566892201544,0.376166874266288,0.348614444208472,0.343046943100976,0.342491753346625,0.289766244450672,0.28882222746703,0.288948884916338,0.352731725152572,0.352593246317554,0.300937941662839,0.300791861301833,0.30108418017813,0.302287053018425,0.302413955101648,0.303191844198821,0.30224619737549,0.302118845064259,0.301928436112937,0.302594328472001,0.302441159911586,0.302370449903771,0.361108145122661,0.638502655427264,0.703324634042031,0.629891569266186,0.658724635224845,0.62495888808331,0.615966475597049,0.629037787154377,0.580721795224114,0.536418228583619,0.536199997315649,0.535914322154631,0.374007892983393,0.541078092337017,0.646847437108218,0.646999471195896,0.509410329584257
0.789156331911531,0.884929070402742,0.84316919355101,0.843419760142877,0.859057698326751,0.860015688093446,0.861351388019808,0.872780945640818,0.880925107045057,0.880372287617551,0.883958852046584,0.881902982474875,0.879536574280993,0.924872005847005,0.931927144101104,0.946973210310752,0.944847257371521,0.924281107327462,0.929665095840608,0.925570355027197,0.921733143166543,0.921633072910074,0.928648108477474,0.930531781354614,0.930929640951239,0.921104570409452,0.922107253672675,0.99262667366823,0.939233309644198,0.926511101167611,0.963613428842017,0.972866087082432,0.983173622997285,0.98652377737411,1.01892226345234,1.03110103659451,1.03087586138711,1.03843608923698,1.0373151132684,1.06877636163854,1.06831157246669,1.01585486591323,1.08854774228007,1.0893262526828,1.11017389962529,1.10959605641172,1.06307937273302,1.09989954628604,1.09619570218833,1.0936257338701,1.09254654315782,1.09177189777958,1.09099875832804,1.12558963623351,1.16843899201752,1.1093006870387,1.1090585127962,1.24379115377553,1.20396982206733,1.24536456378632,1.27484205612049,1.26115237566942,1.15252512687861,1.16834765489215,1.19430706483152,1.30503950358996,1.21005338470728,1.18375895927649,1.22399160760348,1.2307587170789,1.21604647753154,1.21406307304897,1.16036355105447,1.15812732318134,1.21066506012059,1.12240244929863,1.12208043052271,1.12986143396041,1.1352046044754,1.12270666616588,1.12473787590875,1.09424947127185,1.05132191637299,1.0416649822007,1.01950532087533,1.08047369442558,1.01622294510596,1.05611578258297,0.989185268698954,0.985466577549942,0.956514564865109,0.988593166501618,0.989283798889757,1.00079495720307,1.02610089559075,1.30384304191289,0.836356153649817,0.831507694175193,0.840396184326793,0.942527597266905,0.790310778090247,0.77022101606271,0.76858839358704,0.786818710365148,0.80692389047639,0.810320104191476,0.833723132866623,0.835792856891204,0.817046013278327,0.790157653243066,0.806014654402647,0.691999917174419,0.69563472691538,0.695890955129276,0.67382343009719,0.585946734934584,0.550766846842852,0.529053459429127,0.530099048322957,0.529567598225497,0.528263832966907,0.529625802106884,0.456677703878946,0.446271961682357,0.445673546435816,0.424856278775017,0.421539495890822,0.390104951939545,0.385271392956435,0.380389826245914,0.349902999707744,0.364165176661402,0.288719327900605,0.290826230394055,0.288862234209394,0.289143883889853,0.353308014495537,0.353325911350906,0.300842660098777,0.300788563438235,0.302306334471272,0.302187986420456,0.302202429771737,0.302125509762148,0.302390539249195,0.301013255026797,0.302164754488297,0.302544036069068,0.302408606956933,0.302469673341709,0.313183062244242,0.705651473998414,0.703764689072026,0.702925678182454,0.709064016241779,0.625151850597177,0.615320836331551,0.631602234382844,0.565936147395596,0.543787764343452,0.538782699456667,0.538312744182317,0.438061155418191,0.438269221942009,0.437584730158644,0.508085422025158,0.50931030129483
0.796333429081142,0.796866005825417,0.859124056153785,0.867018825803284,0.864864436608293,0.8654726308498,0.872004994541412,0.871012236174755,0.882861453918676,0.885282433150107,0.895289180010063,0.919403809081845,0.901238896154149,0.901176469708586,0.901502390579695,0.945268337115366,0.944140748043588,0.954147829561369,0.956046558932037,0.958398190444241,0.950870936964995,0.964874887443245,1.00892566820514,0.950235922163627,0.943102554270923,0.942499855247591,0.95579827681327,0.947933213640934,0.948685487262075,0.948518684302626,0.96012666115132,0.970436265180721,0.96229085941046,0.99247527804985,1.29135029758013,1.03048872323302,1.02980832285346,1.03058521096931,1.03419658811735,1.0191122137342,1.0446920387229,1.05095583536453,1.1005961394875,1.06000794340528,1.05425466603928,1.05506008981867,1.05516939769796,1.08202319702235,1.07537999058429,1.06991127866444,1.07064013689157,1.15594157616384,1.12530839140411,1.10676109590118,1.10654266680436,1.10771276839123,1.10825148283051,1.20599570927548,1.19947636975169,1.12767276075487,1.27393132385314,1.25436086555698,1.25740403801329,1.1827750804054,1.18450881033152,1.20391995415304,1.30788480816143,1.2681076837711,1.23681302067149,1.20458018637205,1.23469485952068,1.17460656946819,1.16818494060636,1.20388881715047,1.21741418257929,1.21770235132334,1.12223837237708,1.20758480054597,1.13758137782703,1.14245561597481,1.10011206853911,1.07345851870651,1.09712685300256,1.01835966473981,1.01855565682093,1.03099838633503,1.01551480601905,1.005208234577,1.00368231950814,1.00313371969959,1.01749647377174,0.996328893906825,0.976007675419807,1.03509825147158,1.05380546326361,1.04489536573855,1.01365526788154,0.830947511224583,0.842050291714563,0.947909145690391,0.810380572902074,0.770458851423624,0.769574708822657,0.796735567957284,0.867545055324238,0.868596422911064,0.820909040917894,0.821297238487979,0.814336582768554,0.790384994488751,0.790413194978058,0.690245537989758,0.669936701813115,0.670492905908844,0.588398473489635,0.610958561399847,0.556313086697216,0.5203338972145,0.520857948131487,0.520213169647604,0.520001693226241,0.491023921139101,0.491458284369638,0.471170784095138,0.438939563257685,0.438966068722931,0.381313327788276,0.365168955908026,0.360517648138114,0.314855721126647,0.314665131958289,0.32823069518736,0.29295243713102,0.293012748831029,0.287411946611553,0.28438399684923,0.310458277335268,0.278545259916275,0.289347374097155,0.271222223801426,0.30238412123298,0.30311755438147,0.301235649771469,0.301091164929582,0.300878265875196,0.302036236395334,0.302010200911694,0.302189903576448,0.302015833856007,0.302076179332742,0.30252304691869,0.703529492747275,0.702919624104276,0.70354749616674,0.70572220971715,0.612159426661338,0.630506345319542,0.544065158863288,0.543493374950896,0.543207726858176,0.541351370354332,0.439329715893066,0.439139570387143,0.438533568831124,0.438129627019459,0.373636526008817,0.508122887995218
0.795306279378846,0.802340344957464,0.841730475126891,0.864924994059324,0.863860609809269,0.863865348540429,0.872451225456633,0.871449345432011,0.891914795648422,0.896188259154208,0.90214926834545,0.915245227978559,0.911983289775313,0.910875810484436,0.919089416802854,0.947786394176052,0.94844043955474,0.956334156220382,0.95643064181843,0.955785238812566,0.952402960032295,0.960350620392593,0.962986355985003,0.960463499023157,0.957495182975343,0.951269844271275,0.953349967078469,0.956499441767441,0.958006880444903,0.95868010111942,0.959594643855862,0.960210466304724,0.962179977875647,0.994301899537719,1.0645817397731,1.06022740994745,1.06225274869415,1.06290073667203,1.06251612959053,1.0612192975748,1.05909363456732,1.06029842097814,1.06119100240291,1.05835670491802,1.05518150279153,1.05478318736411,1.05463462518658,1.06301595287289,1.07348349336167,1.07647561886254,1.10023776770783,1.14197390024793,1.12891458842565,1.12816561306607,1.12706760237251,1.15311290940092,1.17093681657765,1.20013844154524,1.19591201291857,1.16907526684021,1.20034316576083,1.22270622444918,1.25279840556763,1.25003995488587,1.27163742688628,1.27618766006831,1.29972525265262,1.28935298249099,1.25959948651426,1.25571751215186,1.24870686291221,1.18721456635289,1.1943536601001,1.20768605481946,1.20911907618887,1.20775255139501,1.13580245825411,1.13522904438487,1.13151183921592,1.1167624544299,1.09716688368057,1.07205040291333,1.07039913243311,1.06385165932187,1.04986765184645,1.04188943158074,1.01797250140342,1.00316065885679,1.00348090568367,1.00371895758626,1.02346914487824,1.02659168421582,1.0285789414702,1.03083616162948,1.0488996712813,1.04640463368779,1.02860539894632,0.860198830054011,0.860154528685618,0.859528064199953,0.826467783819388,0.804566146098205,0.813140175377683,0.821149933127777,0.863948149513799,0.860897571817475,0.820980873897895,0.821425848115276,0.811243654975369,0.78197267357028,0.776800123702221,0.688968577725387,0.684773760412399,0.664015096306712,0.630077042714796,0.611384165116943,0.552508758688093,0.526174920955979,0.523554178099775,0.520988216775247,0.520352123472269,0.490786836198089,0.479159276199196,0.470138189837144,0.43858324557456,0.407080865027214,0.380049735207094,0.360453165220554,0.359178888408344,0.3377667080728,0.329979272481108,0.321141629835584,0.29843817142072,0.295393000416845,0.298458224459018,0.302685025499519,0.310936473734597,0.309155826758292,0.307594576292437,0.30597310186398,0.303648558086267,0.302769967169076,0.301758089574299,0.300773296838275,0.300552984514831,0.300670498352539,0.301352135399261,0.301553056778474,0.301496140035716,0.301322740906228,0.301584176270149,0.346508688582228,0.379444807896351,0.582825906145551,0.572305989836516,0.565103594251802,0.55708712729484,0.543986237381695,0.543469850784683,0.542882641636598,0.540792073818955,0.48965118271559,0.438393366629617,0.437824928635531,0.437020423827932,0.366077823579528,0.350372659629081
0.794214636776409,0.807948676261755,0.819643965043645,0.877995345895455,0.835727470803426,0.835603958916066,0.873029293430449,0.870251795969393,0.907129977290335,0.932381640130733,0.916988523487853,0.917013206983639,0.911269779557904,0.906499207827366,0.937369673089495,0.971790270269527,0.970021359029285,1.02077858202343,1.02086937299186,1.02108970361588,0.940035839454203,0.940138045726623,0.968135295282842,0.967882127013094,0.959976170957247,0.950047757127291,0.950343940359365,0.96289345818185,0.963239239823727,0.962348523234615,0.960205752676911,0.957701660869583,0.963434288866967,0.99556219339846,1.06889107395727,1.05793007030843,1.0711371585472,1.07056125403556,1.06592343417757,1.0615031410497,1.05584545692827,1.07746244116622,1.0641767222073,1.0528081007269,1.0539972719384,1.05440309996911,1.05420987787723,1.0600431817434,1.0710525946028,1.09236361273901,1.12852015258201,1.1591954696529,1.12867803769082,1.16618073481049,1.12644793463485,1.17269999775507,1.20716539968564,1.20725960199783,1.18644529706787,1.14814624185565,1.17448002650664,1.19210555255073,1.29848224848111,1.25085950229405,1.31119198837955,1.32341769487743,1.33507756114956,1.3109844676989,1.25994977652449,1.26945441935556,1.26940767610008,1.17596722998393,1.32266697547465,1.23786513094236,1.21298147777682,1.20468072236709,1.13622564571832,1.12335047005205,1.12761674591254,1.10790712317056,1.09426395729352,1.05991569624422,1.06847460261993,1.12236844165385,1.05795110775568,1.05272295552936,1.02074021991197,1.00061490083711,1.00232212147351,0.990481132068081,1.04131805386249,1.04162581885458,1.05965414442625,0.984778772717392,1.04964228307113,1.09494915437993,1.09542650403881,0.85877098519787,0.859095470530267,0.85737318757344,0.849791322916939,0.786787663366018,0.884459907113741,0.83042568169946,0.878690752017337,0.859497462241525,0.820202119103617,0.85731307559291,0.807551949505788,0.764761029620144,0.765580776168302,0.688630942423391,0.699678406573912,0.655614525567054,0.667527419199505,0.612243523770326,0.549983254600621,0.52818181807724,0.526586695034682,0.520596657021481,0.520325321824052,0.490647272513144,0.46855983364861,0.468767497719462,0.438856700237942,0.363943556530818,0.378585785460795,0.3550534169579,0.356719693495765,0.352287594909412,0.339034103355093,0.315508292907362,0.303167915122383,0.289343371109876,0.31890863830196,0.320128977066018,0.31278829732104,0.312259257071081,0.307982731787371,0.308511891265169,0.303309226548526,0.302589149034499,0.301340993632175,0.300374393055637,0.299106776689627,0.299408265659965,0.300648624577415,0.301485608931799,0.300874936928206,0.300639078603221,0.298988687994073,0.299295284773819,0.317511412559755,0.608824327293458,0.316228838816851,0.316298789851013,0.315799688939575,0.544357302848895,0.543824770869635,0.543850285235832,0.538923236651099,0.537820912065077,0.438187656128281,0.438021310446082,0.434358253614009,0.280114502478572,0.280694382884533
0.84448011164587,0.846461985712469,0.848189119693979,0.817073111222089,0.852561995937563,0.860070119660582,0.86500860331632,0.946489881087974,0.934057254716339,0.941680270025832,0.915783780146708,0.91732706342133,0.958365734367652,0.9063097489763,0.906692650456141,0.964647477075432,0.960755961330031,1.02002651520205,1.02065551733041,1.02098943571922,0.992089272074194,0.979057319129481,0.996351213984337,0.967439168636994,0.969100404882264,0.969550452449371,1.09283248774936,0.971519258265599,0.973893051084721,0.976601736747554,0.977306302006614,0.971249392330242,0.964245735359418,0.988691118134652,1.04283466069471,1.08695581248844,1.07132301735836,1.10679427145111,1.08493770768417,1.09173128405058,1.0702331533201,1.04737000430752,1.04752405930183,1.07030686765327,1.04375037365128,1.02266697557419,1.02200430501081,1.04719932031232,1.06851885608006,1.07748031155313,1.08203147600741,1.16421398964916,1.16329528184043,1.16736922151559,1.16795949332432,1.17068766347122,1.15145259028922,1.19545950503685,1.1772317468592,1.17007878199272,1.17472009264758,1.23955769282778,1.24730916244632,1.25501120587163,1.24083152694268,1.24135248717142,1.30432352161698,1.24763468174208,1.25527698624008,1.25277008079871,1.25262439092264,1.23831780126056,1.3439029818975,1.3501676660762,1.20449275001746,1.13762621023311,1.13714639929761,1.13969787265706,1.12875399581353,1.12528884747606,1.10974357953573,1.08968582668753,1.13592899345029,1.08466379930715,1.08952522813622,1.05795123254394,1.03035925379182,1.13219499622097,1.04822984737476,0.993370792932069,0.992967424182177,0.992197646872772,1.05053725930059,1.04902158020676,1.01112716011053,1.01137286481236,1.01987367938306,0.903126291404212,0.882402385775206,0.833430970938802,0.80084226546208,0.800248588998846,0.795579934648105,0.795667441358136,0.809686222842381,0.80914231485903,0.808667403702752,0.801611485155692,0.801474109860171,0.801117006702733,0.767048935821046,0.722278859501107,0.641225419486003,0.624712283111975,0.605976624832481,0.606778015303715,0.568784561884488,0.527896318693526,0.52741362313563,0.527003923230069,0.525483886870699,0.526882718964792,0.468335728256232,0.468549674163633,0.410826669803957,0.394127976492991,0.366420598830358,0.366897879094448,0.356399799668412,0.345115248104674,0.350415846582834,0.325905097648318,0.292963562071826,0.276181272651095,0.263712600951323,0.322425903658079,0.325366342139793,0.267077253937734,0.308300170254198,0.307928430729426,0.259231911563983,0.262445369333147,0.29976854735215,0.298361301584543,0.298609020694812,0.298204600722557,0.299236477462817,0.29977473005545,0.300247823847857,0.300500122230271,0.300681532886777,0.301276998330799,0.313929753477076,0.315936966133875,0.316868176157491,0.316281270758835,0.316179261612473,0.315478427237927,0.408468318140155,0.63148373035123,0.374622215492969,0.536532870009474,0.435897907322727,0.316314704988431,0.332906602269315,0.33230193143629,0.28676439499883
0.802978309421571,0.846884459041656,0.807993279564666,0.80813009664511,0.826658190632804,0.836503835086075,0.88712709555807,0.917667099370153,0.920097627692341,0.925335546796365,0.96034903358844,0.896857994710157,0.965940822147608,0.906242061033257,0.948405066167984,0.948015054413054,0.948400265972539,0.962887539467454,0.989189774442671,1.01952487909544,0.956748877356077,1.01271309793561,1.0359273193564,0.971753141901435,0.969559407857669,1.08968574822663,0.993499963662407,1.00951308568493,0.982740961441896,0.976594363197439,0.966792891786436,0.956661071360377,0.956866880321466,0.989901985251951,1.05663866187422,1.05629329585513,1.07394189155785,1.07418730415172,1.07951985330213,1.10882900277869,1.05917752733349,1.08082276676718,1.04497481744681,1.05195632203805,1.03382703577394,1.02135109119792,1.02142335423816,1.05092899935356,1.06593122352794,1.0739336963823,1.08565273287444,1.08094547407705,1.09674388454421,1.16740256884907,1.16766516144959,1.16879571254663,1.16979574904835,1.17123874346513,1.16994705962717,1.16807840896244,1.17384952405268,1.23830150621086,1.21177821979781,1.26672931043227,1.25796198620219,1.30177968105722,1.26440664325485,1.30488875024431,1.27189949978228,1.26273905913733,1.276273863759,1.2964432017581,1.29737862260132,1.29479614608048,1.35399301508399,1.29006783543536,1.15741605872812,1.18657506563319,1.17780014058555,1.17543896197595,1.13623838024576,1.13451101022169,1.13168332096633,1.18174195675629,1.0689189565253,1.06766116563712,1.06730705104038,1.06668578077302,1.06707672721627,1.06701086861239,0.99282550173893,0.986400713691092,0.98452658247895,1.03093096945406,1.03041569637177,1.00907051892117,1.01620419827268,0.903082917472307,0.902683525424213,0.979964405142286,0.799836830168577,0.799010864990182,0.796952632112593,0.796405803614103,0.808365225754585,0.799588949517752,0.824629505948672,0.801173932183345,0.802206906094397,0.802677465851385,0.767061876881796,0.699617972592034,0.69912240665806,0.625065854429996,0.62506195191695,0.607685238332455,0.564438559368147,0.578875514202721,0.56824096044276,0.559588605551258,0.646654971828639,0.524601290345925,0.53391118228576,0.471163525569649,0.514820641572042,0.364613004639591,0.36527941338074,0.344419559673723,0.356198516533916,0.355386232941736,0.31637550790014,0.3242812367513,0.292270597094236,0.275859252594563,0.270284049406123,0.313316609069993,0.314391764336314,0.316591639647791,0.308710664883712,0.307399093644128,0.274985493163038,0.263142636367588,0.297531159065756,0.297370791766011,0.297408693905845,0.298209676777332,0.296865169814749,0.298835116436841,0.299293490333425,0.299962452302609,0.300552460448253,0.302066284416374,0.301871967265752,0.315494867974613,0.315669728385196,0.315600779113709,0.314591699983775,0.313579040587948,0.379618143517381,0.404826985993903,0.410915791203886,0.534743083460436,0.535456320599153,0.535219136170802,0.432292292195925,0.3327245509578,0.334299157296808
0.813963632095042,0.810935575128074,0.809354996363489,0.865326898787222,0.81689333633535,0.828227418080373,0.936447958030903,0.896663787838596,0.895511381950617,0.884644648845134,0.885611287371358,0.898175083223527,0.907082871629225,0.924687503162808,0.911459810315606,0.962626529081545,0.974178737746427,0.979832735358433,0.97698650379066,0.956796196753452,0.956444101412621,0.975558364664048,0.97505048902973,0.973428702161964,1.01747671155928,1.00062405534073,0.995148697528109,0.995046410576338,0.993503379774523,0.991556000228904,1.05754941320155,0.976738250800877,0.957244743567615,0.971315798286107,1.07130970053321,1.0756217310575,1.07401691024191,1.07210218180657,1.07194779404153,1.07249581126363,1.07150877302431,1.07018139994819,1.05885997820394,1.06090663679913,1.03421027641345,1.04800207184315,1.04821371999466,1.0501003735805,1.06324290814689,1.05834239045572,1.07249368307253,1.09629805538608,1.09393168071156,1.10362215114062,1.18481254908622,1.17269865428712,1.16108485609794,1.16099882347981,1.16989233728625,1.16932519221819,1.18125369303553,1.20389199602875,1.24444067776581,1.18634751913363,1.18619049631659,1.25634517169783,1.26663599193552,1.24086366635668,1.273202189877,1.28440848634433,1.240786832673,1.2022712723213,1.29361754675572,1.29258594552282,1.30273845883749,1.28986203137867,1.28984716465328,1.17959673364636,1.17953212632831,1.15422147796694,1.15484474738327,1.22762409141631,1.13672034200537,1.13758611874849,1.15466659289752,1.08436310940315,1.07977029313652,1.08344324525109,1.08105241922529,1.08534461067155,1.08494911394185,1.01748134359554,0.983670050046245,0.986331245260444,0.999176887759948,0.964858070481537,0.934491848626935,0.901180452388582,0.901860965664144,0.891742757090025,0.827858169791169,0.797852643953432,0.797727887940013,0.798019108189689,0.79749635440465,0.799560993634533,0.800303466739144,0.796826410036634,0.791539754741859,0.771928612229931,0.768380142511413,0.746472731729486,0.728947212113655,0.710523313132029,0.683949852746898,0.680268593994927,0.620944979813547,0.576045986107735,0.588987132728808,0.630475568485385,0.568640737167241,0.524266544174186,0.510869844874959,0.487926098731018,0.479170733252251,0.483788983724183,0.384240439431748,0.364314094338663,0.364035317330301,0.364298333984806,0.318283847263743,0.343182509774216,0.337047239497676,0.338418149087952,0.290393365896658,0.288900310274658,0.312637476093871,0.311337844490854,0.310042191588388,0.283639289689688,0.286845563221096,0.263173774530497,0.263324780653677,0.296110849210162,0.296542641919722,0.29667843378096,0.297301896560879,0.297516405499672,0.298645296875239,0.299285091352656,0.301134704051311,0.301910307829879,0.301728654392701,0.313577927849229,0.314306031343438,0.313641266109523,0.313648764114921,0.312913302466429,0.354756614842614,0.405038439855449,0.405939853903896,0.339510428959982,0.388806989980578,0.530262643295033,0.331784309886835,0.31829130945971,0.345648043556581
0.816490993989142,0.817631984402923,0.819307493705695,0.837447230776566,0.838725595509739,0.83998719894962,0.871809770574026,0.885654739737962,0.893732054454643,0.891503331671249,0.88780919912707,0.893688818718165,0.897249473187615,0.918855261436615,0.914124118516076,0.942010778826754,0.974271649630767,0.972942287867813,0.974368239049022,0.96488280515698,0.959629328081954,0.979479449552257,0.983644126841252,0.988781176944066,1.00924333812412,1.00370697466776,1.00136221409149,0.994175138919943,0.994694213274552,0.996696034463582,1.00916749917021,0.979683262850522,0.979974176046436,1.02866877520244,1.07294606155108,1.07445293995484,1.07373840688841,1.07237292803111,1.0717970034671,1.07200316691524,1.07221167022094,1.07204360910468,1.06162344096602,1.06130704495975,1.06227222560941,1.0643876262991,1.06540620258681,1.06572082206608,1.0657820506951,1.06583184812064,1.07702870779679,1.09050239466427,1.09974714555205,1.1005667929179,1.180998943293,1.17782506611169,1.16109121960032,1.1610714158643,1.17414332269098,1.19228055017553,1.20744016395191,1.22257260944641,1.23961471922129,1.23663466506467,1.25040914553329,1.25433584007852,1.26292382453001,1.2751921787663,1.27544279358279,1.2793462129272,1.26417691234275,1.25843057847407,1.26700270063321,1.27020142096279,1.29382735094473,1.28947670127757,1.28959671526559,1.21078760514775,1.18332018821934,1.15439739502626,1.15541687320898,1.15771571355584,1.14820534166442,1.14309241102867,1.12066895794324,1.08727884899389,1.07906327030327,1.07665867018535,1.07327647990621,1.07013936225476,1.04657669120628,1.01502261644148,0.992396947675696,0.98979731582759,0.985483086135823,0.965329468561897,0.934463694923549,0.913078018987773,0.90733215154606,0.873638252329513,0.834556856177602,0.819681330659069,0.797698986602976,0.797913222116306,0.798402587031665,0.799659142243423,0.800053374923305,0.78895643867018,0.783563727536535,0.773413063456697,0.770995117273281,0.734604390712785,0.725878204690576,0.721321434097676,0.70221225538882,0.692860859733905,0.650509838190837,0.607877011988554,0.594592419395646,0.586681423859974,0.583531164886835,0.546590226173598,0.50784093463613,0.469279650855596,0.457411489034384,0.439035916954365,0.393480744263958,0.372778616264188,0.363612744814756,0.362528619247544,0.342767485918826,0.341477796507938,0.338827084798698,0.314768407505111,0.289761119218603,0.289388769289784,0.297092931149164,0.311928722636422,0.311253852445967,0.293439239731482,0.281290619520581,0.273950955855915,0.273528361441323,0.295181338064722,0.295852372063828,0.29647725851242,0.297122121007476,0.297660029607598,0.298108759428699,0.298962175378528,0.300294851196806,0.302335576001743,0.302868463796954,0.312265110199761,0.313811727698451,0.313786329231551,0.313360130176054,0.312922541433248,0.319213143953733,0.324335882514874,0.328614601049867,0.332191014397175,0.354808365240723,0.352048446177525,0.322856374650672,0.318488899266982,0.318380877367523
0.843405317516757,0.821091300826851,0.819452987427864,0.834754034511464,0.837627066292394,0.840599949052911,0.859042524885926,0.879468878032988,0.893649620677097,0.906738270530299,0.875631141357508,0.890849149271989,0.888278642217529,0.934088257037168,0.912868184359181,0.912512376584018,1.00678697835062,0.970970974397337,0.972889281465464,0.982162398230685,0.956306337296047,1.01476011779178,1.02601307192481,0.996078491347663,1.02162588200128,1.01990913306168,1.01015764478447,0.993535398964674,0.995164373116085,0.998368381242711,1.02467668552321,0.978548430622049,0.980104731481722,1.06447462725531,1.10582113096498,1.10599699507938,1.09235014170448,1.07197710766863,1.07169753467,1.07203337226853,1.07371824167642,1.0739500379444,1.06076811506449,1.06779054722277,1.06017473220526,1.06604590346888,1.07488839297577,1.07697887273341,1.07258418229367,1.06615243623815,1.14866353566932,1.08220936254206,1.10347789030921,1.09775966011507,1.19128666889355,1.17957563580512,1.15477238204566,1.15507667392427,1.17652123787557,1.21045815087764,1.24274578368645,1.24132652255015,1.27536168311022,1.23530246257537,1.25822743743998,1.23530595666736,1.2345644500063,1.45814762650481,1.46216814922734,1.45831140658035,1.45045884429039,1.24064027285172,1.2037268530825,1.20446172052915,1.31248559023344,1.28922370631063,1.28915668349373,1.30279553633316,1.18530301564066,1.15394435615986,1.15458190915341,1.16020866318478,1.16821927600288,1.14958720202613,1.07943580174923,1.08975115242524,1.06792070255805,1.06725183424006,1.06657523852627,1.06878218159203,1.02830985344307,1.01318551215483,0.994504908527561,1.00301883850242,0.975891244518472,0.96552136365721,0.934204786833084,0.925003847041408,0.910542511056353,0.846155534943226,0.846458901224763,0.834823491144664,0.797858151693891,0.792521360501597,0.788123648495019,0.861733925710506,0.861588028278107,0.772704027246511,0.774579768583451,0.774248518665217,0.772690610282043,0.726763845925435,0.723148247221766,0.726653539580878,0.729491236841735,0.719210266815729,0.688604642088201,0.621862182667693,0.60564083523796,0.575419561862106,0.63353001723835,0.574226227604906,0.504830077134432,0.440010357807621,0.439636642519538,0.415353242028082,0.414140866828913,0.389859269931628,0.364299887252156,0.359769374231565,0.34398078551063,0.39328868005869,0.345131930401932,0.29219065063821,0.290571006526759,0.290286259298612,0.289645564404338,0.310350674249027,0.310673156081031,0.31004916289779,0.27621511791853,0.272575839850103,0.272472410276499,0.294012519094793,0.295692494102009,0.29637750002243,0.297778011239509,0.297756988068152,0.297305603679869,0.297864084687585,0.299170277882654,0.305030938251488,0.305317108670724,0.308450925584481,0.313983671406699,0.314391200400653,0.31270023065204,0.312249658068723,0.30197541196373,0.295281596563269,0.295511794930269,0.295786242196096,0.356412579464491,0.348680080965116,0.318867133863431,0.319149153386436,0.318849190350199
0.824235647531838,0.838920765576245,0.838742551788943,0.840813834555223,0.833645200658163,0.855885019990865,0.842663042034181,0.862939855050809,0.893833168667365,0.925932791049346,0.910106489021588,0.865349016523743,0.901300156581026,0.892518614759678,0.910457278628924,0.918114424894001,0.972352811128398,0.971561907431494,0.957521513929909,0.94134675065581,0.947893142406654,0.984288846164741,1.00348987411176,0.954060314578869,0.966672522985482,1.01161642143246,1.01029214374058,0.989481905408499,0.994031621620935,0.992295193370689,1.02508587012251,1.02561887872381,1.05226546273509,1.08174790667404,1.07845042605087,1.05750578189114,1.05773132683447,1.05815608717334,1.07181187125592,1.07307982301572,1.0740648465685,1.0745306067382,1.08016918219791,1.09570892206018,1.08285165837914,1.09552220130192,1.07149490817725,1.07709870018865,1.13017619381408,1.18922245891286,1.08041580834955,1.10398488128396,1.08399251219842,1.1122400164057,1.19140010661358,1.21075943844609,1.15445189807468,1.18890045119654,1.1838585877769,1.17979501798915,1.19874761167946,1.2508315112349,1.24997104616302,1.23413608361201,1.25782546142136,1.45648333307992,1.45508283156232,1.45381493991515,1.47494358448749,1.50509731735868,1.53280127181999,1.48501787468931,1.23314781150526,1.23916042735572,1.25023510489536,1.33106139638542,1.43595899498853,1.28517044454604,1.18707418703495,1.18413451146639,1.18326836291263,1.18455620013889,1.16381748049983,1.12307485098167,1.06094089240412,1.06060984446298,1.08999619196319,1.11679098881562,1.04873264735857,1.01879776047766,1.02871137726081,0.999606534952656,0.985214059742133,0.954545449270242,0.938268599228929,0.933992984268162,0.926709087920328,0.937160230804833,0.914485961479444,0.921172816541772,0.864896219957139,0.857516436135518,0.86016202050008,0.866501533097516,0.866271202712784,0.80404005622997,0.863022768467134,0.775689173016497,0.775683700687767,0.765873768078182,0.806981238954093,0.727131626267206,0.726115163507718,0.728312713953424,0.7291482261507,0.728093977638763,0.709343810381243,0.621397819955154,0.614500912497114,0.622772646920664,0.48258460685491,0.503829017377875,0.459371827769446,0.458146459555525,0.416092752058084,0.416913520612402,0.412869686489466,0.364653253307795,0.364576230061303,0.345326206038794,0.345677834638422,0.345884274432755,0.350335067721674,0.325327093864039,0.300071104671281,0.290253834827093,0.28971334199968,0.269123085451016,0.294359551357466,0.303943726407767,0.275998436348589,0.272091006893847,0.272789620777253,0.27989305214032,0.294491708183694,0.294773341396719,0.293989010349831,0.295652746669724,0.295387765004214,0.295410168366093,0.296582160999163,0.306795699887674,0.307356231760557,0.307188246458457,0.311808838215363,0.311333661247134,0.311547488317066,0.295468254093102,0.295621849665833,0.296050944962007,0.296090772122432,0.295870050020274,0.344880236051881,0.345569133248417,0.532951213557651,0.318618083215146,0.245416756539071
0.823427497860456,0.854542735089327,0.851353308665261,0.861103414524591,0.874830026716128,0.875397994180229,0.859126272101565,0.875637736581442,0.895264712381434,0.911510559198758,0.89071774640506,0.966198176370008,0.962385672829125,0.887720553419107,0.887641856738868,0.917161348051811,0.90989186614737,0.942776263586657,0.942788104413522,0.942037675307819,0.93898113475234,0.954488493600596,1.06714038941593,1.02407842517866,0.981276041820226,0.973057316586197,0.988848497301299,1.00287638953602,1.01107551384357,1.05696092376193,1.05559697390572,1.05464286291795,1.06018444016591,1.01952622082246,1.03225827219817,1.04817183969553,1.102285691306,1.14337394852654,1.14297869881505,1.14963331355651,1.1052353383619,1.1046119093771,1.10369776365168,1.13953842300267,1.11440743065967,1.09286563476149,1.13319062146457,1.13272583403146,1.14266699355781,1.16633514324047,1.10972388245017,1.11307068226584,1.18150647547374,1.13876741890486,1.1390161375323,1.14077227635377,1.17451687526229,1.17481907968345,1.1858154051991,1.18557583695583,1.24628805575129,1.25665446045379,1.49950610226874,1.45198544568242,1.60118163962648,1.57112749693218,1.48094680058621,1.57517867736433,1.52046179686275,1.50028659414007,1.47737076580902,1.4755405194054,1.46518386446447,1.24316232846835,1.19730663792495,1.24295155506051,1.23090382678953,1.17701546116785,1.19181839528942,1.19850444954196,1.17305625383833,1.15884154037257,1.1575987101421,1.11171283457583,1.07857021580631,1.07035242907094,1.05354912962531,1.03040064623753,1.0326538377857,1.01009007032557,0.998220119828052,1.00144902276833,0.983474131495121,0.924835188171525,0.92444700594563,0.924838199034016,0.899560901736586,0.901217084566506,0.902989518451107,0.902565420737456,0.87639971479505,0.895352767905248,0.877312541543104,0.875751401614699,0.875372952607824,0.876045205960748,0.796767249755225,0.778686981397354,0.776444673394343,0.814900932521472,0.763262439132388,0.742282600135525,0.733217907069255,0.727005727759935,0.726919374579924,0.720118822457396,0.677429708792859,0.620947993235679,0.576928784532574,0.481344657008026,0.482331527402805,0.466797148204411,0.459103773387639,0.501117256710613,0.429140852432668,0.416054642799311,0.410208230935402,0.40084207903121,0.40051548791263,0.40046398449512,0.345639621888545,0.345381878011008,0.322526596320028,0.311398047759537,0.311211010923078,0.278312007851945,0.278705930449375,0.290890749293323,0.282950570777886,0.276210381641634,0.296628025631369,0.272326954238024,0.298340400114107,0.297453249946353,0.295207819779429,0.293116761914198,0.29224118872896,0.292264015302315,0.293428840660895,0.293985275748599,0.294750268691893,0.306581264797614,0.306576790592136,0.308534670168465,0.308249291698868,0.310329492152083,0.309345461318904,0.295517255645595,0.295695108143959,0.296328385596029,0.296550789342008,0.296018814188495,0.344887810939511,0.344576602179283,0.64489788523885,0.24653076596846,0.246731969706453
0.989816008908794,0.990707898766441,0.854718276751557,0.914390458968871,0.871060429711959,0.8823526951703,0.903838709909263,0.903026414396675,0.898521503296655,0.896049810824313,0.90827809854272,0.914396015331824,0.931809509453746,0.903852017835098,0.951354880996726,0.903986871220549,0.918724722487279,0.936881444946646,0.936172712948728,0.934396017302704,0.940303524238339,0.941110354344116,0.944140660292819,1.02465626978219,0.972483137128864,0.975321824414557,0.999100396869835,1.0248378100293,1.02435335463849,1.02456264854095,1.04699778244568,1.01279759010715,1.01263257797362,1.01875685848323,1.01988829391025,1.03628757233947,1.10069039506077,1.10628276798492,1.14143249945297,1.22313953332085,1.15664292498222,1.12011926739189,1.13301839926251,1.14312470504761,1.16804895973254,1.20095208359695,1.16850079065963,1.16972543496491,1.16361751080019,1.16094843100343,1.1849630062418,1.15912185519081,1.19104091588073,1.32168712770946,1.15162178783559,1.1918079176109,1.17724690340204,1.18376967383051,1.18838722578876,1.22750230521804,1.29240752786964,1.50160709340974,1.47119412004123,1.47129214265099,1.47200036712225,1.47742061831637,1.47888518046683,1.61088566788651,1.51842040459508,1.50101748053864,1.49585569919513,1.4939058441823,1.47511257456209,1.47020888923327,1.21520855362723,1.22411588029534,1.186909984994,1.21817698980101,1.20276332071804,1.19630619690821,1.16668717738151,1.13181747638942,1.10738452728809,1.10221551284065,1.06240847144137,1.05066643762212,1.04243826495666,1.03953984950462,1.03411143588024,1.03195068068081,1.01229332332849,1.01240041739656,1.0123352478601,0.956712297564725,0.943805087933127,0.930404576190847,0.906522702499145,0.90788826051994,0.906294785758226,0.907812336474197,0.915814087996842,0.861138135749715,0.857765139519393,0.833039277213417,0.821165251455449,0.865330591158267,0.778428109194339,0.773877657799941,0.775299652024595,0.820120462270879,0.819834773812107,0.719403826738034,0.732516453299973,0.681604361537374,0.722649270964564,0.722445113178989,0.673882017411563,0.560566361315954,0.550584260820409,0.530091180318673,0.497909190414373,0.521112397941281,0.435486709683134,0.46306868418261,0.416445717608383,0.41414787595235,0.409332698775296,0.401980263980838,0.400523315199223,0.401048098552411,0.419209076046243,0.418665721589081,0.32346198030573,0.310712015152074,0.310499758005504,0.27726946326756,0.271341965774968,0.273106378688457,0.280352440970765,0.276398824405187,0.286114949609335,0.322865039513557,0.298935428115622,0.298590519129018,0.298444127113018,0.289877002276696,0.290933431517264,0.290699150880424,0.291839952075126,0.291460867872876,0.784244744253704,0.306266159626989,0.306854031815135,0.306597708271458,0.308609050661252,0.308055897405662,0.308438797848965,0.295501623376149,0.295655841940184,0.296135598321336,0.296025006923437,0.295616452327382,0.339372849668852,0.26540432003928,0.26579334762367,0.265721286839765,0.246557599958373
0.95375758068022,0.93832186602895,0.927631942462171,0.91538073653153,0.913493599403087,0.91371791269443,0.914680167935033,0.916230746006386,0.91737633102892,0.917231604140854,0.916065729498846,0.915193663787756,0.92281550872645,0.925512621236891,0.925967010666781,0.921113999174619,0.919284360423774,0.937296217304068,0.937436150480667,0.93760707163444,0.939976343374698,0.940445945207564,0.949601530101088,0.972808666348601,0.975160401621471,0.976976361305845,1.00848752639671,1.02884680152689,1.03282636077256,1.03738794804828,1.041532247331,1.02855311923147,1.02695097756167,1.02628254910669,1.02522215572181,1.04031221759667,1.11200583114055,1.11628495504621,1.13878691231296,1.13839104049393,1.1292145627647,1.12514880008727,1.13879473364287,1.14976962528544,1.16074996196854,1.16222202932743,1.16500041489525,1.16621841080546,1.16502153017083,1.16315632652226,1.16359830941991,1.17648956259089,1.20571635670549,1.21995068548791,1.17403087684873,1.17515406080492,1.1756593408183,1.18753751060512,1.19701361095605,1.22592734077046,1.28497367806264,1.48229185803326,1.47998445438241,1.47788472306362,1.47798074505239,1.48280107866548,1.49604798420915,1.50915696801678,1.51904282787043,1.51384606853579,1.51117926735319,1.50758219568503,1.49289280151777,1.46885807831519,1.23967463820538,1.21833090462985,1.19992723760834,1.2104618077365,1.20459733925875,1.20219006586178,1.14680398724183,1.1174754824856,1.11041589471772,1.09067409795193,1.0639290937615,1.04394979162811,1.04028175684745,1.03832328824305,1.03648509574369,1.03456272752634,1.02530387729656,1.02080434066555,1.01691953382881,0.994008412882526,0.965563522369747,0.941105713658161,0.90573515095368,0.906382196098953,0.906304716722059,0.906964869253868,0.885171824834208,0.858706879253815,0.846217739683523,0.833647219719267,0.834099394938445,0.853578701073165,0.818316076443611,0.773736164583179,0.774133599444106,0.773362421132418,0.773042431259721,0.723381657044914,0.721753235550608,0.685115929574449,0.689873540786764,0.665468463183814,0.628437236674258,0.54528222062807,0.540731460181115,0.51379872752954,0.498374936430591,0.493791031517448,0.443292876474334,0.435489850837567,0.41516143363849,0.415400704845563,0.409622672023764,0.39990937155909,0.399402746281354,0.399652249403916,0.414547782649883,0.365543059129026,0.323878498240603,0.31859994202456,0.315396272898541,0.282305016160704,0.282741875974089,0.283663878147663,0.284931263651946,0.286126515600998,0.284213983069006,0.298135406257448,0.298758630630586,0.299392461732984,0.299731026605615,0.289507896722484,0.290197758740508,0.290928906898159,0.291251766580929,0.291080857769649,0.295003092494662,0.297073468270831,0.301109095149207,0.305346321004655,0.307234144348362,0.307867185830506,0.307787594080254,0.295140134032966,0.295361463495436,0.295982775958257,0.289625199239641,0.286617541291228,0.274394470817591,0.266990760187278,0.266757387550166,0.266423591815987,0.25700092746118
0.992466563799429,0.8912725580843,0.937318891564231,0.917686907186829,0.911135760132089,0.944841505642869,1.00466687221182,0.924432371810501,0.925619187118305,0.927017716731358,0.921611544291389,0.916384554050488,0.908241757050861,0.930261513853097,0.934612417090421,0.957367197708241,0.91324625398105,0.982360040028821,0.958681347439095,0.93712907969509,0.930859297354496,0.930764563393116,0.954235068895548,0.968462759157711,0.981282159853956,0.980490354674012,1.01799527283254,1.03455826814556,1.03886134975416,1.04739681724854,1.04771930569452,1.03156143815088,1.04353047066571,1.04237904959423,1.02304558042909,1.04423922082049,1.13150826343729,1.13162933189824,1.13593673313063,1.15589254874714,1.0925765516014,1.092909440549,1.15985884398065,1.16004460846477,1.16076665861267,1.16120258903956,1.13521067468571,1.13644908574255,1.13949248928543,1.14592864915314,1.15218761234253,1.19739938766807,1.24897448220337,1.24785019847728,1.1740772751455,1.17688121377523,1.17543324735547,1.19262544279143,1.20809284611134,1.22356295752105,1.26398810480879,1.46833764297366,1.69696048460766,1.47698365449025,1.47500102963695,1.47621697953996,1.50464267755767,1.50362684496955,1.51176746128572,1.50132258479361,1.49856905642877,1.53273557557172,1.48441080065646,1.45463135465237,1.25305238576982,1.21308686770036,1.18597053609998,1.23122279635856,1.22504106860351,1.23059832014829,1.12754303604385,1.11100153218295,1.11372632083684,1.07398196978047,1.06580007762831,1.0356227814311,1.03535650805737,1.03649134522997,1.05033842493019,1.06421142779422,1.06386321013377,1.05254571561696,1.0449661415028,1.04419977899136,0.98353507861523,0.956325614799188,0.889829191068241,0.889696508961522,0.906184805342357,0.919829485128911,0.855718924954634,0.856229031967252,0.832136435041429,0.833283844087876,0.833462512896132,0.878891547853097,0.879595009992295,0.771908105936268,0.773147614328655,0.771804161243802,0.771722313426509,0.729596085093808,0.717211838975103,0.680001401035787,0.697847482845223,0.643544997864834,0.581940508381389,0.530282619804611,0.531695543136606,0.499991661845861,0.498889555594348,0.492080685157756,0.44961952019573,0.413489956813379,0.41321279004049,0.445825613975338,0.408511230251687,0.400519685437528,0.399620824406473,0.400177869124622,0.419458371804556,0.328784075330921,0.32333005009025,0.329893474071238,0.336695193584578,0.281397393233796,0.300902108156668,0.288526548902774,0.289233709097508,0.288306617763655,0.281211608152945,0.297299815266971,0.299225175540598,0.299175242325225,0.299987801303835,0.290089070022628,0.290631827965176,0.290632189785212,0.291335840688829,0.291107430642933,0.294234742531948,0.294623792116918,0.296752111291874,0.296699864402325,0.307237221169642,0.307550216255641,0.407625246033004,0.294286099208132,0.294676842559702,0.294787620079581,0.282419904161892,0.282323493290126,0.266999128231866,0.268572924077139,0.267585462164452,0.267032828773536,0.266604707697813
1.29483620663226,0.981366455499871,0.970695000264478,0.96641518776102,0.943614523396736,1.00317452549381,1.00323426679224,1.00458119203278,0.966955952857617,0.936741095178472,0.943005166319947,1.05899087614705,1.01567128808883,1.00360280491047,0.957116006525958,0.947080260298761,0.982307288047237,0.982281533927977,0.981875336000009,0.982273980768478,0.990790050614137,0.931032036276629,0.959885058450728,0.97875151348624,0.982105573352051,1.32150812156894,1.12203873770221,1.05535931541992,1.05051597143291,1.04543820874631,1.04611584134556,1.06760878163939,1.06726713619748,1.03363694220398,1.03513594095922,1.05095081377504,1.06092264074124,1.14414795320129,1.12128812074651,1.11137807049495,1.1419743460776,1.16224903020625,1.1236987912234,1.12393118378743,1.21616556544802,1.14767453924006,1.13374181236863,1.13575474417954,1.13823148851666,1.13246712926704,1.15241803726481,1.19769422982804,1.17989960522817,1.17927743220808,1.16812460931861,1.15894734488511,1.16593602717956,1.18480033994283,1.21179730497604,1.21436583131667,1.26668889575282,1.75772710712986,1.67678516191072,1.67687726708676,1.64690605483949,1.46507405960189,1.46451970518969,1.4960954906461,1.50898756613019,1.50234757640102,1.52699811079574,1.54404085685618,1.48115956975258,1.50689405703792,1.39119803857674,1.18788490676317,1.18736683381199,1.19178631935853,1.18816308660629,1.13946795027273,1.12229800844008,1.11172538023466,1.09736396163888,1.07647549311095,1.04899497675534,1.03757836654274,1.07576869571868,1.07619544247365,1.06252058082449,1.06256767637162,1.09364235463722,1.0680447102897,1.11080843892618,1.04921708734697,1.04856552910061,0.92845893725057,0.954375246463037,0.902437961252428,0.90568559800997,0.894328925184014,0.913351435420347,0.913058874894474,0.831934009070377,0.833486039842786,0.835030974883818,0.836698708153217,0.77618911404338,0.774471257081959,0.774063507467822,0.773965614338776,0.769373428201172,0.779114496216631,0.718790999905372,0.717711638254639,0.656445661154827,0.584621773578851,0.584159700504426,0.537609256980525,0.531108853376312,0.514298361909252,0.51349688680229,0.502010889264421,0.448499888622641,0.413243100920776,0.43362050889421,0.412448612117553,0.420948516435305,0.419643991983793,0.414474188857919,0.381813774133624,0.328955695221243,0.329301527194477,0.329133196405738,0.35422847886383,0.2873511030476,0.338630600238974,0.287652309150745,0.302712995114817,0.317222144532454,0.350843781285569,0.332755101003409,0.299394018545757,0.298681728355295,0.299216602245559,0.298813761802,0.299502670976645,0.289670485590983,0.291564563664093,0.291174551837693,0.292067079827772,0.293754178522661,0.296243806267799,0.295064747529432,0.297924705925465,0.297494866925365,0.683024097127025,0.692495829814335,0.407960647012073,0.290743239534908,0.283013531725745,0.283365934930995,0.28350509981363,0.283378963219204,0.268433433991811,0.268575581007837,0.267337951258252,0.267190373184668
