0.00331678, 0.00379153, 0.455352, 0.46662, 0.468435, 0.468289, 0.00332957, 0.478415, 0.480827, 0.491853, 0.00374465, 0.00374321, 0.00309173, 0.516172, 0.515661, 0.518424, 0.525276, 0.528317, 0.52914, 0.536906, 0.546693, 0.00348134, 0.550492, 0.552883, 0.00345533, 0.00358064, 0.00339673, 0.574864, 0.00336227, 0.579231, 0.587224, 0.587808, 0.58887, 0.597948, 0.599514, 0.60194, 0.0038952, 0.00373691, 0.62185, 0.625902, 0.00343248, 0.6353, 0.00341266, 0.646497, 0.648972, 0.649412, 0.00352797, 0.00411818, 0.664175, 0.00396784, 0.00382012, 0.00330637, 0.00328114, 0.00361412, 0.00348139, 0.00352974, 0.720139, 0.722582, 0.72491, 0.728938, 0.731277, 0.742058, 0.746132, 0.7525, 0.761814, 0.764917, 0.766719, 0.768086, 0.760181, 0.762854, 0.760861, 0.761805, 0.76159, 0.760429, 0.75249, 0.695157, 0.698055, 0.700445, 0.698982, 0.675889, 0.688236, 0.690468, 0.71773, 0.702177, 0.718643, 0.740198, 0.745806, 0.742819, 0.729553, 0.713862, 0.715193, 0.744335, 0.745489, 0.752929, 0.775428, 0.798074, 0.835982, 0.837034, 0.856056, 0.911208, 0.905716, 0.911621, 0.928783, 0.950332, 0.9918, 0.992814, 0.999497, 1.02104, 1.11336, 1.19365, 1.21389, 1.2503, 1.2817, 1.27197, 1.31772, 1.3149, 1.31566, 1.44745, 1.45018, 1.43435, 1.40356, 1.37468, 1.36145, 1.37915, 1.3786, 1.40325, 1.39498, 1.40339, 1.40079, 1.40913, 1.44828, 1.44739, 1.48645, 1.48823, 1.42643, 1.42653, 1.44151, 1.42909, 1.42635, 1.43631, 1.43323, 1.43553, 1.45216, 1.49402, 1.49451, 1.4921, 1.46285, 1.49683, 1.49308, 1.51378, 1.51776, 1.51921, 1.55667, 1.5081, 1.55714, 1.50814, 1.49818, 1.47367, 1.47525, 1.45111, 1.43817, 1.43189, 1.44455, 1.44442, 1.43266, 1.49493, 1.40125, 1.38255, 1.3677, 1.36128, 1.36074, 1.34045, 1.32507, 1.34627, 1.30279, 1.28439, 1.28624, 1.29524, 1.29446, 1.29188, 1.28025, 1.27989, 1.27186, 1.25872, 1.24709, 1.23704, 1.23932, 1.22172, 1.22232, 1.22084, 1.22292, 1.23967, 1.2402, 1.15325, 1.15995, 1.14862, 1.1549, 1.13486, 1.11732, 1.11796, 1.1188, 1.08438, 1.0739, 1.05767, 1.07413, 1.07278, 1.06037, 1.06104, 1.06106, 1.06748, 1.05699, 1.05922, 1.02701, 1.02539, 1.04224, 1.02154, 1.02566, 1.14662, 1.15001, 1.15097, 1.15063, 1.15192, 1.08526, 1.08034, 1.08514, 1.0871, 1.03418, 1.03396, 1.0366, 1.04632, 1.04424, 1.0969, 1.09012, 1.04104, 1.04523, 1.05002, 1.05132, 1.14047, 1.1739, 1.13604, 1.14077, 1.14028, 0.0036852, 0.00364087, 0.00342314, 1.17457, 1.18174, 1.18637, 1.18894, 1.19218, 1.19698, 0.00327898, 1.21245, 1.21386, 1.21715, 1.21856, 1.22218, 1.22349, 0.00369982, 0.00363244, 0.00378038, 1.25693, 1.25351, 1.25776, 0.00360631, 1.24654, 1.2498, 1.24597, 1.24845, 1.24746, 1.25442, 1.25654, 1.25572, 1.25972, 1.25583, 1.25446, 1.24875, 1.24926, 1.25368, 1.25317, 1.2532, 1.25528, 1.25765, 1.26078, 1.2584, 1.26018, 1.26004, 1.25632, 1.25688, 1.25712, 1.25708, 1.25193, 1.25342, 1.25712, 1.25866, 1.26201, 1.26464, 1.26358, 1.26462, 1.27196
0.00352871, 0.00347994, 0.00366331, 0.00302634, 0.00359254, 0.00331633, 0.00375774, 0.00348678, 0.00371098, 0.00353422, 0.00371192, 0.00326292, 0.00368342, 0.00349503, 0.00333839, 0.525479, 0.527136, 0.527557, 0.527803, 0.00337661, 0.00323195, 0.549422, 0.551191, 0.551389, 0.567138, 0.0034574, 0.571315, 0.572455, 0.573359, 0.574823, 0.00357409, 0.587427, 0.590691, 0.00320805, 0.602232, 0.00352377, 0.615701, 0.619486, 0.621249, 0.00344237, 0.00367937, 0.00343421, 0.00344102, 0.647098, 0.648751, 0.649253, 0.00325671, 0.00333037, 0.676591, 0.679021, 0.678572, 0.678382, 0.678897, 0.00355779, 0.00370915, 0.003438, 0.00389524, 0.00359365, 0.729458, 0.730979, 0.731484, 0.738935, 0.739442, 0.739826, 0.740282, 0.758871, 0.771393, 0.774294, 0.774264, 0.00336602, 0.00381059, 0.760234, 0.760029, 0.758981, 0.750483, 0.693529, 0.69499, 0.695149, 0.688345, 0.690378, 0.676235, 0.677336, 0.684535, 0.688901, 0.691618, 0.719318, 0.758869, 0.726067, 0.748718, 0.725669, 0.725657, 0.746338, 0.747358, 0.764157, 0.785624, 0.841993, 0.826988, 0.853525, 0.847657, 0.901649, 0.914291, 0.912653, 0.941642, 0.943303, 0.977486, 0.984146, 0.99432, 0.994466, 1.13386, 1.20224, 1.21257, 1.24538, 1.25374, 1.28143, 1.33147, 1.32707, 1.329, 1.30871, 1.41194, 1.40888, 1.42554, 1.3572, 1.37875, 1.41282, 1.38309, 1.4006, 1.43394, 1.41185, 1.44767, 1.44427, 1.44705, 1.47555, 1.47902, 1.48104, 1.47915, 1.48957, 1.4578, 1.43188, 1.43239, 1.43493, 1.46955, 1.45312, 1.4586, 1.45561, 1.51556, 1.47101, 1.46722, 1.48581, 1.50114, 1.51008, 1.52098, 1.51809, 1.52139, 1.52349, 1.51367, 1.5086, 1.50414, 1.45595, 1.47225, 1.46021, 1.44139, 1.43451, 1.43543, 1.44679, 1.475, 1.47454, 1.41866, 1.37261, 1.37102, 1.39327, 1.37275, 1.34395, 1.34303, 1.34789, 1.35694, 1.30545, 1.30692, 1.29668, 1.28345, 1.2859, 1.27946, 1.28091, 1.27679, 1.25061, 1.24898, 1.24127, 1.24625, 1.24659, 1.21673, 1.20316, 1.2133, 1.2124, 1.25689, 1.25761, 1.15171, 1.16714, 1.14354, 1.12346, 1.10929, 1.11023, 1.12267, 1.0779, 1.10831, 1.09184, 1.0829, 1.08889, 1.07583, 1.06391, 1.06492, 1.06494, 1.05889, 1.06018, 1.06214, 1.04363, 1.01551, 1.01655, 1.01239, 1.06486, 1.04202, 1.05676, 1.03742, 1.03947, 1.05792, 1.03824, 1.03967, 1.04799, 1.03251, 1.04615, 1.05214, 1.02547, 1.02186, 1.02128, 1.01605, 1.03898, 1.05829, 1.09965, 1.10409, 1.13052, 1.13317, 1.1325, 1.13953, 1.13964, 0.00373545, 1.16505, 1.16639, 1.16914, 0.00340794, 0.00337405, 1.18999, 1.19153, 1.19831, 1.202, 0.00363305, 1.21487, 1.21871, 1.2221, 1.22218, 1.2299, 0.0035279, 0.00340115, 0.00364655, 1.25836, 1.26285, 1.26428, 1.26408, 1.26711, 1.26769, 1.26009, 1.25541, 1.2613, 1.26072, 1.25825, 1.25956, 1.26043, 1.26097, 1.26096, 1.25927, 1.25861, 1.25883, 1.25693, 1.2611, 1.26097, 1.25992, 1.26062, 1.2607, 1.25794, 1.25716, 1.2505, 1.25331, 1.25352, 1.25446, 1.25695, 1.25515, 1.25844, 1.26378, 1.25927, 1.262, 1.26449, 1.26673, 1.25122
0.444695, 0.445439, 0.457801, 0.458087, 0.459607, 0.471627, 0.47127, 0.0035866, 0.00356202, 0.00381681, 0.00338624, 0.501864, 0.503786, 0.503769, 0.503888, 0.517642, 0.519513, 0.00368192, 0.00325223, 0.00387997, 0.00345256, 0.00356439, 0.00344432, 0.0034736, 0.574249, 0.575326, 0.57833, 0.577602, 0.578353, 0.584621, 0.587033, 0.59176, 0.591718, 0.600988, 0.602703, 0.607631, 0.614059, 0.619796, 0.622508, 0.00378871, 0.00344333, 0.642011, 0.64366, 0.647167, 0.00355209, 0.00372622, 0.666153, 0.666772, 0.671585, 0.676325, 0.677864, 0.677841, 0.681224, 0.68299, 0.00325171, 0.00350894, 0.00358308, 0.00339821, 0.728491, 0.729643, 0.733388, 0.73386, 0.7351, 0.737127, 0.750753, 0.750928, 0.764519, 0.764702, 0.782348, 0.785612, 0.786318, 0.778879, 0.00353681, 0.749807, 0.749025, 0.785666, 0.750894, 0.756132, 0.756156, 0.781855, 0.674846, 0.677807, 0.678692, 0.706982, 0.711211, 0.756711, 0.735559, 0.73729, 0.73772, 0.738647, 0.757262, 0.755864, 0.76374, 0.76376, 0.773171, 0.802322, 0.818397, 0.876463, 0.895154, 0.90319, 0.899011, 0.933636, 0.933475, 0.95182, 0.970457, 0.98827, 1.04236, 1.03996, 1.05556, 1.13003, 1.2502, 1.28275, 1.29952, 1.28223, 1.28295, 1.2949, 1.3003, 1.3209, 1.33693, 1.33808, 1.37312, 1.38606, 1.39107, 1.41569, 1.40999, 1.39196, 1.42562, 1.41105, 1.44356, 1.59006, 1.58928, 1.58673, 1.58615, 0.00346265, 1.4594, 1.4662, 1.46777, 1.46419, 1.43272, 1.43718, 1.4607, 1.49014, 1.48967, 1.45649, 1.46679, 1.53378, 1.49862, 1.46878, 1.531, 1.53322, 1.53164, 1.52777, 1.5277, 1.53836, 1.53397, 1.5075, 1.50934, 1.45065, 1.4487, 1.48257, 1.48538, 1.42653, 1.43314, 1.41574, 1.39066, 1.39331, 1.38724, 1.37206, 1.36462, 1.36463, 1.34594, 1.34142, 1.34, 1.4381, 1.33402, 1.33481, 1.33028, 1.33312, 1.28937, 1.29726, 1.29743, 1.29004, 1.28332, 1.25172, 1.25317, 1.26552, 1.23793, 1.22869, 1.21246, 1.20977, 1.20023, 1.17384, 1.21289, 1.20082, 1.20219, 1.15448, 1.13546, 1.11716, 1.11936, 1.07196, 1.07437, 1.09533, 1.09297, 1.1211, 1.05153, 1.07117, 1.07664, 1.07404, 1.08835, 1.06288, 1.06943, 1.08885, 1.07267, 1.04306, 1.04431, 1.01282, 1.01513, 1.05025, 1.04942, 1.08203, 1.08364, 1.04615, 1.04091, 1.01179, 1.01567, 1.01762, 1.02103, 1.0248, 1.02454, 1.02644, 1.03367, 1.05667, 1.04349, 1.03787, 1.04037, 1.05683, 1.11683, 1.16567, 1.16767, 1.16982, 1.13968, 0.00350808, 0.00350329, 0.00362885, 1.16994, 1.17068, 1.17403, 1.17789, 0.00354452, 1.19335, 1.19621, 1.20104, 1.20432, 0.00348122, 0.0032024, 0.0035412, 0.00322098, 1.24337, 1.24356, 1.24635, 1.24851, 1.2533, 1.25695, 1.26047, 1.26145, 1.26468, 1.26243, 1.26794, 1.26743, 1.26765, 1.26979, 1.26542, 1.25896, 1.26113, 1.2602, 1.26202, 1.25749, 1.25631, 1.25678, 1.25857, 1.26234, 1.26613, 1.26839, 1.27091, 1.26744, 1.26355, 1.26343, 1.26372, 0.00350148, 0.00369743, 1.26511, 1.26106, 1.26207, 1.26134, 1.26201, 1.27339, 1.26957, 1.26845, 1.25333, 1.2556
0.445386, 0.445171, 0.457779, 0.458424, 0.460063, 0.459489, 0.469777, 0.00367433, 0.477085, 0.0035792, 0.494387, 0.495172, 0.504173, 0.503273, 0.510498, 0.00335499, 0.00354283, 0.526842, 0.526732, 0.00364553, 0.00368053, 0.00377521, 0.00344429, 0.00354485, 0.574121, 0.582616, 0.584033, 0.584802, 0.586112, 0.586375, 0.587493, 0.588393, 0.59716, 0.60231, 0.602722, 0.60668, 0.608625, 0.620493, 0.621036, 0.00348562, 0.00329587, 0.642051, 0.644955, 0.645822, 0.655498, 0.654802, 0.00354004, 0.00392545, 0.680719, 0.679955, 0.684712, 0.683822, 0.686526, 0.688847, 0.0038934, 0.00342313, 0.00353618, 0.00361289, 0.00362175, 0.739183, 0.733073, 0.733323, 0.743761, 0.741555, 0.742107, 0.755142, 0.750354, 0.752567, 0.753269, 0.754578, 0.785362, 0.789122, 0.786515, 0.857722, 0.751495, 0.786581, 0.790653, 0.77828, 0.793471, 0.801622, 0.796915, 0.697083, 0.696924, 0.742647, 0.725099, 0.725045, 0.717644, 0.742899, 0.749577, 0.749229, 0.760437, 0.761039, 0.766009, 0.782607, 0.779796, 0.836618, 0.822374, 0.81655, 0.86599, 0.892492, 0.893955, 0.980155, 0.982318, 0.963271, 0.912697, 0.925231, 1.02837, 1.02912, 1.11549, 1.11579, 1.16745, 1.24458, 1.25936, 1.27558, 1.278, 1.33505, 1.31057, 1.31259, 1.30611, 1.34716, 1.34557, 1.3669, 1.45623, 1.40274, 1.39025, 1.40497, 1.402, 1.4192, 1.42266, 1.49997, 1.50052, 0.00349145, 1.60296, 0.00342377, 0.00357863, 1.45622, 1.44578, 1.44755, 1.4476, 1.44533, 1.49278, 1.49143, 1.53427, 1.5045, 1.50365, 1.50555, 1.50374, 1.47448, 1.47269, 1.52645, 1.51732, 1.52854, 1.52474, 1.53071, 1.50645, 1.4772, 1.45471, 1.4475, 1.44706, 1.48645, 1.47568, 1.46917, 1.41907, 1.40717, 1.40688, 1.39678, 1.3785, 1.35748, 1.3476, 1.35192, 1.37173, 1.34717, 1.35775, 1.32299, 1.33006, 1.34333, 1.33232, 1.36497, 1.28184, 1.28044, 1.27772, 1.27741, 1.28471, 1.28257, 1.27084, 1.24716, 1.26304, 1.21627, 1.20325, 1.17777, 1.17944, 1.15991, 1.16306, 1.16385, 1.17424, 1.15614, 1.12512, 1.14051, 1.13311, 1.08956, 1.07404, 1.06851, 1.10512, 1.04118, 1.04388, 1.04646, 1.06448, 1.08407, 1.04845, 1.04753, 1.04972, 1.03633, 1.03549, 1.04321, 1.04044, 1.02311, 1.0277, 1.02735, 1.04257, 1.04978, 1.04936, 1.05128, 1.06099, 1.07417, 1.01823, 1.01876, 1.01922, 1.05728, 1.02658, 1.05729, 1.05776, 1.04638, 1.04524, 1.03974, 1.07508, 1.07481, 1.09776, 1.14832, 1.11932, 1.14389, 1.14689, 1.14946, 1.16462, 1.16974, 1.17163, 1.17412, 1.17498, 1.17934, 1.181, 1.18216, 0.00377268, 0.00324728, 0.00372141, 0.00336531, 0.00383075, 0.00348247, 1.23378, 1.23442, 1.23572, 1.23881, 1.24434, 1.25002, 1.25004, 1.25362, 1.2535, 1.25838, 1.25969, 1.26004, 1.25912, 1.26507, 1.26823, 1.2691, 1.26775, 1.26773, 1.25611, 1.25106, 1.24889, 1.24862, 1.25157, 1.25769, 1.26052, 1.2624, 0.00339, 0.00337209, 0.00400061, 0.00370103, 1.26715, 1.27122, 1.27029, 1.27123, 1.27157, 1.27792, 1.27386, 1.26837, 1.27116, 1.28228, 0.00362039, 1.27852, 1.27935, 1.2807
0.446316, 0.455584, 0.456802, 0.459756, 0.462346, 0.462596, 0.469047, 0.469257, 0.487329, 0.489331, 0.488666, 0.497685, 0.499273, 0.500734, 0.510376, 0.512596, 0.00312086, 0.00391986, 0.533053, 0.534274, 0.533624, 0.00388561, 0.00332466, 0.00342551, 0.00326278, 0.581891, 0.585089, 0.585641, 0.587136, 0.593493, 0.596359, 0.59808, 0.599718, 0.605302, 0.607603, 0.608495, 0.00357586, 0.00395693, 0.626065, 0.631374, 0.632092, 0.0036759, 0.00341007, 0.00415471, 0.658938, 0.658808, 0.00354276, 0.00357517, 0.00342832, 0.690605, 0.690722, 0.692122, 0.693726, 0.700513, 0.00360409, 0.00363705, 0.00350135, 0.00386078, 0.00344948, 0.744011, 0.748808, 0.741926, 0.741968, 0.738502, 0.739212, 0.797758, 0.760321, 0.760603, 0.754595, 0.757885, 0.762732, 0.837625, 0.78238, 0.830575, 0.831822, 0.791173, 0.796524, 0.800708, 0.732904, 0.732504, 0.733047, 0.700825, 0.703706, 0.705379, 0.711769, 0.71338, 0.725055, 0.752726, 0.7627, 0.731657, 0.767327, 0.777886, 0.781291, 0.784609, 0.7982, 0.810348, 0.805734, 0.8574, 0.858104, 0.860693, 0.863575, 0.864497, 0.958715, 0.923331, 0.923013, 0.943794, 1.02362, 1.03639, 1.11582, 1.09739, 1.1048, 1.14251, 1.2135, 1.26888, 1.26715, 1.27988, 1.2813, 1.32351, 1.32079, 1.31736, 1.47132, 1.34563, 1.39252, 1.37149, 1.38387, 1.3821, 1.40107, 1.39982, 1.41344, 1.42502, 1.43722, 1.44767, 1.57738, 1.57816, 1.48168, 1.46296, 1.43746, 1.43762, 1.46186, 1.53752, 1.53326, 1.53126, 1.56924, 1.53375, 1.58393, 1.51995, 1.53006, 1.49682, 1.49504, 1.48151, 1.51409, 1.50732, 1.47613, 1.47406, 1.46712, 1.47842, 1.48432, 1.44451, 1.45482, 1.46094, 1.45859, 1.42475, 1.42367, 1.43372, 1.42379, 1.3691, 1.36389, 1.36753, 1.36906, 1.45187, 1.45224, 1.35939, 1.35841, 1.33652, 1.29863, 1.30187, 1.30379, 1.2607, 1.27191, 1.26635, 1.26804, 1.26478, 1.282, 1.26513, 1.26022, 1.25401, 1.26285, 1.17781, 1.18098, 1.17145, 1.1566, 1.15845, 1.16341, 1.1597, 1.1607, 1.17162, 1.20682, 1.1309, 1.13656, 1.07166, 1.07378, 1.05366, 1.05634, 1.05848, 1.05742, 1.04958, 1.065, 1.04135, 1.0403, 1.05298, 1.05497, 1.0403, 1.04706, 1.02166, 1.02074, 1.02174, 1.02447, 1.03321, 1.03344, 1.06307, 1.0501, 1.05213, 1.10391, 1.10493, 1.01503, 1.02198, 1.02205, 1.11237, 1.07621, 1.02608, 1.02546, 1.03836, 1.01502, 1.01, 1.02435, 1.10182, 1.12685, 1.11713, 1.11846, 1.12461, 0.00350937, 0.0033098, 0.00367249, 0.00366144, 1.16702, 1.16907, 0.00342413, 0.00379945, 0.00332247, 1.18013, 0.00336155, 0.00339665, 0.00340669, 1.21118, 1.21218, 1.22667, 1.22637, 1.22876, 1.23235, 1.23485, 0.00327784, 1.24542, 1.24552, 1.24738, 1.25016, 1.24686, 1.24994, 1.25629, 1.25931, 1.26167, 1.26335, 1.2657, 1.26334, 1.26027, 1.25806, 1.2593, 1.24866, 1.24719, 1.2497, 1.24982, 1.2563, 1.26409, 1.26293, 0.00333421, 1.27383, 1.27665, 0.00354068, 0.0038484, 0.00326178, 0.0035378, 1.28024, 1.27792, 1.28048, 1.28322, 1.28427, 0.00376279, 0.00344727, 1.28818, 1.28492, 1.28227
0.445955, 0.00356396, 0.448067, 0.461792, 0.46413, 0.464777, 0.472621, 0.472648, 0.484107, 0.489796, 0.491387, 0.493972, 0.501765, 0.51058, 0.511322, 0.00374272, 0.52231, 0.522792, 0.531816, 0.532773, 0.00317143, 0.550803, 0.551869, 0.553629, 0.00356117, 0.00348935, 0.00384108, 0.00353846, 0.00394155, 0.595572, 0.598068, 0.600232, 0.601635, 0.604203, 0.608531, 0.609972, 0.61707, 0.616716, 0.626117, 0.628065, 0.00342379, 0.00320776, 0.00355086, 0.00330502, 0.0035539, 0.00336014, 0.00371728, 0.00382753, 0.690757, 0.692082, 0.693312, 0.69336, 0.692313, 0.00351477, 0.00344075, 0.00350618, 0.00361319, 0.00379236, 0.00365771, 0.00323985, 0.748679, 0.750605, 0.753913, 0.76144, 0.76346, 0.764784, 0.767866, 0.76962, 0.770954, 0.769887, 0.770156, 0.775078, 0.778488, 0.780415, 0.784, 0.776528, 0.774343, 0.804908, 0.790503, 0.71465, 0.723328, 0.752784, 0.740582, 0.731694, 0.730958, 0.704777, 0.727955, 0.742692, 0.728528, 0.73407, 0.752887, 0.76814, 0.78006, 0.782474, 0.798813, 0.803734, 0.829575, 0.840537, 0.861153, 0.877371, 0.86329, 0.8694, 0.87403, 0.899164, 0.901194, 0.915022, 1.06287, 1.10534, 1.10497, 1.09599, 1.10724, 1.10899, 1.16774, 1.24115, 1.24261, 1.27423, 1.27551, 1.33269, 1.33081, 1.33238, 1.32923, 1.33004, 1.39433, 1.46062, 1.3751, 1.39106, 1.39002, 1.39309, 1.39817, 1.41148, 1.40352, 1.45194, 1.44077, 1.43163, 1.46778, 1.46735, 1.49305, 1.45484, 1.4443, 1.51355, 1.51269, 1.58173, 1.58349, 1.57495, 1.57581, 1.52593, 1.50071, 1.47855, 1.46466, 1.46472, 1.49268, 1.4788, 1.45257, 1.46912, 1.46174, 1.4421, 1.44435, 1.4311, 1.43593, 1.42911, 1.42926, 1.45361, 1.43463, 1.39791, 1.3851, 1.38629, 1.36941, 1.34986, 1.34951, 1.34199, 1.36409, 1.35786, 1.34053, 1.34616, 1.33579, 1.3062, 1.28578, 1.27134, 1.26715, 1.29357, 1.29838, 1.23712, 1.24739, 1.24806, 1.24269, 1.22912, 1.1917, 1.18087, 1.17026, 1.1788, 1.16795, 1.16912, 1.18445, 1.16077, 1.18679, 1.18931, 1.1946, 1.15321, 1.13792, 1.14284, 1.11168, 1.11311, 1.07173, 1.07362, 1.10368, 1.07724, 1.07795, 1.04265, 1.06342, 1.06042, 1.05427, 1.05726, 1.05452, 1.05136, 1.05115, 1.053, 1.04936, 1.04115, 1.06434, 1.0832, 1.06266, 1.04757, 1.03676, 1.05961, 1.0501, 1.04895, 1.04817, 1.02597, 1.01477, 1.01611, 1.02841, 1.02928, 1.01832, 1.01793, 1.06071, 1.08879, 1.12044, 1.12185, 1.12682, 1.13726, 1.14152, 0.00326912, 0.00351294, 0.00374758, 1.15682, 1.15528, 1.15784, 1.1588, 1.16038, 0.00359359, 0.00363661, 1.18842, 0.00358912, 0.00354354, 0.00376111, 1.22021, 1.22155, 1.2233, 1.22685, 1.23386, 1.23645, 1.23825, 1.23991, 1.24568, 1.24283, 1.24412, 1.24275, 1.25004, 0.00358858, 1.25869, 1.26525, 1.26639, 1.26974, 1.27037, 1.25906, 1.25688, 1.25334, 1.25172, 1.2529, 1.25008, 1.25252, 0.00356907, 1.26238, 0.00354242, 0.00362636, 0.00334331, 1.28928, 1.29188, 1.29376, 1.29477, 1.29109, 1.28989, 1.28938, 0.00371099, 1.29233, 1.2937, 1.29515, 1.29293, 1.29331, 1.29242
0.0034202, 0.445669, 0.446482, 0.00353579, 0.460933, 0.460746, 0.00350145, 0.477385, 0.00350012, 0.491085, 0.49281, 0.493304, 0.493314, 0.506336, 0.50813, 0.513574, 0.521425, 0.52206, 0.531727, 0.00340463, 0.00342156, 0.00359982, 0.00351236, 0.00316481, 0.00355324, 0.00381198, 0.00341445, 0.572792, 0.00344787, 0.592533, 0.595559, 0.600089, 0.601178, 0.606308, 0.6109, 0.612184, 0.615804, 0.620781, 0.623032, 0.631412, 0.003367, 0.0034775, 1.63437, 0.00347117, 0.655881, 0.00354853, 0.660905, 0.664313, 0.00321426, 0.00361741, 0.00346878, 0.00317134, 0.00346162, 0.00357633, 0.00346527, 0.00345638, 0.00372111, 0.00341031, 0.00324108, 0.751227, 0.7525, 0.754297, 0.759462, 0.767375, 0.771721, 0.770736, 0.771009, 0.772714, 0.77367, 0.775463, 0.778648, 0.779986, 0.781645, 0.786964, 0.790601, 0.787689, 0.778109, 0.778901, 0.791068, 0.714354, 0.71531, 0.71431, 0.735515, 0.769224, 0.741919, 0.721043, 0.725178, 0.726765, 0.745101, 0.751584, 0.759634, 0.760331, 0.774034, 0.772675, 0.793644, 0.788266, 0.839647, 0.843578, 0.853721, 0.856343, 0.866999, 0.87157, 0.892423, 0.904897, 0.958509, 0.983249, 1.04832, 1.06141, 1.06373, 1.08293, 1.08353, 1.11016, 1.12287, 1.22898, 1.25711, 1.27447, 1.27254, 1.28868, 1.28775, 1.29933, 1.30253, 1.32305, 1.32038, 1.35843, 1.35402, 1.37186, 1.37274, 1.3885, 1.40612, 1.40481, 1.39273, 1.41913, 1.42768, 1.45132, 1.45223, 1.45755, 1.45109, 1.44998, 1.46119, 1.48086, 1.45629, 1.46351, 1.46818, 1.46773, 1.46864, 1.46759, 1.4971, 1.4942, 1.47243, 1.46295, 1.45889, 1.45395, 1.45048, 1.44335, 1.44125, 1.44444, 1.48442, 1.4987, 1.44387, 1.43323, 1.43014, 1.43308, 1.40522, 1.40561, 1.43062, 1.37695, 1.37722, 1.37805, 1.34431, 1.34536, 1.34582, 1.3379, 1.3401, 1.33292, 1.32679, 1.31082, 1.30014, 1.30415, 1.30639, 1.275, 1.27388, 1.27469, 1.23534, 1.25635, 1.23727, 1.23219, 1.22218, 1.17354, 1.17935, 1.18451, 1.18807, 1.18985, 1.17121, 1.17856, 1.16024, 1.1481, 1.12343, 1.12569, 1.12916, 1.13452, 1.10202, 1.10562, 1.09318, 1.08169, 1.07804, 1.0636, 1.06027, 1.03395, 1.03662, 1.07458, 1.08065, 1.0365, 1.03415, 1.03696, 1.06246, 1.05644, 1.05544, 1.05486, 1.06296, 1.04693, 1.04824, 1.0685, 1.07104, 1.05749, 1.04219, 1.0239, 1.03628, 1.00823, 1.0191, 1.02167, 1.01817, 1.02923, 1.04586, 1.08773, 1.07323, 1.07412, 1.10928, 1.12283, 1.12979, 1.13435, 1.13648, 1.14263, 1.14158, 1.1461, 1.14562, 1.14817, 1.15348, 1.1549, 1.15705, 1.16021, 0.00368001, 0.00353355, 1.1925, 1.19442, 1.20649, 1.20942, 1.21195, 1.22028, 1.22225, 1.22663, 1.23243, 1.23109, 1.23219, 1.23605, 1.23709, 1.23966, 1.23635, 1.23702, 0.00363959, 1.27293, 0.00353502, 1.26773, 1.2706, 1.27297, 1.28113, 0.00360617, 0.00325107, 1.25349, 1.25608, 1.25573, 1.2554, 1.25742, 1.25953, 0.00382049, 0.00334416, 0.00334827, 1.29238, 1.29212, 1.29282, 1.2929, 1.29335, 1.29271, 1.29489, 1.30192, 1.29691, 1.29517, 1.29903, 1.3001, 1.30308, 1.30512
0.438246, 0.00343354, 0.445033, 0.455951, 0.456005, 0.456434, 0.00347123, 0.00288792, 0.481621, 0.482326, 0.493142, 0.495392, 0.503891, 0.504914, 0.510272, 0.00335939, 0.00377085, 0.00344294, 0.533796, 0.537036, 0.541386, 0.0035362, 0.552898, 0.00329603, 0.562033, 0.562488, 0.573005, 0.574584, 0.575375, 0.575022, 0.589945, 0.592047, 0.594802, 0.00347878, 0.605745, 0.614731, 0.614819, 0.620564, 0.622659, 0.62839, 0.00375884, 0.00348606, 0.00351954, 0.00352031, 0.00380786, 0.00353636, 0.00354334, 0.00342126, 0.67323, 1.19803, 1.20656, 1.19277, 0.0106298, 0.00326804, 0.00354326, 0.00342696, 0.00364454, 0.00349218, 0.00352233, 0.00333869, 0.751009, 0.00339647, 0.765841, 0.769024, 0.776108, 0.776425, 0.777711, 0.780023, 0.78002, 0.77786, 0.821242, 0.821052, 0.794933, 0.797064, 0.796662, 0.796052, 0.793342, 0.767344, 0.776232, 0.711365, 0.711806, 0.733289, 0.71429, 0.770948, 0.791, 0.722245, 0.722973, 0.718748, 0.731866, 0.742355, 0.742817, 0.756337, 0.772981, 0.773892, 0.777095, 0.77845, 0.780632, 0.794258, 0.84969, 0.869324, 0.869045, 0.883905, 0.90604, 0.908094, 0.950178, 0.998223, 0.98252, 1.06742, 1.06295, 1.1003, 1.10259, 1.11117, 1.1395, 1.22584, 1.23342, 1.23622, 1.26545, 1.26498, 1.26782, 1.29111, 1.30937, 1.32002, 1.34708, 1.35157, 1.35413, 1.34762, 1.38558, 1.37747, 1.37713, 1.38254, 1.41025, 1.41097, 1.43199, 1.43974, 1.44132, 1.45632, 1.45324, 1.45016, 1.46045, 1.48869, 1.48791, 1.48936, 1.48233, 1.48234, 1.48307, 1.47397, 1.45833, 1.45659, 1.46193, 1.4632, 1.45098, 1.42332, 1.43835, 1.42943, 1.42928, 1.44793, 1.5052, 1.52814, 1.41927, 1.42066, 1.41478, 1.43047, 1.43298, 1.40588, 1.3757, 1.38453, 1.38093, 1.39545, 1.3967, 1.32569, 1.33166, 1.34125, 1.3611, 1.33043, 1.31438, 1.29926, 1.30129, 1.30473, 1.29345, 1.29535, 1.24731, 1.23386, 1.22603, 1.23556, 1.21874, 1.22059, 1.21924, 1.22763, 1.22609, 1.17514, 1.1796, 1.18175, 1.16659, 1.14938, 1.12859, 1.13554, 1.111, 1.1118, 1.13092, 1.11638, 1.06803, 1.0703, 1.06933, 1.06254, 1.06488, 1.0625, 1.03222, 1.0341, 1.02297, 1.02519, 1.02869, 1.04562, 1.1408, 1.14309, 1.135, 1.13578, 1.0444, 1.07417, 1.07879, 1.05103, 1.04358, 1.04268, 1.04274, 1.03566, 1.054, 1.0457, 1.04398, 1.0244, 1.05026, 1.07587, 1.06306, 1.05985, 1.08176, 1.07601, 1.0821, 1.09407, 1.11933, 1.12576, 1.12774, 1.13345, 1.13504, 1.13735, 1.13838, 1.1379, 1.14169, 1.14437, 1.1507, 1.15239, 0.00357943, 0.00343325, 0.00349139, 0.00336508, 1.61076, 0.00357953, 0.00376992, 0.00338266, 0.00386069, 0.00334159, 1.62142, 1.22325, 1.22312, 1.22581, 1.23063, 1.23368, 1.23392, 1.23661, 1.23611, 1.23836, 1.24035, 0.00347562, 1.24841, 1.26171, 1.26431, 1.26987, 1.27429, 1.27577, 1.27188, 1.27301, 1.26726, 1.26689, 1.26698, 1.2603, 0.00383405, 1.27451, 1.27454, 0.00350898, 0.00365639, 0.00355467, 0.00352687, 0.00370775, 1.31028, 1.29986, 1.30186, 1.29961, 1.29961, 1.29796, 1.29731, 1.29708, 1.2992, 1.30102
0.00350466, 0.454503, 0.447428, 0.448021, 0.457479, 0.457372, 0.00334761, 0.0033272, 0.00346771, 0.490775, 0.489496, 0.497644, 0.50387, 0.509955, 0.510787, 0.513274, 0.515339, 0.524992, 0.532569, 0.532808, 0.00307816, 0.0036505, 0.00327798, 0.00350616, 0.00328545, 0.00343639, 0.0035006, 0.573167, 0.00320701, 0.586809, 0.587417, 0.587956, 0.599665, 0.602401, 0.610362, 0.611932, 0.612205, 0.618986, 0.622287, 0.627361, 0.00353407, 0.634765, 0.0034315, 0.00360743, 0.00334429, 1.17992, 0.00362387, 0.00361883, 0.00371543, 0.675273, 0.0033095, 0.00361231, 0.00358928, 0.00349095, 0.00361214, 0.00358489, 0.0034865, 0.0037369, 0.00352314, 0.736527, 0.00348845, 0.00365383, 0.00349312, 0.00346241, 0.771217, 0.773406, 0.776013, 0.779591, 0.781681, 0.783132, 0.806379, 0.805755, 0.809305, 0.811087, 0.8077, 0.806636, 0.819299, 0.823918, 0.828065, 0.754414, 0.752921, 0.720696, 0.743494, 0.729622, 0.732012, 0.749432, 0.747015, 0.760609, 0.752482, 0.742262, 0.759072, 0.740454, 0.763135, 0.765334, 0.75928, 0.777259, 0.777348, 0.806464, 0.796165, 0.840803, 0.84127, 0.850283, 0.899008, 0.960628, 0.973967, 0.962558, 0.961323, 1.00067, 0.97867, 1.05275, 1.05126, 1.12535, 1.12952, 1.23203, 1.23315, 1.22301, 1.24064, 1.25698, 1.26089, 1.27423, 1.27558, 1.29968, 1.3074, 1.32951, 1.31179, 1.32367, 1.32764, 1.35135, 1.36632, 1.37523, 1.38457, 1.39642, 1.41671, 1.41978, 1.43511, 1.43942, 1.47568, 1.47337, 1.46106, 1.45801, 1.4594, 1.46278, 1.47028, 1.47067, 1.45402, 1.45365, 1.45647, 1.45181, 1.44344, 1.43971, 1.43564, 1.40757, 1.40908, 1.41824, 1.40992, 1.40736, 1.40983, 1.41379, 1.42329, 1.40879, 1.41088, 1.42609, 1.39254, 1.38786, 1.40064, 1.37032, 1.33049, 1.33028, 1.33552, 1.32763, 1.31338, 1.31917, 1.32545, 1.33963, 1.30292, 1.30394, 1.29896, 1.28362, 1.27449, 1.26176, 1.23899, 1.25564, 1.25908, 1.22372, 1.22534, 1.22181, 1.21013, 1.22216, 1.20931, 1.17217, 1.17262, 1.15061, 1.13419, 1.14439, 1.14636, 1.11519, 1.10879, 1.09841, 1.09272, 1.08004, 1.06453, 1.08083, 1.05038, 1.04731, 1.05132, 1.04727, 1.03981, 1.03962, 1.03624, 1.03956, 1.02599, 1.02684, 1.06699, 1.13897, 1.13529, 1.13363, 1.14096, 1.14042, 1.04697, 1.03145, 1.03, 1.02926, 1.03666, 1.02164, 1.0182, 1.01846, 1.03238, 1.03619, 1.03818, 1.03457, 1.04377, 1.04393, 1.0558, 1.08526, 1.08356, 1.13204, 1.13255, 1.12915, 1.13002, 1.13228, 1.13465, 1.13783, 1.13768, 1.13775, 1.14114, 1.14354, 1.14507, 1.14863, 1.15073, 1.15342, 0.00345693, 0.00318939, 0.00340838, 0.00365725, 0.00334838, 0.0037713, 0.00332476, 0.0034759, 0.0035777, 0.00375267, 1.22124, 1.22773, 1.22712, 1.22547, 1.2255, 1.2297, 0.00352604, 0.00362386, 0.00356782, 0.00344423, 0.00344129, 0.00368604, 1.26454, 0.00345068, 1.27526, 1.27686, 1.27325, 1.27525, 1.26581, 1.26602, 1.26471, 1.26497, 1.26795, 1.27199, 0.00334583, 1.27899, 1.27833, 1.28177, 0.00353794, 0.00355034, 1.31311, 1.29007, 1.2912, 1.29377, 1.29509, 1.29541, 0.00354343, 0.00365617, 0.00367375, 0.00346591
0.00346194, 0.458608, 0.459812, 0.459943, 0.00349214, 0.463177, 0.480083, 0.48054, 0.481274, 0.48934, 0.49022, 0.503203, 0.502014, 0.506068, 0.511388, 0.519079, 0.525458, 0.528109, 0.529097, 0.529081, 0.529562, 0.00365975, 0.551814, 0.553338, 0.554122, 0.00342756, 0.00375859, 0.00367089, 0.00336998, 0.00342243, 0.00370506, 0.00337834, 0.00345615, 0.609484, 0.611029, 0.611342, 0.0035367, 0.00357184, 0.62485, 0.629378, 0.634261, 0.638577, 0.636984, 0.642897, 0.650927, 0.654841, 0.655465, 0.664341, 0.00360773, 0.00335028, 0.680478, 0.00341093, 0.00376828, 0.00353745, 0.00342581, 0.00329017, 0.00364957, 0.00376616, 0.003477, 0.00327799, 0.00354173, 0.00337244, 0.758864, 0.760765, 0.764524, 0.764333, 0.00340596, 0.00349185, 0.787898, 0.792475, 0.805354, 0.810621, 0.809529, 0.811039, 0.811292, 0.809788, 0.809382, 0.827912, 0.829679, 0.773445, 0.779668, 0.777725, 0.75059, 0.740127, 0.767686, 0.769173, 0.766812, 0.750248, 0.761484, 0.739861, 0.740891, 0.742611, 0.777922, 0.78001, 0.774027, 0.776151, 0.784003, 0.784735, 0.795968, 0.812489, 0.832494, 0.831608, 0.850481, 0.898241, 0.912144, 0.955339, 0.960353, 0.970308, 0.995524, 1.06416, 1.08763, 1.11017, 1.11148, 1.14847, 1.19341, 1.21176, 1.20982, 1.25268, 1.28367, 1.2926, 1.33155, 1.31063, 1.28979, 1.27283, 1.27339, 1.30428, 1.3044, 1.33001, 1.34691, 1.34063, 1.3922, 1.39281, 1.38589, 1.39713, 1.52496, 1.52014, 1.53779, 1.53183, 1.53986, 1.45701, 1.45695, 1.47882, 1.48517, 1.48187, 1.45606, 1.45355, 1.43134, 1.43112, 1.463, 1.4618, 1.45278, 1.4292, 1.43964, 1.46461, 1.44524, 1.44224, 1.41898, 1.42042, 1.38223, 1.39154, 1.39228, 1.3652, 1.40617, 1.3918, 1.33935, 1.45194, 1.45139, 0.00320366, 1.43078, 1.32295, 1.31667, 1.30012, 1.29912, 1.29398, 1.29238, 1.28235, 1.27444, 1.27788, 1.27128, 1.24667, 1.25045, 1.25147, 1.2542, 1.2269, 1.2395, 1.21555, 1.20112, 1.1909, 1.1919, 1.20008, 1.17204, 1.16468, 1.12482, 1.12498, 1.10752, 1.09625, 1.09214, 1.08812, 1.08039, 1.06613, 1.05742, 1.05785, 1.04755, 1.03012, 1.04523, 1.03331, 1.0343, 1.04096, 1.03665, 1.01547, 1.01878, 1.04497, 1.04103, 1.05823, 1.06064, 1.07015, 1.06412, 1.06396, 1.04049, 1.02772, 1.04157, 1.03989, 1.05354, 1.07077, 1.05246, 1.03293, 1.02072, 1.01468, 1.01492, 1.01515, 1.04584, 1.0572, 1.06715, 1.0781, 1.10776, 1.12509, 1.12688, 1.13044, 1.131, 1.13099, 1.13552, 1.1338, 1.13722, 1.13954, 1.14133, 1.14316, 1.14423, 1.14508, 1.1482, 1.15088, 1.1541, 1.15619, 1.15613, 1.1605, 1.16346, 0.00343927, 0.0036147, 0.00374816, 0.00364809, 0.00323467, 0.00341076, 0.00364572, 1.21938, 1.218, 0.00360477, 0.00325213, 0.00350809, 0.00360178, 0.00344708, 1.27889, 0.00362722, 0.00351861, 0.00345494, 0.00379281, 1.27798, 1.27628, 1.28342, 0.00319675, 1.28486, 0.00380048, 1.51325, 1.26599, 1.27126, 1.2737, 1.2729, 1.2762, 0.00378977, 0.00350455, 0.00377131, 0.00340879, 0.00402023, 1.31778, 1.31905, 1.32092, 0.00356702, 0.0035456, 0.00361729, 0.00343065, 1.31751, 1.31924
1.14651, 0.459297, 0.46019, 0.461794, 0.00339234, 0.0035586, 0.48158, 0.482972, 0.00326985, 0.00355547, 0.00328325, 0.506354, 0.507253, 0.509535, 0.513623, 0.5151, 0.00343366, 0.521775, 0.530603, 0.532426, 0.535762, 0.536049, 0.00356515, 0.0034513, 0.00336737, 0.565465, 0.566772, 0.567211, 0.00356543, 0.00346978, 0.584649, 0.00361541, 0.00313057, 0.00351612, 0.00325272, 0.624937, 0.626759, 0.6278, 0.629705, 0.632931, 0.634745, 0.637207, 0.639092, 0.647484, 0.649224, 0.654903, 0.655404, 0.00379447, 0.665496, 0.673806, 0.676035, 1.2063, 0.00346137, 0.00380067, 0.00344677, 1.25373, 0.00344234, 0.00342359, 0.00342045, 0.00362423, 0.00350002, 0.00363367, 0.74622, 0.756614, 0.758714, 0.761679, 0.773365, 0.773956, 0.00358512, 0.789011, 0.801927, 0.805344, 0.80918, 0.810885, 0.813596, 0.83645, 0.827021, 0.826456, 0.82707, 0.804853, 0.768365, 0.767487, 0.786777, 0.788011, 0.773333, 0.759361, 0.788542, 0.783049, 0.777299, 0.769941, 0.770472, 0.770205, 0.77869, 0.779713, 0.77073, 0.794307, 0.795707, 0.839053, 0.796452, 0.841184, 0.818641, 0.820116, 0.872617, 0.867474, 0.894632, 0.938784, 0.940685, 0.942856, 1.00123, 1.16384, 1.16791, 1.10345, 1.10858, 1.12336, 1.19804, 1.23639, 1.25037, 1.24797, 1.24801, 1.25205, 1.26359, 1.28205, 1.27135, 1.27745, 1.2764, 1.28477, 1.29623, 1.31015, 1.32557, 1.31773, 1.35855, 1.35726, 1.36047, 1.38468, 1.38755, 1.53089, 1.53078, 1.53709, 1.53631, 1.5399, 1.48499, 1.47184, 1.48393, 1.43868, 1.43809, 1.43287, 1.43342, 1.45063, 1.44731, 1.4544, 1.44882, 1.43651, 1.43539, 1.43397, 1.44057, 1.43307, 1.41067, 1.41182, 1.40928, 1.40295, 1.35254, 1.38261, 1.37739, 1.32013, 1.44602, 1.45002, 1.45079, 1.33053, 1.33241, 1.30006, 1.30045, 1.28544, 1.27673, 1.2884, 1.29109, 1.28771, 1.28221, 1.28802, 1.27186, 1.26917, 1.24741, 1.22001, 1.23054, 1.22741, 1.22893, 1.22342, 1.20973, 1.17181, 1.16833, 1.16738, 1.17949, 1.15467, 1.12872, 1.14436, 1.12257, 1.08299, 1.08171, 1.08176, 1.05656, 1.06742, 1.05184, 1.05846, 1.03358, 1.03499, 1.0241, 1.03012, 1.04336, 1.04865, 1.01164, 1.01476, 1.02996, 1.05756, 1.05883, 1.04937, 1.04987, 1.05972, 1.04766, 1.04786, 1.03476, 1.07138, 1.1204, 1.11547, 1.07808, 1.04313, 1.02286, 1.02478, 1.00897, 1.01925, 1.01976, 1.03808, 1.04434, 1.07591, 1.07573, 1.12614, 1.12782, 1.12756, 1.13264, 1.13211, 1.13295, 1.13477, 1.13561, 1.1357, 1.13638, 1.13663, 1.14025, 1.14032, 1.14286, 1.14488, 1.14688, 1.14941, 1.1515, 1.15176, 1.15868, 1.16012, 1.16114, 1.16058, 1.16778, 1.16795, 0.00346178, 0.00343036, 1.19001, 1.19157, 0.0030292, 0.00355333, 1.19756, 1.20191, 0.00367828, 0.00311638, 0.00323056, 0.00339444, 0.00328501, 0.00348337, 0.00354265, 0.00353447, 0.00347823, 0.00356544, 0.00340705, 0.00327036, 0.00322928, 0.00349092, 0.00326308, 0.00326606, 0.00326334, 0.00360816, 0.0033903, 1.37913, 1.37475, 1.29276, 0.00327804, 0.0034334, 0.00349934, 0.00338609, 1.32055, 1.32317, 1.326, 1.34066, 1.34473, 0.00348713, 0.00341549, 0.00366263
0.00358017, 0.00352261, 0.0036219, 0.00360134, 0.00355293, 0.00352849, 0.481505, 0.481704, 0.482206, 0.486611, 0.00373807, 0.498363, 0.508227, 0.511158, 0.512164, 0.518851, 0.522206, 0.52541, 0.524821, 0.531874, 0.542498, 0.00329749, 0.544993, 0.55646, 0.557993, 0.557922, 0.56543, 0.00345837, 0.00343536, 0.00359089, 0.587363, 0.590911, 0.59517, 0.600855, 0.602434, 0.00340175, 0.00346615, 0.624249, 0.625634, 0.00364397, 0.636573, 0.637798, 0.642316, 0.646074, 0.648179, 0.64853, 0.655976, 0.00337074, 0.673945, 0.676318, 0.677462, 0.678433, 0.00349619, 0.00350123, 0.00356664, 0.703795, 0.705764, 0.00369394, 0.722285, 0.728887, 0.722613, 0.714634, 0.745414, 0.00336561, 0.760498, 0.0036649, 0.00343755, 0.00349381, 0.778427, 0.786699, 0.00388921, 0.0037236, 0.00335633, 0.829256, 0.830191, 0.832066, 0.838573, 0.846312, 0.848827, 0.851662, 0.770491, 0.773625, 0.773347, 0.755765, 0.758354, 0.766986, 0.764125, 0.77324, 0.780888, 0.779498, 0.788253, 0.789272, 0.790596, 0.824871, 0.820053, 0.798438, 0.804039, 0.804585, 0.815242, 0.803543, 0.803139, 0.825603, 0.811774, 0.893949, 0.881182, 0.919156, 0.935899, 0.932845, 0.985445, 1.01607, 1.04641, 1.05537, 1.05562, 1.06681, 1.1291, 1.14717, 1.28443, 1.26453, 1.26909, 1.2467, 1.30571, 1.32465, 1.3284, 1.28435, 1.28417, 1.3247, 1.32866, 1.32958, 1.32898, 1.3226, 1.32879, 1.33068, 1.33927, 1.34385, 1.36122, 1.3808, 1.379, 1.38231, 1.40131, 1.42836, 1.43345, 1.47851, 1.45789, 1.45166, 1.45331, 1.42972, 1.42919, 1.47409, 1.45886, 1.45791, 1.45065, 1.43282, 1.4337, 1.43393, 1.41454, 1.4155, 1.41707, 1.40671, 1.37423, 1.37389, 1.34394, 1.34409, 1.33674, 1.33366, 1.32978, 1.31636, 1.32426, 1.32681, 1.31198, 1.31165, 1.27677, 1.30427, 1.30216, 1.31689, 1.28525, 1.27873, 1.28289, 1.26988, 1.2489, 1.2474, 1.24472, 1.21953, 1.23212, 1.23475, 1.20702, 1.20636, 1.15468, 1.15634, 1.15879, 1.15541, 1.14819, 1.14419, 1.12703, 1.11938, 1.10001, 1.10369, 1.10767, 1.09118, 1.07797, 1.06997, 1.03929, 1.00969, 1.01202, 1.05, 1.02612, 1.04629, 1.05835, 1.02884, 1.00766, 1.01353, 1.02201, 1.02176, 1.06086, 1.07137, 1.06276, 1.06697, 1.07008, 1.07725, 1.0601, 1.0743, 1.04144, 1.06314, 1.04224, 1.0444, 1.05093, 1.0385, 1.01018, 1.02027, 1.02186, 1.0717, 1.06804, 1.07667, 1.07208, 1.11151, 1.12349, 1.12916, 1.13154, 1.13022, 1.13324, 1.134, 1.135, 1.13805, 1.13738, 1.1368, 1.13779, 1.14206, 1.14504, 1.14656, 1.14893, 1.14907, 1.15183, 1.15404, 1.1584, 1.15984, 1.16069, 1.16473, 1.16362, 1.16817, 1.16877, 1.17147, 1.17313, 1.1779, 1.17795, 1.17638, 1.18017, 1.18117, 1.18523, 1.18638, 1.19122, 1.19288, 1.29479, 0.00339884, 0.00347463, 0.00326284, 0.0037021, 0.00323994, 0.0034965, 0.00346689, 0.00354134, 0.00377023, 1.30599, 1.30573, 1.30273, 1.30943, 1.31122, 1.31566, 1.31504, 1.31582, 1.32302, 1.32397, 0.00364722, 0.00337082, 0.00360892, 0.00361458, 0.00345075, 0.00309093, 1.35199, 1.3491, 1.34981, 0.00360053
0.0034275, 0.00355456, 0.0034762, 0.00352199, 0.00355538, 0.00365236, 0.0032366, 0.48039, 0.481822, 0.490306, 0.490913, 0.493408, 0.504614, 0.50733, 0.514827, 0.515372, 0.524767, 0.531183, 0.532733, 0.532955, 0.541501, 0.544025, 0.545296, 0.555381, 0.552329, 0.559652, 0.003789, 0.00319109, 0.0034489, 0.0033768, 0.58831, 0.591639, 0.00345776, 0.598895, 0.00318181, 0.0034234, 0.00345709, 0.00357965, 0.627468, 0.631797, 0.63299, 0.633336, 0.642652, 0.643239, 0.645672, 0.652327, 0.0035292, 0.00344188, 0.674686, 0.676008, 0.676861, 0.679205, 0.00342904, 0.0035745, 0.00336234, 0.704172, 0.00328491, 0.00359452, 0.00365352, 0.00393052, 0.0034976, 0.00358099, 0.00351701, 0.754034, 0.756086, 0.00342958, 0.769529, 0.770935, 0.00329752, 0.79548, 0.797547, 0.79848, 0.810701, 0.815067, 0.816642, 0.833256, 0.835003, 0.837337, 0.839332, 0.843238, 0.858043, 0.756247, 0.756386, 0.764239, 0.793459, 0.807057, 0.808009, 0.760975, 0.768257, 0.776684, 0.780778, 0.7801, 0.787699, 0.760931, 0.762042, 0.787062, 0.789916, 0.818774, 0.819388, 0.802308, 0.814773, 0.795482, 0.833135, 0.849526, 0.855942, 0.856023, 0.892036, 0.96028, 0.952288, 1.01889, 1.02712, 1.03382, 1.05246, 1.05534, 1.08747, 1.0999, 1.12641, 1.14578, 1.15835, 1.16014, 1.18071, 1.17963, 1.27657, 1.2761, 1.27282, 1.30551, 1.2992, 1.30515, 1.33643, 1.32977, 1.34342, 1.32978, 1.32776, 1.32896, 1.35424, 1.36497, 1.42808, 1.38506, 1.38601, 1.40463, 1.38895, 1.39138, 1.38935, 1.40013, 1.41555, 1.40634, 1.43048, 1.41572, 1.43067, 1.41999, 1.41667, 1.40613, 1.39777, 1.4012, 1.38714, 1.39193, 1.38792, 1.39213, 1.37526, 1.35555, 1.35477, 1.36723, 1.33461, 1.33429, 1.3102, 1.33397, 1.30393, 1.30987, 1.30288, 1.29632, 1.30771, 1.29374, 1.30228, 1.28172, 1.27112, 1.25636, 1.25854, 1.26207, 1.24932, 1.23395, 1.23033, 1.21591, 1.21583, 1.21637, 1.16266, 1.1667, 1.14713, 1.18324, 1.1472, 1.12319, 1.14359, 1.13357, 1.13292, 1.14362, 1.11519, 1.11799, 1.11607, 1.09602, 1.06965, 1.07076, 1.07143, 1.02377, 1.0258, 1.0285, 1.02936, 1.03019, 1.00568, 1.03206, 1.02601, 1.0256, 1.04878, 1.05956, 1.06483, 1.06711, 1.08778, 1.04697, 1.04441, 1.04583, 1.10844, 1.07067, 1.06003, 1.08663, 1.05923, 1.03255, 1.0387, 1.0396, 1.01909, 1.0428, 1.02994, 1.06848, 1.08721, 1.08176, 1.1266, 1.11719, 1.11931, 1.13221, 1.13465, 1.13848, 1.13972, 1.14176, 1.13709, 1.13886, 1.1397, 1.13977, 1.14151, 0.00369328, 0.0035499, 0.00352817, 0.00349003, 0.00332056, 1.16549, 1.15865, 1.15834, 1.16122, 1.16279, 1.16394, 1.16609, 1.16455, 1.16445, 1.16887, 1.1706, 1.17394, 1.17496, 1.17479, 1.17797, 1.17923, 1.18174, 1.18562, 1.18741, 1.18992, 0.00320735, 0.00337717, 0.00348881, 0.00352482, 0.00350553, 0.00387644, 0.00366739, 1.66656, 0.00342236, 0.00359024, 0.00309244, 1.30591, 1.31113, 1.31316, 1.31065, 1.31403, 1.31512, 1.31242, 1.31269, 1.31264, 0.00346921, 0.00352975, 0.00338434, 1.35199, 1.35447, 1.35325, 1.36072, 1.36101, 1.35919, 1.36051
0.00379214, 0.00357008, 0.00367132, 0.44924, 1.05359, 1.055, 0.00411805, 0.00328414, 0.00352329, 0.00351884, 0.00361182, 0.504963, 0.507135, 0.509244, 0.515105, 0.517901, 0.521618, 0.525366, 0.527305, 0.535844, 0.538896, 0.546161, 0.557335, 0.558818, 0.560641, 0.560734, 0.56247, 0.00348562, 0.00362903, 0.00331712, 0.00387997, 0.00343215, 0.00351075, 0.0032587, 0.60824, 0.609765, 0.612307, 0.00328274, 0.632873, 0.634969, 0.636256, 0.639452, 0.640025, 0.645305, 0.646527, 0.653527, 0.00333473, 0.666245, 0.66785, 0.667679, 0.00347441, 0.681286, 0.680276, 0.00307963, 0.701024, 0.702307, 0.00346559, 0.00346213, 0.00339382, 0.00352773, 0.00366533, 0.00340622, 0.00377683, 0.00345991, 0.00362572, 0.00366769, 0.77089, 0.770735, 0.00364289, 0.789855, 0.799312, 0.804335, 0.815642, 0.810614, 0.820422, 0.82204, 0.821366, 0.840262, 0.841016, 0.839773, 0.846804, 0.848299, 0.752078, 0.75159, 0.813088, 0.813586, 0.814374, 0.787579, 0.780759, 0.778178, 0.783303, 0.781145, 0.78044, 0.768037, 0.77196, 0.762189, 0.790096, 0.789446, 0.783504, 0.823953, 0.81399, 0.819957, 0.826948, 0.837328, 0.840644, 0.908927, 0.918466, 0.934429, 0.943367, 0.935603, 1.00773, 1.01156, 1.0226, 1.06059, 1.09706, 1.08332, 1.19756, 1.14744, 1.14623, 1.14181, 1.18513, 1.22589, 1.17354, 1.17451, 1.2922, 1.29824, 1.28945, 1.28567, 1.34163, 1.34532, 1.29674, 1.32029, 1.32767, 1.33273, 1.38313, 1.37165, 1.37133, 1.37168, 1.37275, 1.37375, 1.48189, 1.43783, 1.38882, 1.40589, 1.40028, 1.41064, 1.41336, 1.41543, 1.41225, 1.41007, 1.3945, 1.3986, 1.37737, 1.40351, 1.35523, 1.3535, 1.35465, 1.34387, 1.34865, 1.36721, 1.33514, 1.32918, 1.32898, 1.31538, 1.3272, 1.32658, 1.30327, 1.26069, 1.27637, 1.27375, 1.2599, 1.25359, 1.27003, 1.24963, 1.25127, 1.24611, 1.23532, 1.23577, 1.23321, 1.21936, 1.22261, 1.20293, 1.18594, 1.19474, 1.16027, 1.14319, 1.12149, 1.11696, 1.09927, 1.10486, 1.11262, 1.10159, 1.13689, 1.13595, 1.11053, 1.10278, 1.10296, 1.07305, 1.06686, 1.05946, 1.0609, 1.042, 1.04535, 1.01188, 1.05073, 1.05335, 1.00855, 1.03569, 1.04345, 1.06127, 1.0815, 1.04968, 1.11121, 1.13071, 1.07813, 1.08392, 1.11547, 1.12194, 1.10596, 1.07499, 1.07983, 1.06379, 1.04071, 1.06002, 1.03347, 1.0389, 1.08478, 1.09148, 1.05224, 1.11201, 1.11132, 1.13236, 1.13398, 1.1205, 1.12353, 1.1256, 1.13437, 1.13695, 1.13935, 1.13932, 1.13923, 1.13898, 1.13587, 1.13924, 1.14362, 0.00323719, 0.00334959, 0.00323982, 1.16289, 1.16433, 1.16383, 1.16534, 1.16981, 1.17089, 1.16647, 1.16552, 1.16499, 1.16822, 1.167, 1.17116, 1.17195, 1.17261, 1.17386, 1.17589, 1.17733, 1.18069, 1.18109, 1.18425, 1.18762, 1.18768, 1.1962, 0.00344743, 0.00338419, 0.00328303, 0.00358706, 0.00367469, 0.00350395, 0.00336849, 1.27106, 1.27685, 0.00373104, 0.00325827, 0.00348339, 0.00338378, 1.30465, 1.30672, 1.30905, 1.30813, 1.34786, 0.00336441, 0.00338224, 0.00327349, 1.34995, 1.34293, 1.34018, 0.00355176, 1.34354, 0.00335006, 0.00346436, 0.00326758
0.00327631, 0.00354228, 0.003199, 0.00355244, 0.00322259, 0.00369202, 0.00356297, 0.0036238, 0.00348395, 0.489518, 1.10324, 1.13597, 0.507247, 0.512266, 0.518207, 0.519076, 0.520033, 0.525145, 0.529273, 0.00350386, 0.00346924, 1.07186, 0.558428, 0.559346, 0.560901, 0.561033, 0.562406, 0.572755, 0.57447, 0.574538, 0.0031905, 0.593037, 0.593597, 0.599931, 0.601274, 0.611044, 0.614163, 0.616001, 0.624073, 0.635178, 0.636705, 0.640212, 0.641156, 0.643639, 0.64751, 0.650115, 0.653564, 0.661379, 1.189, 0.00345545, 0.00364292, 0.00361945, 0.00353405, 0.697656, 0.00342068, 0.00366064, 0.00327307, 0.714879, 0.00345367, 0.00380433, 0.00344995, 0.00348124, 0.742138, 0.74481, 0.00366091, 0.762943, 0.76618, 0.00353561, 0.00329952, 0.00332699, 0.793859, 0.804281, 0.00334528, 0.814409, 0.823337, 0.822673, 0.833852, 0.834614, 0.834598, 0.848863, 0.849812, 0.851127, 0.82247, 0.824522, 0.816249, 0.818923, 0.803842, 0.790932, 0.808725, 0.808735, 0.763567, 0.769737, 0.769246, 0.797433, 0.785793, 0.789695, 0.787539, 0.769912, 0.773335, 0.802284, 0.802865, 0.808017, 0.833707, 0.856909, 0.857205, 0.877112, 0.885064, 0.924177, 0.910785, 0.91809, 0.929981, 0.984062, 0.981659, 0.983456, 1.0196, 1.05631, 1.0568, 1.09496, 1.10941, 1.13695, 1.13283, 1.26543, 1.18856, 1.18115, 1.16519, 1.1685, 1.22434, 1.22428, 1.32095, 1.32081, 1.39515, 1.30202, 1.31408, 1.33234, 1.30951, 1.31344, 1.31605, 1.32176, 1.3619, 1.40059, 1.40158, 1.37233, 1.3707, 1.39143, 1.3792, 1.36769, 1.41015, 1.40991, 1.39231, 1.38937, 1.42648, 1.4264, 1.35297, 1.34338, 1.35182, 1.33044, 1.34214, 1.35429, 1.31671, 1.31745, 1.31721, 1.32203, 1.32231, 1.32296, 1.27217, 1.2516, 1.24774, 1.2498, 1.24393, 1.22546, 1.24659, 1.25043, 1.19129, 1.19255, 1.209, 1.20889, 1.20296, 1.20068, 1.20681, 1.22234, 1.1819, 1.18561, 1.18886, 1.18934, 1.18153, 1.11066, 1.11263, 1.09868, 1.11303, 1.09419, 1.08948, 1.09108, 1.0944, 1.11016, 1.08549, 1.09397, 1.09442, 1.07748, 1.05512, 1.04584, 1.04634, 1.04531, 1.06792, 1.05611, 1.03581, 1.04959, 1.03551, 1.08254, 1.08184, 1.08124, 1.08601, 1.07233, 1.07329, 1.07748, 1.04312, 1.0442, 1.10245, 1.06489, 1.0676, 1.0782, 1.06092, 1.0735, 1.07315, 1.04686, 1.04303, 1.04006, 1.04642, 1.11845, 1.11655, 1.11843, 1.1076, 1.10834, 1.1103, 1.12616, 1.12163, 1.13337, 1.13832, 1.14066, 1.14689, 1.14949, 1.14016, 1.13949, 1.13908, 1.14134, 0.00346032, 0.0038749, 0.00361525, 1.16062, 1.16194, 1.16318, 1.1634, 1.1649, 1.16406, 0.00331667, 1.17937, 1.16785, 1.1713, 1.17152, 1.17154, 1.17215, 1.17282, 1.17358, 1.17479, 1.17498, 1.17799, 1.17981, 1.18443, 1.18227, 1.18318, 1.18627, 1.19328, 1.19566, 0.00361588, 0.00349055, 0.00335003, 0.00369591, 0.0036201, 0.00377167, 0.00338832, 0.00358828, 0.00329781, 0.00335447, 0.00344624, 0.00391391, 0.00374406, 0.00375613, 0.00338148, 1.29943, 1.30672, 1.30853, 0.00376556, 1.3187, 1.33162, 1.33215, 0.00328857, 1.3293, 1.33046, 1.40246, 0.0032894, 1.46839
0.00350908, 0.00354355, 0.00332342, 0.00358917, 0.00319672, 0.00368594, 0.0035337, 0.00355272, 0.00362657, 0.00353778, 0.00327415, 0.00319828, 0.507271, 0.507746, 0.507528, 0.514126, 1.13605, 0.00370634, 0.0035518, 0.00368417, 0.542427, 0.00349804, 0.00383315, 0.559988, 0.561301, 0.561795, 0.572815, 0.574616, 0.57595, 0.576522, 0.00357116, 0.591792, 0.593732, 0.596339, 0.603647, 0.60473, 0.609718, 0.616347, 0.623803, 0.624691, 0.62481, 0.636664, 0.639889, 0.0036714, 0.646993, 0.652131, 0.653323, 0.00361097, 0.00372312, 0.00338892, 0.00328791, 0.689052, 0.691178, 0.693089, 0.00348558, 0.00369983, 0.70803, 0.707932, 0.00336236, 0.718938, 0.00350256, 0.00333016, 0.00324732, 0.00360681, 0.00341653, 0.00344277, 0.00335803, 0.00346109, 0.781035, 0.783465, 0.78492, 0.964303, 0.00376264, 0.812882, 0.819999, 0.821593, 0.828982, 0.831628, 0.844564, 0.845862, 0.848521, 0.842498, 0.843013, 0.867259, 0.860371, 0.829796, 0.832479, 0.816794, 0.842299, 0.818084, 0.835892, 0.786764, 0.804724, 0.798422, 0.797469, 0.811571, 0.794688, 0.789503, 0.786426, 0.786344, 0.788713, 0.793322, 0.793848, 0.828484, 0.857413, 0.8423, 0.881944, 0.889681, 0.87755, 0.918382, 0.960179, 0.948861, 0.967021, 0.990989, 0.993312, 1.00006, 0.991992, 1.07502, 1.11546, 1.12895, 1.1334, 1.13576, 1.15197, 1.15443, 1.17921, 1.18129, 1.16476, 1.16701, 1.16657, 1.16488, 1.16021, 1.17403, 1.24063, 1.23013, 1.27984, 1.25173, 1.25469, 1.28878, 1.29189, 1.30941, 1.37757, 1.35155, 1.35204, 1.34955, 1.3461, 1.34756, 1.34486, 1.31338, 1.34714, 1.3894, 1.3477, 1.33009, 1.32727, 1.32757, 1.32471, 1.31188, 1.32299, 1.30792, 1.29679, 1.28517, 1.27517, 1.24128, 1.25396, 1.26828, 1.23482, 1.24184, 1.2176, 1.3228, 1.32333, 1.19909, 1.2033, 1.21715, 1.21448, 1.20481, 1.21143, 1.19163, 1.19169, 1.19822, 1.19036, 1.1874, 1.18828, 1.18874, 1.15213, 1.1525, 1.12868, 1.14718, 1.09802, 1.1066, 1.1023, 1.09424, 1.11467, 1.10806, 1.10932, 1.10212, 1.1061, 1.04093, 1.04411, 1.0467, 1.0631, 1.02904, 1.04538, 1.0459, 1.05239, 1.05589, 1.02533, 1.03213, 1.07183, 1.07402, 1.06748, 1.07114, 1.08087, 1.07672, 1.03827, 1.05698, 1.06827, 1.04917, 1.08238, 1.08277, 1.10201, 1.12545, 1.0757, 1.07608, 1.08809, 1.10749, 1.09115, 1.0759, 1.1348, 1.13593, 1.13139, 1.12462, 1.10903, 1.10826, 1.12094, 1.12358, 1.12783, 1.13349, 1.13532, 1.13696, 1.14139, 1.14323, 1.14216, 1.14077, 1.14046, 1.14238, 1.14504, 0.0033572, 1.15223, 0.00321899, 1.1598, 1.15884, 1.15993, 1.16408, 1.15752, 1.1559, 1.16892, 1.1678, 1.1706, 1.16987, 1.1693, 1.1742, 1.17199, 1.17338, 1.17654, 1.17845, 1.17814, 1.1805, 1.18677, 1.18289, 1.18863, 1.19025, 1.19147, 1.19429, 1.19473, 1.19908, 1.20148, 0.00343698, 0.00341125, 0.00353279, 0.00331808, 0.00335132, 0.00353458, 0.00332131, 0.00354542, 0.00358331, 0.00355802, 0.00322849, 0.00341273, 0.00329072, 0.00365416, 0.00359926, 0.00347548, 1.31681, 1.31623, 1.31679, 1.31606, 0.00356551, 1.31671, 1.31745, 1.31566, 1.32235
0.00330652, 0.00351216, 0.00341497, 0.00333784, 0.00362566, 0.0035919, 0.00343665, 0.00343925, 0.00333495, 0.00332513, 0.0034319, 0.00376339, 0.00333872, 0.508655, 0.00328103, 0.518787, 0.00324171, 0.00353055, 0.534705, 0.536032, 0.537269, 0.00348224, 0.00360571, 0.00365168, 0.00359863, 0.0035259, 0.00335842, 0.576332, 0.577751, 0.580198, 0.0032991, 0.591601, 0.594194, 0.596886, 0.603614, 0.604979, 0.00337396, 0.00365468, 0.00364161, 0.628474, 0.630915, 0.638559, 0.641125, 0.641634, 0.649948, 0.651171, 0.65573, 0.660094, 0.663437, 0.00378203, 0.00331448, 0.00360563, 0.690027, 0.690983, 0.00340026, 0.697536, 0.0034398, 0.708515, 0.00341819, 1.14251, 0.00356184, 1.27507, 0.735335, 0.737452, 0.745061, 0.746013, 0.00366727, 0.0037287, 0.780733, 0.782192, 0.783338, 0.795812, 0.804989, 0.806346, 0.813099, 0.822027, 0.832977, 0.835675, 0.839565, 0.840846, 0.849403, 0.850488, 0.851848, 0.852585, 0.829947, 0.843643, 0.818335, 0.877243, 0.812389, 0.815059, 0.811276, 0.811312, 0.788924, 0.770153, 0.781251, 0.772837, 0.818731, 0.79836, 0.797813, 0.787635, 0.77887, 0.780167, 0.818308, 0.815136, 0.812547, 0.842283, 0.852067, 0.854524, 0.897523, 0.920274, 0.908897, 0.917597, 0.971086, 0.966659, 0.973095, 0.988325, 0.990815, 1.02393, 1.0259, 1.08399, 1.09093, 1.09961, 1.10237, 1.1176, 1.1784, 1.19931, 1.20102, 1.13929, 1.14796, 1.1422, 1.14757, 1.14113, 1.14074, 1.14, 1.25427, 1.25322, 1.22637, 1.21076, 1.27417, 1.27513, 1.30817, 1.30982, 1.31625, 1.31485, 1.3197, 1.30604, 1.30313, 1.32962, 1.3101, 1.29765, 1.28997, 1.29467, 1.29541, 1.30936, 1.31206, 1.30505, 1.29808, 1.29625, 1.28903, 1.27205, 1.2472, 1.25845, 1.23396, 1.23683, 1.20237, 1.2085, 1.19954, 1.19971, 1.21252, 1.18491, 1.21892, 1.21051, 1.19348, 1.21365, 1.17213, 1.16057, 1.15568, 1.1572, 1.16742, 1.15854, 1.16182, 1.16046, 1.14631, 1.13825, 1.1515, 1.14299, 1.1518, 1.10226, 1.1024, 1.10668, 1.10132, 1.08714, 1.09209, 1.09176, 1.08406, 1.07915, 1.07132, 1.05392, 1.03228, 1.04095, 1.04352, 1.03295, 1.01776, 1.0357, 1.02271, 1.07105, 1.04454, 1.04453, 1.09421, 1.07208, 1.07093, 1.07384, 1.04394, 1.04534, 1.05364, 1.11267, 1.0941, 1.09551, 1.0731, 1.07219, 1.07378, 1.09998, 1.12059, 1.05487, 1.06005, 1.12271, 1.12769, 1.13513, 1.13317, 1.13344, 1.11085, 1.11252, 1.11427, 1.1314, 1.13368, 1.1322, 1.13441, 1.13558, 1.1349, 1.13828, 1.13939, 1.13606, 1.13902, 1.13946, 1.14192, 1.1425, 1.14649, 1.14685, 1.14972, 1.1548, 1.15658, 1.15882, 1.15968, 1.15956, 1.15884, 1.1637, 1.16687, 1.16812, 1.16987, 1.16865, 1.17206, 1.17439, 1.17681, 1.1784, 1.17921, 1.18205, 1.18516, 1.18716, 1.18617, 1.18814, 1.18963, 1.19076, 1.19155, 1.19412, 1.19806, 0.00335578, 0.00328269, 0.00382324, 0.0035611, 0.00370894, 0.00347997, 0.00365646, 0.00336021, 0.00337614, 0.00343225, 1.26774, 1.26769, 1.28545, 0.00347591, 0.00356896, 0.00348549, 1.31537, 1.31229, 1.31235, 1.31096, 1.31057, 1.31513, 1.31418, 1.31643, 1.31527
0.0038236, 0.581101, 0.588072, 0.57771, 0.00353836, 0.00346039, 0.00371536, 0.00340961, 0.00337588, 0.00341981, 0.00362009, 0.00344805, 0.00354199, 0.00341326, 0.00357862, 0.00341931, 0.00368507, 0.0034587, 0.00356543, 0.00328026, 0.00356977, 0.00337582, 0.00346641, 0.003686, 0.00345217, 0.0035618, 1.09148, 0.576187, 0.577331, 0.0036384, 0.592947, 0.593346, 0.59405, 0.593737, 0.602025, 0.606506, 1.37818, 0.619567, 0.622176, 0.628475, 0.63013, 0.631108, 0.634238, 0.00346967, 0.00354997, 0.652045, 0.65958, 0.00339687, 0.00347176, 0.0033965, 0.00356179, 0.00343046, 0.683857, 0.685894, 0.0031869, 0.00331054, 0.00335879, 0.00344271, 0.710477, 0.00360412, 1.23283, 0.00340376, 0.00351338, 0.737237, 0.745479, 0.00354064, 0.00345387, 0.00337532, 0.00357238, 0.00329765, 0.003389, 0.796648, 0.799543, 0.804313, 0.805781, 0.814174, 0.00350855, 0.00319105, 0.00337055, 0.843092, 0.843934, 0.852402, 0.853771, 0.856688, 0.850339, 0.849977, 0.821423, 0.820992, 0.821083, 0.819283, 0.801821, 0.798197, 0.785825, 0.78488, 0.771191, 0.785408, 0.822758, 0.804037, 0.822664, 0.781604, 0.781493, 0.800681, 0.813346, 0.81301, 0.811049, 0.813411, 0.832466, 0.858509, 0.883444, 0.883534, 0.879577, 0.901113, 0.901839, 0.933061, 0.984424, 0.973283, 0.955037, 0.963581, 0.987184, 0.976184, 1.00101, 1.01385, 1.0299, 1.07694, 1.10145, 1.08629, 1.11243, 1.12472, 1.12295, 1.13483, 1.12478, 1.12634, 1.13757, 1.14322, 1.13209, 1.13972, 1.19829, 1.19999, 1.22461, 1.21399, 1.17949, 1.2113, 1.2061, 1.26505, 1.27788, 1.25519, 1.2991, 1.27152, 1.27398, 1.30369, 1.278, 1.29841, 1.28058, 1.28056, 1.28431, 1.29216, 1.27403, 1.27383, 1.27495, 1.26851, 1.19802, 1.1978, 1.19521, 1.18857, 1.18712, 1.17853, 1.19447, 1.17876, 1.2098, 1.21409, 1.19257, 1.18717, 1.18521, 1.16367, 1.15664, 1.1554, 1.15695, 1.15633, 1.1543, 1.15563, 1.16452, 1.15701, 1.15185, 1.15081, 1.15401, 1.18401, 1.08298, 1.08206, 1.08085, 1.08532, 1.08987, 1.07742, 1.0745, 1.07245, 1.03994, 1.03974, 1.0344, 1.03432, 1.02402, 1.01623, 1.01593, 1.04384, 1.02557, 1.0288, 1.0289, 1.04962, 1.05021, 1.09164, 1.08459, 1.08475, 1.08245, 1.08476, 1.10091, 1.07822, 1.061, 1.09463, 1.08833, 1.14054, 1.14121, 1.14354, 1.11763, 1.07742, 1.06361, 1.09836, 1.07495, 1.11355, 1.11721, 1.12111, 1.12402, 1.12347, 1.11525, 1.11661, 1.12597, 1.13139, 1.13135, 1.1325, 1.13323, 1.13612, 1.13716, 1.13695, 1.13904, 1.1388, 1.13943, 1.14386, 1.14117, 1.14665, 1.14741, 1.14486, 1.15121, 1.15157, 1.15417, 1.15432, 1.15885, 1.15857, 1.15793, 1.16394, 1.16678, 1.17032, 1.17057, 1.1722, 1.17282, 1.17563, 1.17821, 1.17977, 1.18321, 1.18416, 1.18239, 1.18929, 1.18846, 1.1878, 1.18841, 1.19062, 1.19352, 1.19536, 1.19636, 1.1981, 1.20268, 1.20494, 1.20648, 0.00319201, 0.00364312, 0.00327256, 0.00339171, 0.00346815, 0.0034334, 0.00346551, 1.26218, 1.26524, 0.0035965, 0.00368362, 1.28818, 0.00375937, 1.30272, 1.3062, 1.30872, 1.30892, 1.31446, 1.31597, 1.31381, 1.31261
0.00351187, 0.584243, 0.583699, 0.582953, 0.0032465, 0.83039, 0.00358723, 0.00361206, 0.0033334, 0.00330062, 0.00332485, 0.00364388, 0.00308588, 0.0032464, 0.00331002, 0.00356993, 0.00371704, 0.00351866, 0.00345236, 0.0034433, 0.00335946, 0.00369233, 0.00350638, 0.559622, 0.561056, 0.56253, 0.00345554, 0.00353462, 0.0035733, 1.41458, 0.592045, 0.593319, 0.593768, 0.59369, 0.604238, 0.60545, 0.61784, 0.621749, 0.622179, 0.625191, 0.628953, 0.633658, 0.639177, 0.639923, 1.13763, 0.00356503, 0.00327657, 0.664764, 0.665887, 0.665344, 0.00373737, 0.00344873, 0.688832, 0.0035907, 0.00355193, 0.699391, 0.702929, 0.710645, 0.712345, 0.714087, 0.713462, 0.00343132, 0.00336823, 0.736029, 0.00350143, 0.0035359, 0.00350526, 0.00375384, 0.00355141, 0.774349, 0.775631, 0.776378, 0.00339571, 0.800834, 0.802008, 0.00347015, 0.00320156, 0.823271, 0.825686, 0.00318835, 0.843133, 0.848924, 0.853582, 0.854828, 0.867755, 0.86487, 0.826139, 0.822282, 0.801486, 0.807142, 0.88811, 0.799009, 0.81757, 0.805354, 0.780877, 0.777826, 0.799073, 0.805262, 0.816591, 0.783181, 0.78318, 0.798694, 0.826435, 0.826587, 0.812095, 0.835497, 0.849749, 0.823671, 0.850302, 0.871701, 0.873088, 0.877108, 0.896857, 0.894014, 0.88821, 0.907907, 0.946366, 0.957028, 0.96713, 0.957998, 0.987935, 0.985262, 1.00071, 1.01902, 1.04869, 1.0398, 1.05635, 1.07884, 1.07556, 1.08028, 1.09936, 1.09268, 1.09498, 1.09563, 1.0943, 1.10915, 1.11522, 1.1161, 1.20373, 1.20175, 1.17667, 1.21819, 1.18833, 1.18881, 1.21972, 1.23694, 1.261, 1.27398, 1.24777, 1.24796, 1.24203, 1.23989, 1.25347, 1.24888, 1.24237, 1.24067, 1.23223, 1.22147, 1.19098, 1.19044, 1.19572, 1.16562, 1.17874, 1.18144, 1.19464, 1.19589, 1.17264, 1.19492, 1.20885, 1.20535, 1.17038, 1.14952, 1.14955, 1.1429, 1.15436, 1.15727, 1.15083, 1.15278, 1.15713, 1.14614, 1.12554, 1.11541, 1.12592, 1.09474, 1.08827, 1.0999, 1.0575, 1.05247, 1.05282, 1.07439, 1.04812, 1.03191, 1.03361, 1.02853, 1.00595, 1.00798, 1.01009, 0.998329, 1.00631, 1.02227, 1.00557, 1.05634, 1.01974, 1.01827, 1.06839, 1.06871, 1.05345, 1.05299, 1.08337, 1.08412, 1.09864, 1.12026, 1.12639, 1.0579, 1.0732, 1.06605, 1.04622, 1.0447, 1.04781, 1.04796, 1.02966, 1.0362, 1.05949, 1.08056, 1.10617, 1.10652, 1.09085, 1.13631, 1.13466, 1.11595, 1.11817, 1.13122, 1.13075, 1.12573, 1.13188, 1.13281, 1.13616, 1.13772, 1.14031, 1.13698, 1.13872, 1.14009, 1.13844, 1.13746, 1.14568, 1.14284, 1.14734, 1.14624, 1.14826, 1.15015, 1.15182, 1.15463, 1.15998, 1.15872, 1.16225, 1.16411, 1.16728, 1.16969, 1.1705, 1.17283, 1.17666, 1.17761, 1.17885, 1.17942, 1.18151, 1.18406, 1.18516, 1.19099, 1.19032, 1.19013, 1.1915, 1.19255, 1.19453, 1.19632, 1.19636, 1.20074, 1.19881, 1.20584, 1.20551, 0.0035432, 0.0032521, 0.00349631, 0.00335427, 0.00359031, 0.0033517, 0.00324054, 0.00355688, 0.00358968, 0.00336775, 0.00340416, 0.00364841, 1.28545, 0.00339876, 0.00324117, 0.00348032, 1.30694, 1.30865, 1.30868, 1.30822, 1.30371
0.00371554, 0.00327736, 0.00347694, 0.00324965, 0.743765, 0.00345162, 0.00364408, 0.00333108, 0.00351206, 0.00302893, 0.0036024, 0.00350021, 0.00366538, 0.00344342, 0.00378646, 0.00307606, 0.00373872, 0.00340291, 0.00361468, 0.00329484, 0.00342078, 0.00348727, 1.09809, 0.0033352, 0.00361424, 0.00363899, 0.00346625, 0.00352347, 0.00349485, 0.00361027, 0.599087, 0.600173, 0.593698, 0.00355636, 0.00340278, 0.00359866, 0.620734, 0.621692, 0.623159, 0.628393, 0.635187, 0.636038, 0.636317, 0.631949, 0.645689, 0.00350021, 0.00353892, 0.003423, 0.00344139, 0.00343567, 0.00364752, 0.00359816, 0.00388521, 0.00336529, 0.695804, 0.697826, 0.698985, 0.00339631, 0.00347064, 0.00351387, 0.00341102, 0.00352684, 0.00356387, 0.00327925, 0.00333229, 0.00336608, 0.00341293, 0.00339359, 0.00387296, 0.776739, 0.778209, 0.780323, 0.00364099, 0.00311658, 0.806715, 0.807673, 0.81861, 0.820525, 0.82147, 0.829385, 0.839266, 0.841415, 0.850534, 0.853076, 0.852263, 0.85296, 0.847838, 0.775472, 0.77465, 0.88462, 0.885488, 0.814906, 0.815796, 0.814456, 0.823666, 0.776802, 0.77895, 0.787996, 0.790585, 0.777018, 0.77908, 0.779732, 0.828571, 0.828702, 0.812737, 0.818723, 0.817773, 0.846746, 0.859395, 0.842043, 0.835357, 0.86617, 0.859544, 0.859093, 0.895451, 0.888445, 0.881768, 0.929732, 0.960246, 0.958246, 0.959817, 0.988446, 0.987592, 1.00183, 1.01951, 1.04262, 1.04543, 1.04428, 1.11365, 1.07492, 1.11838, 1.11819, 1.09117, 1.09097, 1.07847, 1.0954, 1.07935, 1.08007, 1.10818, 1.12379, 1.14372, 1.16009, 1.174, 1.17742, 1.21165, 1.203, 1.1933, 1.20584, 1.223, 1.22565, 1.22677, 1.22869, 1.21011, 1.2026, 1.20572, 1.21171, 1.17198, 1.18425, 1.18581, 1.18116, 1.15734, 1.15027, 1.16281, 1.17162, 1.15994, 1.17416, 1.16667, 1.17027, 1.18785, 1.18683, 1.25372, 1.19822, 1.148, 1.15205, 1.14978, 1.14763, 1.14943, 1.14551, 1.18726, 1.13249, 1.1271, 1.11899, 1.09074, 1.09017, 1.08528, 1.06898, 1.06476, 1.04228, 1.04394, 1.04585, 1.03365, 1.0015, 1.00397, 1.00772, 0.984993, 0.98472, 1.00636, 1.00739, 0.987663, 1.04221, 1.05278, 1.0524, 1.04419, 1.04766, 1.04988, 1.05229, 1.04993, 1.05182, 1.08428, 1.08413, 1.05816, 1.0595, 1.04805, 1.05692, 1.05694, 1.03046, 1.03275, 1.02623, 1.01893, 1.04716, 1.05626, 1.03627, 1.06343, 1.04737, 1.10859, 1.09542, 1.09545, 1.10778, 1.11546, 1.1253, 1.12348, 1.12842, 1.12996, 1.12973, 1.13262, 1.13573, 1.13788, 1.13827, 1.14135, 1.1409, 1.14245, 1.14101, 1.14056, 1.14336, 1.14391, 1.14711, 1.14774, 1.15075, 1.15155, 1.15421, 1.15553, 1.15792, 1.16386, 1.1642, 1.16708, 1.16902, 1.17104, 1.17227, 1.17489, 1.17509, 1.17847, 1.1784, 1.17583, 1.17901, 1.18399, 1.18455, 1.18751, 1.18628, 1.19152, 1.19038, 1.19228, 1.19335, 1.19498, 1.19555, 1.19576, 1.19858, 1.19967, 1.20097, 1.19951, 1.20004, 1.20621, 1.20883, 1.21306, 1.22362, 0.00357457, 0.00348254, 0.0037099, 0.00329394, 0.00370628, 0.00326021, 0.00350393, 0.00325886, 0.0035057, 0.0033513, 0.00358603, 0.00345211, 0.00347915, 0.00321993, 0.00356197, 0.00353756
0.00317658, 0.00331319, 0.00353354, 0.00353766, 0.0034081, 0.00370765, 0.741706, 0.00329631, 0.00328921, 0.00360828, 0.00331664, 0.00362603, 0.00351847, 0.00330037, 0.00322068, 0.756609, 0.00327641, 0.00390237, 0.00362931, 0.00367648, 0.00359595, 0.00384385, 0.00347248, 0.00344481, 0.00352823, 0.00346135, 0.00343383, 0.00338258, 0.00352936, 0.00383022, 0.602564, 0.60277, 0.604503, 0.605965, 0.00333931, 0.616948, 0.619265, 0.620335, 0.626138, 0.632994, 0.635695, 0.636267, 0.638746, 0.639198, 0.648233, 0.652179, 0.652776, 0.00333957, 0.670988, 0.673206, 0.673798, 0.00354736, 0.684761, 0.00344857, 0.00367825, 0.00360743, 0.704989, 0.705552, 0.712326, 0.712466, 0.719586, 0.00368441, 0.00328138, 0.00332685, 0.00334124, 0.0033579, 0.00332652, 0.00332968, 0.00350196, 0.00363021, 0.00329293, 0.00330173, 0.00334397, 0.0035629, 0.804945, 0.807182, 0.812166, 0.820321, 0.821371, 0.829171, 0.838762, 0.83981, 0.84942, 0.854312, 0.858325, 0.863147, 0.870365, 0.871751, 0.876283, 0.878665, 0.885536, 0.88723, 0.792907, 0.801385, 0.80518, 0.802993, 0.825244, 0.818722, 0.78802, 0.81495, 0.816986, 0.820459, 0.829653, 0.802569, 0.803514, 0.803645, 0.8185, 0.818227, 0.826792, 0.836381, 0.834552, 0.835298, 0.861926, 0.862367, 0.850237, 0.851818, 0.877804, 0.876665, 0.89528, 0.902735, 0.905358, 0.916522, 1.01152, 1.0123, 1.01226, 1.00839, 0.999209, 1.03336, 1.04569, 1.11235, 1.11353, 1.29516, 1.04872, 1.06471, 1.07922, 1.08647, 1.08703, 1.07408, 1.08731, 1.0942, 1.09366, 1.13769, 1.12968, 1.14038, 1.12735, 1.12857, 1.1608, 1.16137, 1.15839, 1.1749, 1.18776, 1.16868, 1.15735, 1.15725, 1.139, 1.13497, 1.14651, 1.1524, 1.13912, 1.14037, 1.13797, 1.1271, 1.15292, 1.16101, 1.17042, 1.15176, 1.15185, 1.15395, 1.13745, 1.1579, 1.14397, 1.12488, 1.13399, 1.13774, 1.14129, 1.13207, 1.13284, 1.13837, 1.13935, 1.14429, 1.11757, 1.1211, 1.10157, 1.08331, 1.08427, 1.06726, 1.07042, 1.05743, 1.03632, 1.02699, 1.02274, 1.02017, 0.993008, 1.00089, 1.00602, 0.970722, 0.979835, 1.0051, 0.992999, 1.01046, 1.03581, 1.04077, 1.03731, 1.05647, 1.04792, 1.05078, 1.0679, 1.07256, 1.07813, 1.07048, 1.04522, 1.04456, 1.07059, 1.06267, 1.04246, 1.02675, 1.02829, 1.02845, 1.03625, 1.04015, 1.07303, 1.05801, 1.08482, 1.08731, 1.09982, 1.10099, 1.10624, 1.10679, 1.1163, 1.12163, 1.12596, 1.12678, 1.12911, 1.13071, 1.13219, 1.13581, 0.00305938, 0.00349514, 0.0033284, 0.00351343, 1.14862, 1.1492, 0.00367585, 1.15007, 1.14512, 1.14934, 1.1507, 1.15328, 1.15743, 1.15542, 1.1535, 1.1596, 1.1637, 0.00357592, 0.00338891, 1.16617, 1.16947, 1.17085, 1.17527, 1.17673, 1.17419, 1.17529, 1.18012, 1.1808, 1.18353, 1.18442, 1.18397, 1.18757, 1.18819, 1.18757, 1.1919, 1.19114, 1.19244, 1.1965, 1.19836, 1.20375, 1.20208, 1.20268, 1.20642, 1.20614, 1.20569, 1.20645, 1.20938, 1.21494, 1.2141, 0.00310966, 0.00363569, 0.00361415, 0.00340464, 0.00349359, 0.00370488, 0.00352389, 0.0035264, 0.00330817, 0.00339137, 0.0037953, 0.00323096, 0.0034635, 1.26701, 1.27377
0.00355939, 0.00360505, 0.00338102, 0.00346374, 0.00364531, 0.735189, 0.00341413, 0.00337755, 0.00331399, 0.00335768, 0.00362293, 0.00346262, 0.82429, 0.00308994, 0.862526, 0.00351716, 0.00354393, 0.00364782, 0.00345602, 0.760765, 0.00362557, 0.00341975, 0.00324941, 0.00364098, 0.00320575, 0.00337446, 0.00344029, 0.00328659, 0.00338854, 0.00346657, 0.0033993, 0.00354623, 0.00340874, 0.00345087, 0.617303, 0.619937, 0.620586, 0.620888, 0.625133, 0.00346196, 0.635803, 0.637028, 0.642735, 0.643949, 0.00334873, 0.00349253, 0.00338513, 0.00328557, 0.676217, 0.677547, 0.679211, 0.679406, 0.00378776, 0.692481, 0.697594, 0.00338009, 0.705611, 0.00342829, 0.715087, 0.717167, 0.717735, 0.00307426, 0.729268, 0.00330182, 0.00367715, 0.00334928, 0.00366578, 0.00360963, 0.00360752, 0.00340994, 0.00362206, 0.00340035, 0.00322515, 0.789834, 0.00318582, 0.00360434, 0.00338655, 0.822073, 0.825371, 0.831908, 0.835361, 0.840114, 0.845959, 0.852589, 0.854733, 0.862858, 0.86959, 0.871371, 0.874671, 0.882453, 0.786587, 0.785771, 0.790293, 0.828892, 0.819385, 0.788048, 0.817899, 0.813584, 0.821514, 0.816312, 0.882241, 0.898448, 0.774791, 0.7769, 0.787791, 0.801026, 0.791831, 0.827379, 0.829886, 0.828966, 0.826716, 0.81899, 0.821546, 0.829432, 0.833043, 0.84327, 0.848753, 0.86412, 0.864316, 0.885653, 0.897253, 0.898125, 0.92766, 0.942562, 0.942325, 0.949737, 0.974229, 1.01531, 0.99461, 1.02518, 1.02128, 1.05439, 1.05294, 1.0595, 1.06788, 1.07213, 1.077, 1.06771, 1.06812, 1.07236, 1.08289, 1.07316, 1.08296, 1.12587, 1.11575, 1.12185, 1.11479, 1.14766, 1.14291, 1.15501, 1.15479, 1.13865, 1.1397, 1.1342, 1.11673, 1.11557, 1.12075, 1.12281, 1.13941, 1.14059, 1.13757, 1.11707, 1.13328, 1.1162, 1.10115, 1.14323, 1.11582, 1.08665, 1.09872, 1.09993, 1.11259, 1.11219, 1.09972, 1.11627, 1.09604, 1.11662, 1.1056, 1.13541, 1.12978, 1.1429, 1.12341, 1.12287, 1.12295, 1.09474, 1.11306, 1.07472, 1.06492, 1.06443, 1.04504, 1.0445, 1.00865, 1.01576, 0.987179, 0.992681, 0.973081, 0.973409, 0.971791, 1.00167, 1.00011, 1.00653, 1.0267, 1.03987, 1.04789, 1.05574, 1.08199, 1.069, 1.07047, 1.05268, 1.06865, 1.06795, 1.08358, 1.0659, 1.01997, 1.03816, 1.0234, 1.0226, 1.03686, 1.03874, 1.05023, 1.04787, 1.04846, 1.06656, 1.06038, 0.00307306, 1.10589, 1.1087, 1.10995, 1.11455, 1.11823, 1.11977, 1.12113, 1.12604, 1.12714, 1.12949, 1.13017, 1.132, 1.1337, 1.13902, 1.14262, 1.14404, 0.00371825, 0.00337617, 0.00350482, 1.15737, 1.15473, 1.1579, 0.00342471, 0.00339884, 1.15774, 1.156, 1.1582, 1.15992, 1.16153, 1.16707, 1.16774, 1.16811, 1.1666, 1.16768, 1.1668, 1.17047, 1.17502, 1.17735, 1.17785, 1.18061, 1.18167, 1.18483, 1.18725, 1.18733, 1.19456, 1.19258, 1.19549, 1.19708, 1.19916, 1.1995, 1.20105, 1.20357, 1.2054, 1.2082, 1.20398, 1.20552, 1.20692, 1.20683, 1.21068, 1.21315, 1.2143, 1.21294, 1.21558, 1.21919, 1.22412, 1.22658, 1.23043, 1.23223, 1.23669, 1.23921, 0.0035773, 0.00341676, 0.00331742, 0.00352405, 0.00340174, 0.00347925
0.003518, 0.0035272, 0.00348659, 0.00344686, 0.00352486, 0.00351336, 0.0032976, 0.00349594, 0.00359761, 0.00360236, 0.00341812, 0.00343465, 0.00353732, 0.00339754, 0.877515, 0.00373379, 0.00346128, 0.00360923, 0.00324722, 0.003602, 0.00309039, 0.00322166, 0.00354301, 0.00339042, 0.00322256, 0.00336926, 0.00341434, 0.00349482, 0.00355724, 0.00352786, 0.00342498, 0.0038071, 0.00328567, 0.0035146, 0.00318296, 0.0037759, 0.00332719, 0.00341378, 0.00318223, 0.00359294, 0.643826, 0.64581, 0.646074, 0.653227, 0.00315719, 0.657983, 0.003332, 0.668181, 0.00310828, 0.677817, 0.678324, 0.678734, 0.00347361, 0.00371092, 0.00341727, 0.00362364, 0.00327218, 0.712934, 0.715042, 0.718883, 0.720217, 0.725989, 0.729, 0.732373, 0.00332337, 0.742157, 0.00329686, 0.754467, 0.00344934, 0.763061, 0.777308, 0.782018, 0.781195, 0.78663, 0.00340846, 0.00379279, 0.00330892, 0.00369957, 0.821462, 0.827621, 0.832519, 0.00336769, 0.847415, 0.847542, 0.854092, 0.873328, 0.870746, 0.872388, 0.875792, 0.881324, 0.88465, 0.798435, 0.799373, 0.807626, 0.896035, 0.816592, 0.820201, 0.805587, 0.802388, 0.817615, 0.808968, 0.80252, 0.808967, 0.775384, 0.779721, 0.79973, 0.797986, 0.798467, 0.83288, 0.840851, 0.840175, 0.843254, 0.843719, 0.832951, 0.814545, 0.84166, 0.851649, 0.842724, 0.8652, 0.854179, 0.876629, 0.898072, 0.896049, 0.895621, 0.975345, 0.947096, 0.937674, 0.938319, 0.984883, 1.00737, 1.02899, 1.03978, 1.03771, 1.04954, 1.05288, 1.05311, 1.03999, 1.04062, 1.04054, 1.06818, 1.07002, 1.07717, 1.06385, 1.05989, 1.06166, 1.08446, 1.0785, 1.0968, 1.12711, 1.11912, 1.12162, 1.11523, 1.09531, 1.11689, 1.08416, 1.09807, 1.11709, 1.11269, 1.1019, 1.10275, 1.1059, 1.10027, 1.08297, 1.08709, 1.08378, 1.05916, 1.07602, 1.10403, 1.09264, 1.07883, 1.07291, 1.09505, 1.10072, 1.07362, 1.10079, 1.10952, 1.09042, 1.09208, 1.10066, 1.10346, 1.10568, 1.10591, 1.12232, 1.11182, 1.10532, 1.10413, 1.1016, 1.07274, 1.05684, 1.09348, 1.09252, 0.00336996, 1.02792, 1.01293, 1.01451, 0.978662, 0.978577, 1.00042, 1.00167, 1.00998, 1.04995, 1.04768, 1.04794, 1.04581, 1.03187, 1.08199, 1.07078, 1.07068, 1.0649, 1.06962, 1.08134, 1.08308, 1.03007, 1.0313, 1.04198, 1.04702, 1.05862, 1.06335, 1.0461, 1.14262, 1.06407, 1.08778, 1.10484, 1.10758, 1.11179, 1.1148, 1.11572, 1.1185, 1.11997, 1.12204, 1.12212, 1.12206, 1.12537, 1.12636, 1.12734, 1.13067, 1.13017, 1.13684, 1.1395, 1.14143, 0.00337567, 0.00396405, 0.00348774, 0.00389621, 0.00341743, 0.00341331, 0.00326945, 1.17837, 0.0033572, 0.0035695, 0.00327186, 1.16484, 1.16807, 1.16899, 1.16855, 1.16859, 1.16692, 1.16852, 1.17153, 1.17401, 1.17527, 1.17691, 1.17953, 1.18204, 1.18464, 1.18513, 1.18456, 1.18871, 1.18838, 1.19175, 1.19225, 1.19279, 1.19575, 1.19954, 1.20185, 1.20516, 1.20397, 1.21204, 1.20874, 1.20676, 1.2112, 1.21466, 1.21363, 1.21816, 1.21757, 1.20891, 1.21705, 1.21655, 1.22072, 1.22415, 1.22758, 1.22819, 1.23038, 1.23295, 1.23824, 1.23994, 0.00353201, 0.00350269, 0.00353552, 0.00365378
0.00316659, 0.00329862, 0.0036798, 0.00349415, 0.00367018, 0.00331384, 0.738742, 0.00327494, 0.00339966, 0.0035811, 0.832735, 0.00356934, 0.828494, 0.837272, 0.0033255, 0.837636, 0.00360533, 0.00342406, 0.00349091, 0.00334666, 0.00349853, 0.00368619, 0.00352189, 0.00349013, 0.00359798, 0.00352754, 0.00347694, 0.00344557, 0.00325236, 0.00339764, 0.00358565, 0.00324488, 0.00360736, 0.00352617, 0.00351136, 0.00356958, 0.00341512, 0.00341031, 0.00342035, 0.00351572, 0.00345755, 0.00358319, 0.00350373, 0.00324694, 0.00335731, 0.662205, 0.664798, 0.00314774, 0.676006, 0.678266, 0.679588, 0.00367946, 0.00362163, 0.00349585, 0.00351599, 0.00341567, 0.71146, 0.712692, 0.714111, 0.713931, 0.0034564, 0.00323783, 0.00319175, 0.735504, 0.736572, 0.0035298, 0.747793, 0.00333705, 0.00346261, 0.763906, 0.765259, 0.00344195, 0.00331368, 0.00317078, 0.784903, 0.792489, 0.792754, 0.00330403, 0.00374927, 0.824094, 0.82669, 0.827511, 0.840522, 0.849432, 0.851786, 0.862744, 0.863956, 0.870516, 0.872895, 0.874299, 0.877947, 0.796833, 0.798374, 0.79877, 0.79627, 0.827678, 0.817924, 0.828994, 0.843713, 0.840319, 0.8436, 0.893452, 0.89816, 0.796639, 0.791884, 0.79414, 0.909356, 0.85365, 0.829204, 0.850439, 0.836087, 0.841083, 0.846437, 0.844149, 0.812043, 0.824365, 0.820301, 0.843824, 0.840912, 0.859942, 0.857503, 0.859277, 0.861166, 0.897515, 0.902333, 0.911678, 0.926359, 0.919078, 0.915451, 1.00247, 1.0238, 1.04071, 1.04639, 1.03775, 1.03697, 1.0433, 1.03627, 1.05227, 1.03825, 1.03345, 1.05794, 1.0587, 1.03887, 1.05463, 1.05698, 1.08225, 1.09687, 1.09066, 1.08726, 1.08478, 1.09235, 1.07435, 1.07405, 1.09273, 1.08941, 1.10102, 1.1013, 1.07672, 1.05143, 1.03791, 1.06695, 1.03953, 1.04127, 1.06776, 1.06403, 1.07128, 1.06661, 1.06975, 1.07316, 1.0752, 1.07791, 1.06996, 1.06916, 1.0735, 1.074, 1.08254, 1.1032, 1.17082, 1.12063, 1.09461, 1.15008, 1.152, 1.10948, 1.11181, 1.1139, 1.11961, 1.1116, 1.11136, 1.09807, 1.09695, 1.10145, 1.03777, 1.05377, 1.04424, 1.04557, 1.0088, 0.981419, 1.00525, 1.01163, 1.00441, 1.01845, 1.03064, 1.03434, 1.06757, 1.08461, 1.06903, 1.0681, 1.04013, 1.04077, 1.04609, 1.06515, 1.06343, 1.09169, 1.09278, 1.07195, 1.06947, 1.06729, 1.07077, 1.05461, 1.0646, 1.10763, 1.11123, 1.1092, 1.1153, 1.11902, 1.11961, 1.11949, 1.12218, 1.12145, 1.11878, 1.12214, 1.1228, 1.12414, 1.12624, 1.12712, 1.13046, 1.13283, 1.13409, 1.13878, 1.1399, 1.14498, 0.00355262, 0.00352181, 0.0032619, 1.16511, 1.16861, 1.17025, 1.17384, 1.17981, 1.17898, 1.18181, 1.1794, 1.17885, 1.17487, 1.17526, 1.1721, 1.17331, 1.17432, 1.17425, 1.17467, 1.17123, 1.17859, 1.17975, 1.18169, 1.18204, 1.18306, 1.1886, 1.18989, 1.19085, 1.19511, 1.19378, 1.19695, 1.19915, 1.19989, 1.20151, 1.20327, 1.20269, 1.2055, 1.2117, 1.21314, 1.21495, 1.21471, 1.21239, 1.21637, 1.21483, 1.21508, 1.22079, 1.22043, 1.22065, 1.21912, 1.22736, 1.22873, 1.22997, 1.23608, 1.23913, 1.24145, 1.25008, 1.2533, 0.00361894, 0.00358117
0.00344524, 0.00351759, 0.00366382, 0.00348706, 0.00356356, 0.00358585, 0.00349952, 0.735818, 0.00341025, 0.00366023, 0.0034652, 0.00335423, 0.00334541, 0.00364693, 0.847338, 0.00349653, 0.00365076, 0.00365701, 0.0035113, 0.00357789, 0.0036165, 0.00344003, 0.00333713, 0.00319008, 0.00324806, 0.00332357, 0.00353847, 0.00332087, 0.00344415, 0.00346822, 0.00325208, 0.00341116, 0.00346733, 0.00346229, 0.00326362, 0.00377165, 0.00336676, 0.0032832, 0.00350126, 0.00363088, 0.00340116, 0.00379743, 0.00340093, 0.00359632, 0.00334064, 0.00335105, 0.00346736, 0.00351108, 0.0033418, 0.00374467, 0.00326347, 0.00332662, 0.00346735, 0.0034309, 0.00353615, 0.00354294, 0.712511, 0.713971, 0.714291, 0.00367778, 0.725326, 0.728084, 0.00343163, 0.00359199, 0.00324237, 0.00330725, 0.00343712, 0.00338496, 0.00351248, 0.00358402, 0.00323585, 0.771926, 0.774809, 0.78169, 0.786676, 0.787811, 0.00348289, 0.00338863, 0.80446, 0.808303, 0.808241, 0.827191, 0.828796, 0.0036508, 0.846299, 0.853497, 0.855484, 0.863011, 0.865225, 0.864016, 0.861255, 0.883939, 0.884012, 0.825125, 0.888966, 0.880231, 0.776412, 0.797791, 0.830021, 0.911882, 0.764586, 0.766717, 0.767886, 0.771229, 0.772598, 0.794086, 0.799851, 0.797675, 0.849262, 0.844738, 0.857125, 0.902291, 0.871743, 0.857785, 0.875471, 0.833211, 0.837339, 0.825449, 0.838196, 0.853663, 0.87487, 0.863929, 0.850409, 0.863344, 0.888369, 0.887755, 0.889827, 0.888265, 0.906307, 0.907479, 0.935194, 0.914448, 1.04603, 1.00281, 1.02259, 1.03161, 1.03274, 1.04065, 1.01426, 0.978721, 0.981117, 1.01871, 0.998621, 1.07504, 1.06813, 1.06824, 1.01624, 1.01661, 1.01805, 1.04058, 1.03901, 1.02568, 1.0257, 1.05422, 1.06019, 0.997715, 0.998248, 1.04988, 1.05003, 1.03676, 1.0032, 1.02601, 1.02843, 1.02722, 1.02664, 1.05735, 1.05928, 1.03731, 1.03928, 1.03309, 1.05803, 1.05275, 1.036, 1.04899, 1.05027, 1.05624, 1.06199, 1.07638, 1.08865, 1.09821, 1.11268, 1.11462, 1.11975, 1.12923, 1.11409, 1.11636, 1.12559, 1.12062, 1.07456, 1.0776, 1.07486, 1.07596, 1.0145, 0.983542, 1.01203, 0.988816, 0.973188, 0.976673, 0.983058, 1.00229, 1.0025, 1.07153, 1.08076, 1.08329, 1.06028, 1.08588, 1.05377, 1.05827, 1.04618, 1.05937, 1.04502, 1.05438, 1.07385, 1.08462, 1.09853, 1.1002, 1.06473, 1.07024, 1.07147, 1.0945, 1.11503, 1.11642, 1.12023, 1.12072, 1.12221, 1.12216, 1.12347, 1.12569, 1.12093, 1.11906, 1.12178, 1.12381, 1.12531, 1.12738, 1.12748, 1.13237, 1.13362, 1.13493, 1.13728, 1.13957, 1.14371, 1.14628, 1.15023, 1.1573, 0.00335869, 0.0035545, 1.17306, 1.17502, 1.17522, 1.18047, 1.18096, 0.0034526, 1.16837, 1.16919, 1.16857, 1.17201, 1.17235, 1.17274, 1.17631, 1.1793, 1.18055, 1.18089, 1.1789, 1.18433, 1.18289, 1.18374, 1.1871, 1.18901, 1.19097, 1.19223, 1.19355, 1.19743, 1.19357, 1.2011, 1.20049, 1.2041, 1.20689, 1.20665, 1.20912, 1.21008, 1.20907, 1.21554, 1.21508, 1.21736, 1.21422, 1.21912, 1.22159, 1.22017, 1.22523, 1.22647, 1.22889, 1.22786, 1.23191, 1.23106, 1.23596, 1.23694, 1.24337, 1.24744, 0.00332366, 1.26026
0.00342617, 0.00325435, 0.00383854, 0.00333291, 0.00364196, 0.00342989, 0.0034523, 0.00345584, 0.0035131, 0.00341886, 0.00344209, 0.786702, 0.787487, 0.00342872, 0.00374281, 0.00324834, 0.00347853, 0.00365386, 0.822019, 0.00339191, 0.850154, 0.00329433, 0.00360634, 0.00345495, 0.856064, 0.0033012, 0.00317853, 0.0033798, 0.00355437, 0.00327153, 0.00368376, 0.00334753, 0.00360977, 0.00344072, 0.00351821, 0.00341468, 0.00371127, 0.00329719, 0.00398257, 0.00319605, 0.00363771, 0.00346949, 0.00359841, 0.00348897, 0.0034766, 0.00345579, 0.0035804, 0.00349627, 0.00354249, 0.00322942, 0.00348124, 0.00334082, 0.00337856, 0.00331961, 0.00370364, 0.00320057, 0.00382013, 0.00340491, 0.00331691, 0.00323963, 0.72822, 0.00331723, 0.00374212, 0.739816, 0.740602, 0.751195, 0.753597, 0.00354071, 0.00335697, 0.00327555, 0.00376374, 0.774122, 0.776472, 0.00344303, 0.00352448, 0.00339489, 0.00336282, 0.801578, 0.803963, 0.804843, 0.00372285, 0.00333483, 0.00337437, 0.00331879, 0.00385095, 0.855234, 0.859981, 0.861698, 0.865423, 0.870138, 0.873728, 0.845649, 0.845992, 0.890303, 0.890321, 0.811031, 0.813652, 0.813421, 0.814998, 0.80867, 0.92003, 0.778001, 0.775101, 0.77136, 0.784046, 0.809956, 0.824944, 0.811921, 0.804161, 0.853826, 0.856619, 0.864392, 0.862603, 0.879766, 0.877357, 0.864769, 0.869751, 0.829551, 0.831597, 0.831865, 0.894587, 0.889888, 0.882384, 0.851463, 0.90035, 0.866612, 0.862892, 0.864142, 0.867004, 0.888706, 0.893881, 0.898012, 0.898332, 0.91354, 0.915372, 1.05016, 0.958006, 0.971771, 0.971195, 0.976111, 0.960152, 0.98477, 0.99161, 0.971528, 0.972523, 0.99167, 0.990259, 0.999171, 1.01384, 1.01256, 0.961927, 0.963891, 0.98623, 0.998968, 0.94753, 0.949588, 0.9504, 0.976213, 0.981386, 0.982497, 0.982927, 1.04052, 1.04022, 1.03948, 1.02234, 0.99552, 0.99402, 0.995827, 1.01517, 1.0097, 1.02642, 1.01757, 1.0215, 1.01202, 1.03574, 1.02944, 1.03921, 1.05855, 1.08455, 1.0822, 1.10412, 1.10837, 1.11826, 1.12285, 1.10264, 1.10816, 1.10992, 1.09711, 1.21614, 1.02318, 1.01208, 1.00791, 0.957661, 0.976883, 0.97439, 0.976957, 0.984951, 0.987947, 0.986525, 0.985104, 1.00306, 1.07298, 1.07023, 1.08443, 1.0759, 1.06412, 1.06368, 1.05163, 1.04353, 1.0723, 1.05054, 1.09999, 1.08149, 1.08105, 1.07924, 1.09851, 1.12624, 1.1288, 1.13484, 1.13491, 1.12786, 1.1306, 1.12936, 1.12588, 1.12372, 1.12558, 1.12234, 1.12337, 1.12059, 1.12224, 1.12428, 1.12434, 1.12888, 1.12717, 1.13103, 1.13222, 1.13454, 1.13579, 1.13835, 1.1395, 1.1458, 1.14464, 1.1475, 1.15337, 0.00340758, 0.00344329, 0.00355424, 0.00356963, 0.0033025, 1.17604, 0.00360676, 1.16337, 1.16727, 1.16663, 1.16591, 1.16818, 1.17164, 1.17405, 1.1772, 1.17828, 1.17677, 1.18148, 1.18231, 1.18563, 1.18745, 1.18858, 1.19059, 1.19099, 1.1944, 1.1946, 1.19481, 1.19786, 1.20011, 1.20219, 1.20171, 1.20328, 1.20856, 1.20762, 1.20774, 1.21335, 1.21503, 1.21315, 1.21964, 1.21981, 1.2195, 1.22233, 1.22368, 1.22378, 1.22279, 1.22624, 1.2271, 1.233, 1.22731, 1.23492, 1.23597, 1.23965, 1.24332, 1.24508, 1.2515, 1.25738
0.00319647, 0.0034449, 0.00330992, 0.00359211, 0.00313857, 0.00358331, 0.00362887, 0.00379576, 0.00351455, 0.00394913, 0.003228, 0.780243, 0.766427, 0.808148, 0.808636, 0.810399, 0.811481, 0.00361652, 0.00327666, 0.00349576, 0.849517, 0.849708, 0.00341429, 0.865987, 0.867149, 0.00344959, 0.853759, 0.862793, 0.00331537, 0.880463, 0.00327712, 0.00369458, 0.00337998, 0.0037094, 0.0035825, 0.872032, 0.84991, 0.790912, 0.00360112, 0.00367531, 0.00323491, 0.00365092, 0.00378489, 0.00363471, 0.00360057, 0.00368405, 0.00321151, 0.00342764, 0.00363413, 0.00350175, 0.0036742, 0.00354918, 0.00330015, 0.00341571, 0.00360236, 0.0037661, 0.00327817, 0.00365407, 0.0034075, 0.0034024, 0.00344798, 1.47632, 0.00338878, 0.00349946, 0.00344991, 0.00344846, 0.00327238, 0.761004, 0.0033479, 0.00370218, 0.00336918, 0.776303, 0.778877, 0.787836, 0.78896, 0.790178, 0.790412, 0.0036109, 0.00365787, 0.00346859, 0.00356023, 0.00374162, 0.00339526, 0.00385825, 0.00343965, 0.00316128, 0.857975, 0.859424, 0.862032, 0.87499, 0.88638, 0.887048, 0.886843, 0.885751, 0.88489, 0.884417, 0.885203, 0.851024, 0.8749, 0.859707, 0.845615, 0.8343, 0.833863, 0.863636, 0.848828, 0.849454, 0.825299, 0.822798, 0.805859, 0.860626, 0.826308, 0.835546, 0.84936, 0.84599, 0.825816, 0.826706, 0.835607, 0.859666, 0.90371, 0.884909, 0.881527, 0.875177, 0.876893, 0.878672, 0.896334, 0.895886, 0.897477, 0.862743, 0.865963, 0.864853, 0.864841, 0.884899, 0.896037, 0.872166, 0.894529, 0.881839, 0.9402, 0.941987, 0.943407, 0.957516, 0.946702, 0.946413, 0.947436, 0.968902, 0.942311, 0.95273, 0.950935, 0.958955, 0.980118, 0.994298, 0.939128, 0.931453, 0.930948, 0.908116, 0.94433, 0.967057, 0.93325, 0.922566, 0.926631, 0.978586, 0.945998, 0.953962, 1.01913, 0.971063, 0.961385, 0.9883, 0.980988, 0.999378, 1.01497, 1.0056, 0.985701, 1.00466, 1.00456, 1.01867, 1.02025, 1.01497, 1.01386, 1.01914, 1.04006, 1.04102, 1.04994, 1.06994, 1.08316, 1.0826, 1.09301, 1.08123, 1.08197, 1.04736, 1.02547, 0.992976, 1.00021, 0.966386, 0.979035, 0.977661, 0.95097, 0.956405, 0.995045, 0.996106, 1.00453, 1.01207, 1.02681, 1.05966, 1.05823, 1.06168, 1.06545, 1.06871, 1.05318, 1.05304, 1.06465, 1.06751, 1.06986, 1.07497, 1.07761, 1.09649, 1.09768, 1.1167, 1.11775, 1.12211, 1.12959, 1.13299, 1.13559, 1.13485, 1.13014, 1.13228, 1.13349, 1.13303, 1.13063, 1.13043, 1.12688, 1.12374, 1.12889, 1.12756, 1.12959, 1.13002, 1.13074, 1.13617, 1.13526, 1.13796, 1.13763, 1.14077, 1.14255, 1.14594, 1.14751, 1.15012, 1.15155, 1.15446, 0.00339744, 1.16419, 0.00332924, 1.16407, 1.16588, 1.16808, 1.16682, 1.16623, 1.16516, 1.17856, 1.17707, 1.17919, 1.17986, 1.18139, 1.18358, 1.18621, 1.18828, 1.18972, 1.19098, 1.19924, 1.19759, 1.19289, 1.1943, 1.19577, 1.19624, 1.19944, 1.1988, 1.20246, 1.20871, 1.20695, 1.20813, 1.21134, 1.21009, 1.21154, 1.21533, 1.21613, 1.21817, 1.2193, 1.22286, 0.00334897, 1.22881, 1.23062, 1.23265, 1.23338, 1.23332, 1.23254, 1.23626, 1.23389, 1.23579, 1.2362, 1.23751, 1.24327, 1.24715, 1.25088
0.00336905, 0.00352298, 0.00367947, 0.00330479, 0.00329607, 0.00352079, 0.00348337, 0.00332929, 0.00353387, 0.00335028, 0.00339577, 0.00357395, 0.00350377, 0.00311877, 0.00337951, 0.00358185, 0.00391298, 0.00324148, 0.00332441, 0.00343791, 0.00334548, 0.856763, 0.00341876, 0.00313506, 0.00377955, 0.00346281, 0.00348597, 0.00342145, 0.00338499, 0.00338141, 0.00339405, 0.00330754, 0.00348246, 0.00339834, 0.00360119, 0.00355489, 0.850069, 0.00327132, 0.00356994, 0.00340386, 0.00345139, 0.00344747, 0.0033802, 0.00355946, 0.00356822, 1.16423, 0.00327279, 0.0033654, 0.00349948, 0.00345635, 0.00364389, 0.00352916, 0.00362079, 0.732027, 0.731455, 0.732499, 0.732617, 0.733574, 0.00364675, 0.00328013, 1.41557, 0.00340533, 0.00330442, 0.747421, 0.751764, 0.753956, 0.00358802, 0.00339376, 0.00357318, 0.00345443, 0.00335431, 0.777416, 0.779353, 0.00343313, 0.00346687, 0.00332313, 0.00353583, 0.00328901, 0.00322134, 0.808178, 0.812471, 1.26357, 0.00356221, 0.0037765, 0.00355142, 0.0035989, 0.858922, 0.860603, 0.863041, 0.86442, 0.00329493, 0.870194, 0.8817, 0.8865, 0.891423, 0.897334, 0.845936, 0.846183, 0.902254, 0.903018, 0.905079, 0.884014, 0.870598, 0.876777, 0.867231, 0.861115, 0.863058, 0.840772, 0.842271, 0.840079, 0.841351, 0.836444, 0.849228, 0.859776, 0.840615, 0.838404, 0.850232, 0.854191, 0.849808, 0.849988, 0.8709, 0.873748, 0.891591, 0.912711, 0.916501, 0.91806, 0.89636, 0.908519, 0.870136, 0.892676, 0.860986, 0.861003, 0.872111, 0.873627, 0.878678, 0.881204, 0.877383, 0.909136, 0.907995, 0.898516, 0.914838, 0.949856, 0.963929, 0.945506, 0.956962, 0.939305, 0.900622, 0.912678, 0.925572, 0.92977, 0.941296, 0.915231, 0.925386, 0.910699, 0.910551, 0.912682, 0.966995, 0.967571, 0.969037, 0.971521, 0.936413, 0.939768, 0.949244, 0.950542, 0.957688, 0.971499, 0.96368, 0.968522, 0.97168, 0.992851, 1.00067, 1.00084, 1.00507, 1.04035, 1.02398, 1.01575, 1.02819, 1.01231, 1.01043, 1.01548, 1.01585, 1.04006, 1.02617, 1.02687, 1.02988, 0.994874, 0.99588, 0.988357, 0.98784, 1.01293, 0.962962, 0.964131, 0.952898, 0.978297, 0.975265, 0.985829, 0.973046, 1.00544, 0.987766, 0.995636, 1.03548, 1.03733, 1.04653, 1.05308, 1.05477, 0.00333201, 1.13313, 1.08876, 1.0672, 1.03299, 1.0643, 1.06681, 1.06666, 1.12887, 1.12861, 1.10855, 1.11733, 1.11866, 1.12254, 1.1254, 1.12929, 1.12733, 1.12644, 1.13162, 1.13334, 1.13258, 1.12949, 1.12938, 1.1276, 1.12739, 1.13243, 1.13045, 1.13055, 1.13267, 1.13358, 1.13668, 1.13595, 1.13982, 1.13977, 1.13967, 1.1407, 1.14597, 1.14489, 1.14866, 1.15069, 1.15321, 1.15604, 1.15745, 1.15956, 1.16063, 1.16207, 1.16511, 1.16378, 1.16784, 1.17104, 1.17387, 1.17657, 1.17699, 1.17857, 1.17963, 1.18442, 0.00325082, 0.00376311, 1.1992, 1.20092, 1.20376, 1.20608, 1.19813, 1.19599, 1.19884, 1.19815, 1.20148, 1.20026, 1.20829, 1.20559, 1.20574, 1.2095, 1.20962, 1.21208, 1.21438, 1.21422, 1.21723, 1.22106, 0.00351835, 0.00313059, 0.00353029, 0.00374312, 0.00319215, 1.24674, 1.24602, 1.24957, 0.00345027, 1.23997, 1.24372, 1.23948, 1.24032, 1.24291, 1.24527, 1.24525, 1.24694
0.00359045, 0.00385613, 0.00337017, 0.00370842, 0.00327228, 0.0036764, 0.00316542, 0.00354118, 0.00334602, 0.00372335, 0.00325918, 0.00339645, 0.00370967, 0.00383816, 0.0030381, 0.00387922, 0.00340672, 0.00345133, 0.00355254, 0.00370041, 0.00324147, 0.00354792, 0.00337983, 0.0033573, 0.00336616, 0.00362799, 0.00328211, 0.00360927, 0.00328718, 0.00358338, 0.00342648, 0.00343219, 0.00355832, 0.00368203, 0.876286, 0.0037105, 0.00300549, 0.744136, 0.00343588, 0.00337937, 0.00350422, 0.00337596, 0.00327952, 0.00404275, 0.00322481, 0.0034475, 0.00324334, 0.00331643, 0.00343097, 0.00368115, 0.00347081, 0.00376778, 0.00331248, 0.00343265, 0.00328154, 0.00351017, 0.00344938, 0.00352869, 0.00340055, 0.74319, 0.743311, 0.744842, 0.00332415, 0.753324, 0.754676, 0.755754, 0.759541, 0.760794, 0.00339026, 0.00354147, 0.00356402, 0.00372259, 0.00331763, 0.786769, 0.788981, 0.790981, 0.821217, 0.00360527, 0.00358514, 0.809954, 0.8116, 0.813199, 0.817862, 0.82038, 0.00305064, 0.00354643, 0.00354862, 0.00354497, 0.00318589, 0.867278, 0.870085, 0.871042, 0.87338, 0.875266, 0.89146, 0.89142, 0.891163, 0.899284, 0.897141, 0.89901, 0.908681, 0.906397, 0.910912, 0.922228, 0.862859, 0.863366, 0.858765, 0.853249, 0.871798, 0.873209, 0.857189, 0.858479, 0.84085, 0.849519, 0.845797, 0.846106, 0.839391, 0.840214, 0.887292, 0.88458, 0.890399, 0.920601, 0.922204, 0.920837, 0.895645, 0.890932, 0.907929, 0.913422, 0.899078, 0.898683, 0.900395, 0.907608, 0.908965, 0.892351, 0.867347, 0.87695, 0.869724, 0.877158, 0.916004, 0.900909, 0.927224, 0.940497, 0.883169, 0.885878, 0.898456, 0.888188, 0.907177, 0.92062, 0.910701, 0.927873, 0.917579, 0.919575, 0.924208, 0.901404, 0.916407, 0.913445, 0.927033, 0.926991, 0.94421, 0.940673, 0.946708, 0.936717, 0.941276, 0.957459, 0.958362, 0.980915, 0.983382, 0.980918, 0.978315, 0.977466, 0.991339, 1.01919, 1.03708, 1.03032, 1.03293, 1.03563, 1.02943, 1.04103, 1.04267, 1.00752, 0.990991, 0.998132, 0.996074, 0.986143, 0.987877, 0.977022, 0.979574, 0.990977, 0.96113, 0.96748, 0.966711, 0.974404, 0.960192, 0.954255, 0.967155, 0.983578, 0.992165, 1.00804, 1.01027, 1.02243, 1.015, 1.03531, 1.03298, 1.02997, 1.033, 1.05059, 1.04399, 1.03606, 1.0469, 1.04919, 1.05088, 1.0676, 1.07347, 1.10375, 1.1061, 1.11926, 1.11967, 1.12296, 1.1206, 1.12054, 1.12174, 1.12353, 1.12851, 1.12588, 1.12922, 1.13052, 1.12657, 1.13087, 1.13204, 1.13141, 1.13089, 1.13187, 1.13011, 1.13085, 1.1356, 1.13522, 1.14262, 1.14017, 1.14246, 1.14301, 1.14678, 1.14633, 1.14789, 1.14975, 1.15158, 1.15338, 1.15672, 1.15729, 1.1598, 1.16297, 1.16258, 1.16692, 1.16852, 1.17143, 1.17326, 1.1755, 1.17595, 1.17861, 1.18109, 1.18479, 1.18629, 1.18997, 1.19391, 1.19801, 1.19852, 1.20026, 1.19652, 1.19363, 1.19493, 1.19606, 1.20007, 1.2022, 1.2054, 1.20783, 1.20704, 1.20969, 1.21215, 0.00367394, 0.00353864, 0.00368736, 0.00337705, 1.22771, 0.00347239, 1.24168, 1.24196, 1.24659, 1.24654, 1.2518, 1.25331, 1.25083, 1.25136, 1.25413, 0.00352257, 1.24289, 1.23761, 1.24034, 1.24384, 1.24671, 1.24456, 1.24419
0.368705, 0.0033342, 0.00344302, 0.00340678, 0.00363726, 0.00335373, 0.00319477, 0.00332543, 0.00347877, 0.0034371, 0.00355196, 0.00332797, 0.00334159, 0.00367894, 0.00339645, 0.00358927, 0.00349896, 0.00357841, 0.00363597, 0.003255, 0.00368256, 0.00341504, 0.0035483, 0.00358834, 0.00369327, 0.0033892, 0.00384904, 0.00333432, 0.00339346, 0.00347372, 0.00357678, 0.00341841, 0.00388356, 0.00322848, 0.00347723, 0.892081, 0.894365, 0.894692, 0.00343511, 0.00345506, 0.00363061, 0.00375783, 0.00377805, 0.0034472, 0.78858, 0.00353729, 0.00355407, 0.00328997, 0.0033516, 0.00351817, 0.00319436, 0.003373, 0.00389482, 0.00325657, 0.00359238, 0.00339372, 0.00344125, 0.00348072, 0.00365053, 0.746705, 0.749027, 0.748761, 0.748775, 0.75336, 0.00340202, 0.758688, 0.759741, 0.00328697, 0.00348442, 0.00321677, 0.00346608, 0.780969, 0.782679, 0.785832, 0.787247, 0.789479, 0.790534, 0.00347198, 0.00337846, 0.00349183, 0.813431, 0.81577, 0.00351339, 0.00331015, 0.00340666, 0.00356738, 0.00352999, 0.00330884, 0.00362053, 0.00348985, 0.00352258, 0.00349405, 0.879399, 0.0033365, 0.881186, 0.884937, 0.891815, 0.00332884, 0.900785, 0.903802, 0.905558, 0.907747, 0.91097, 0.917424, 0.916752, 0.935334, 0.916828, 0.929936, 0.92359, 0.89121, 0.855624, 0.85742, 0.863509, 0.893755, 0.896431, 0.846302, 0.86671, 0.871934, 0.870474, 0.902348, 0.905271, 0.911688, 0.873783, 0.898897, 0.881775, 0.883996, 0.884691, 0.894152, 0.891283, 0.905627, 0.898176, 0.895684, 0.892575, 0.881445, 0.895681, 0.898847, 0.904504, 0.893809, 0.892527, 0.895568, 0.904237, 0.906442, 0.898332, 0.909621, 0.910684, 0.902852, 0.903599, 0.923181, 0.932395, 0.916859, 0.919227, 0.922326, 0.912125, 0.910122, 0.928357, 0.942999, 0.928827, 0.940162, 0.945996, 0.946133, 0.93634, 0.940471, 0.940247, 0.985108, 0.969125, 0.991738, 0.991335, 1.02606, 1.00368, 1.0198, 1.00403, 1.00208, 1.02551, 1.0256, 1.0365, 1.03594, 1.03981, 1.04324, 1.03773, 1.03903, 1.00638, 1.00651, 1.0095, 0.99596, 0.977512, 0.979006, 0.978465, 0.977629, 0.981657, 0.949239, 0.964864, 0.975364, 0.968994, 0.974088, 0.990365, 0.998496, 1.03013, 1.02396, 1.01407, 1.0214, 1.02281, 1.0309, 1.02988, 1.03218, 1.03131, 1.04339, 1.04218, 1.04078, 1.08827, 1.09462, 1.08046, 1.07051, 1.07277, 1.11795, 1.12007, 1.12065, 1.1208, 1.12205, 1.12175, 1.12242, 1.12253, 1.12287, 1.1263, 1.1258, 1.12784, 1.12762, 1.12819, 1.13008, 1.13279, 1.13283, 1.13246, 1.13292, 1.13118, 1.13078, 1.1339, 1.13509, 1.13711, 1.14025, 1.14208, 1.1453, 1.1465, 1.14773, 1.15015, 1.15145, 1.15357, 1.15498, 1.15553, 1.15532, 1.16091, 1.16426, 1.16717, 1.16927, 1.17222, 1.17435, 1.17497, 1.17465, 1.17554, 1.17918, 1.17884, 1.18127, 1.18335, 1.18602, 1.18847, 1.19187, 1.1957, 1.1969, 1.19907, 1.19916, 1.1989, 1.19938, 1.20779, 1.20886, 1.21182, 0.00334643, 0.00372561, 0.00340637, 1.22431, 0.00351408, 0.00351406, 1.23289, 1.23394, 1.23664, 1.245, 1.24931, 1.24949, 1.24837, 1.25049, 1.25342, 1.25286, 0.00349396, 0.00343011, 1.22973, 1.23223, 1.23384, 1.23509, 1.2373, 1.23914, 1.2046, 1.24277, 1.24257
0.00308293, 0.00326863, 0.00319261, 0.00360039, 0.0033877, 0.00394578, 0.00352834, 0.00331208, 0.00358778, 0.00346958, 0.0032836, 0.00335728, 0.00324413, 0.00353219, 0.00338751, 0.00346277, 0.00321375, 0.00341689, 0.00367364, 0.00341801, 0.00351031, 0.00345734, 0.00342625, 0.00340704, 0.0031472, 0.00349006, 0.00336168, 0.00370095, 0.00359903, 0.624463, 0.624776, 0.624959, 0.00339587, 0.00359165, 0.00333526, 0.890664, 0.00343876, 0.870309, 0.00358489, 0.00338169, 0.00339257, 0.00360626, 0.00349502, 0.7907, 0.790278, 0.79163, 0.792727, 0.793637, 0.00343054, 0.0035293, 0.00332853, 0.00371292, 0.00346258, 0.00346737, 0.00321265, 1.21959, 0.00352982, 0.00347397, 0.00316997, 0.00351447, 0.748463, 0.748552, 0.751753, 0.754437, 0.00353502, 0.00367997, 0.764726, 0.766861, 0.768712, 0.771508, 0.00323275, 0.779489, 0.781996, 0.784019, 0.787194, 0.789308, 0.793319, 0.793568, 0.00352222, 0.807078, 0.809361, 0.818249, 0.820213, 0.826922, 0.829737, 0.831865, 0.834516, 0.00366649, 0.00337214, 0.00326933, 0.003431, 0.00340862, 0.0032738, 0.00355162, 0.00352021, 0.889218, 0.891524, 0.892844, 0.00326951, 0.908869, 0.911809, 0.911733, 0.915037, 0.916548, 0.919178, 0.921361, 0.918562, 0.931965, 0.895397, 0.899023, 0.876531, 0.902677, 0.904679, 0.879191, 0.912298, 0.863067, 0.885077, 0.904464, 0.889228, 0.898688, 0.898654, 0.900246, 0.915248, 0.927114, 0.866444, 0.890739, 0.874425, 0.890232, 0.874084, 0.873838, 0.906087, 0.89814, 0.893471, 0.895311, 0.896241, 0.898787, 0.894727, 0.910805, 0.9075, 0.899548, 0.905603, 0.987438, 0.925659, 0.919133, 0.919281, 0.971489, 0.972714, 0.96702, 0.908897, 0.906085, 0.908081, 0.901059, 0.90201, 0.929227, 0.926202, 0.939087, 0.949458, 0.942825, 0.945632, 0.964495, 0.946056, 0.959884, 0.967314, 0.968784, 0.992275, 0.994103, 0.996428, 0.986317, 1.0085, 1.01117, 1.01857, 1.02369, 1.02387, 1.02446, 1.02221, 1.02955, 1.04832, 1.07347, 1.04777, 1.03531, 1.03012, 1.08362, 1.00315, 1.01467, 0.987586, 0.988096, 1.0026, 0.998956, 0.990511, 0.989569, 0.998616, 0.965034, 0.967124, 0.970146, 0.997491, 1.03388, 1.03323, 1.02918, 1.03886, 1.02548, 1.02943, 1.0755, 1.04626, 1.07515, 1.08177, 1.06094, 1.06742, 1.08876, 1.08087, 1.10627, 1.09552, 1.11654, 1.11819, 1.11884, 1.12179, 1.1221, 1.12095, 1.12353, 1.12341, 1.12172, 1.12452, 1.12551, 1.12665, 1.13021, 1.13092, 1.12784, 1.12692, 1.13063, 1.13314, 1.13421, 1.1335, 1.1331, 1.13559, 1.13619, 1.13586, 1.13588, 1.14007, 1.14295, 1.14145, 1.14374, 1.14646, 1.14783, 1.14906, 1.15113, 1.15524, 1.15817, 1.15868, 1.1634, 1.16675, 0.00355611, 1.16941, 1.17121, 1.16929, 1.17351, 1.17564, 1.17568, 1.18026, 1.1787, 1.17925, 1.18208, 1.18246, 1.18463, 1.18667, 1.19104, 1.19334, 1.19304, 1.19555, 1.1965, 1.19815, 1.19962, 0.00348392, 0.00345335, 0.00328973, 0.00374475, 0.00331557, 0.00332186, 0.0036559, 0.0035662, 0.00330659, 0.00361258, 0.00328775, 1.25072, 1.24807, 1.24914, 1.25139, 1.25445, 1.23627, 1.23683, 1.22726, 1.23095, 1.23041, 1.22319, 1.22864, 1.23032, 1.23399, 1.23537, 1.23923, 1.24131, 1.23837, 1.2432
0.00367803, 0.00358984, 0.00350226, 0.00355022, 0.00316825, 0.00327808, 0.00350047, 0.00370733, 0.00349055, 0.00325864, 0.00331162, 0.0034308, 0.00369487, 0.00340063, 0.00345744, 0.00339251, 0.00351, 0.00343786, 0.0035621, 0.00322421, 0.00335863, 0.00335539, 0.00332398, 0.00346419, 0.00367003, 0.0034858, 0.00349575, 0.00340111, 0.00359889, 0.00369359, 0.00331603, 0.00343159, 0.00380125, 0.00346684, 0.00364034, 0.00325994, 0.00361636, 0.917224, 0.917362, 0.935194, 0.00352007, 0.00330803, 0.00372015, 0.00357285, 0.00335589, 0.791341, 0.793832, 0.793477, 0.795311, 0.794972, 0.796243, 0.0033564, 0.00366045, 0.00336063, 0.00341996, 0.00336253, 0.00343859, 0.783257, 0.784056, 0.00340002, 0.00358928, 0.003308, 0.00340072, 0.0034023, 0.00348385, 0.00328976, 0.767478, 0.769598, 0.770767, 0.771403, 1.4812, 0.777977, 0.780773, 0.784769, 0.790327, 0.791502, 0.794285, 0.00338197, 0.00362738, 0.00320168, 0.809752, 0.00320339, 0.00355172, 0.00336223, 0.82936, 0.833706, 0.836583, 0.837524, 0.00368728, 0.00351676, 0.00337113, 0.00342353, 0.00357801, 0.887508, 0.889241, 0.893689, 0.894872, 0.898149, 0.900883, 0.905279, 0.911405, 0.913779, 0.91513, 0.919639, 0.92038, 0.921797, 0.922472, 0.925253, 0.925659, 0.918162, 0.914989, 0.946242, 0.950103, 0.952135, 0.962797, 0.97473, 0.876932, 0.927146, 0.929125, 0.9302, 0.913158, 0.936066, 0.917836, 0.981915, 0.898301, 0.901081, 0.872663, 0.876945, 0.912968, 0.87674, 0.874028, 0.876262, 0.88431, 0.881241, 0.898433, 0.897877, 0.899485, 0.897453, 0.908304, 0.898758, 0.900651, 0.917757, 0.913289, 0.91102, 0.942472, 0.942107, 0.991056, 0.984683, 0.924903, 0.926635, 0.916202, 0.91831, 0.921728, 0.942949, 0.898196, 0.922906, 0.921172, 0.932542, 0.944103, 0.954363, 0.963451, 0.956783, 0.961669, 0.995034, 0.994099, 0.990798, 0.99012, 0.988469, 1.01987, 1.0023, 1.0089, 1.01478, 1.03307, 1.03246, 1.03644, 1.05435, 1.06774, 1.11479, 1.07534, 1.06769, 1.06953, 1.06059, 1.07132, 1.01266, 1.0254, 1.03338, 1.033, 1.01551, 1.01999, 1.01931, 1.01613, 1.02521, 1.03475, 1.04033, 1.03989, 1.04078, 1.03953, 1.02187, 1.02234, 1.03488, 1.05488, 1.05746, 1.0656, 1.09165, 1.09198, 1.09278, 1.09449, 1.10468, 1.10899, 1.11195, 1.11259, 1.11565, 1.11912, 1.11937, 1.12182, 1.1209, 1.1219, 1.12398, 1.12208, 1.12107, 1.12384, 1.12568, 1.12672, 1.12803, 1.1291, 1.13064, 1.13223, 1.13441, 1.13459, 1.13079, 1.13176, 1.13622, 1.13356, 1.13857, 1.13983, 1.14099, 1.1431, 1.1422, 1.14403, 1.1468, 1.14806, 1.15098, 1.15131, 1.15386, 1.15378, 1.15358, 1.15864, 1.1615, 1.16351, 1.16616, 1.16663, 1.17032, 1.16953, 1.17219, 1.17596, 1.17517, 1.17546, 1.17501, 1.1807, 1.18116, 1.18269, 1.18537, 1.19061, 1.19044, 1.19214, 1.19403, 1.19225, 1.19452, 1.19504, 1.19724, 1.20249, 1.20246, 0.00372353, 0.00343223, 0.00370843, 0.00328038, 0.00356945, 1.24976, 1.25115, 1.2511, 1.25341, 1.25697, 1.25784, 1.25683, 0.00355291, 1.23394, 1.2338, 1.22809, 1.23031, 1.23092, 1.23288, 1.2323, 1.23359, 1.23458, 1.23667, 1.23948, 1.24316, 1.2418, 1.24085, 1.24129
