0.586922980743663,0.00316610999999933,0.591558501497752,0.593534125880965,0.596120485242492,0.603945184328757,0.604484818086393,0.605300837559051,0.136126188046589,0.00332409934903412,0.223041452650678,0.627784291748984,0.627640121630733,0.62896111098763,0.629715345405748,0.63133474083064,0.631901814018486,0.633275124056678,0.635021581523696,0.63567104506451,0.645034384444261,0.64779399725809,0.648102208278916,0.648824301241989,0.650141242410405,0.650856522805054,0.654232636575078,0.657123806600861,0.658254983963938,0.660189103905518,0.661048260724083,0.662252217150924,0.663393508624987,0.664106630929008,0.666383397382623,0.667701032147675,0.669718960601777,0.670854913614935,0.673107808366038,0.674939788768312,0.676873914077682,0.684750261915065,0.685429937972957,0.687583442679934,0.688947856102194,0.69089857967088,0.691920442813164,0.693131440081534,0.695295656244112,0.69859445328979,0.698716401943915,0.699454317481255,0.701086627169458,0.701868044676168,0.70265243387642,0.710978739948867,0.711841118648852,0.712488355178185,0.713558500203053,0.71500908042489,0.716099126729032,0.71785275200917,0.718798822170303,0.721370885245175,0.700573424996601,0.695819248111049,0.69641228603283,0.696750686433697,0.697181713061371,0.697082397506607,0.697686000906342,0.697688482235238,0.69802780105761,0.710745535615347,0.708723757367608,0.710588800717259,0.711421695991533,0.71343891552672,0.713843379479324,0.715368638963271,0.715490156297074,0.716240353596271,0.716870768164388,0.717434710765747,0.712488502200749,0.712399628729256,0.707822255620506,0.707834443554369,0.707723399101084,0.707795245502012,0.702546647221509,0.689519584559468,0.670315871234536,0.65959515513921,0.660490424487255,0.66103960053844,0.660142816865519,0.658017016733084,0.658208022115008,0.657997598389373,0.658159286427534,0.654332562668709,0.654324724235343,0.655245063224043,0.65285294195642,0.651055758675026,0.653628980500083,0.641790960485248,0.659826720044354,0.657610843961438,0.664752093165871,0.67226441930601,0.671455601303014,0.691141514662775,0.681139970364281,0.677932755917497,0.677320977732285,0.677947142434881,0.68539506525151,0.69178980237777,0.691986906409905,0.692574819156861,0.697645736783948,0.698902767455025,0.698998830300941,0.698748760619116,0.698883168553201,0.698268480331183,0.714500040764489,0.733054637905312,0.723802510292241,0.714527971766265,0.733854169783926,0.739523496739377,0.74088377473701,0.742367955158012,0.741652974919926,0.741027240143675,0.768085919605756,0.781544072960512,0.784171782565137,0.785906026391561,0.785971468953996,0.786501837312261,0.785571522558428,0.785453047833519,0.810407378602001,0.830625222339585,0.829522750891006,0.830036368021535,0.832659929854489,0.83523843475952,0.851434216377474,0.863966908873952,0.86547585925592,0.867079857660383,0.869051325825135,0.871947049715833,0.872522694986394,0.873562622567344,0.870602823887354,0.864570044631296,0.893852290215985,0.913815268301277,0.915286034630991,0.91577575530773,0.919414420773704,0.923522375113795
0.586845902401112,0.587334027980299,0.588136916241495,0.586605185335847,0.585766235852082,0.202579557754335,0.168700079766949,0.135227517383049,0.102106470549931,0.069551032009789,0.189554204687188,0.625804766881028,0.626284839585559,0.627220205963436,0.628777870805702,0.63195041733471,0.63371639166204,0.635174757877685,0.63771051440779,0.641600788717316,0.645419612218924,0.647788716969434,0.648900863674244,0.649839934891526,0.651108016612467,0.652343849886135,0.65439108981699,0.656204895947235,0.658127049500759,0.659952157715236,0.661410679824245,0.662752771711256,0.664169453605264,0.665544263792057,0.667747745707753,0.669848824459964,0.671396988387222,0.672828446780269,0.674416091810266,0.676080377299933,0.678022614437711,0.681316407389817,0.684147966910211,0.687393896644306,0.688958752399198,0.690635818541818,0.692187267298092,0.693877277749213,0.695863567602829,0.69808500331082,0.699364598111807,0.701766727068529,0.702831953512437,0.704196978037884,0.705588927345734,0.709245978429801,0.710781339104533,0.712045451155987,0.71333287331952,0.715213502155362,0.715606148673162,0.716527049084762,0.717349371863054,0.718731518759091,0.702729591686223,0.695264733210487,0.695536447042588,0.696319271908535,0.697066548886222,0.697314532317667,0.69770359707181,0.697790240534535,0.697525729619575,0.710621510060422,0.709892414093656,0.7105976237495,0.711597450319556,0.713381816286341,0.713978838246494,0.714874613013512,0.71537403250037,0.715546314706678,0.715117232157709,0.714019948090446,0.712377594665326,0.710271082869169,0.708040743866872,0.707453638696306,0.707350248578226,0.707453464228313,0.703252269558099,0.696620789480098,0.675707323572944,0.674737838082574,0.671548907559235,0.668790783623514,0.666376178593773,0.664501462626047,0.663063047352635,0.661537409962859,0.661611977852918,0.653155750122505,0.652150665596709,0.652076250497062,0.652176419609581,0.653157118627828,0.655904001422109,0.658852543258716,0.661515500157412,0.663812610834545,0.665006941817272,0.670773998808179,0.67093315337987,0.686195437324708,0.684761617913585,0.686428749379993,0.687600361269712,0.688366164872723,0.688487376099779,0.691115293912489,0.693457143999329,0.695574861250823,0.698054911621475,0.6996773803435,0.69927101490967,0.698684409454243,0.698677844742759,0.710424040684217,0.718399163496631,0.735391627637079,0.737553451476601,0.739774539850986,0.740917441894008,0.740892261147156,0.741798347209019,0.744641400198935,0.74763263219482,0.762329857287108,0.773390262751206,0.77622306107857,0.783633839768618,0.783821145542364,0.796958151088962,0.801748484460611,0.806429263214811,0.812453453992668,0.818875689968473,0.827926544651198,0.827876183056442,0.827819114312276,0.83871363492006,0.847233879720307,0.855418066855429,0.864653159164929,0.865578769236282,0.866933587342196,0.868659584019666,0.870538788869572,0.880293006997496,0.889942006708987,0.898825658600757,0.905272750739796,0.908209650833595,0.915411607064028,0.916989274124884,0.919433868158466,0.921146093051286,0.924349205447152
0.586807037535427,0.587044255418533,0.587400151569205,0.586853196977666,0.585908534343362,0.00346933999999934,0.0733291342337498,0.00370349672238823,0.00292979309614545,0.00352372312410373,0.156843368503645,0.623486236018931,0.624630582088171,0.62495926435459,0.626217795704186,0.633823161161081,0.635380756117102,0.63617721442836,0.638538613263139,0.646195180847806,0.646980242421655,0.648898299301334,0.649856351844381,0.650598582412975,0.652161544300582,0.653336149770833,0.654789382553366,0.655265352006222,0.658113240580024,0.660084580917196,0.661972677451718,0.663185519379861,0.665049536703629,0.666121643770004,0.669259699841525,0.672500656645166,0.673218527591277,0.674580340381084,0.675624779207551,0.6767941768415,0.677910106127894,0.678241253248396,0.682635282079972,0.688632696577895,0.688811607356338,0.690539341654353,0.692213776900849,0.694320206316042,0.696028606065223,0.698615884563321,0.698865376695122,0.705579887377801,0.704101799734038,0.706697807627429,0.70629489641018,0.709243291798271,0.709923093635414,0.711756070341653,0.712697583903369,0.716435826086787,0.714769842215723,0.715437086108543,0.715550313073477,0.717827641734332,0.704798503522385,0.694058414598708,0.694395024523086,0.695772460349387,0.697307831173408,0.697330367633831,0.697852130831189,0.698407530258704,0.69810728762183,0.709815871664538,0.709819591507701,0.710216469603864,0.711251434821449,0.714493616343313,0.714134005070914,0.726251268988042,0.689536953161433,0.675945281542349,0.688071974563493,0.694906024615209,0.689653286019156,0.686905987436985,0.706971823718432,0.706540605113856,0.706492738069424,0.706580924153936,0.704368263306952,0.728128005287361,0.676053472154664,0.67724867053846,0.680025449712563,0.683976331248393,0.682188173510501,0.698209666637691,0.6701595546288,0.668722664063144,0.666434547250001,0.646723096816013,0.649130145351708,0.648532014169022,0.650440961424351,0.639895712512207,0.657564226655454,0.658820536502,0.663104316876185,0.667403483499196,0.667334234503752,0.668416079899911,0.670765255767909,0.686207623570041,0.685050832119603,0.685783218735461,0.68732802933041,0.689000154671104,0.689450352168741,0.690430829747334,0.69522564832128,0.698692497077504,0.699444915450052,0.702728317527027,0.69983268913754,0.698123731435049,0.698625091551392,0.847223,0.722974916781447,0.735374373095892,0.736806012866154,0.787121017385414,0.7502493462324,0.758487548402103,0.745981178048452,0.746575454068137,0.74999750801964,0.783274381868093,0.77677021549632,0.771026600586958,0.782829988939005,0.781834531080475,0.800323293888219,0.804890929458761,0.813781035252214,0.829447310667042,0.827283179980151,0.825279026639752,0.826217750172349,0.825511365470626,0.850899114152697,0.905046996657332,0.876100256496387,0.875054187402724,0.880159711409118,0.886746911177926,0.87806076657939,0.862988323389626,0.892116389883186,0.902201796963681,0.906970301516529,0.91172685925713,0.92163260395892,0.932659899218533,0.9400266443121,1.00606521207437,1.00673208413772,1.00748936246209
0.587114778399138,0.587992520568373,0.58782073871058,0.586697140229509,0.586049000868334,0.177511176037678,0.143343984330459,0.109311030422257,0.00201293850386993,0.00251668347085005,0.124793565289376,0.623211419637218,0.624029677142712,0.624592553694529,0.625182626880771,0.635857844611401,0.63801165958149,0.639439217082874,0.641181672707411,0.645190281859317,0.647299157561063,0.649792672615234,0.65105569277906,0.652448495363806,0.653745010844404,0.654924043699637,0.656249722842989,0.657374492659014,0.658919666147817,0.660275669595654,0.66331596874239,0.665110559471176,0.666724375457757,0.66823514403722,0.670630162180506,0.672942515008404,0.674347396768819,0.675611846377498,0.67665020065725,0.67759835785198,0.678683631058936,0.679628081383163,0.681785608918923,0.683505937440728,0.686775396476038,0.6892986917696,0.691801527391552,0.693925273185613,0.695702683310904,0.697152915113373,0.698688536144827,0.700098181126441,0.701552052522152,0.701644887413572,0.703651656007649,0.707405136319196,0.708063479552592,0.708564791532575,0.709085836532974,0.70894478377301,0.711047611556498,0.711791094705517,0.711147735261695,0.708367328154484,0.706563493538726,0.704408985915556,0.702321647796149,0.699980701855046,0.699113222268152,0.698084268340473,0.698004475111369,0.6982687976328,0.698483142774104,0.699027464778115,0.695882721185534,0.693187358672276,0.690920774909516,0.688932374658518,0.687040991172017,0.685078918561474,0.682904665040453,0.68051634544455,0.684336050366763,0.686182854761107,0.687707342632886,0.696968178312909,0.706237899663826,0.705643481474633,0.705558092477456,0.705540851615229,0.697296441900044,0.689223861871133,0.675893336021851,0.677025933954499,0.679190535812881,0.68122844843635,0.680809294304098,0.674249066594844,0.670410847343133,0.670800795944492,0.670635399519011,0.669679998305387,0.668991389605077,0.668811767540319,0.668746101836852,0.668471222733014,0.667841106748235,0.666964294124161,0.666105385435803,0.665795857456563,0.6685737227466,0.66977113267523,0.670966701076845,0.683697178248422,0.683694162237497,0.685393813464953,0.687101959521878,0.688784179741877,0.69010361460619,0.691813328318129,0.693976930580843,0.697009874301827,0.698485716034026,0.699509581360268,0.699318167021494,0.699061422196605,0.698991048221305,0.708883819902316,0.715101170943836,0.723480777787503,0.736928663140868,0.737594858898166,0.738309386404306,0.742378001451708,0.745985843823941,0.747251400789041,0.752925766842346,0.775861998254145,0.781204934840382,0.785017637003034,0.788871438213132,0.792720224194483,0.809366954927231,0.813778070568167,0.822992467185004,0.835416844619827,0.839633732851886,0.843097233112412,0.853628308918159,0.858839525789809,0.867460762421187,0.877551192663172,0.876963922989103,0.87625875190935,0.883363838520969,0.88926572002338,0.896989289355386,0.905343657702611,0.913255231104743,0.919869061638707,0.924108923079484,0.927822751232096,0.932166088896908,0.937928737535491,0.952723996446955,1.00611984287998,1.00669488340518,1.00730484296189
0.587971398601034,0.590115559994594,0.589416791866918,0.00342710999999934,0.586681984279189,0.60363164257221,0.604071094159338,0.604580447361683,0.00119905432863365,0.00276750641779189,0.0932734781147765,0.622331250400455,0.104823781626798,0.00340029854148046,0.139356480267938,0.642965537176698,0.64118729362086,0.642664368142578,0.641103940827059,0.646049550695746,0.64694898063649,0.652017846295256,0.651945632725646,0.654576865446533,0.655535535187503,0.656472584640897,0.657912112799011,0.658997915713819,0.659814602266235,0.659221531647958,0.666135544541759,0.667355681837822,0.66862962009463,0.66945027738424,0.672120854342644,0.674254598804861,0.675645077794494,0.676819337068072,0.67775889305765,0.678174301312309,0.679458585957983,0.679832889549789,0.681247778674054,0.680817563935519,0.682703624025207,0.67006803138774,0.673514557616679,0.672593785642617,0.675641808300628,0.00354784999999934,0.0722102402343874,0.00358523999999935,0.69855412582783,0.698870717226248,0.699297719129257,0.70802517791739,0.706583805840586,0.705369959640352,0.706597577543686,0.708472276988289,0.709090252376369,0.709610740907067,0.709305351468625,0.709153408554055,0.709003794865815,0.71096457020939,0.71249107521783,0.713318164579931,0.70108561031252,0.669077873447174,0.669051533471307,0.654885388008045,0.687282065354512,0.702934375820006,0.691082768350846,0.675659445967025,0.675667384410332,0.676225674485859,0.674532030177391,0.67551030902423,0.673465129902294,0.671426941456139,0.665602600868332,0.631587054414152,0.677756838060392,0.702893712646585,0.704574689366157,0.704007044487003,0.704718404630163,0.704674457069606,0.684468686308399,0.654532457039841,0.675525239574858,0.706434047186285,0.69655570731864,0.707486767250744,0.678424678559436,0.668811362351224,0.671262412839918,0.672948112641724,0.671194579664548,0.669529934307478,0.671975433923201,0.675595858005283,0.673755544350865,0.687322714772225,0.680021764028546,0.686279081519143,0.668442793468626,0.661206725335227,0.671201055225961,0.672215036355998,0.671765553767411,0.680992876102076,0.681047950848924,0.709472773053198,0.709537188098827,0.709031485223213,0.710157515681642,0.71011208308635,0.701494291287295,0.697519279709131,0.697867700235933,0.697524410234602,0.698925316179427,0.699967418462573,0.699596972936333,0.699971522950188,0.70710157764275,0.700303541959224,0.736680142838556,0.735166247985895,0.736818337330827,0.734734274006895,0.747632249502426,0.748523643260409,0.756782303237389,0.768197945901755,0.792502058783742,0.795545259118292,0.796577749960347,0.79743384202138,0.81608798437708,0.828393782559874,0.834639325960078,0.841888357359945,0.844362058695609,0.846479202372855,0.857448499282529,0.878701553058477,0.87825563179172,0.877987568196615,0.87753949984245,0.866119603965636,0.899963857295842,0.911134531467771,0.916407068413838,0.932537853812499,0.924743491396072,0.922402556499799,0.935814164816718,0.951938894320244,0.949184707339566,0.94645123262548,0.965597288353416,1.00565175181241,1.00669167559018,1.00778260413102
0.589601634817083,0.590657609092174,0.590500063015902,0.590384872956366,0.588737999251908,0.603204699532085,0.603876157334002,0.604461511970721,0,0.00131940136453102,8.38833152638563e-05,0.00132976642560455,0.00154337399448723,0.00261286493529441,0.105231188180106,0.139356480267934,0.203156137218798,0.635199095154702,0.636783019095419,0.647430791618852,0.647893538010038,0.649366645666581,0.650232586662486,0.657014827444534,0.657548925102104,0.658565426696047,0.659902999243842,0.661245111489455,0.662321006296562,0.665184703713028,0.66798844070087,0.669841175185515,0.671036523704036,0.672567960785445,0.674118240682992,0.67578830377109,0.677123680687969,0.67836156950108,0.679342114718014,0.68024587559535,0.681047660480966,0.68175523340106,0.682369466981426,0.682615722104701,0.682806807020079,0.68174958329039,0.678096546465408,0.674909188737935,0.67860390445105,0.680774863348299,0.683899931785104,0.685107546258986,0.696881999812699,0.696826316997778,0.697330131436121,0.697971809607299,0.699976390015036,0.701806251086616,0.703023066396646,0.704106029082036,0.705624782551938,0.707757112745254,0.707403176726775,0.708518628348384,0.709519292164296,0.710462825368271,0.711700241884356,0.712054375661943,0.702747550811624,0.669285811194246,0.669150231364591,0.669076191434822,0.669018586888208,0.669596971722185,0.670755046083257,0.673804808861959,0.675081460727364,0.675724344462941,0.671805225053087,0.669288856216186,0.667530761801879,0.665573784118626,0.661736186455882,0.656693548176138,0.66884203150488,0.673302562716026,0.668047958555268,0.663455978311126,0.659709211595658,0.657005506450951,0.655425792966562,0.654614822329779,0.66984728338965,0.674138422575098,0.675056628986581,0.676431378344634,0.676801740552127,0.675900978114881,0.673200049860815,0.672543995602626,0.671538775448537,0.671186641625521,0.672533890623822,0.675114661390819,0.672234268912516,0.671556205513483,0.669912248987279,0.669515347718457,0.669978078674819,0.67077378924894,0.672536392382702,0.673246662740632,0.674127460549269,0.677437654805868,0.678308348556925,0.696961122344282,0.709773437826895,0.709995228737001,0.710765114668064,0.711784313620665,0.713318433445021,0.7158857983101,0.71800407392026,0.719435843128948,0.720058745780179,0.719834180453812,0.726495170416332,0.729741593436252,0.732710700332596,0.735423701182628,0.738561133129857,0.740750214469009,0.745727821653407,0.751099489515406,0.755549828204748,0.75925368001218,0.761422879870416,0.769060201736682,0.798782781012451,0.801017468179492,0.807896179021521,0.817385675327495,0.823362781838947,0.82989473788525,0.838545254536071,0.844212407603304,0.846177032989164,0.849555179117388,0.867024368306513,0.880262862829803,0.881794004583015,0.883253211074951,0.896496566418192,0.904492215362359,0.91124209975865,0.916399043501349,0.919019819605259,0.929019345138567,0.927482684272138,0.928269784657696,0.945414481973281,0.955955198916874,0.961172225648095,0.96834963229003,0.970016432612876,0.975399435637009,0.975478118042624,0.97632611192486
0.591733869686772,0.592595067743444,0.591817267541135,0.5925813742826,0.590257306686755,0.601976841796612,0.603593302097654,0.604773348341846,0.00140036464282848,0.00274198474497047,0.001693483015573,0.00273440913739103,0.00234071361753104,0.00323627397835744,0.0714579902626756,0.00363670977708761,0.170279443707037,0.633259453802872,0.635185634477794,0.646513960981553,0.64721297039947,0.647378281354019,0.649001219126581,0.658979496085172,0.659041345097135,0.660354819882339,0.661684771387615,0.663522385165983,0.663268938576507,0.67180197183,0.671089809252943,0.673263416779753,0.673305952948721,0.675652358610775,0.676035614106507,0.677624740188092,0.678729429133679,0.68012805448798,0.681027856295668,0.682376168468355,0.682732746401049,0.683704761033146,0.68375248635881,0.684307146902165,0.683460873110228,0.682325852470153,0.681511220593032,0.670136363548668,0.683154944809142,0.685184790827659,0.685548584884744,0.686375802897672,0.694930591666127,0.69440204250387,0.695499908918022,0.696276005347101,0.697847623079201,0.69874926993642,0.699585408856505,0.698998574531564,0.699876499824687,0.699615519515479,0.703764853256391,0.708295955222899,0.709973513094793,0.710359745937789,0.711638111496805,0.711884744269758,0.703896450060888,0.669718973009692,0.669398161159217,0.669470889967676,0.666671855929462,0.654968807812389,0.669477414890383,0.718663785849332,0.707664354961358,0.719563861873565,0.662478230414439,0.630515254761611,0.632063266581365,0.633361079816785,0.648117807088453,0.649905662311851,0.655824027779224,0.67897568173142,0.662962405966106,0.642294574618973,0.653030294433509,0.650472969720104,0.651626969027537,0.650747876619922,0.66214924820556,0.654410338419547,0.675379441023422,0.678041688462954,0.677171363426423,0.678078505185785,0.676636084991203,0.694148594421854,0.671225388802182,0.670849122591096,0.671549318739595,0.679933302603624,0.668610904322335,0.666793209141772,0.666143639177652,0.652843139294521,0.671628511485255,0.677688174575846,0.67481164389477,0.673862900482421,0.674526992242959,0.67596749076779,0.676655435315364,0.690217781485919,0.709290000875229,0.710310126601157,0.711152712069432,0.712522567846829,0.712311774462088,0.732217657038598,0.72669979422074,0.722630098527454,0.721262110740315,0.719617263791293,0.726952343961349,0.749807295818298,0.747342685681191,0.743766273542964,0.743303204656434,0.743008705375693,0.749689977768894,0.757203306293769,0.762152343619337,0.767468114139314,0.76745850371392,0.768667119717958,0.804546092967199,0.820846681639064,0.823331708464558,0.825747840200405,0.828537318320675,0.831371796849866,0.845531810172152,0.859325783107631,0.856829219373044,0.854469961066598,0.878130843432173,0.924656995813724,0.889480549027253,0.884804137411156,0.902781581727255,0.910961412190499,0.915430930345049,0.924448217442991,0.926515516434635,0.926636314624765,0.927651842460606,0.928606300199632,0.965749054704142,0.993080575550419,0.991560800185302,0.99073811455716,0.981956247364352,0.974744046644237,0.97486143106018,0.971036458826682
0.593092394596321,0.593369222415856,0.239757992531649,0.206531391574232,0.174320712260601,0.143020809218834,0.112518513610129,0.0826033728848704,0.00218909353501323,0.00233081142895206,0.00166467730407409,0.0601315492298095,0.0751597439234071,0.0938069389390197,0.111547474660768,0.128178019585751,0.144982055114602,0.158972162938247,0.180862631568631,0.204817400978933,0.23110254039684,0.259937702376061,0.291473747428439,0.657182819007215,0.659213244557532,0.661209624018952,0.662718928106715,0.664119499679458,0.665643467742258,0.66924668128971,0.670483168585437,0.671967351840345,0.673223492474282,0.674940070243614,0.676696207593662,0.678743536370993,0.680011359865168,0.681355994930049,0.682234029924793,0.683209417568279,0.683768823664231,0.684414972680336,0.684591735384778,0.684786772986565,0.684304623601194,0.683797669558929,0.684074619864538,0.685402132901671,0.685395104635282,0.686262964913432,0.686927707995344,0.688030952415592,0.691660707071328,0.692818298620335,0.694019010565919,0.694922982117339,0.696254273608542,0.697204116682443,0.697871675755635,0.698011518055881,0.698634372365649,0.698849030409231,0.700265561114338,0.701595927270127,0.702541645873333,0.703095455243636,0.703044393305433,0.703936928978026,0.704527529008338,0.691703448767715,0.682308033891443,0.676382239725319,0.664501343388831,0.663920020687748,0.663191548610765,0.663093054432211,0.663648362892013,0.664297376228316,0.653403822656673,0.631387568862119,0.632176458084652,0.632454394001667,0.646375477282089,0.645269481376292,0.644996358254452,0.64417231735449,0.642858482177149,0.642560622254759,0.65568029557722,0.661054736545768,0.663707176278411,0.66475947162832,0.66585289821604,0.668302185352746,0.67392604198227,0.675790009447743,0.676265925096368,0.676564770676892,0.676010848237031,0.673314625902814,0.671403052519434,0.671103914601169,0.671341401619444,0.669914060077669,0.667801602093032,0.666566342300828,0.665979198164318,0.664599123269035,0.673881842248723,0.676078736957682,0.674689026961361,0.673438337135579,0.674153101792398,0.675179560517481,0.675534406400271,0.688985867040108,0.708067979856793,0.710565087543545,0.711101712615283,0.711349414908364,0.711297957201555,0.720980270248562,0.730598945703303,0.733484628699088,0.735825330194111,0.737965067821686,0.739896965491597,0.743475904619419,0.74855083608944,0.750016497655354,0.753184101271109,0.758955517474763,0.765839119420419,0.772470465343808,0.779703084192518,0.788263303491704,0.797945744324115,0.806807498350634,0.814385045926922,0.823692173183066,0.829066827419689,0.834163845302581,0.839296897775058,0.84512208420345,0.849590104815255,0.861187488545323,0.868424465523338,0.88036111411183,0.889327943870572,0.898029558122188,0.898271941889754,0.898077693510661,0.908221867815579,0.915551554612189,0.9180460950121,0.92594569428671,0.939120059415398,0.949507850114667,0.959251917772747,0.96846970265602,0.977101953637143,0.989985109040596,0.990800708431755,0.99075471317723,0.990698221685789,0.990733991034894,0.990973689258602,0.991426005103945
0.594139749342154,0.594541542430529,0.112492098657349,0.00359549223786928,0.00336117361441709,0.00343289172752634,0.00310933855944968,0.00340516292116026,0.00271673444398709,0.00302074729981435,0.00227212115851161,0.618283,0.116884893055708,0.619024,0.141929470630252,1.08857,0.0898410481475983,0.00378106407365428,0.00383011433328355,0.00379108975247713,0.00383730196969207,0.0037065029960926,0.118559154451827,0.653205161752926,0.65903566287982,0.662170703629954,0.663362489162872,0.664262388934662,0.666194208640411,0.668068874382954,0.669814288560457,0.670873905992181,0.672801007372954,0.674119420276106,0.677114730149902,0.680517854824098,0.681292668898014,0.683021778784746,0.683373279600076,0.684429567445126,0.684756994086694,0.685585752642332,0.685498355912159,0.685944223640681,0.685168263710978,0.684450789326154,0.685547994412895,0.687066912412649,0.686821346813864,0.687323831330628,0.687764600013382,0.687912810045091,0.690559980663314,0.691460997020023,0.692997893729979,0.693129475830709,0.695066461300311,0.695886092219103,0.696574369816729,0.696845758660813,0.697567282917352,0.69738194684224,0.696793201133196,0.692748042045078,0.692223602380334,0.693430600350629,0.70100437877412,0.704177886518382,0.705368661025581,0.707216663752218,0.693317374965251,0.724584011879412,0.663328705019038,0.663004912210786,0.662858551733783,0.66293793221012,0.663840894893273,0.665108745908488,0.644209273137442,0.610440271699608,0.632654932168344,0.632030061833624,0.645932655607332,0.645516276330303,0.645359290823532,0.631263821139302,0.638881612932076,0.633838436340151,0.658499740440006,0.676829923263507,0.676677404259,0.713843884833064,0.694761001996471,0.696965753220195,0.696853602473886,0.703937244591674,0.704555439335213,0.705435208936135,0.678386078241946,0.669659871111713,0.670454670865851,0.671015706766694,0.672617177810473,0.664586969434703,0.666205358157516,0.666063265388602,0.666356694365387,0.663651067061391,0.673729111710128,0.677761386006439,0.674423461856775,0.670947590736411,0.673439387567886,0.675244983559719,0.674915470041548,0.688122222016621,0.706280921765802,0.710204015654231,0.711312671476248,0.710588229469232,0.710477556809811,0.709795591808584,0.731310735716383,0.739170532822668,0.739919903392595,0.74803832304263,0.740061862593236,0.728481090260464,0.748825868834951,0.752046284585006,0.76387269234739,0.776394399030704,0.776448218634971,0.776519354238107,0.794087737348733,0.81061854344314,0.811579362402702,0.812531142710118,0.818898876059572,0.82673470082909,0.83774269076898,0.849292624324561,0.849715110578731,0.850246955887735,0.854346421050418,0.863238232644486,0.874747980225704,0.902704607853927,0.900524533238101,0.897773338287364,0.897987744187072,0.897845875492013,0.915811036220451,0.927196189526782,0.926928267414576,0.926753727207386,0.949102891462232,0.974514336156858,0.983779369073884,1.02293721156155,1.00765488638683,0.985973349238216,1.00507921015013,1.02121787303918,1.02164150474109,1.02111119245809,1.01102367377723,1.01165124883417
0.089990427170462,0.0721089511538082,0.0548533195836741,0.00343363902484936,0.00326311320200708,0.00321318602209318,0.00299571884624506,0.00291402108556072,0.002477794822607,0.00247053501250578,0.00203829240196116,0.00152521634255636,0,0,0,0.00256044314989994,0.00347881049223984,0.0037436780634727,0.0038470505516745,0.00389164431365275,0.00389113733732972,0.00378962925633267,0.0842414624266914,0.118559153821617,0.660801939766506,0.661765776751918,0.663732427309293,0.664844325127788,0.666595772285815,0.668310228805745,0.669859445932233,0.671315805100729,0.672927406975667,0.674660148413183,0.67703136299994,0.680270566151847,0.681526171379711,0.682887438697619,0.683779165275723,0.684770666348657,0.685216700806717,0.685693956965991,0.685876764085076,0.686099305789215,0.685991584612531,0.68607861439221,0.686578214255912,0.687379648394051,0.687584798962172,0.688164977933151,0.688928188142441,0.690040193657234,0.691395930316653,0.692619395252099,0.693448976503465,0.694105048269454,0.694978391249548,0.69562338765711,0.695748602837172,0.69618126667522,0.697616496196857,0.696485516565646,0.695178313738427,0.693238540385417,0.692137321492203,0.692553441056432,0.688246518800413,0.683037904732321,0.6792716552019,0.67605657291855,0.672564034194207,0.667560496286138,0.661333034404103,0.654373236604253,0.647154416723454,0.64007192754853,0.633484875713995,0.627679418944822,0.622949769928239,0.619635632318786,0.633945652963333,0.636837231342896,0.645711130150843,0.645918764785545,0.645300700013741,0.645917651425632,0.648761018013286,0.650887509032103,0.661171779576606,0.67557462996845,0.676414780422905,0.691918508112372,0.692607177584716,0.695369876601879,0.698214287511363,0.702063367771833,0.703965361071784,0.690521898217336,0.681462899923585,0.681518253750851,0.679420210356812,0.67672408555354,0.674702364073495,0.666336713225032,0.666971269955229,0.667811352893239,0.669618395157577,0.672757354775108,0.673983916189469,0.675178798580882,0.674123043601214,0.67267156126968,0.673497112510059,0.6742306713484,0.674330107584316,0.680821584923805,0.7043325265637,0.71328738313963,0.713297344129882,0.718135895733192,0.721048039888584,0.728484381478522,0.734462692983999,0.740367082788932,0.741132188920341,0.743175603364123,0.740045750782901,0.736861187184619,0.749137344797238,0.750407034138719,0.774813045330125,0.782471639968176,0.790634995272329,0.798236023102865,0.805401823835171,0.815416558721586,0.820701112373353,0.828854257673271,0.834275063673151,0.839614643503137,0.845693828456157,0.854050291279291,0.859793027861714,0.866962035931667,0.873304157974347,0.876316032682023,0.880314324288473,0.895042337113815,0.904180120402673,0.910346705370939,0.918050647269549,0.926622709767018,0.931970710481656,0.937642370668429,0.943295069488344,0.948946267437248,0.955848287720111,0.967058331874399,0.994484227448357,1.02272752601138,1.02252162524079,1.02231514013947,1.02212001828203,1.02198715796317,1.0224844233323,1.01606636276509,1.00957311249683,1.01147103281018
0.003794965635912,0.00366087087918299,0.00369524976365372,0.00359849482699523,0.00339016122185622,0.00362003946460103,0.0033082106304327,0.00326519333045733,0.00233332512948889,0.00263236079640833,0.00180221936954214,0.00250921193896481,0.00135686038537804,0.00222932744635622,0.00191096497428739,0.00319321369986971,0.00342254337692093,0.00370631346763041,0.0038202262683446,1.09479,0.00387773957549327,0.00365199742495915,0.00373550370011204,0.00374810328057901,0.661574109127782,0.660182280544898,0.663894097969749,0.664421413924785,0.666820480979227,0.668683720312909,0.670082815335726,0.671585239389545,0.672962352521165,0.674302336957355,0.676046751170804,0.681639951463551,0.681841078454449,0.683200771936026,0.684143583261147,0.685628175447902,0.685682008846505,0.686072028399106,0.686276695239492,0.686594914436118,0.686723093065951,0.68731387151594,0.687346248144019,0.688334062138675,0.688059477547458,0.688843210243132,0.689777476008256,0.69195685320548,0.692487652673612,0.694211474308829,0.694185863911578,0.694852077807937,0.69521820487038,0.695925895882157,0.694746809717677,0.690648795582619,0.700469012355379,0.712189814140455,0.712128521338808,0.711977846764754,0.690888956595653,0.691862079484375,0.664996548911824,0.634929611604828,0.626675694074579,0.60525905307648,0.606910144935397,0.607850972545324,0.609998096521803,0.594549217119359,0.614634153044511,0.613503663382515,0.614894947019901,0.61386940286076,0.619845407734827,0.616275332763433,0.635232912097413,0.655954068491952,0.644253040094577,0.646535552879441,0.644244134030996,0.643654671355749,0.650931472366112,0.657597410489015,0.663562400670666,0.673400482552645,0.676908300151896,0.691076033085134,0.688550056939356,0.687888755768446,0.699434970154368,0.71616850562804,0.704713614616644,0.684331599357223,0.684519319117781,0.686908421860506,0.689586461588607,0.691430643465937,0.675631627540506,0.667794874564029,0.667484711053842,0.668326708409072,0.671076517333,0.673668948710311,0.674168917184266,0.674658307079394,0.673905331476411,0.671926656092134,0.673630323559851,0.656768325131327,0.668749146171085,0.65983037835791,0.702447545827108,0.716033217238657,0.715112550166678,0.729565379058746,0.726597162885777,0.767149801283148,0.746301121101891,0.754981822186613,0.751413384571748,0.770345353021099,0.753156303336655,0.733711996217978,0.749105314177622,0.749002348643383,0.785594720274727,0.801199411880013,0.81471325373257,0.817795210136597,0.828734573128476,0.837066611980424,0.834553298766539,0.8324225213363,0.844357466074549,0.857243496836879,0.857371111145559,0.857396606758804,0.86516210870496,0.87727606263487,0.882456046964899,0.887940048143743,0.88759052494478,0.887634932475653,0.913956252164586,0.926199412843632,0.928395555114083,0.930586537412092,0.93678388190636,0.95252198133331,0.959705099408674,0.972201647313472,0.9651517110613,0.957377043613728,1.01104826097373,1.02953452964785,1.02910094114555,1.02911002116289,1.02822930387913,1.02806185483396,1.0226841585732,1.0001786187184,1.00489622363951,1.00145586518234
0.00384611547289542,0.00376833671469682,0.00374661461292211,0.0036271010717845,0.0034065476417553,0.00346118767044332,0.00333904070055859,0.00257968494619631,0.00135049123004732,0.000768744150989381,0,0.000110642577245876,0,0.000393151217092382,0.00198277833618539,0.00293050588511414,0.00323538297877652,0.00354659228940978,0.00383185760170658,0.00403515095802801,0.00393690525768188,0.00376925038951635,0.00374488606525147,0.00372228561561662,0.664116244789957,0.664299072142284,0.665833872395075,0.665858153680033,0.667516291951025,0.668761579762652,0.670235497866419,0.671367375965294,0.672904698494846,0.674280282433846,0.676106753819454,0.678607360762538,0.680877830245675,0.682619480079602,0.683938245516232,0.685300106631277,0.685781325636849,0.686243101376208,0.686537864213407,0.686802823039484,0.686993147487868,0.687202584320438,0.687162449319165,0.687241770698395,0.687480667678465,0.688006433305839,0.689346998142403,0.691062280243842,0.692384525561447,0.693952414429412,0.694208322213069,0.694728349335392,0.695109582739129,0.695850063491175,0.69671637792831,0.700125670313142,0.703043929002855,0.71156357825969,0.712187075448949,0.712564759961467,0.688573705149103,0.671955393257402,0.650509760258623,0.626676492332801,0.622127806641999,0.607104775738943,0.607448760722475,0.608297533410367,0.611925612609493,0.614804641088726,0.615658264002266,0.616261231242054,0.617769159246761,0.621011266348183,0.623456493668688,0.626323072691091,0.636184550977591,0.638472356217372,0.639843724358107,0.639665522347509,0.64087428484728,0.642590071168445,0.654749623218841,0.658611916591987,0.665712986964943,0.675369023178956,0.677398097471104,0.679746524868794,0.683384492799227,0.694940186650169,0.701635981113238,0.705334324728158,0.705964895644806,0.69502028873217,0.686108614925872,0.688022058951204,0.690002276529286,0.691574774441435,0.678016255147229,0.679739399224544,0.679669705816731,0.677992253845925,0.675224986361835,0.674326772941196,0.674300997730182,0.674612969682409,0.67445085063725,0.674070194534496,0.674891310388181,0.675603779569709,0.678042859648484,0.690831792152994,0.700745935637836,0.716374568052152,0.715775920336192,0.721349587068772,0.724358993910055,0.729179761537364,0.737734230091007,0.742425420149313,0.74721386734595,0.754263806860691,0.76171193800689,0.767008262731616,0.773646389690727,0.777206252870516,0.795813292822454,0.812141503212371,0.817969055649869,0.823334687453031,0.830492360841396,0.842901629691458,0.846806339861391,0.850156692582718,0.858449587279494,0.861993696158539,0.868069626780488,0.872453401811303,0.876923794941703,0.881680635574455,0.886707786981895,0.892099776247405,0.910044624850673,0.920915027746872,0.931138812651837,0.941598149952636,0.951729267076546,0.961200214969767,0.969041709000255,0.97701868244648,0.985998408278838,0.995582218895724,1.00510959813356,1.01419999031824,1.0223364044774,1.02908217052268,1.02879640938716,1.02841477986629,1.02758045863148,1.02636158464149,1.02336062222919,1.02108889587365,1.01904621742717,1.01748996731754
0.00396060158094208,0.00385101245723639,0.00393194523116129,0.00383986994399065,0.00345602004754309,0.0033987713005305,0.112140304465398,0.629072928600491,0.629664945026507,0.646007892104881,0.642193733216733,0.648614706025111,0.647251457915662,0.648487975292403,0.00231096867123787,0.00321561233252352,0.00323359494334407,0.00347645377333185,0.00384742915893195,0.00418231103533712,0.00394080291780703,0.00363883691236549,0.00369155453884842,0.00363225503607023,0.666056771908875,0.666039172018882,0.667269437511479,0.66551573040702,0.668280636796197,0.668806497515756,0.670736001078796,0.670758242377659,0.673042479564326,0.673525223132558,0.675532806490904,0.675329062020038,0.680895549305581,0.682484735565688,0.683830940051485,0.685829662064377,0.685937350421886,0.686550267983164,0.686874910565125,0.687057290752605,0.687309717124604,0.687319305257041,0.686937878868786,0.685966091064292,0.686689579465125,0.686314687146474,0.688616781741412,0.690524074972871,0.692132208480806,0.694969634055306,0.694061006324668,0.694716485928321,0.694697868800702,0.695606167665355,0.696047182333829,0.710407647186405,0.706048018505,0.712559026333425,0.712687773934751,0.713644915010664,0.686383906364668,0.606698000144049,0.631620363229413,0.607704734607974,0.613621153174235,0.608455496822805,0.60728116885053,0.605790779184628,0.614388398272014,0.616678091893627,0.616875315318942,0.618257692741681,0.618928625969058,0.62105928642832,0.626321799117707,0.629128963736152,0.636702270195368,0.636719195743615,0.637197317343033,0.633180424291014,0.63688573380118,0.634250573873273,0.65620529845401,0.659386710937535,0.667882015728092,0.697930598994859,0.677588693559868,0.677920917311249,0.681623001428826,0.703246168672798,0.702100458742514,0.707562416974549,0.706810443927659,0.707263278758495,0.688038015378793,0.689197380600267,0.690280677848481,0.692870865801006,0.679585527846575,0.681660446518342,0.680637913944371,0.679011049911736,0.681617144954695,0.69160065055789,0.674138549962727,0.649214325813838,0.658154577114977,0.656781518057243,0.675301627867036,0.675315586199822,0.679657947001196,0.700119841512416,0.699301521944615,0.71721760576935,0.716221102058419,0.715717024166925,0.723275951084488,0.723481982758719,0.733512703566277,0.731290405894652,0.737244966869193,0.731989493522319,0.765426812035882,0.770099074531582,0.774963638869167,0.783597321554898,0.805440130234956,0.824536431614174,0.835008122065389,0.839301008676911,0.846293869359849,0.855338384240368,0.854703660164601,0.853914846639768,0.860293572322364,0.870876918116903,0.878987243907725,0.887315667149043,0.891689064941783,0.898513142123419,0.898783167556323,0.899149576911621,0.923492584847861,0.938857000524905,0.95330807161284,0.969357893868947,0.973493196954262,0.977633666820308,0.999116914562556,1.04470603239501,1.04494911557647,1.04582724227984,1.04438853971346,1.04358331603461,1.04422624496429,1.04623041990785,1.04625022960801,1.04627146738867,1.04713505174368,1.04786671216181,1.05008076460249,1.05275912490362,1.04718685793784,1.03679881498253
0.00416830118025735,0.00419115166544389,0.00419896427175269,0.00401907470716793,0.0872076938996617,0.12156829941114,0.156155740086047,0.630412057322538,0.630370113401253,0.636962808634373,0.639219841964011,0.640675629854933,0.644150946312128,0.647103263213181,0.00147903617843561,0.00265327651440088,0.00314146079880476,0.00351238686686459,0.00377368236973983,0.00389521474313101,0.00387746740785281,0.00379807760425975,0.0859995596168656,0.120895872502472,0.668084539630605,0.669306654901887,0.670225067446965,0.671138944891395,0.671971647189008,0.672341377743809,0.673495551981077,0.674002605205278,0.675016539259614,0.67565711967937,0.676743694500683,0.677707199826739,0.680041974191017,0.681526658163566,0.683017012785798,0.684157744054094,0.685542115708313,0.686645390478842,0.687321412119115,0.687761342604138,0.687835366742845,0.687683229116021,0.687267769249151,0.686679423231547,0.686949581609179,0.687169904175433,0.688230756264239,0.689270284777974,0.690605276741086,0.691819305733126,0.692311653522157,0.6927246898842,0.693345604189822,0.694136512587639,0.69580037570354,0.699792367102097,0.70391578467628,0.707228889622627,0.705719202037014,0.691099327996003,0.684505964077925,0.664225829336615,0.645175748838811,0.64336469059102,0.640612672781114,0.637300987380204,0.633045332871227,0.631305606647912,0.631496863097227,0.632497368070607,0.633214846568194,0.633774278887248,0.634441976895521,0.635582570975329,0.637498940622626,0.640285041431485,0.643789559643028,0.647681117750988,0.651530297455915,0.654880730833756,0.657520551979395,0.659794713403711,0.66388308002773,0.665697413826819,0.670361943459066,0.677171944890663,0.677457270706961,0.67858077575199,0.680497303905203,0.681774613281797,0.683577034272347,0.685857217907945,0.68849903853202,0.689524878257683,0.689225208079549,0.688922639049976,0.688197441562108,0.683661347271358,0.67967143810853,0.679609985373413,0.682023220213363,0.68354312485983,0.68415826950549,0.687730703878362,0.67444949844556,0.660983241961911,0.660419771462777,0.661552083966395,0.680527377880716,0.680970762486184,0.682739132455728,0.697556053939886,0.697277744537461,0.709326578930784,0.716281013660992,0.715772204352753,0.723138711377342,0.735474609163694,0.740834235495126,0.74393315167202,0.748045088578255,0.752759095505528,0.77359363850582,0.784439287508292,0.795607520501966,0.807693291403415,0.819279019433223,0.829229893217822,0.839462768812644,0.843617951620419,0.84731205606256,0.857984014540591,0.859514269373885,0.862519950349743,0.866780906986174,0.872557113959894,0.883480112832813,0.891753045739712,0.893862748750177,0.89903021949832,0.921126399796962,0.934735602797122,0.946041832840214,0.956675926944591,0.970465421708868,0.982861621594245,0.995202008278642,1.00677252248925,1.01887119997273,1.0442527931741,1.04447692776757,1.04451686367692,1.04405066791187,1.043485632835,1.04327813799048,1.04582820251992,1.04674742543167,1.04666020852971,1.04756422333959,1.04633262793692,1.0496304131059,1.05232414318149,1.05445281184059,1.05617858100258
0.110951283419482,0.608080166571268,0.107720185163867,0.00367952075936815,0.122065573473065,0.627808734645808,0.625148162480347,0.632003991992674,0.631700955645101,0.633283686008422,0.636620918609391,0.639690768965701,0.641999404714735,0.648891218670533,0.00290920089634615,0.00306430558812087,0.0033287305086459,0.00360291350104668,0.00372116394574481,0.00359887327320066,0.00378834512763146,0.00380346097382164,0.120314212692556,0.678489107467575,0.679285241928235,0.679730022257505,0.678748581198269,0.676420036646163,0.676385244787913,0.67661555770332,0.677026046014909,0.676961803321996,0.677544836541501,0.677345542322779,0.678286566239079,0.67848523449333,0.680411191308616,0.680500408890825,0.682684797783471,0.682101584362466,0.685504291879802,0.68712101140352,0.68804848391309,0.688797241681843,0.688637273116665,0.688273255407439,0.68782843988583,0.6864920655775,0.687326221832194,0.687137435930974,0.68794777745701,0.687675124258661,0.689295207759757,0.68934797329872,0.690727698006947,0.69048908408746,0.691879355095479,0.691805848864184,0.693279384898765,0.692367687117914,0.69953777932257,0.717071847564389,0.702600102284836,0.679755722659611,0.682922550854,0.684025140802171,0.646998383079169,0.64601965570132,0.641355970128498,0.637663934373705,0.630762122116638,0.629158590154802,0.630370790968369,0.656757252987329,0.653242732593822,0.673840362886094,0.666888517179949,0.673512421379815,0.668790648802082,0.672764880417099,0.670079385318047,0.670658014632986,0.663892755348074,0.661409745360519,0.662060052083395,0.660043276404697,0.667285817219347,0.671281297599278,0.673256709613768,0.676729735275717,0.676445505902164,0.666070285075526,0.667646555069767,0.666495400923327,0.672580978871475,0.670732002460901,0.690318816952324,0.690955276790292,0.690613671256628,0.671671676950932,0.675096081056487,0.673952680525868,0.676536875687224,0.675995047449951,0.684274840175739,0.685769756432573,0.684176840692519,0.707443579560286,0.675405581175277,0.66190549259753,0.661296737701925,0.661960548935299,0.683314292871332,0.690831787688604,0.69065396110824,0.695028508659927,0.695203240878213,0.69304317696859,0.716038210519916,0.715118975897301,0.724373322498765,0.75047454259088,0.755067520727042,0.758366831029016,0.758810228648376,0.759036763796375,0.780690780255556,0.813950267425815,0.826238266704557,0.830094268343471,0.832035495947118,0.833931197229341,0.85211077959137,0.867922816921387,0.872482069603079,0.90604719029779,0.907173548571161,0.907685807812694,0.893689332342488,0.880669358038553,0.890048125913036,0.904474184676841,0.902135332343395,0.900094931256324,0.939888183654526,0.958503258088891,0.966613067422618,0.994959738424082,0.996435221746405,1.00722449688244,1.01589088765263,1.03929366945285,1.04153811159981,1.04374893119594,1.04435052104508,1.04407207450782,1.04415377062262,1.01602078138479,1.03952481912865,1.03520314929165,1.04838809842428,1.05646812369489,1.05033718289339,1.04092702811195,1.04947853163634,1.06351387491795,1.06441953779205,1.06197132122386
0.599099228963864,0.609904232635432,0.611862301215222,0.613243843892115,0.613822090364761,0.619582196331183,0.621790498514394,0.632143482163269,0.631828028729337,0.632373576316173,0.633587501310048,0.63285693999287,0.631989589088742,0.108522495595196,0.00326078352294404,0.00332816972185155,0.00343234480402391,0.00360830354961602,0.00368682687480607,0.0764184221510697,0.11037457221947,0.144269434262301,0.17799936371644,0.679395973027145,0.679610481004143,0.679790585763215,0.679737102083501,0.679599489252723,0.679881338629095,0.680211510499091,0.680888251078644,0.680594628106103,0.680564133656945,0.679997677346026,0.680551619199848,0.681245872545196,0.682532976637847,0.683194174464462,0.68490410076932,0.686126112114381,0.687139671832935,0.688238528664592,0.688921466557989,0.689550404099157,0.689608571023004,0.689651217715661,0.689243808062166,0.688856983891305,0.688685525210455,0.688542385259468,0.688708465063264,0.688805160719267,0.689520924644806,0.689956512270531,0.690729929124559,0.691123541265685,0.691850817656155,0.69227868281775,0.693038577414081,0.693270106744181,0.693897281305994,0.693099531917346,0.692359014811406,0.6822880342566,0.683439127853732,0.667699594394392,0.648847595711626,0.647129932327608,0.64470939240649,0.633039784907538,0.631220073858556,0.629895898799035,0.629961205719096,0.638995769736445,0.649076418253799,0.649477790612183,0.651426464794001,0.654894686560181,0.658243554299784,0.662148833441619,0.666673399399703,0.667919303379751,0.66618102046334,0.664590544809621,0.666154304066898,0.667814963989099,0.669933664835967,0.671788106029891,0.674044139623701,0.675252953294007,0.675093975325115,0.673498465213806,0.670519607094417,0.668862065822996,0.675273361605676,0.684590897075339,0.691414381706058,0.692001765819811,0.691728529798437,0.677477576454656,0.677302729594921,0.678582215741308,0.67926104603365,0.680833751126806,0.683487970965405,0.683853011811625,0.683157654738792,0.695474311927077,0.6768117510947,0.677853093601542,0.679335485912276,0.683261701466062,0.687301203512937,0.689997779379855,0.690925396773405,0.69699749535179,0.702228167644528,0.707736205541309,0.718515293078785,0.721332326809041,0.726616766004535,0.753968928135611,0.755532956097163,0.758562354773536,0.76762539460538,0.773432200800967,0.788754352826598,0.825294514460869,0.830472015855135,0.837855127961476,0.848141831449035,0.857028278931467,0.863236038832607,0.872481978764898,0.87517174384258,0.888372239878676,0.907971149670228,0.908388052698074,0.917460258022132,0.924151980785714,0.930395514653993,0.937817211312896,0.945836971421066,0.95330104069703,0.960736592731403,0.965109504258279,0.970773717141595,0.986278536982293,0.997850198494816,1.00381231285206,1.02317075800539,1.04041849660759,1.04177334668339,1.04357938861958,1.04543493244194,1.04558897828155,1.0447326875039,1.04179225974835,1.04258328730788,1.04774575407525,1.05031756922147,1.05326258641508,1.05272539052295,1.04938196199695,1.04869612630591,1.05500843084395,1.06734714358337,1.07146229357762
0.600657912018177,0.611822990916053,0.612371347893829,0.6138837336233,0.614117544259443,0.614781327748673,0.622448310968517,0.630739360996406,0.630612727618362,0.631463897784602,0.632314044601759,0.633509338335268,0.632020024452604,0.00361285416288368,0.00340740788908011,0.00360598860117884,0.00350236547831242,0.00357072904797749,0.00345109252102182,0.658101,0.145393772933471,0.660125,0.212031095552371,0.680072172561277,0.679914983487311,0.68005805662561,0.680568594919737,0.681169747378114,0.681825791776747,0.682183732649805,0.683465742698579,0.682422273297484,0.68257700134973,0.68083599933428,0.682672155445193,0.683341969052117,0.685389787674405,0.687971002637948,0.687729440658881,0.688876265832757,0.688838251603597,0.689757796926338,0.689904594963602,0.690846470241195,0.690632471065472,0.691452627683348,0.690671214569932,0.690982494640326,0.690055508789892,0.689617862842418,0.689603206847495,0.689306705798073,0.690120625788286,0.690220170526105,0.691199844413322,0.691402320620971,0.692173420132278,0.692353372918282,0.693106540956642,0.693272328964176,0.693458723563025,0.692532788325845,0.692157827630399,0.683572531086881,0.684948604023153,0.653649291742763,0.651027295342491,0.646001057504793,0.646979795931472,0.630399235134409,0.631564637867754,0.62913765251299,0.628951263328199,0.625428454566233,0.646283136323521,0.647471668630041,0.648773173490165,0.650572615249751,0.65017931230091,0.631437545826461,0.666438065733539,0.682280314370866,0.668078986486989,0.646144423603112,0.667830174243765,0.767047000001196,0.677277616540981,0.678801921288634,0.676357006901297,0.691067639524049,0.675023760185501,0.673957571892802,0.672289567305698,0.670561901543461,0.677662042176502,0.689999645404316,0.691522950780655,0.694319540712709,0.692714912385735,0.675843852980194,0.687087189789571,0.691993114528258,0.691905915448739,0.697620844140503,0.685439356510491,0.667059537677284,0.682295756867433,0.703567372680313,0.677263559894315,0.677401334170365,0.67691746692723,0.693800656371487,0.690022304952017,0.688928658236636,0.691793677482287,0.752321924484189,0.740536204681342,0.774048018225398,0.731073755677497,0.728902456691242,0.729347222833039,0.762296305863772,0.762649983336485,0.762367092179867,0.775032588626715,0.783725849636818,0.796746168856433,0.856047988655753,0.85465570320365,0.849416490725325,0.855326979746771,0.862698274775446,0.871766752712479,0.887121636629229,0.880395417465166,0.866206074797264,0.908697423274855,0.909775551142777,0.926231952738603,0.937475002776956,0.952975000852435,0.977657934514436,0.969146714502485,0.958719571529667,0.969393033813041,0.981569955494134,0.979642657263314,0.97796976029159,0.999145379857995,1.0004398386059,1.03234385897326,1.06758947987131,1.05212314055095,1.0526300578926,1.04995344726069,1.04939006518499,1.04710910992448,1.03864612344409,1.04261167260018,1.05614299559753,1.05207250191588,1.06063670860009,1.05679359978637,1.04604900309707,1.04715422472955,1.0472721610793,1.07175238845055,1.07667465937606
0.60392576352897,0.610424248896727,0.611946228249233,0.613294524714515,0.613754706312637,0.613618467595944,0.622736809670539,0.629050723867517,0.628983650484987,0.629412343716826,0.62999658699141,0.631359040865192,0.631139917040998,0.123292985477646,0.0888491158627605,0.00349436548176199,0.00343193218786759,0.00335587063696648,0.00300008700648772,0.0811399410927947,0.111389317085584,0.142397677509348,0.174028035062044,0.206447177374113,0.239797010873406,0.679870191198731,0.680619751055976,0.681210686932823,0.68236292340927,0.683500254905717,0.684849400617145,0.684492194471202,0.684048546169036,0.683631299271104,0.685413761827987,0.686537639923967,0.687554352064083,0.688837417901978,0.689001357617065,0.689340753256747,0.689553423566559,0.689885040300102,0.690072026965405,0.69031238059912,0.69059941656463,0.690985093520234,0.690989753523028,0.691111088474462,0.69092278088557,0.690808821886031,0.690801289915762,0.690771116912484,0.6914776712112,0.692073309594291,0.692470614591981,0.692670525937908,0.6930769829396,0.693266848790365,0.693638585645555,0.693655646554221,0.693606776407407,0.69285156757477,0.691567794888337,0.688019368014702,0.687529983891442,0.653750285790527,0.65235416828581,0.650717899731597,0.649513174757509,0.636406474231902,0.635626924040317,0.637400816434122,0.638085470388802,0.63965171996489,0.642738112545745,0.64532139915622,0.646439149740528,0.649969078976864,0.650410824499042,0.644309195408212,0.665533118820249,0.670188817636248,0.669674477780508,0.670152371486968,0.669630428538096,0.67423164224112,0.675585678078973,0.676568960756559,0.676543117641007,0.67687508597583,0.676307481331208,0.675771403682117,0.674141254511588,0.672193126890388,0.679795827773021,0.689871258629051,0.69088794464912,0.692480658969159,0.692118106162561,0.691491992924762,0.691509391366936,0.691881608428692,0.691538345394844,0.690813649808442,0.687903419591073,0.685002568836259,0.682037794162247,0.679847516002084,0.677397675608804,0.675590556104202,0.674436663238512,0.684799682219254,0.690380405318079,0.691355020342603,0.692294173982896,0.722919433461313,0.732563635406494,0.732917384912743,0.733098914450845,0.73424347196044,0.732683410870305,0.764962148676499,0.767744568707812,0.770610077229091,0.7866028638224,0.794676033106936,0.804117070966551,0.842468968870268,0.858535539727412,0.85924495236353,0.868949725224941,0.880520964379435,0.887040152589072,0.894225766990255,0.905689983002289,0.915880371429662,0.92554018367682,0.93550733594607,0.94377001782723,0.952057384962654,0.965215390531449,0.983868357903431,0.98899391589928,0.994795848074938,1.00087670844271,1.00707001405014,1.01305920170242,1.02006165258605,1.02755226990644,1.0356161926139,1.04432915759616,1.04987197718573,1.05135217391011,1.05194571800335,1.05128239027389,1.0491259791991,1.04720376460648,1.04401727712982,1.04383283074846,1.04509007356937,1.04971712324787,1.05405938133999,1.05775667255174,1.05994043140239,1.06155431699558,1.06243160638475,1.07548028943478,1.07956970493172
0.606792651672969,0.610124043177771,0.61182904703754,0.613520511697597,0.614105565710358,0.614588869678321,0.621496690830966,0.62621855246248,0.626913846075922,0.627688908465154,0.628170057675631,0.00356279999999934,0.630720991029648,0.632078343831141,0.123247182619758,0.00348558489075918,0.00346647131746784,0.0034946937203559,0.00252313986214593,0.0028133100429741,0.00159440303217344,0.00285835590038664,0.00217703658360693,0.00297661662421524,0.11030568067086,0.678602061055548,0.679761108625785,0.67945687575431,0.104849608165987,0.00337741760740542,0.00310090110727388,0.00343631287874184,0.202713323086745,0.688440467835784,0.6883847798291,0.689639641297983,0.689615013225626,0.690756174973568,0.690284488244431,0.689925666777735,0.690258875801682,0.690149531062098,0.690227279617448,0.689711954856089,0.690483779932342,0.690884419342145,0.691183456106716,0.691527592051594,0.691688905828487,0.691914229011753,0.692105033342815,0.691584042338049,0.693077397176075,0.694214381322715,0.694056289934856,0.693771229110247,0.694253410444635,0.694001056582417,0.694495268625099,0.693955788992627,0.694128364647143,0.693537909295167,0.69338203963661,0.693949783795405,0.689495504451568,0.654794007485592,0.653692424015739,0.653981440671476,0.652430298755147,0.636863787896496,0.636883321404928,0.638048299012778,0.639123080303821,0.638881094617689,0.639779823300055,0.629297634562597,0.644448577525482,0.673188549669438,0.653326488276796,0.639112646814294,0.66384444239408,0.670538446858661,0.669970124909862,0.671000221264436,0.671132130945402,0.672346435301216,0.674210383303728,0.67543664075117,0.676793945916113,0.67801350116199,0.677851444926207,0.678885309413185,0.676545118303892,0.672410780764923,0.680311157448553,0.688250060319344,0.689798566372627,0.712218878373197,0.703057047429536,0.712364837291649,0.691307876020749,0.692172860347228,0.691270956131835,0.690615342944392,0.690117959154467,0.715369911398237,0.680999926572495,0.674762074836227,0.676511028574299,0.673460144380072,0.67312134404356,0.671778888128598,0.690243147425912,0.696687459481487,0.694060043404647,0.715797999027741,0.732572432941688,0.733221763842136,0.734080137113952,0.736727617595061,0.734320970851706,0.774122942212379,0.77390754536254,0.773550001879038,0.799425702441467,0.808422013665821,0.813030152137024,0.826205017884586,0.861478152710036,0.887334115529451,0.88924296638154,0.891260965432324,0.896107270597471,0.938483099184123,0.939453404645481,0.940625618449824,0.942301938674629,0.944053829701853,0.952262984926662,0.960481868683485,0.977480936078354,0.996393038706733,1.00727985110296,1.01859652313766,1.01985036332866,1.02636151254595,1.03075184933955,1.05510621987938,1.05786130284866,1.05992472380102,1.0553399202252,1.04802704188419,1.05098871786171,1.05257679183428,1.05425077211692,1.05852061716588,1.04841011473474,1.04220510129284,1.04425427247095,1.04396216275228,1.04784835885235,1.03927718469291,1.05943460105252,1.06106203714482,1.06192774134724,1.06294544853804,1.0782078218582,1.08133514487648
0.607978831407253,0.610183949518581,0.611948523560992,0.613595178403539,0.614788800985392,0.61624061747742,0.619887829410284,0.62303250141962,0.624649033427776,0.625846033948663,0.626953128108666,0.627818577077778,0.629510846529508,0.630858721537306,0.158057357584065,0.123716556219031,0.089395066496015,0.00338204438965506,0.00133211878539077,0.000838168371599553,0,0.000390985620734035,0,0.00171723375126918,0,0.000297295782010909,0,0.000672338406828819,0.00112050930427859,0.0025971644918565,0.00287428526138294,0.00315283116141266,0.168858235836037,0.68951033736924,0.689473678668408,0.690205375804751,0.690530569719285,0.691327098476842,0.691493676324974,0.691677124303153,0.691432000743797,0.691113568971064,0.690965362469395,0.690641090402467,0.690725232503084,0.690909052724554,0.691293589939417,0.691727011260597,0.692291396139721,0.693899179482481,0.694241739623537,0.694693763298197,0.695183542462216,0.695917669709278,0.695895790220611,0.696100131839021,0.696209778318405,0.696498986982749,0.696438782038177,0.696202870897234,0.695338635465373,0.694107610959011,0.694082342035398,0.694074815597137,0.690677610925831,0.671734565534194,0.657544085609435,0.653802275483778,0.652060559358111,0.650150026173459,0.647722393436243,0.644898468030067,0.641923612664898,0.637044250131537,0.636717447096115,0.634177251927885,0.641971203445142,0.657058398719679,0.656824714332571,0.659260432502429,0.661545727299424,0.665107356211588,0.668027109909293,0.672186428890948,0.671556573289624,0.671788263174042,0.673543164014395,0.676422378040844,0.67748211532604,0.677922966196389,0.678297719648449,0.679014239908674,0.679544221322009,0.681248948512331,0.680909521081058,0.68953607828317,0.689881480418068,0.689160854971463,0.689187174186278,0.689749466994911,0.690486714430135,0.690781703362013,0.690200868650823,0.688148744183127,0.684158682509749,0.681847090114895,0.67960455456067,0.677424187716382,0.679888593279649,0.683701756562009,0.686170364407751,0.688880199717265,0.691516633732688,0.694257177607875,0.693577883297695,0.706054814235693,0.732196929547046,0.732657066357868,0.733192134341064,0.733726270217424,0.733340638685905,0.757280177819251,0.780332300689534,0.792226285772648,0.805045360099138,0.812660706556072,0.820460626321044,0.829231337539316,0.863949856397475,0.892149640987953,0.895393688533268,0.901058500544161,0.903174384300567,0.941727020989827,0.943543406049066,0.949190870990882,0.951766552131373,0.964012263110772,0.970644602660237,0.979345146437852,0.988798555122669,1.0073110401636,1.01346935664174,1.0207652730493,1.0209527460481,1.03073266532279,1.03234691443439,1.05666777645102,1.05828572163587,1.0590820185749,1.05785367391044,1.05697058047788,1.05598370157312,1.05550542097058,1.05492869993861,1.05343814568031,1.05006010574034,1.04921565916711,1.0476443471066,1.0483649408494,1.06003606221054,1.06741693643432,1.0721914908491,1.07652029798707,1.08087500348094,1.08302042984982,1.08233005308119,1.08212273610901
0.60885680847925,0.610867274028746,0.61234122155444,0.614167829004658,0.615076660293084,0.616122364850516,0.618792298744448,0.621055027526645,0.622884766641653,0.624144818199108,0.625924201395927,0.627093486144625,0.628940310039312,0.631225391278674,0.631331393745025,0.632475016925287,0.12377928911518,0.003921101709186,0.107080652814297,0.648817790159508,0.649028830207736,0.648988152096217,0.110258161235474,0.00312717816560782,0.00218186386427364,0.00278829492182142,0.00168222818427672,0.00293479709836209,0.00254052678210556,0.00313809308180552,0.00307182797881926,0.00356547859318082,0.135429284039565,0.690284541660379,0.689886561687281,0.691213415437072,0.691032828719608,0.692533237530057,0.692796156290296,0.69393080929144,0.692800643874572,0.691939983195953,0.69192054496903,0.691152200608141,0.690862588080818,0.690696244481791,0.691241566517978,0.691626672301672,0.691750564984834,0.696943030773641,0.696390700180475,0.697944019053488,0.697228062930763,0.698552108838692,0.697685514236166,0.69864435600517,0.698100999753044,0.699459527286884,0.698611765162223,0.699851194076099,0.696880694386192,0.693828324119884,0.69471873900179,0.693832725411966,0.691117553977958,0.691074189284254,0.661192125349514,0.663133644349858,0.663788205672947,0.664086366652235,0.664623888983181,0.665516461812935,0.646740683188843,0.622084874893436,0.636157110365987,0.635647791931698,0.639151093867101,0.657350206316643,0.657819206401958,0.659314859131886,0.657581014057797,0.651644563017673,0.658848404004604,0.674053374439148,0.671067384639597,0.669787648774394,0.671774935099859,0.679352023049437,0.678773190914503,0.725226981029644,0.706392677003747,0.727895008196338,0.680880584625902,0.682598903461218,0.681320745998217,0.695141569538482,0.691205175324641,0.68875846077644,0.688972961789175,0.673866232544082,0.690306964187785,0.690150653268004,0.6905561427442,0.676575215097294,0.678082167146708,0.675480913922133,0.677617351184748,0.675418342574774,0.681232870228864,0.688844090614505,0.692811334870889,0.695821775090049,0.693165412376267,0.68494931228758,0.692446456274387,0.691540036861893,0.731556758839888,0.732067079117595,0.732267539403125,0.731533508611603,0.7318071703816,0.730449352937333,0.784106223920822,0.845207887334595,0.837988188473457,0.835273814123676,0.833274263346009,0.832131621304413,0.865715720492539,0.908996658117795,0.89921682452023,0.908777325338654,0.911143932792588,0.9432645740683,0.945546777710405,0.956806377288994,0.958633431760484,0.979598232145449,0.981905147249015,0.999549913548105,0.999962190285499,1.02151866666777,1.02301312738885,1.02271486613504,1.02228015708534,1.05226336069232,1.03823424637386,1.08821000824175,1.05959965727824,1.06001401313781,1.06199717802793,1.06488265092084,1.0595057941893,1.05866564660676,1.05667884759337,1.05089729174148,1.04924601891611,1.04824547725136,1.04829700660077,1.04897763781539,1.06611049900541,1.07418706960416,1.0749360405718,1.13533028128923,1.1349793239452,1.13602320218057,1.13525098337873,1.16750171018492
0.608727012814034,0.610810159432928,0.612482469122727,0.61417445876249,0.615229130033791,0.616412633557665,0.618154393826173,0.619902968824327,0.621712766091977,0.623789296250571,0.625460581162664,0.626690716314505,0.628081401635248,0.629395488425132,0.630281169329323,0.630785879972891,0.630182610344716,0.638365079275086,0.643621613768959,0.649711269600301,0.649580149401501,0.649654586260132,0.274839782900878,0.242924246700866,0.213345482013619,0.185982068270154,0.160652152474042,0.137124107767778,0.115127607844708,0.094347378753518,0.0744239591639927,0.0570642331093115,0.102367235999064,0.136377201605579,0.688621387384732,0.689190812582958,0.689774201921377,0.692740560766152,0.693294464812297,0.694249031349307,0.694073436698321,0.693915511962571,0.693662776744672,0.693624278196067,0.468010721604855,0.467904704816516,0.467755317853993,0.467651010035563,0.467654243882713,0.467764615336134,0.467918808669107,0.46802751483884,0.697424965217314,0.697865560530112,0.697834811687978,0.698174240574684,0.698269045727209,0.698802432356484,0.698955043004308,0.699722693221783,0.699153507132597,0.698149402777059,0.697503984327388,0.695630607253712,0.67798501100467,0.671679496445631,0.66212524921177,0.663237737599614,0.663659510837157,0.664018950531242,0.664337493080022,0.664671481729971,0.652139436371025,0.644108254192382,0.636370265181056,0.637223701609101,0.639691238745551,0.642607098158191,0.645315985725474,0.647612682004196,0.649123724372306,0.649926130986449,0.655144861705078,0.666784249790616,0.66835117288039,0.670845322794091,0.672218369494041,0.673528843919335,0.67466358420558,0.675982426799964,0.677771293045801,0.679314285739573,0.680212711374218,0.681387189578892,0.680261032636976,0.691636540319406,0.691160495704084,0.689548277543511,0.689287176249483,0.689712122674802,0.690226795263133,0.690562744876667,0.690986322260499,0.684750190655873,0.679143682653347,0.676986928592778,0.680227910396434,0.683347157989649,0.683541525007437,0.685622255184425,0.695798379494659,0.697748486675808,0.700119380537687,0.702802528828275,0.704692586425598,0.720768939890936,0.730563266827744,0.730066005727062,0.743301797836961,0.74887392462271,0.752132670950261,0.777443847148669,0.786454844279622,0.842501893411864,0.840854113001559,0.841282222744733,0.842057890042672,0.841522600299281,0.866895791870041,0.885635169078376,0.893225934241802,0.909442855074326,0.91462057958753,0.944869008722608,0.94936025219224,0.957498041742169,0.959272067745441,0.971600239734316,0.984248285128215,1.00053759188852,1.00026255001341,1.01731363794848,1.02460040148194,1.02413023516191,1.0235741308682,1.02887365769872,1.03153621061963,1.04657831415326,1.06057757703334,1.06058964587911,1.06142533728812,1.06209013890202,1.06024109707143,1.05773147301777,1.05806399916517,1.05801175604475,1.05795251924945,1.05620419476121,1.0645076864016,1.06775475532881,1.07077209513431,1.07684789757541,1.07708929431566,1.13290006184725,1.13341466623155,1.13409027715854,1.1341484079224,1.16660644944916
0.608500570413453,0.611240201837,0.612721490909374,0.614869065538283,0.615358113096441,0.616177256554273,0.617614106953527,0.618706419301473,0.620300703642362,0.00394545999999936,0.625374177847833,0.626140051675561,0.627328970055264,0.628049817338736,0.62947647640381,0.630212016689144,0.630513911230999,0.64746335177231,0.647993749430419,0.649426583168926,0.649782771125642,0.650657960235597,0.651356634761468,0.652002977526526,0.651923806245938,0.657507620148172,0.65766765180806,0.658587652681228,0.229541203769972,0.66701,0.1035759563651,0.00352985597179238,0.0698917360402461,0.00377691931792141,0.686571404916497,0.687186627731074,0.686425137923826,0.69460783928438,0.693423501862978,0.695856840105728,0.695429914149135,0.696186509449206,0.695280244412696,0.696092833813138,0.138531241878994,0.00373828902600031,0.0703028561571111,0.00398314937562652,0.0725830490859108,0.00395728999999936,0.0725829916363517,0.00371144999999935,0.713665577124321,0.719883749758767,0.722464824825134,0.727720800395832,0.728568661639189,0.729685585029369,0.708146574708689,0.701345468030075,0.702214732901032,0.705909333158839,0.701549084803106,0.705257740607046,0.66191886212853,0.62010410496534,0.651681105586982,0.663349393059171,0.663696703586605,0.664006209693995,0.664167583591452,0.664323049311721,0.65754109643821,0.673276644195019,0.635817653275772,0.61372670502815,0.621231641427712,0.619249735411647,0.630662993356823,0.635768821351348,0.633283951730875,0.630173036445407,0.64091321857029,0.665519367221048,0.664985583745483,0.661873974180406,0.660062462723016,0.658570408291875,0.667200036523438,0.675171844830805,0.677661093603584,0.679803727384824,0.678874539932113,0.676854148416127,0.678419917548062,0.690688251830719,0.692128906355357,0.779281748728372,0.771976181594355,0.780921915758458,0.75910115444215,0.784251007346794,0.700531456210583,0.689392144928271,0.680702395662922,0.672616508121573,0.682307629766186,0.684209406050012,0.683884729034151,0.684403116757989,0.698282757466375,0.704805162661393,0.70513105663307,0.705463762542351,0.706062370862696,0.732577398844236,0.730175759424253,0.727648773307823,0.748091047001273,0.761784285680214,0.763122620408789,0.797835301519367,0.800083915092993,0.841287642158899,0.841594671849699,0.842248770895886,0.842467328336193,0.841052508766738,0.867797910294251,0.869602286215717,0.888079353346483,0.910318988432917,0.921919103479793,0.946901210035979,0.954292775582241,0.957070506843771,0.961757348638915,0.963819203143918,0.986645313777272,1.00183301818542,1.00033909764316,1.01473262672016,1.0256883881578,1.0257145541861,1.02488629811079,1.02585029530864,1.02818894295258,1.02537181357901,1.06155005001625,1.12742001003083,1.06811265246287,1.08190158722817,1.06166676986363,1.05427241356767,1.06014223703764,1.06278807573049,1.05882185850935,1.05566165013583,1.066948533149,1.08325837319962,1.08176664502396,1.07934190616213,1.08083851927213,1.1298100841165,1.13147384117636,1.13254802654483,1.13275083510503,1.16606587982195
0.608414514862527,0.610404428185406,0.612331539331826,0.614141786201609,0.615190953495115,0.616155556750605,0.617445901190978,0.618783453886547,0.620532971368568,0.62255647297091,0.624523445675562,0.625873875686823,0.627134223075849,0.628188277241444,0.629380727151328,0.630232762539319,0.630990428144251,0.647804042172563,0.647902140061825,0.648934575401011,0.649743266505495,0.650561200259503,0.6513512244891,0.652074533860116,0.652919602777393,0.65506931919061,0.656504727429244,0.657875706260715,0.196414116374204,0.164410232560965,0.133454443426377,0.162597237665294,0.192880333252708,0.225829135239262,0.68373653895112,0.683011103295292,0.684559669224734,0.685961788102111,0.689322407959831,0.68979652381156,0.690190192471613,0.205611417889122,0.171607229749853,0.137883163925277,0.104385738666824,0.0701076640590933,0.101572349532119,0.130632982094518,0.160314337271281,0.190890547659566,0.222582463961232,0.255544832967386,0.7187260744326,0.722110200055949,0.724893449240202,0.727762725763434,0.728538302132691,0.729070259711649,0.713520635102393,0.709653995910531,0.702261736374189,0.701073103342265,0.684678102779298,0.666207237730263,0.650098086332602,0.628740184955639,0.634658378787279,0.63690455853632,0.63581521317243,0.634423936020246,0.634260764557118,0.634479768116804,0.634624847662585,0.634992207318409,0.634818452248183,0.628605678136011,0.623171317314903,0.621964125689166,0.62486893006149,0.628456998240054,0.630600907101198,0.630533486966943,0.640055700549989,0.645141164009603,0.649179103018006,0.65232701150443,0.655349558520294,0.65787910454794,0.660332474151423,0.6655902671723,0.667469165793965,0.669935221270976,0.672897573169643,0.675986165863407,0.678248390122697,0.679527755168578,0.681259851379455,0.772324637477342,0.76392146625,0.75578496253279,0.748099027846519,0.741504925702721,0.710131610960473,0.69927975072486,0.68147305437788,0.681979221351634,0.682595157853464,0.683061061738537,0.691123044504601,0.694896460317994,0.700241118074989,0.704942148151364,0.705131359889654,0.70603960916825,0.708640357255166,0.737387132501673,0.74039581032172,0.74785038770267,0.753247672259709,0.764012352883116,0.764345432466124,0.776481183136125,0.802166922081135,0.842012612145871,0.841798148986193,0.842376065598334,0.844067747082096,0.842775745310951,0.868663296028045,0.870070667194641,0.882957749723352,0.895164821639452,0.929456570740182,0.952613563403128,0.95689488110577,0.958078642872179,0.962974444092362,0.964124049400342,0.989041902766419,0.997629439632903,0.999147267065437,1.00719579403667,1.02693598670067,1.02766412511997,1.03553042992684,1.04101272285373,1.04466390711781,1.04648416052597,1.0622634300342,1.06278624500204,1.06285264830713,1.06304124077689,1.06302621020598,1.0641072152205,1.06637050676923,1.06751164029069,1.07014555686898,1.07213896218615,1.07295977092065,1.08033581840035,1.08277093904955,1.08466101990131,1.08581496655004,1.12895684913821,1.12999358484296,1.13073903881163,1.13130050245891,1.16737521184281
0.608302309344883,0.609643556342951,0.612100672308584,0.614202747801667,0.615224458854645,0.61584356061829,0.617389098943518,0.618488928257496,0.620650682469327,0.6227059343915,0.624380563703451,0.625770654868888,0.627238732674963,0.628319006356977,0.629682398849917,0.630385036152921,0.63219127687786,0.648474666309584,0.647476358766206,0.649032041921231,0.649746412774556,0.6504806619404,0.651261873422452,0.651844958210714,0.652605542026994,0.652836172738311,0.655204625946517,0.658428541112777,0.112255784503487,0.00356082419613715,0.104162321087804,0.676449,0.225829135239262,0.678984433958978,0.681070579247538,0.680360710061293,0.682971950593983,0.684249289434747,0.687947548492677,0.690106999255198,0.690284624589995,0.00356564999999934,0.0721906743429266,0.00348442974516062,0.0711742221495381,0.00346200934541659,0.135555168368201,0.71864927960661,0.714068887692297,0.720442750566349,0.716652087974834,0.726129228605662,0.726770523266761,0.726568261018261,0.727171738741564,0.730021924083688,0.728701737761233,0.729070853342892,0.724976020359223,0.723624866879017,0.703149719459683,0.695644303617681,0.673200358006679,0.621654515561944,0.622033066368375,0.622053529981604,0.631882597114308,0.639713918744042,0.636475120741129,0.633020737464095,0.63385940947937,0.634482202143887,0.634555290995769,0.635121640261884,0.633106158041515,0.647133645177565,0.626788002043405,0.620896300684425,0.624724279489385,0.617760109310081,0.615026645567664,0.608647038014504,0.609442278378331,0.610019327189417,0.612132186318758,0.613688005680932,0.621615580276748,0.624579785242566,0.644128846123943,0.663163677825916,0.659940983410987,0.656774262168463,0.662194042935194,0.669831623499947,0.668287038663829,0.657582327297082,0.673412962882175,0.778051927098467,0.748594760881994,0.732627123671172,0.733103895722299,0.733503341190165,0.725213568931753,0.741701776571349,0.681455508593928,0.681738753267226,0.683044003551203,0.682333685363383,0.69592919175191,0.72018960114485,0.706495521448915,0.705546864080951,0.70580435301157,0.725442155074479,0.722421043103925,0.754301889914987,0.743374301684014,0.765726357262066,0.765963148489436,0.765775796878244,0.765724712841439,0.766280151602779,0.804045485484416,0.91680200773681,0.853699935056482,0.851694842638179,0.848414087544325,0.82951892818272,0.869585246472527,0.870552883393059,0.87819788312779,0.870888674546201,0.937152591183368,0.957757510800262,0.959991843491716,0.980325386351222,0.973380119197899,0.966365619483955,0.991364503706939,0.993617062107169,0.998407236266098,0.997977506619778,1.02816890749507,1.03060937208432,1.040874196254,1.04747721025396,1.05051403464378,1.11168001540151,1.06202353887968,1.02585998610156,1.06241055278165,1.06304600664221,1.06336990653591,1.06312016846698,1.06735711304889,1.07299660282169,1.07278754227749,1.07359835831327,1.07384901264511,1.07510687755189,1.08422258639581,1.08580246669292,1.0903168532043,1.12700564066285,1.12869179174414,1.1290032856898,1.13021826349299,1.18113562800336
0.608606842982109,0.610015296242637,0.612202381766135,0.614384454971884,0.615685601061671,0.616721409081014,0.617814040978859,0.619011543985997,0.620946007116485,0.623028798375917,0.624620358983827,0.626133766875118,0.627859424557885,0.629508242795465,0.630834123472664,0.632228448458038,0.633914225747842,0.636522914454359,0.6386901904099,0.638830315969813,0.638997302045338,0.263911292905051,0.231595043488842,0.201292429899627,0.172856371967726,0.145977281667582,0.120496178811135,0.0963125629857417,0.0730280262024943,0.050420268372945,0.0756395886394149,0.107362807504033,0.139664693769032,0.172646850905324,0.206313569648634,0.681513446083101,0.683023150514802,0.685445661608515,0.687887372025469,0.68946140182443,0.690177835896508,0.596655863502813,0.596672346912568,0.596688840488182,0.596688868262826,0.596672422794344,0.596655967159298,0.706622517235199,0.709601703225145,0.710982106256821,0.712561262356006,0.726783293749546,0.727130924153388,0.727530343468956,0.727255040372623,0.72668936643892,0.727008860517076,0.726612076188941,0.725508459989097,0.724688933732543,0.704096627758658,0.677863827901538,0.662884114918779,0.622310200666618,0.622546785750634,0.623037125377857,0.629833383367469,0.639046735298344,0.636306818397291,0.634243843448673,0.63380265081594,0.633899475943464,0.634069582914303,0.634011761880987,0.632766112033223,0.631592110377325,0.629995984884262,0.629395105709613,0.628295702385262,0.615066202442213,0.611894190342551,0.609206916389376,0.609552919869398,0.610411097684013,0.6118704294144,0.612981443636649,0.618523988899454,0.621630144226005,0.627969980973284,0.636393790534333,0.645742932764761,0.653919028537224,0.659530887588677,0.664561105712147,0.666121321452207,0.666587153152095,0.668017202834538,0.668787058796597,0.670776843332816,0.673573645994022,0.676666707407252,0.678465904825566,0.679850901595125,0.680575232786629,0.681073065818869,0.681482496065341,0.68551768896894,0.694975077324869,0.701764783003772,0.709302411542933,0.707571250291467,0.706716128077166,0.70702770554951,0.71284110410234,0.715926850351701,0.733900337531974,0.738507651684201,0.75609859449534,0.766159087006368,0.766267513177984,0.766243788688361,0.785638874730381,0.805822110327125,0.885949685767442,0.8534665729741,0.853026848285088,0.853542556070646,0.854335542526065,0.881776150623506,0.883411230663889,0.888353526969306,0.896577918796524,0.944188188056461,0.955527444711681,0.962762116696794,0.983958318068856,0.98872015891863,0.993229883039315,1.00031194449301,1.00881958266117,1.01344644840674,1.0238335024978,1.03611681088057,1.03904468863624,1.04504740407977,1.05041865495607,1.05259811477131,1.06103561669272,1.06136152313927,1.06118585754923,1.0610649866938,1.06015800972994,1.06446235772702,1.06622437245775,1.06829595165047,1.07150595654542,1.0733477079187,1.07239722387435,1.07855500495757,1.08577042801718,1.09005001921266,1.09119577429324,1.09444876520178,1.10635823609966,1.11039803495671,1.11193451510185,1.11124654415032,1.11111250345066
0.608705784157906,0.609520023965853,0.612542332868817,0.615432129301447,0.616468254662887,0.617569927991917,0.618260819567917,0.618852925799633,0.62129160921137,0.623969703233198,0.625219987916487,0.626458525150113,0.628769828396013,0.631239778461103,0.63219355521727,0.634146559490609,0.635184296007633,0.637125058570623,0.638690521208258,0.639362559931409,0.639849652467385,0.00369809461685904,0.00378746125648028,0.00365765038604458,0.00359608693134352,0.00383437659813141,0.00364555279496445,0.00362531752110427,0.00360251139651189,0.00364085220311058,0.00346800446676459,0.00334657312266315,0.00339027751739533,0.00347093121352577,0.134950610854784,0.681455900348257,0.682075130408284,0.687291170193164,0.688443583241781,0.689763217825321,0.690465440669535,0.691524531943603,0.692078281975251,0.692665102308847,0.693804182320298,0.700950759460113,0.702380235455512,0.703574767853476,0.705408315768658,0.704238541984757,0.710832745545141,0.725382557145291,0.726517331594285,0.728579847018331,0.726873407728565,0.724465747513267,0.725397842584333,0.724515472121086,0.724934442651093,0.724272666135715,0.705053123068054,0.662278911205212,0.6538335857845,0.622882182881173,0.623153401299653,0.624709038444696,0.627889677329969,0.63960156365593,0.63583926179896,0.634196186266491,0.633934859636174,0.633514533828892,0.634149726438485,0.633938648576444,0.633154509563235,0.631567067048411,0.631826528089136,0.632570447474153,0.630585251495128,0.604914110187405,0.607864267986121,0.606505722898118,0.608994657179464,0.609942996894337,0.611482204201703,0.612226743435535,0.613279396521213,0.610319658890435,0.616772878201726,0.612026976933048,0.620854713075653,0.620541284429312,0.651630728043967,0.663139492846404,0.664742396150651,0.698071811569408,0.668677281038593,0.651744974524746,0.65803907566564,0.651816984017208,0.67804137807872,0.678805592432207,0.680306624303507,0.68063410516307,0.680725226319535,0.672110912863305,0.688180203039112,0.711645085299004,0.7107612277377,0.712062496549354,0.708306292640584,0.706938122310794,0.709266425407483,0.711708644442436,0.712816104467723,0.711264576166904,0.733971075668206,0.728184289553459,0.765922219509021,0.766600224070804,0.766349330001169,0.80892534659067,0.807672545175226,0.920327005704869,0.840143807982311,0.835642882592751,0.853699588832017,0.855386750535288,0.88700443301832,0.906572399320562,0.906725636452625,0.906877212081476,0.949990959418026,0.953028042316312,0.966844071503781,1.03737000668419,1.01665010663444,1.01773450086706,1.01613985377569,1.0127031315919,1.01770499231599,1.03941840906025,1.03832512487535,1.05226052138289,1.0552498721755,1.055847377161,1.05744084041658,1.06047372987307,1.06091718623302,1.06091651882194,1.06065660343642,1.05751538329267,1.07295317167456,1.08220784807496,1.08156941884425,1.08088429217053,1.07700824021647,1.06742402434598,1.09599609845537,1.13014252862511,1.11522043290742,1.11289071939716,1.10229023077805,1.09680846198444,1.10866301577691,1.09925588116159,1.10866051442089,1.10068787891931
0.620223739936169,0.619051192687599,0.6183401053536,0.616915462755035,0.617223230412923,0.61808833648557,0.618829828497569,0.619800131983695,0.621445083404105,0.623192490467799,0.626172929049404,0.627972000499432,0.629773878855128,0.631661376110494,0.632831424459948,0.634215976581356,0.635936341520417,0.638358960887047,0.639914093782279,0.641131952789171,0.64155235912276,0.104070212609591,0.00390464000695242,0.00369408958387352,0.00350526940792843,0.00356580391682694,0.00353502078478859,0.0035713863306702,0.0036342998313598,0.00360040949692656,0.00347073248736526,0.00344164889722953,0.00338353574021272,0.00342916550995347,0.101006409059944,0.133814612623904,0.167066147185322,0.20082997271454,0.68894027176637,0.689585708989088,0.690391121275396,0.69130129808763,0.69208590875736,0.692831872474445,0.694953929254597,0.701344101245981,0.702657446535866,0.703930965486246,0.705492938248452,0.706626861898388,0.708883800100307,0.709063310355997,0.708783204254029,0.708432214646978,0.708252185143561,0.708208858356028,0.707326033598119,0.706803632456897,0.706961762084144,0.707372219022279,0.705922965916746,0.650209356868011,0.639884487764628,0.622561099920247,0.62235530896583,0.62519733026253,0.627017805553422,0.630065264852829,0.633500326843084,0.634264512947641,0.634433825942593,0.634622533240614,0.635147457842463,0.635478243038791,0.634105770379385,0.631409317377896,0.632899701666527,0.633111843089755,0.631015594371672,0.629839869700843,0.629253549649712,0.629107044596342,0.629095049031697,0.628923334011261,0.628466168587547,0.627976341687411,0.627338979912063,0.624705035093539,0.62382644156187,0.622224490882213,0.620657691806581,0.61959410435419,0.644977066666569,0.649105836054247,0.656497012967115,0.670037735143949,0.670248778886869,0.671596281210312,0.673444585888023,0.676228394213543,0.678787827388204,0.681306378354538,0.681793097718219,0.682082127778879,0.680525721210328,0.676298545968757,0.691041248038723,0.709199938907365,0.708477104141183,0.708877923829425,0.706749597627225,0.706854849425862,0.718616141786422,0.724213557072175,0.731315049241903,0.739588137189943,0.748547026984267,0.757523769097297,0.76530808826889,0.765319166773056,0.765884560376594,0.809337839053217,0.808478792834682,0.818419030700183,0.825159786914373,0.829183034871985,0.859717745637639,0.861265325481516,0.894894186292957,0.914778974808784,0.921102449615307,0.927354544536159,0.953162279855499,0.964266170170076,0.97126525244353,0.993574150017254,1.01562675139622,1.01619018375357,1.01806736289225,1.02002779039558,1.02366372785994,1.03733214822258,1.0367561553437,1.04492490945759,1.05716222117834,1.05716161799864,1.05816389417668,1.05984364616569,1.06070264526274,1.06112149784993,1.06310377526347,1.06511145962397,1.07899004959121,1.08401053356011,1.08979559281639,1.09191557028892,1.09964832691368,1.10480927143207,1.10795001340267,1.11922127736754,1.11888529941309,1.11902652228791,1.11978423150629,1.12062051729004,1.12103499192733,1.1208299310953,1.12074619650238,1.12010732282612
0.636872308741256,0.636748954096517,0.627505053955363,0.616666452453614,0.617533812339794,0.618758378314867,0.61921213126427,0.620049573391942,0.621624376315619,0.621597550712505,0.628752563921213,0.629965312041368,0.631149983550799,0.633086677281625,0.633436646823759,0.634241999170605,0.635976160199733,0.640978758201376,0.641511630224061,0.64386413157413,0.643696486199259,0.64811751301266,0.00328119382523045,0.00358901988744758,0.00340421577668156,0.00349559794370151,0.003522512528248,0.00364503662881472,0.00390819161927565,0.00376352022964821,0.00355720870701611,0.00371645551987993,0.00341602436844791,0.00348432066522947,0.0689103983830649,0.00331560917656423,0.0722378337977983,0.00361279999999935,0.688814032990842,0.689322812729026,0.690106236149399,0.691318964438762,0.692047622227569,0.692172063306149,0.696146588748182,0.702344656794962,0.703137141288691,0.703849940800565,0.705916085243709,0.707778592232958,0.708796057022602,0.709614693842671,0.709412641526711,0.709792477463717,0.709218371120851,0.70998463488392,0.707582649227483,0.707303571266348,0.707070319469255,0.707741456567181,0.706705968564922,0.612092171963271,0.62570013095666,0.615713096308977,0.618395067508512,0.617716451359355,0.620687938337214,0.617970366538378,0.634051718373914,0.634901588819178,0.635103009352048,0.635432119774331,0.636478486651887,0.638709268672412,0.636376330272027,0.62730300762354,0.635198559448137,0.636086419285076,0.638672263767119,0.641360523570535,0.640965527546806,0.641150754565399,0.641761793875419,0.642806819094939,0.638569692166427,0.700891005078439,0.627884749855572,0.62836853422813,0.626868449674278,0.632906522706141,0.620233754154203,0.617545019889617,0.632860208176231,0.634350231734657,0.651429406542769,0.669791041801771,0.670844155294016,0.670827705966679,0.673321831309395,0.680841969527379,0.680079989850841,0.685586133971754,0.683452589926497,0.685243952752393,0.682966889223593,0.664244338314636,0.694043860513912,0.71823255898063,0.705011346172552,0.701880915095551,0.703010730099547,0.70109869704184,0.73934181695017,0.784869585676339,0.772586005164925,0.772428257213023,0.76476733746374,0.764144274701707,0.764381506086688,0.763334024987906,0.765800908150322,0.810836527860457,0.808804180765695,0.812269851496401,0.821389922071284,0.816032830115467,0.861500297396652,0.86790819048185,0.905496304982189,0.933822378571832,0.933920765465951,0.933938776724513,0.95654612719707,0.972623341270898,0.9747571212822,0.979245680255715,1.0141288445561,1.01342774007984,1.02007414117214,1.02223104184356,1.02882298833108,1.03649728289237,1.03625209943638,1.03017923590385,1.05914486074887,1.07371402556884,1.07447017000667,1.14343000918725,1.0742694526588,1.05996151532659,1.0655490237587,1.06740211909731,1.08247344115917,1.08527794502552,1.0915365367677,1.09529898186902,1.10059528081414,1.10699081968249,1.11019195071184,1.12018829950113,1.12053608069024,1.1353931351559,1.13360772187326,1.13298384041288,1.12591450657457,1.12052661088727,1.12065911807422,1.12094706132096
0.637840839617478,0.637669965272263,0.636589475893717,0.635277968749756,0.633603585993501,0.631371908288264,0.628751123222998,0.626110109644932,0.623490973227636,0.62253880505776,0.630024725467532,0.63150997084981,0.632279044889085,0.633528947784378,0.633918510564014,0.635034576532655,0.637166064132675,0.64036107098349,0.641777951206006,0.643451045004202,0.644774235135525,0.647086010105984,0.00172335527159842,0.00288884488722919,0.00320064955415848,0.00345855887646318,0.00356917438270542,0.00393481288031722,0.00430995425955067,0.00398906624356273,0.00362183093876065,0.00344826737941567,0.00343443849486805,0.0836597634400722,0.116417113280466,0.149515166673261,0.182965755096107,0.216784157860754,0.68836867683001,0.688685219479019,0.689562246232524,0.690280258646905,0.693306653086167,0.694711977548601,0.69772563230044,0.701265531443015,0.703217533390034,0.704885856012859,0.70636874371257,0.707793438178363,0.708851540238406,0.709580984560737,0.709466829521673,0.709148682366106,0.708998259098914,0.708416055386119,0.70624452374886,0.705948947891409,0.706218016231051,0.706466041860323,0.706312867204615,0.671491087276197,0.652879139402538,0.616877765051037,0.618117945415383,0.619360353611835,0.623554449651403,0.626647854136827,0.633573753339118,0.633929357333462,0.635531327854531,0.635889359963895,0.636572800528287,0.637227489685035,0.63640343552175,0.635894233992458,0.635879105606153,0.63681018023102,0.638550599673055,0.640138889083981,0.640600902598538,0.641016476572736,0.64172587288532,0.642678064197918,0.634969484900063,0.631863698064208,0.627380297065562,0.628187104038697,0.627843053564464,0.627245205621457,0.625156339036139,0.626629175111409,0.631147067646353,0.632190778490872,0.645548989266522,0.657601530155733,0.672451446495676,0.672913171367008,0.675237659141568,0.678571244265544,0.680256608012533,0.679869357236577,0.680826886673073,0.681043818569315,0.688506855579968,0.695120456557358,0.697144943503792,0.700573611137114,0.703760690783998,0.703953716179132,0.710762728581401,0.736612074121494,0.752926678645104,0.779203181833556,0.77254823713705,0.768200041998146,0.765405440200045,0.764460749635344,0.764616900254594,0.764836629873931,0.765627505649372,0.792242829809033,0.804193118193404,0.838107544201552,0.850619103362852,0.860884272292786,0.880034093790747,0.89589672250762,0.916574777567451,0.935512163581734,0.944822125942299,0.950073737022707,0.959800023715235,0.975575404511314,0.976627554552355,0.979958343151816,1.01339650522654,1.02031422141878,1.0239849128701,1.03040565148599,1.03577193372823,1.04297937951955,1.0506531320813,1.05755033127021,1.06106562422122,1.0693978975594,1.07500051776521,1.07725147508828,1.079622061193,1.0824313501914,1.08569018949404,1.08933159739692,1.09327127308374,1.09732137424239,1.1009287661794,1.10350801165069,1.11162355401153,1.11529389903378,1.11865092054518,1.12181361310145,1.12256543540263,1.13382646885113,1.1329600368813,1.13234280636936,1.1310765113757,1.13004038808793,1.12988060612713,1.13051364966552
0.639482905868673,0.641297214960759,0.642944369071841,0.6439325470427,0.645538904307009,0.645996571990053,0.648112127188249,0.649310924100332,0.640293679236319,0.00365851999999935,0.630502367610116,0.63451091561497,0.63362906621775,0.635324009456664,0.634038103148696,0.00376583999999935,0.491978692380244,0.64188724698782,0.494231455447801,0.00371768999999935,0.495772266729121,0.648335490406681,0.00320624203737653,0.00354461349879265,0.00339134820553085,0.00369230537789234,0.00349162210891726,0.660672,0.11442272319311,0.664198,0.00371879695500481,0.00355333533514196,0.003776270820774,0.677391208928863,0.680001057335146,0.683792870980984,0.685582926179947,0.686296630374192,0.687685994802587,0.687703549218164,0.688963263372614,0.687754488151981,0.695833872302766,0.696421251767431,0.698904523329103,0.701366930115801,0.703700642260045,0.706091608134003,0.706877078452659,0.708121508401221,0.709257692851367,0.710487841945924,0.709768430770891,0.708332197569176,0.708992375351869,0.700102425613065,0.703229453871456,0.703985768440034,0.705325212888223,0.705495584002542,0.705616564822641,0.70501371263232,0.671555672206101,0.616675159093939,0.617721013326849,0.618231214082814,0.626893889174905,0.629178686744921,0.632555134734056,0.632979151398576,0.682189597933139,0.755620207361199,0.754733087751454,0.754381484687127,0.709881404557676,0.746189009120659,0.691271728494993,0.746375005154274,0.687562036499011,0.747233002370879,0.611999964500025,0.566077135357014,0.608902427800408,0.68082800879841,0.62915744792567,0.5654739929189,0.608006720213705,0.60328562409714,0.611936992186825,0.613662900570292,0.626301308882525,0.626448568702693,0.62833081979895,0.627617376579876,0.639466016115954,0.627626461073636,0.673414882873009,0.690218597744064,0.675939206844287,0.663131105531513,0.669163719272326,0.662948253771815,0.67993896327706,0.678950594132609,0.692179546484714,0.714028303432818,0.699362465797996,0.699535641447716,0.705500742853971,0.706699839336006,0.7200126581411,0.78553345124042,0.78075462687286,0.78727518300495,0.772089480311679,0.73953511098738,0.764475577759817,0.763618821438866,0.764649490875031,0.765694963876705,0.766147114485567,0.767068101006255,0.801034672240038,0.856737977910538,0.863248617313974,0.871173911035953,0.891785681889304,0.927185259172373,0.932712848205248,0.937105669247585,0.950402470693654,0.959873079047266,0.963137857980854,0.987676892149137,0.985195482033251,0.984191825324728,1.01267690831582,1.05637958837656,1.03997887674361,1.05957873054873,1.05404334471576,1.06147953929963,1.06251161439426,1.06206106270118,1.06285621503569,1.06519165147276,1.07522116438986,1.07515356088172,1.09223138639437,1.11603927290204,1.11670205751124,1.11645955162107,1.1172251631362,1.11791555777817,1.11228574356632,1.10602715317425,1.11185552259261,1.12256950031325,1.12253180785549,1.12266199130199,1.12716812352939,1.13069789253798,1.13202115075652,1.1328686107361,1.1310542054421,1.12976536055671,1.1379884590512,1.15626458665706
