0.00314737, 0.00375364, 0.00339988, 0.00362622, 0.00332052, 0.00368628, 0.00356552, 0.00372267, 0.0036644, 0.00408304, 0.00348932, 0.00381065, 0.00354763, 0.00356683, 0.504068, 0.504753, 0.00331291, 0.513659, 0.00370365, 1.10137, 0.003287, 0.53362, 0.00349401, 0.00355115, 0.00368838, 0.558245, 0.558784, 0.570544, 0.573691, 0.575852, 0.575357, 0.575857, 0.00367118, 0.590715, 0.593454, 0.594841, 0.00342941, 0.00349358, 0.00325962, 0.620193, 0.622867, 0.624532, 0.0033901, 0.637562, 0.640284, 0.647611, 0.64977, 0.650009, 0.656353, 0.00365492, 0.00379721, 0.00394037, 0.00331889, 0.6909, 0.692591, 0.694118, 0.0034586, 0.707353, 0.708573, 0.709214, 0.00336155, 0.721317, 0.00357747, 0.730126, 0.00331584, 0.00350996, 0.00353674, 0.00342334, 0.0032509, 0.00348361, 0.785154, 0.787413, 0.788582, 0.807352, 0.807747, 0.817953, 0.826243, 0.829124, 0.832206, 0.832884, 0.845252, 0.849869, 0.851911, 0.852417, 0.847164, 0.874024, 0.826446, 0.837424, 0.836156, 0.821404, 0.820099, 0.815923, 0.812617, 0.797708, 0.7973, 0.778128, 0.818955, 0.817923, 0.811614, 0.796131, 0.785392, 0.776206, 0.775736, 0.81293, 0.82651, 0.814734, 0.842529, 0.84351, 0.886062, 0.88712, 0.918201, 0.918638, 0.988532, 0.966047, 0.973264, 0.98162, 0.985271, 0.999281, 0.999838, 1.13469, 1.15781, 1.14626, 1.18065, 1.22285, 1.22735, 1.29222, 1.27433, 1.30228, 1.28032, 1.27935, 1.29962, 1.35636, 1.35431, 1.36362, 1.39012, 1.38726, 1.43942, 1.47179, 1.47947, 1.46368, 1.46418, 1.46023, 1.46099, 1.45103, 1.44385, 1.4096, 1.40953, 1.40129, 1.38801, 1.38632, 1.35575, 1.35518, 1.39519, 1.40244, 1.37937, 1.38856, 1.37307, 1.37339, 1.37147, 1.36974, 1.34706, 1.34277, 1.33662, 1.29657, 1.29133, 1.31513, 1.31461, 1.27453, 1.27466, 1.26922, 1.26107, 1.26013, 1.26921, 1.23128, 1.21822, 1.19177, 1.19447, 1.20307, 1.18887, 1.18952, 1.16752, 1.17852, 1.16666, 1.13227, 1.13276, 1.13918, 1.10072, 1.10244, 1.10782, 1.08881, 1.08981, 1.10568, 1.10624, 1.10829, 1.10804, 1.06684, 1.06817, 1.0704, 1.05673, 1.02545, 1.05476, 1.03367, 1.04629, 1.04645, 1.04769, 1.02594, 1.0466, 1.07385, 1.07433, 1.0822, 1.07757, 1.07916, 1.07782, 1.07367, 1.05267, 1.05563, 1.05403, 1.07901, 1.07936, 1.14422, 1.14106, 1.0942, 1.08845, 1.09726, 1.11263, 1.0921, 1.13694, 1.13745, 1.13444, 1.13589, 1.12595, 1.10899, 1.11049, 1.12403, 1.12684, 1.13164, 1.13442, 1.1362, 1.13932, 1.14434, 1.14382, 1.14279, 1.14187, 1.14233, 1.14406, 1.14695, 0.00333132, 0.00335447, 0.00335461, 1.16065, 1.16055, 1.16087, 1.16282, 1.153, 1.16839, 1.16748, 1.17063, 1.17003, 1.17074, 1.1699, 1.17384, 1.17419, 1.17528, 1.17757, 1.17776, 1.17912, 1.18192, 1.18599, 1.18263, 1.18939, 1.19134, 1.19283, 1.19495, 1.19603, 1.20091, 1.23086, 0.00342577, 0.00371548, 0.00352756, 1.32492, 0.00337675, 0.0037023, 0.00339008, 0.00359097, 0.00350917, 0.00395671, 0.00321757, 0.00402757, 0.00355388, 0.00378943, 0.0033147, 0.00350842, 1.31672, 1.31615, 1.31793, 1.32335, 0.00319526, 1.32004, 1.31795, 1.31708
0.00355823, 0.00371035, 0.0035374, 0.00330204, 0.00336734, 0.00338618, 0.00344326, 0.00329295, 0.00365176, 0.00362936, 0.003709, 0.00351366, 0.00355565, 0.00317582, 0.00348759, 0.00339778, 0.0036624, 0.00336967, 0.00388045, 0.00356158, 0.00360845, 0.00357845, 0.0037004, 0.00354785, 0.00415269, 0.00341438, 0.00348076, 0.00351816, 0.573839, 0.57576, 0.575751, 0.00350824, 0.589185, 0.590783, 0.591495, 0.598662, 0.604061, 0.00331443, 0.00345244, 0.00363122, 0.621904, 0.629123, 0.630605, 0.632059, 0.640455, 0.00316733, 0.64834, 0.00341141, 0.657133, 0.659994, 0.00365309, 0.00325536, 0.683523, 0.683861, 0.686615, 0.687343, 0.00364926, 0.00340777, 0.00338218, 0.00350595, 0.0040913, 0.721792, 0.00350227, 0.00354263, 0.738799, 0.740121, 0.74878, 0.749692, 0.00369031, 0.00347632, 0.78348, 0.785064, 0.794358, 0.801688, 0.801964, 0.812697, 0.822043, 0.824944, 0.826018, 0.0032066, 0.84505, 0.84851, 0.85302, 0.856112, 0.854747, 0.854875, 0.840944, 0.878156, 0.828476, 0.828498, 0.812138, 0.829539, 0.800785, 0.800529, 0.783679, 0.784772, 0.79112, 0.828129, 0.828161, 0.813787, 0.793995, 0.791467, 0.771025, 0.762929, 0.826967, 0.812803, 0.829563, 0.828123, 0.849319, 0.871796, 0.901283, 0.913588, 0.889574, 0.919649, 0.973955, 0.971878, 1.00486, 1.00492, 1.00595, 1.00352, 1.12241, 1.12211, 1.17467, 1.17493, 1.17339, 1.22253, 1.25638, 1.27563, 1.27246, 1.28412, 1.23024, 1.21276, 1.23623, 1.24088, 1.29286, 1.35198, 1.30753, 1.33887, 1.3426, 1.39261, 1.3892, 1.37565, 1.37916, 1.38854, 1.37614, 1.33356, 1.33974, 1.35201, 1.37892, 1.36649, 1.3552, 1.36054, 1.30412, 1.32062, 1.32019, 1.33942, 1.32293, 1.323, 1.33939, 1.32642, 1.33151, 1.31595, 1.30625, 1.25162, 1.24288, 1.2527, 1.22996, 1.23989, 1.22096, 1.25211, 1.22201, 1.22236, 1.20879, 1.21639, 1.21865, 1.19247, 1.17446, 1.22872, 1.18171, 1.16445, 1.16154, 1.16137, 1.14834, 1.15084, 1.13004, 1.1304, 1.13339, 1.15431, 1.0802, 1.08631, 1.09373, 1.098, 1.08873, 1.09044, 1.0914, 1.05709, 1.0436, 1.05677, 1.05155, 1.03493, 1.02293, 1.01007, 1.02639, 1.02646, 1.01641, 1.05965, 1.08481, 1.03869, 1.07476, 1.09331, 1.06092, 1.07778, 1.08937, 1.05153, 1.05995, 1.06134, 1.08855, 1.09857, 1.07062, 1.07115, 1.07262, 1.09248, 1.1035, 1.07489, 1.05875, 1.06051, 1.12732, 1.13047, 1.13329, 1.13351, 1.1339, 1.11357, 1.11511, 1.13328, 1.13195, 1.13416, 1.13293, 1.137, 1.13599, 1.13673, 1.13987, 1.14036, 1.13943, 1.13808, 1.14088, 1.1441, 1.14626, 1.14787, 1.14996, 1.1513, 1.15685, 1.15973, 1.16076, 1.16326, 1.16164, 1.16253, 1.16552, 1.16842, 1.17001, 1.17162, 1.17093, 1.17417, 1.17559, 1.1801, 1.17852, 1.18057, 1.18185, 1.18661, 1.18749, 1.18767, 1.1895, 1.19169, 1.1913, 1.19297, 1.19597, 1.19668, 0.00306842, 0.00329172, 0.00376289, 0.00340006, 0.00394417, 0.00359403, 0.00398034, 0.00325407, 0.00374212, 0.00344516, 1.26825, 0.003369, 0.00395204, 0.00351937, 0.00346969, 0.00340697, 1.3091, 1.31301, 1.31258, 1.31146, 1.31031, 1.31578, 1.31584, 1.31778
0.00362314, 0.00348691, 0.00350209, 0.589968, 0.587059, 0.00362187, 0.0033152, 0.00363841, 0.00381064, 0.00361679, 0.00354757, 0.0034171, 0.00350922, 0.00335398, 0.00351403, 0.00359483, 0.00356889, 0.00363802, 0.00347276, 0.00365338, 0.00369674, 0.00340335, 0.00347689, 0.00339074, 0.00343657, 0.555688, 0.557959, 0.559887, 1.13004, 1.12904, 0.736278, 0.588555, 0.591001, 0.592568, 0.59296, 0.593414, 0.603635, 1.37552, 0.613179, 0.614606, 0.622986, 0.629142, 0.630622, 0.631849, 0.63721, 1.13514, 0.00353932, 0.655639, 0.00337807, 0.663514, 0.00362323, 0.0036215, 0.00373357, 0.00351989, 0.00350583, 0.00366202, 0.00357423, 0.00360697, 0.703578, 0.711181, 1.22683, 0.00362255, 0.00314767, 0.00358157, 0.00355718, 0.00360271, 0.00361488, 0.00339525, 0.00361883, 0.00376492, 0.00347365, 0.00355462, 0.00361333, 0.800541, 0.802616, 0.805704, 0.00352531, 0.818059, 0.827194, 0.828587, 0.836323, 0.00372129, 0.853286, 0.856284, 0.860968, 0.864247, 0.876172, 0.875337, 0.824286, 0.822454, 0.826106, 0.816196, 0.81231, 0.792224, 0.787238, 0.793545, 0.791942, 0.793606, 0.814228, 0.811314, 0.81898, 0.83319, 0.820471, 0.770231, 0.81291, 0.821795, 0.835423, 0.805068, 0.845182, 0.891221, 0.877512, 0.884927, 0.88384, 0.907942, 0.902682, 0.970884, 0.980557, 0.980278, 0.97481, 0.988104, 0.987706, 0.998532, 1.09595, 1.07868, 1.12995, 1.18774, 1.18935, 1.20281, 1.19627, 1.19507, 1.21581, 1.22326, 1.22305, 1.23632, 1.21932, 1.21584, 1.2194, 1.30148, 1.30356, 1.30475, 1.34331, 1.34273, 1.3157, 1.31559, 1.29234, 1.30016, 1.29864, 1.29621, 1.29108, 1.28871, 1.3027, 1.2984, 1.29635, 1.29374, 1.29306, 1.29348, 1.28959, 1.32428, 1.30355, 1.30766, 1.2956, 1.26756, 1.25842, 1.26044, 1.24651, 1.24726, 1.24788, 1.21884, 1.22348, 1.21884, 1.21395, 1.19132, 1.19395, 1.17749, 1.17826, 1.17999, 1.16841, 1.16616, 1.16834, 1.1577, 1.13138, 1.14332, 1.12386, 1.12241, 1.10103, 1.10221, 1.17129, 1.07821, 1.07869, 1.06628, 1.06636, 1.09871, 1.08088, 1.07108, 1.04364, 1.03588, 1.01908, 1.01916, 1.0091, 1.01161, 1.01638, 1.01986, 1.04068, 1.05027, 1.04251, 1.04424, 1.0464, 1.04563, 1.10595, 1.10884, 1.10217, 1.0995, 1.10448, 1.11455, 1.0922, 1.07454, 1.06311, 1.08907, 1.14252, 1.14386, 1.14587, 1.0851, 1.06404, 1.06572, 1.10033, 1.0838, 1.11745, 1.11709, 1.12264, 1.12579, 1.11813, 1.11747, 1.12024, 1.12937, 1.13319, 1.1322, 1.13424, 1.13585, 1.13804, 1.13949, 1.13982, 1.14046, 1.14047, 1.14203, 1.14038, 1.14242, 1.14704, 1.14931, 1.14715, 1.15218, 1.15143, 1.15654, 1.15707, 1.16102, 1.1609, 1.16397, 1.16435, 1.16757, 1.1692, 1.17327, 1.17445, 1.17611, 1.17978, 1.18031, 1.18423, 1.18497, 1.18575, 1.18945, 1.18824, 1.19091, 1.18988, 1.19116, 1.19352, 1.19493, 1.19676, 1.1985, 1.19942, 1.20532, 1.20676, 0.00375432, 0.00311492, 0.00352797, 0.00331604, 0.00350196, 0.00327273, 0.00368181, 0.00325856, 1.26723, 1.26732, 0.00333053, 0.00334298, 0.00338567, 0.00329836, 0.00393098, 1.30977, 1.31236, 1.31139, 1.3169, 1.3157, 1.3142
0.0110015, 0.00335484, 0.00364576, 0.00329417, 0.00358808, 0.00340117, 0.00369112, 0.769815, 0.84866, 0.00334498, 0.00376168, 0.00331172, 0.00357596, 0.00343511, 0.00390195, 0.00343573, 0.00372933, 0.00331994, 0.00350597, 0.00353693, 0.0036514, 0.00360386, 0.00407977, 0.577639, 0.00373081, 0.00339441, 0.00367426, 0.00358538, 0.00377036, 0.00320801, 0.00358277, 1.10242, 0.591158, 0.59263, 0.593259, 0.00342491, 0.0037914, 0.00318892, 0.00375441, 0.62163, 0.624275, 0.00349474, 0.0036595, 0.635968, 0.639582, 0.642697, 0.00351125, 0.00345551, 0.00350647, 0.00321561, 0.667392, 0.00345015, 0.00406776, 0.00342953, 0.689187, 0.00368225, 0.00407678, 0.00364277, 0.00364852, 0.714933, 0.716618, 0.716965, 0.716562, 0.00353398, 0.00370425, 0.00322567, 0.00369807, 0.00350546, 0.00409127, 0.00363596, 0.779375, 0.779776, 0.780757, 0.780863, 0.00332117, 0.00367766, 0.810921, 0.812602, 0.945417, 0.828151, 0.827076, 0.842021, 0.849773, 0.853572, 0.855728, 0.86131, 0.874196, 0.876357, 0.83572, 0.782071, 0.783445, 0.808007, 0.896269, 0.821902, 0.822308, 0.828277, 0.787755, 0.786832, 0.805873, 0.810706, 0.82621, 0.782752, 0.783266, 0.782189, 0.839732, 0.801031, 0.801405, 0.893771, 0.894323, 0.842969, 0.843054, 0.881257, 0.88115, 0.873041, 0.89216, 0.899546, 0.933604, 0.932375, 0.962965, 0.954855, 0.956724, 0.99138, 1.00521, 0.997131, 1.02494, 1.03362, 1.06915, 1.23534, 1.23612, 1.24428, 1.23675, 1.23395, 1.23322, 1.24692, 1.17968, 1.18689, 1.17718, 1.17798, 1.2201, 1.21399, 1.21013, 1.21304, 1.25633, 1.25009, 1.28017, 1.27565, 1.27449, 1.27261, 1.2738, 1.27407, 1.26779, 1.2625, 1.26537, 1.27211, 1.26841, 1.2718, 1.27254, 1.2751, 1.28228, 1.27971, 1.26123, 1.26868, 1.23204, 1.23951, 1.2676, 1.27001, 1.22233, 1.26763, 1.18917, 1.19122, 1.20132, 1.1886, 1.18153, 1.19438, 1.18464, 1.14941, 1.14309, 1.11973, 1.12609, 1.12552, 1.11836, 1.11952, 1.1362, 1.10088, 1.11553, 1.11551, 1.10505, 1.09228, 1.09435, 1.09812, 1.08232, 1.04952, 1.0602, 1.04039, 1.00239, 0.998864, 0.998564, 1.00072, 1.02124, 1.01814, 1.00364, 1.04993, 1.05388, 1.04006, 1.0474, 1.06858, 1.06982, 1.0539, 1.05621, 1.08839, 1.08869, 1.12172, 1.11903, 1.06921, 1.06011, 1.06878, 1.06069, 1.07011, 1.03226, 1.03896, 1.03955, 1.03375, 1.0522, 1.05666, 1.06044, 1.09915, 1.11195, 1.0935, 1.1396, 1.13713, 1.12237, 1.12629, 1.12879, 1.12751, 1.13026, 1.1325, 1.13551, 1.13817, 1.14024, 1.1421, 1.14002, 1.14093, 1.14245, 1.14067, 1.14639, 1.14542, 1.14444, 1.15053, 1.14921, 1.19521, 1.19632, 1.15564, 1.15847, 1.1612, 1.16121, 1.1647, 1.16705, 1.16944, 1.17175, 1.1728, 1.17433, 1.17811, 1.17597, 1.18084, 1.1818, 1.18448, 1.18575, 1.18822, 1.19175, 1.19091, 1.19204, 1.19419, 1.19441, 1.19752, 1.19761, 1.19926, 1.20098, 1.20231, 1.20713, 1.20658, 0.00370192, 0.00323026, 0.00352067, 0.00344539, 0.00351643, 0.00318567, 0.00344715, 0.00368621, 0.00369787, 0.00323712, 0.0037229, 0.00351268, 0.00378189, 0.00355608, 0.00371985, 0.00337095, 1.30857, 1.3098, 1.30933, 1.3091
0.0034715, 0.00370336, 0.00346612, 0.00350538, 0.00340938, 0.00386222, 0.00328852, 0.818909, 0.00326303, 0.0035506, 0.00326734, 0.00319076, 0.00341568, 0.00368878, 0.00350862, 0.00379616, 0.00335538, 0.00357614, 0.00359372, 0.0035938, 0.00355908, 0.00386948, 1.09525, 0.00373991, 0.00342856, 0.00331939, 0.00346418, 0.00349387, 0.00336184, 0.00344209, 0.00341278, 0.598486, 0.599944, 0.600749, 0.602319, 0.00374245, 0.00347558, 0.617527, 0.621151, 0.621374, 0.623936, 0.627896, 0.634779, 0.636761, 0.638192, 0.626246, 0.00346326, 0.00342971, 0.00339604, 0.00365234, 0.00311452, 0.00320284, 0.00318837, 0.00360343, 0.00339184, 0.697538, 0.698867, 0.702204, 0.704602, 0.711347, 0.714096, 0.00328687, 0.00336956, 0.00375865, 0.00325988, 0.00367883, 0.00346788, 0.00351265, 0.00343786, 0.00375059, 0.00343096, 0.783503, 0.784679, 0.00360349, 0.00355075, 0.00366786, 0.811738, 0.813473, 0.823428, 0.825569, 0.826751, 0.83604, 0.843422, 0.846807, 0.00345531, 0.86079, 0.859747, 0.870698, 0.849597, 0.777998, 0.779247, 0.779044, 0.89163, 0.801913, 0.804653, 0.814982, 0.819137, 0.787831, 0.801394, 0.809072, 0.805516, 0.804474, 0.79135, 0.849322, 0.788074, 0.847099, 0.814696, 0.816871, 0.960777, 0.84224, 0.816358, 0.856054, 0.853731, 0.856985, 0.858152, 0.876905, 0.873536, 0.898756, 0.894849, 0.895116, 0.93725, 0.968802, 0.983792, 1.02315, 1.01697, 1.02272, 1.05987, 1.0425, 1.03877, 1.0407, 1.12605, 1.10816, 1.15392, 1.11671, 1.11821, 1.13389, 1.14361, 1.14663, 1.15376, 1.16317, 1.17794, 1.17742, 1.24118, 1.24561, 1.26349, 1.22976, 1.23285, 1.22319, 1.2161, 1.20899, 1.22384, 1.22341, 1.21423, 1.24004, 1.22985, 1.24655, 1.24795, 1.24653, 1.25162, 1.26194, 1.33686, 1.33905, 1.1656, 1.17497, 1.18165, 1.18127, 1.19979, 1.19102, 1.17374, 1.16402, 1.19515, 1.20259, 1.1989, 1.15986, 1.13515, 1.1391, 1.13287, 1.10967, 1.11856, 1.1382, 1.13731, 1.12083, 1.12145, 1.12021, 1.12459, 1.10373, 1.11014, 1.0669, 1.06962, 1.06123, 1.04044, 1.02072, 1.01252, 1.00428, 0.993822, 1.00118, 0.988397, 1.00682, 1.00806, 0.993868, 1.04077, 1.04215, 1.07042, 1.05243, 1.04555, 1.05447, 1.06309, 1.06344, 1.0823, 1.05479, 1.0848, 1.07013, 1.07131, 1.0791, 1.07914, 1.04423, 1.02908, 1.05681, 1.02278, 1.01752, 1.02299, 1.02562, 1.04014, 1.04891, 1.05102, 1.10965, 1.09519, 1.10843, 1.10999, 1.11906, 1.12453, 1.12601, 1.12938, 1.13008, 1.13205, 1.13402, 0.00323641, 1.13624, 0.00335929, 0.00368044, 1.14312, 1.1452, 1.14252, 1.14536, 1.14346, 1.14603, 1.14951, 1.15076, 1.15129, 1.15325, 1.15601, 1.15719, 1.16021, 1.16543, 1.16599, 1.16827, 1.17026, 1.17207, 1.17476, 1.17642, 1.178, 1.18004, 1.17957, 1.18259, 1.18145, 1.1853, 1.18663, 1.18743, 1.18648, 1.19186, 1.1917, 1.19342, 1.19474, 1.1966, 1.19761, 1.19772, 1.19873, 1.20129, 1.20174, 1.20045, 1.2051, 1.20835, 1.21148, 1.21473, 0.00379819, 0.00339539, 0.00348394, 0.00337273, 0.0032475, 0.00354604, 0.00315566, 0.00352267, 0.00331576, 0.00388639, 0.00379028, 0.00382099, 0.00336711, 0.00377159, 0.00342359, 0.00387284
0.00339666, 0.0034624, 0.00340609, 0.00352234, 0.00373623, 0.00337408, 0.00343113, 0.00329677, 0.00379857, 0.00349855, 0.00340123, 0.00339011, 0.00351042, 0.00341833, 0.00353837, 0.00352149, 0.00355525, 0.759547, 0.00343262, 0.00329715, 0.00348301, 0.00337681, 0.0035139, 0.00346054, 0.00349026, 0.00339373, 0.0034848, 0.00354097, 0.00346916, 0.00346289, 0.00339062, 0.0033897, 1.11958, 0.00359003, 0.603588, 0.604204, 0.614717, 0.616466, 0.616407, 0.00356175, 0.00322649, 0.63443, 0.635327, 0.63651, 0.00358195, 0.00349984, 0.00328013, 0.00363484, 0.00377318, 0.00370797, 0.674234, 0.677109, 0.67665, 0.00349192, 0.00358189, 0.69168, 0.697141, 0.00349927, 0.70702, 0.708173, 0.714462, 0.00334392, 0.721141, 0.00312543, 0.731404, 0.0032512, 0.00333161, 0.00346053, 0.00372032, 0.00361555, 0.00348139, 0.00336476, 0.00372691, 0.00336685, 0.91845, 0.801411, 0.00367531, 0.814983, 0.820108, 0.822411, 0.829904, 0.836473, 0.840051, 0.84455, 0.856296, 0.858428, 0.863693, 0.868177, 0.874887, 0.878682, 0.882295, 0.78258, 0.786995, 0.789028, 0.790503, 0.79927, 0.798306, 0.821978, 0.822468, 0.822821, 0.804614, 0.811794, 0.834786, 0.83609, 0.9337, 0.806603, 0.782761, 0.782982, 0.782825, 0.786906, 0.838699, 0.846211, 0.852282, 0.838752, 0.85069, 0.850864, 0.849323, 0.886287, 0.886801, 0.888274, 0.868806, 0.884027, 0.887265, 0.935329, 1.00984, 0.955943, 0.990225, 1.01002, 1.00281, 1.01531, 1.05978, 1.07493, 1.07676, 1.2044, 1.20568, 1.09342, 1.09681, 1.0819, 1.08534, 1.09595, 1.10195, 1.16709, 1.16844, 1.17335, 1.17373, 1.17692, 1.19166, 1.18542, 1.19554, 1.18474, 1.18623, 1.16559, 1.16733, 1.15891, 1.16125, 1.17455, 1.17133, 1.17892, 1.15796, 1.17331, 1.17167, 1.14009, 1.15676, 1.13992, 1.13927, 1.12954, 1.11751, 1.11999, 1.14103, 1.12308, 1.12949, 1.14321, 1.14395, 1.14445, 1.12318, 1.1233, 1.12453, 1.11283, 1.11823, 1.12521, 1.1261, 1.11954, 1.12175, 1.12348, 1.11272, 1.09247, 1.08954, 1.05748, 1.06116, 1.04468, 1.03197, 1.00886, 1.0101, 0.99947, 0.999989, 0.967633, 0.968943, 0.978982, 0.984195, 1.00869, 1.00877, 1.04021, 1.03903, 1.04404, 1.0458, 1.0703, 1.08092, 1.06434, 1.06539, 1.05747, 1.07327, 1.04674, 1.04597, 1.0671, 1.05389, 1.02616, 1.02908, 1.01903, 1.02334, 1.14679, 1.0433, 1.06983, 1.05053, 1.08937, 1.09077, 1.10185, 1.10453, 1.10796, 1.10848, 1.11998, 1.12143, 1.12438, 1.12618, 1.12917, 1.13111, 1.13265, 1.13622, 0.00329875, 0.00350391, 0.0033839, 1.14906, 1.14916, 1.15059, 1.15116, 1.14987, 1.14974, 1.1502, 1.15083, 1.15352, 1.15303, 1.15499, 1.15457, 1.16057, 1.16488, 0.00341381, 1.16888, 1.1666, 1.17024, 1.17203, 0.00324314, 1.17732, 1.18077, 1.17542, 1.17638, 1.18127, 1.18401, 1.18492, 1.18492, 1.18834, 1.18852, 1.18785, 1.19259, 1.19109, 1.19407, 1.19762, 1.19852, 1.20384, 1.20243, 1.20288, 1.20747, 1.2058, 1.20569, 1.20738, 1.21027, 1.21569, 1.2168, 1.22282, 0.0032881, 0.00377159, 0.00333781, 1.63044, 0.0035979, 0.00354071, 0.00362902, 0.00371364, 0.00337413, 0.00380332, 0.00344866, 0.00381886, 1.26891
0.00355291, 0.00355427, 0.00340547, 0.00346953, 0.00341785, 0.718674, 0.746406, 0.00390695, 0.00371345, 0.00362022, 0.00347194, 0.00337346, 0.00337091, 0.86947, 0.00334936, 0.00373534, 0.00345131, 0.00363461, 0.805831, 0.00361256, 0.00329954, 0.00381131, 0.00326471, 0.00347925, 0.00339841, 0.00365107, 0.00328061, 0.00370273, 0.00343692, 0.00372788, 0.00333024, 0.00341419, 0.00331456, 0.00377813, 0.00335206, 0.0033357, 0.00350212, 0.61728, 0.618635, 0.618686, 0.00356455, 0.00333222, 0.00345944, 0.64041, 0.00323198, 0.00358234, 0.00315479, 0.00375082, 0.00342529, 0.675009, 0.677144, 0.678098, 0.6789, 0.678401, 0.00342266, 0.00356145, 0.00369153, 0.705563, 0.0037208, 0.712232, 0.71764, 0.719566, 0.00358133, 0.00331953, 0.00358764, 0.00354791, 0.00328054, 0.00367137, 0.00347465, 0.00384895, 0.0033911, 0.00353979, 0.00329643, 0.00386473, 0.00336342, 0.793078, 0.00340347, 1.24687, 0.810432, 0.82116, 0.824714, 0.00343051, 0.00336275, 0.848079, 0.851947, 0.854035, 0.86643, 0.871278, 0.875039, 0.877298, 0.883994, 0.894534, 0.895245, 0.801838, 0.802875, 0.805073, 0.807075, 0.809164, 0.819643, 0.822237, 0.811828, 0.818434, 0.819785, 0.821924, 0.792133, 0.795423, 0.79187, 0.791848, 0.82303, 0.815186, 0.808715, 0.81792, 0.836629, 0.819111, 0.822722, 0.822963, 0.846237, 0.849201, 0.852233, 0.874042, 0.86407, 0.873762, 0.88814, 0.905774, 0.972609, 0.974703, 0.956721, 0.981086, 0.972854, 0.997811, 1.00495, 1.06051, 1.06638, 1.07312, 1.07428, 1.08546, 1.09845, 1.05952, 1.06119, 1.07005, 1.05584, 1.07427, 1.0673, 1.06506, 1.06061, 1.06369, 1.07814, 1.08081, 1.12376, 1.14988, 1.15141, 1.13611, 1.1447, 1.15327, 1.10134, 1.10892, 1.10904, 1.10873, 1.10874, 1.13324, 1.13635, 1.1301, 1.12631, 1.12822, 1.07987, 1.08314, 1.08337, 1.09063, 1.1131, 1.092, 1.09178, 1.09381, 1.08035, 1.0784, 1.09971, 1.12477, 1.12209, 1.12947, 1.12268, 1.12238, 1.12363, 1.11729, 1.12098, 1.12638, 1.09239, 1.10479, 1.0913, 1.05625, 1.07005, 1.04205, 1.043, 1.08425, 1.06721, 1.03545, 0.997524, 0.997629, 0.973164, 1.01709, 1.00252, 0.998319, 0.999813, 1.01441, 1.04257, 1.05392, 1.07776, 1.07851, 1.09008, 1.1529, 1.08208, 1.08972, 1.07096, 1.08773, 1.08145, 1.02271, 1.02724, 1.02756, 1.0401, 1.04622, 1.03967, 1.04713, 1.04766, 1.14959, 1.09815, 1.11599, 0.0034368, 1.10806, 1.11028, 1.11173, 1.11629, 1.11962, 1.12145, 1.12105, 1.12564, 1.12904, 1.12922, 1.13137, 1.13243, 1.13414, 1.13875, 1.14114, 1.14661, 1.15019, 1.15575, 1.15641, 1.15782, 1.15689, 1.15859, 0.00384153, 0.00341577, 1.1533, 1.15346, 1.15858, 1.16058, 1.1668, 1.16747, 1.16843, 1.16829, 1.16749, 1.16664, 1.16811, 1.17284, 1.17551, 1.17816, 1.17877, 1.18122, 1.18269, 1.18498, 1.18766, 1.18789, 1.19514, 1.19298, 1.1966, 1.19775, 1.20143, 1.19879, 1.20143, 1.2039, 1.20581, 1.20815, 1.20388, 1.20654, 1.20743, 1.20788, 1.21195, 1.21322, 1.21489, 1.21302, 1.21719, 1.22038, 1.22584, 1.22713, 1.23103, 1.23449, 1.23777, 1.24016, 0.00353054, 0.00321529, 1.26206, 0.00309542, 0.00360051
0.00341394, 0.00342428, 0.00333864, 0.00337245, 0.00353142, 0.0034667, 0.00366542, 0.00362474, 0.00361919, 0.00346311, 0.00381946, 0.00348457, 0.00358928, 0.00350125, 0.855827, 0.00337914, 0.793821, 0.00336895, 0.00328599, 0.00325046, 0.00345416, 0.00344633, 0.00361283, 0.00349362, 0.00337423, 0.00339858, 0.00366981, 0.00337347, 0.00342376, 0.00322617, 0.00363391, 0.00358682, 0.00355557, 0.00334516, 0.00345676, 0.00333807, 0.00350618, 0.00338321, 0.00356663, 0.00354304, 0.00346362, 0.00336671, 0.643706, 0.645711, 0.645491, 0.00335714, 0.00358436, 1.1799, 0.00364208, 0.667748, 0.00335979, 0.00307398, 0.003615, 0.00350633, 0.692965, 0.0036174, 0.00358642, 0.00346647, 0.710894, 0.712462, 0.713541, 0.716473, 0.0034699, 0.729844, 0.73252, 0.00331666, 0.743905, 0.748, 0.752036, 0.755348, 0.764744, 0.00348322, 0.773753, 0.774004, 0.00318933, 0.00365978, 0.0035942, 0.00353619, 0.00338487, 0.00353817, 0.823002, 0.00365801, 0.829884, 0.847491, 0.852497, 0.854246, 0.864985, 0.871669, 0.873258, 0.874584, 0.883787, 0.889288, 0.890714, 0.845502, 0.798107, 0.799188, 0.800542, 0.843736, 0.842945, 0.843602, 0.840828, 0.842071, 0.823808, 0.823709, 0.788319, 0.788712, 0.791205, 0.800396, 0.83503, 0.819513, 0.858128, 0.828964, 0.846246, 0.863655, 0.864556, 0.833434, 0.814536, 0.814213, 0.814667, 0.853447, 0.850041, 0.853316, 0.895226, 0.883552, 0.890301, 0.915807, 0.905186, 0.925059, 0.924716, 0.99617, 0.995031, 1.01224, 1.01472, 1.01616, 1.07958, 1.05875, 1.04082, 1.03923, 1.03944, 1.03554, 1.03619, 1.05639, 1.04909, 1.04334, 1.05082, 1.04938, 1.06801, 1.05213, 1.05777, 1.05499, 1.05048, 1.05983, 1.05028, 1.064, 1.05424, 1.05342, 1.05327, 1.05029, 1.09974, 1.04268, 1.0576, 1.06794, 1.07501, 1.06774, 1.0472, 1.06207, 1.04842, 1.05097, 1.07163, 1.08459, 1.08784, 1.08284, 1.08372, 1.12236, 1.09025, 1.10231, 1.11617, 1.10138, 1.11301, 1.11242, 1.126, 1.20222, 1.12889, 1.13844, 1.13481, 1.09874, 1.08018, 1.08195, 1.07373, 1.08665, 1.08704, 1.1618, 1.02551, 1.02435, 1.02677, 1.0234, 1.02311, 0.980068, 1.00083, 1.00601, 1.01113, 1.0627, 1.05342, 1.05769, 1.04315, 1.07493, 1.07404, 1.06034, 1.06873, 1.0592, 1.08393, 1.08437, 1.05512, 1.07345, 1.05812, 1.03573, 1.03952, 1.05722, 1.05788, 1.06011, 1.06478, 1.08058, 1.08176, 1.10773, 1.11478, 1.11465, 1.11696, 1.11706, 1.11894, 1.12042, 1.12174, 1.12272, 1.12299, 1.12301, 1.12653, 1.12807, 1.13168, 1.1292, 1.13727, 1.14017, 1.14338, 0.00362804, 0.0036451, 0.00344699, 0.00342744, 0.00335164, 0.00341425, 0.00334345, 1.17804, 0.00346202, 0.00334464, 0.0033426, 0.00362787, 1.16889, 1.16831, 1.17073, 1.16965, 1.16733, 1.17056, 1.17318, 1.17525, 1.17723, 1.17753, 1.18107, 1.18411, 1.18562, 1.18562, 1.1857, 1.18984, 1.18919, 1.1926, 1.19302, 1.19757, 1.19705, 1.20079, 1.20299, 1.20666, 1.20444, 1.21199, 1.20979, 1.20934, 1.20962, 1.2152, 1.21395, 1.21906, 1.21835, 1.21083, 1.21198, 1.21781, 1.22315, 1.22525, 1.22913, 1.22978, 1.23187, 1.2335, 1.23957, 1.24156, 0.00366936, 0.00388935, 0.00329392
0.00346725, 0.00368607, 0.00384157, 0.00353469, 0.00339506, 0.00343991, 0.00336565, 0.745617, 0.0034302, 0.00350089, 0.00362514, 0.767005, 0.00358091, 0.00355716, 0.828349, 0.83169, 0.00330357, 0.00351282, 0.0034428, 0.00390511, 0.00350099, 0.00337118, 0.00346745, 0.00347331, 0.00337817, 0.00367686, 0.00343974, 0.00360646, 0.00338045, 0.00343665, 0.00358814, 0.00346857, 0.00332233, 0.00336695, 0.00356044, 0.00337432, 0.00343198, 0.00328921, 0.0036279, 0.00347584, 0.00332439, 0.00345988, 0.00355278, 0.00361452, 0.00337334, 0.00361694, 0.00348, 0.662833, 0.00358847, 0.00344665, 0.676753, 0.680363, 0.00371835, 0.00353552, 1.20781, 0.00372949, 0.00323665, 0.00347709, 0.71231, 0.713869, 0.714998, 0.723102, 0.724557, 0.00364592, 0.00345661, 0.00356902, 0.00346151, 0.746894, 0.752102, 0.756195, 0.00344765, 0.00363346, 0.00327347, 0.00365446, 0.00360989, 0.787514, 0.00333692, 0.00354525, 0.00330697, 0.806222, 0.810093, 0.00345386, 0.83083, 0.842746, 0.83691, 0.00358032, 0.00334371, 0.8647, 0.866832, 0.877276, 0.87834, 0.880245, 0.890688, 0.824938, 0.894076, 0.894213, 0.88613, 0.886901, 0.823834, 0.824782, 0.831974, 0.831256, 0.773109, 0.774556, 0.903175, 0.905491, 0.792428, 0.820264, 0.815877, 0.839242, 0.839418, 0.84462, 0.827165, 0.881712, 0.881196, 0.880746, 0.841857, 0.842478, 0.853655, 0.856023, 0.840177, 0.844023, 0.843158, 0.842738, 0.884371, 0.905982, 0.901605, 0.91593, 0.922971, 0.926137, 0.941986, 0.935903, 1.02253, 1.0364, 1.03892, 1.03939, 1.05388, 1.05278, 1.049, 1.06796, 1.06999, 1.04116, 1.03736, 1.04926, 1.04659, 1.04328, 1.03323, 1.03505, 1.0294, 1.03298, 1.03797, 1.05261, 1.05405, 1.04269, 1.04303, 1.0569, 1.05326, 1.05105, 1.06296, 1.06489, 1.04324, 1.0667, 1.07067, 1.06177, 1.05598, 1.07444, 1.06258, 1.06609, 1.04554, 1.06545, 1.06438, 1.0672, 1.06218, 1.07838, 1.07604, 1.07221, 1.07481, 1.08521, 1.10085, 1.11675, 1.0856, 1.10153, 1.09074, 1.09338, 1.09513, 1.09498, 1.1198, 1.09606, 1.08331, 1.06488, 1.07754, 1.07532, 1.03361, 1.03564, 1.0148, 1.01953, 1.01574, 0.987436, 1.01343, 1.01857, 1.02097, 1.00339, 1.08126, 1.08327, 1.07987, 1.08099, 1.07432, 1.05772, 1.04677, 1.04773, 1.0495, 1.05077, 1.05347, 1.11564, 1.0736, 1.07738, 1.07734, 1.07651, 1.05564, 1.05677, 1.07573, 1.10858, 1.1112, 1.11574, 1.11695, 1.12152, 1.12089, 1.1198, 1.12262, 1.12115, 1.12162, 1.12202, 1.12471, 1.12537, 1.12654, 1.13005, 1.13292, 1.13551, 1.13863, 1.13965, 1.1424, 1.14882, 1.14932, 1.15773, 1.16384, 1.16661, 1.17072, 1.17233, 1.1752, 1.17891, 1.17975, 1.18235, 1.18063, 1.17862, 1.1749, 1.17547, 1.17336, 1.17447, 1.17617, 1.17555, 1.17597, 1.17129, 1.1796, 1.18062, 1.18282, 1.18377, 1.18857, 1.19091, 1.19052, 1.19547, 1.19548, 1.19756, 1.1993, 1.20087, 1.20221, 1.203, 1.20472, 1.20285, 1.20847, 1.21199, 1.21467, 1.21599, 1.21466, 1.21393, 1.21889, 1.21557, 1.21953, 1.22224, 1.22127, 1.22117, 1.22081, 1.22922, 1.23001, 1.23098, 1.23782, 1.24041, 1.25023, 1.25125, 0.00360141, 0.00321238
0.00392537, 0.00384572, 0.00345122, 0.00335278, 0.00342801, 0.00329386, 0.00364152, 0.00334124, 0.003637, 0.0035516, 0.00333971, 0.00353009, 0.00369007, 0.00344246, 0.832031, 0.00331492, 0.836222, 0.00334572, 0.0034571, 0.00335717, 0.00356354, 0.00351106, 0.0035366, 0.00334515, 0.00373808, 0.00342145, 0.864227, 0.00322961, 0.00368818, 0.00326236, 0.00339885, 0.00322966, 0.00358712, 0.00306105, 0.00372636, 0.00329246, 0.0035821, 0.00325608, 0.00371016, 0.00356188, 0.00372962, 0.00342988, 0.00348263, 0.00338617, 1.21539, 0.00343665, 0.00375554, 0.00320141, 0.00361495, 0.00361417, 0.00363693, 0.00352981, 0.00354801, 0.00354998, 1.20361, 0.00333666, 0.00334373, 0.00340255, 0.00361136, 0.00337643, 0.722065, 0.00318204, 0.729036, 0.00358373, 0.00339044, 0.00343939, 0.0036372, 0.00337433, 0.76296, 0.00344563, 0.00379549, 0.00333167, 0.774012, 0.777244, 0.778712, 0.00323544, 0.790671, 0.00335153, 0.00328702, 0.00338316, 0.811417, 0.811735, 0.827017, 0.0034183, 0.836622, 0.840347, 0.00347628, 0.861194, 0.866291, 0.869278, 0.872974, 0.872802, 0.871065, 0.845167, 0.824972, 0.894833, 0.81472, 0.786072, 0.786615, 0.815512, 0.812054, 0.818309, 0.772716, 0.775052, 0.776667, 0.780959, 0.792443, 0.797513, 0.799519, 0.809776, 0.853965, 0.885845, 0.90736, 0.906268, 0.883783, 0.87662, 0.884466, 0.846809, 0.828944, 0.831316, 0.831583, 0.856321, 0.870151, 0.858038, 0.892116, 0.89163, 0.901408, 0.902985, 0.885626, 0.911062, 0.897237, 0.901397, 0.905843, 0.919609, 0.953351, 0.953932, 0.957269, 1.04076, 1.04639, 1.07461, 1.01391, 1.01946, 1.04928, 1.05154, 1.05294, 1.13217, 1.02142, 1.00625, 1.01301, 1.02116, 1.02503, 1.02685, 1.05037, 1.02885, 1.04284, 1.02961, 1.04323, 1.03087, 1.05651, 1.02072, 1.04421, 1.04203, 1.04736, 1.039, 1.04346, 1.03259, 1.05479, 1.05005, 1.04327, 1.04272, 1.04421, 1.05401, 1.05635, 1.04691, 1.04951, 1.05391, 1.05595, 1.04986, 1.06405, 1.07519, 1.07472, 1.09245, 1.10472, 1.1139, 1.11362, 1.10537, 1.10153, 1.10771, 1.10898, 1.06973, 1.03073, 1.03024, 1.02341, 0.986601, 0.99027, 0.994831, 1.00571, 1.00696, 0.979977, 0.987109, 1.00525, 1.07009, 1.07067, 1.07158, 1.06706, 1.07897, 1.08077, 1.08131, 1.05865, 1.05111, 1.04735, 1.03016, 1.05569, 1.05718, 1.08592, 1.08714, 1.08755, 1.08411, 1.12319, 1.12711, 1.12321, 1.12464, 1.12032, 1.12165, 1.12409, 1.12241, 1.12466, 1.12499, 1.12544, 1.12541, 1.12155, 1.12305, 1.12454, 1.12623, 1.12887, 1.1294, 1.13302, 1.13531, 1.13561, 1.13879, 1.13961, 1.14455, 1.14602, 1.15638, 1.15839, 0.00331641, 0.00344663, 1.1767, 1.17587, 1.17736, 1.18052, 1.1822, 0.00381767, 1.17163, 1.17014, 1.16887, 1.17305, 1.1743, 1.17456, 1.18098, 1.17941, 1.18039, 1.18084, 1.17974, 1.18456, 1.18329, 1.18714, 1.18929, 1.19091, 1.192, 1.19375, 1.19439, 1.19806, 1.20122, 1.20161, 1.20156, 1.20333, 1.20726, 1.20815, 1.21031, 1.20932, 1.21554, 1.2143, 1.21637, 1.21766, 1.22217, 1.21965, 1.22245, 1.22097, 1.22573, 1.22707, 1.22889, 1.22861, 1.23307, 1.23061, 1.23639, 1.23942, 1.24425, 0.00355211, 0.00344869
0.00337755, 0.00392031, 0.00337054, 0.00369981, 0.00342378, 0.00370689, 0.00347156, 0.00350492, 0.00360826, 0.00364588, 0.00349979, 0.00356666, 0.00339932, 0.770005, 0.00353104, 0.00339184, 0.00345418, 0.00370862, 0.844548, 0.844017, 0.00331622, 0.003693, 0.00331383, 0.00377149, 0.00348429, 0.00360943, 0.003207, 0.840422, 0.84179, 0.00372503, 0.0035983, 0.882237, 0.00347962, 0.00352935, 0.00346777, 0.0035692, 0.752184, 0.00359722, 0.00325861, 0.00360519, 0.00336825, 0.00370671, 0.00325853, 0.00378145, 0.00357292, 0.0036734, 0.00358371, 0.00356141, 0.00335901, 0.00349581, 0.00342149, 0.00352298, 0.00333761, 0.00352437, 0.00316113, 0.00331879, 0.00350899, 0.00361854, 0.00343454, 0.00360819, 0.00339155, 0.00355908, 0.00334734, 0.00358788, 0.00354339, 0.741259, 0.00338199, 0.00328408, 0.0035283, 0.759762, 0.00326166, 0.00372955, 0.00349021, 0.780066, 0.780511, 0.00365891, 0.79156, 0.00342849, 0.00358854, 0.805937, 0.807305, 0.00378901, 0.00360916, 0.00334051, 0.0035057, 0.00353425, 0.0035052, 0.00339489, 0.863318, 0.00369758, 0.87342, 0.878694, 0.880863, 0.891366, 0.889164, 0.890579, 0.891919, 0.818349, 0.81917, 0.8583, 0.831942, 0.832039, 0.846241, 0.85253, 0.793621, 0.861132, 0.840223, 0.859748, 0.815079, 0.821872, 0.828773, 0.851229, 0.854907, 0.877613, 0.882982, 0.884681, 0.857251, 0.857336, 0.862485, 0.883887, 0.880166, 0.846351, 0.847377, 0.890529, 0.889432, 0.890733, 0.883131, 0.891996, 0.864455, 0.871128, 0.87771, 0.887812, 0.885393, 0.886695, 0.903061, 0.908858, 0.909581, 0.914878, 0.961326, 0.939843, 0.953386, 0.997863, 0.992263, 0.995796, 0.99509, 0.992998, 1.0016, 0.991258, 0.997137, 0.997573, 0.959953, 0.968138, 0.981023, 0.973922, 0.984139, 0.981855, 0.977566, 0.976492, 0.974108, 1.01927, 1.00908, 1.02827, 1.02731, 1.03785, 1.03913, 1.04508, 1.02193, 1.01931, 1.01397, 1.01454, 1.01304, 1.00422, 1.0153, 1.03201, 1.01932, 1.03336, 1.02241, 1.01951, 1.05114, 1.05922, 1.07428, 1.05894, 1.07134, 1.10887, 1.09185, 1.07429, 1.06582, 1.06351, 1.04768, 1.0387, 1.03782, 1.0333, 0.995022, 0.974521, 0.960869, 0.983839, 0.994727, 1.00448, 1.00507, 1.02642, 1.00506, 1.06056, 1.07872, 1.07201, 1.07451, 1.06679, 1.06093, 1.06055, 1.05095, 1.08167, 1.08575, 1.06402, 1.08545, 1.08086, 1.06093, 1.11153, 1.10151, 1.10334, 1.13091, 1.13453, 1.13562, 1.12999, 1.13223, 1.12618, 1.12621, 1.12502, 1.12499, 1.12397, 1.12242, 1.12474, 1.12483, 1.12433, 1.12781, 1.12881, 1.12778, 1.12946, 1.13221, 1.13362, 1.13533, 1.13914, 1.13955, 1.14324, 1.14295, 0.0036291, 0.00346234, 0.00360543, 0.00353068, 0.00359581, 0.00366156, 0.00354563, 0.00335868, 1.17617, 1.16481, 1.16713, 1.16789, 1.16596, 1.16929, 1.17236, 1.17509, 1.17789, 1.17836, 1.17788, 1.18206, 1.18272, 1.18763, 1.18782, 1.18955, 1.19055, 1.19088, 1.19512, 1.19527, 1.19748, 1.19834, 1.20169, 1.20287, 1.20194, 1.2037, 1.20858, 1.20701, 1.20892, 1.21325, 1.21329, 1.21924, 1.21975, 1.21979, 1.21987, 1.22239, 1.22376, 1.22401, 1.22343, 1.22685, 1.23199, 1.23296, 1.22767, 1.23549, 1.23535, 1.23961, 1.24346, 1.24944, 1.25603
0.00340809, 0.00336847, 0.00345671, 0.00335266, 0.00340555, 0.00356437, 0.00363859, 0.00330741, 0.00351788, 0.00362331, 0.00342221, 0.00336527, 0.00370233, 0.00348618, 0.796112, 0.797613, 0.00368892, 0.00339959, 0.0034682, 0.00342066, 0.00376531, 0.00343193, 0.835436, 0.00351099, 0.850758, 0.00350592, 0.00366779, 0.00358755, 0.00375035, 0.0035176, 0.00379793, 0.843786, 0.843241, 0.00340528, 0.00368222, 0.00338692, 0.00355814, 0.840106, 0.841624, 0.00352416, 0.00333455, 0.00331802, 0.00344462, 0.00337684, 0.00356326, 0.00362567, 0.00351702, 0.00356494, 0.00359457, 0.00347525, 0.00353645, 0.00321328, 0.00389818, 0.00338291, 0.721473, 0.00348937, 0.0035657, 0.728038, 0.729386, 0.00322346, 0.00375275, 0.00351664, 0.00357174, 0.00348269, 0.00348097, 0.00382606, 0.00328979, 0.00352293, 0.00371169, 0.00339637, 0.767633, 0.00328489, 0.77818, 0.780381, 0.782171, 0.791256, 0.792867, 0.79347, 0.00351912, 0.00344221, 0.00342029, 0.815515, 0.816759, 0.0033983, 0.00347218, 0.0033954, 0.00334136, 0.859793, 0.861406, 0.863676, 0.869331, 0.870009, 0.889019, 0.891747, 0.897239, 0.888659, 0.888407, 0.891108, 0.894757, 0.90398, 0.868506, 0.860748, 0.893784, 0.905101, 0.864048, 0.866732, 0.834965, 0.86363, 0.840065, 0.825284, 0.841998, 0.846543, 0.850008, 0.850744, 0.855966, 0.83695, 0.858781, 0.860384, 0.861455, 0.884027, 0.890119, 0.878029, 0.871844, 0.888495, 0.8954, 0.899258, 0.902224, 0.895114, 0.899632, 0.905077, 0.857478, 0.860055, 0.860889, 0.891505, 0.897684, 0.900561, 0.912048, 0.880553, 0.895846, 0.956111, 0.954751, 0.917225, 0.926377, 0.956227, 0.955967, 0.945842, 0.918998, 0.912503, 0.925459, 0.925935, 0.939238, 0.944689, 0.944128, 0.933001, 0.947344, 0.930317, 0.965647, 0.963082, 0.968503, 0.967637, 0.967062, 0.954397, 0.953689, 0.97556, 0.968729, 0.985234, 0.984725, 0.990909, 0.991636, 0.997433, 1.00103, 0.986823, 1.00317, 1.00641, 1.00907, 1.01104, 1.01035, 1.00879, 1.01107, 1.00807, 1.0188, 0.999576, 1.02746, 1.02262, 1.02017, 1.01963, 1.01234, 1.0368, 1.05368, 0.985059, 0.997756, 0.961776, 0.954698, 0.967927, 0.969785, 0.978534, 0.977533, 0.999537, 0.988199, 0.994369, 1.01535, 1.04703, 1.04224, 1.05719, 1.0636, 1.08059, 1.11988, 1.07298, 1.06791, 1.047, 1.04593, 1.07423, 1.07502, 1.08504, 1.0988, 1.11415, 1.11651, 1.11828, 1.12266, 1.1273, 1.13266, 1.1334, 1.13583, 1.13174, 1.1321, 1.13288, 1.13157, 1.13055, 1.12966, 1.12603, 1.12885, 1.12796, 1.12884, 1.12934, 1.13064, 1.12993, 1.13529, 1.13612, 1.13797, 1.13785, 1.14075, 1.14226, 1.14316, 1.14851, 1.14961, 1.15358, 1.15587, 0.00355082, 1.16362, 1.16666, 1.16564, 1.16533, 1.1671, 1.16658, 1.1678, 0.0036634, 0.00372302, 1.17602, 1.17933, 1.18018, 1.18159, 1.18414, 1.18677, 1.18917, 1.18982, 1.19956, 1.20504, 1.19839, 1.19333, 1.19454, 1.19676, 1.196, 1.1982, 1.19991, 1.20332, 1.2085, 1.20658, 1.20857, 1.21088, 1.21014, 1.21301, 1.21561, 1.21421, 1.21651, 1.21972, 1.22247, 0.00333476, 1.22861, 1.23058, 1.23458, 1.23308, 1.23287, 1.23333, 1.23539, 1.23403, 1.23554, 1.23702, 1.23757, 1.24332, 1.24721
0.00308906, 0.00327336, 0.00367627, 0.00350013, 0.00346894, 0.00362608, 0.00323011, 0.00339892, 0.00348413, 0.00345719, 0.00350872, 0.00352863, 0.00337645, 0.00354434, 0.00331346, 0.00351716, 0.00348034, 0.00344941, 0.00345309, 0.0037944, 0.00333486, 0.00362968, 0.84098, 0.00353566, 0.00346105, 0.00358958, 0.00350898, 0.00363559, 0.00344825, 0.00370516, 0.00352245, 0.00365459, 0.00343598, 0.00337804, 0.00352408, 0.00392534, 0.00318776, 0.00365854, 0.824811, 0.00352566, 0.00344901, 0.836081, 0.00349528, 0.00352221, 0.00352531, 0.00329913, 0.00350404, 1.16215, 0.00338491, 0.0036314, 1.17158, 0.00369737, 0.00355555, 0.00352549, 0.00346634, 0.00337971, 0.733054, 0.733268, 0.733084, 0.00354466, 0.00370138, 0.00363039, 0.742253, 1.4829, 0.00325645, 0.752385, 0.00339844, 0.00361472, 0.760908, 0.00365689, 0.00320909, 0.00373125, 0.00325489, 0.00358007, 0.00349107, 0.00352828, 0.00332563, 0.00352067, 0.00335474, 0.00361818, 0.811419, 0.813006, 0.814235, 0.821362, 0.82227, 0.00363065, 0.00327303, 0.00339013, 0.863561, 0.864281, 0.868848, 0.871075, 0.87413, 0.876426, 0.877611, 0.888561, 0.89435, 0.895786, 0.898503, 0.85609, 0.862938, 0.864606, 0.904795, 0.907428, 0.912729, 0.853513, 0.84687, 0.857693, 0.845011, 0.845717, 0.878358, 0.881324, 0.892236, 0.844144, 0.852279, 0.847558, 0.838954, 0.845092, 0.869739, 0.892621, 0.858379, 0.860928, 0.874844, 0.884358, 0.915936, 0.917923, 0.915752, 0.914292, 0.908691, 0.914977, 0.895745, 0.907157, 0.860427, 0.906652, 0.87239, 0.905998, 0.894423, 0.91142, 0.887705, 0.890958, 0.928028, 0.909607, 0.911651, 0.912278, 0.950683, 0.964179, 0.92888, 0.931187, 0.90286, 0.926168, 0.925868, 0.927305, 0.9093, 0.923619, 0.919988, 0.953827, 0.959177, 0.948852, 0.928475, 0.950279, 0.96835, 0.946326, 0.960319, 0.962784, 0.969724, 0.974832, 0.975026, 0.979395, 0.985928, 0.970993, 0.991461, 0.989528, 0.997979, 1.01602, 1.02282, 1.03804, 1.03711, 1.006, 1.00978, 1.0353, 1.03581, 0.98788, 0.986707, 1.02384, 1.0029, 0.987233, 0.990353, 0.981369, 0.957393, 0.984325, 0.965007, 0.966418, 0.972869, 0.97065, 0.947531, 0.985548, 0.985397, 0.977102, 0.991069, 1.00411, 1.03011, 1.03302, 1.03731, 1.04343, 1.05231, 1.03841, 1.02858, 1.03287, 1.02712, 1.02994, 1.04493, 1.07045, 1.06544, 1.06714, 1.1255, 1.12576, 1.11716, 1.11799, 1.1189, 1.12077, 1.12598, 1.12886, 1.12712, 1.12893, 1.12797, 1.12999, 1.1325, 1.12954, 1.12864, 1.12748, 1.13166, 1.13246, 1.13032, 1.13045, 1.13126, 1.13101, 1.13791, 1.13693, 1.14045, 1.14038, 1.14364, 1.14586, 1.1465, 1.14709, 1.14909, 1.1528, 1.15379, 1.15632, 1.15694, 1.15998, 1.16093, 1.16323, 1.16421, 1.16649, 1.1709, 1.17173, 1.17432, 1.17626, 1.17754, 1.17806, 1.1837, 1.18556, 0.00346515, 1.19652, 1.198, 1.20217, 1.20429, 1.20613, 1.1982, 1.19684, 1.19963, 1.19692, 1.20081, 1.20058, 1.20732, 1.20532, 1.21078, 1.20936, 1.20906, 1.21257, 1.21483, 1.21552, 1.21829, 1.22271, 0.00338088, 0.0036418, 0.0033835, 0.00347411, 0.00332775, 1.24578, 1.24635, 1.25002, 0.00324262, 1.24011, 1.24321, 1.23946, 1.24111, 1.24398, 1.24521, 1.2455
0.00365483, 0.00328482, 0.00367705, 0.00340003, 0.00342617, 0.00340643, 0.0038922, 0.00337145, 0.00366704, 0.00354623, 0.00324534, 0.00334601, 0.00330076, 0.00323739, 0.00343884, 0.00349424, 0.00346437, 0.00348016, 0.00336815, 0.00340862, 0.00345734, 0.00327583, 0.00327469, 0.00345025, 0.00366236, 0.00340796, 0.849953, 0.00341791, 0.00377777, 0.0033515, 0.00356734, 0.00338603, 0.00366311, 0.00359983, 0.00361952, 0.864586, 0.00349356, 0.00335609, 0.749714, 0.0033629, 0.00350697, 0.0036678, 0.00353932, 0.0032568, 0.786506, 0.00358227, 0.00325357, 0.00329277, 0.00396152, 0.00335381, 0.00362883, 0.00334365, 0.00348183, 0.00330914, 0.00350019, 0.00334578, 0.00352481, 0.00354854, 0.00376597, 0.00360994, 0.74528, 0.745421, 0.746183, 0.745933, 0.00366433, 0.753841, 0.755569, 0.760582, 0.762882, 1.48789, 0.767868, 0.00347418, 0.00346666, 0.00350641, 0.00375111, 0.789884, 0.792883, 0.793913, 0.825082, 0.00347573, 0.00361407, 0.813637, 0.8166, 0.820094, 0.821373, 0.00366543, 0.00343438, 0.00346948, 0.00357918, 0.00327609, 0.00369452, 0.873809, 0.875183, 0.876628, 0.879247, 0.880775, 0.891824, 0.895798, 0.898088, 0.900148, 0.903427, 0.906553, 0.910183, 0.912711, 0.922909, 0.92422, 0.922282, 0.931814, 0.932215, 0.866557, 0.911368, 0.911361, 0.861898, 0.877785, 0.846378, 0.849047, 0.852336, 0.882446, 0.863775, 0.896838, 0.882275, 0.906036, 0.899298, 0.862486, 0.861942, 0.847311, 0.850157, 0.902389, 0.897973, 0.908031, 0.908947, 0.914889, 0.898146, 0.897689, 0.921569, 0.913188, 0.895645, 0.902102, 0.907682, 0.908729, 0.91373, 0.913621, 0.937191, 0.900248, 0.890505, 0.905101, 0.89544, 0.896213, 0.913412, 0.912714, 0.911492, 0.91382, 0.914434, 0.909849, 0.908353, 0.908473, 0.930121, 0.934583, 0.93351, 0.946895, 0.944251, 0.945227, 0.949929, 0.93859, 0.941083, 0.981118, 0.967244, 0.994626, 1.00585, 0.982167, 0.981668, 0.980986, 1.02153, 1.03001, 1.03602, 1.03989, 1.04039, 1.05134, 1.04452, 1.03589, 1.03679, 0.992626, 0.992075, 0.996691, 0.996541, 0.985692, 0.977794, 0.973855, 1.00165, 0.991596, 0.973793, 0.972151, 0.958394, 0.94991, 0.959686, 0.981123, 0.982396, 1.00614, 1.01659, 1.01537, 1.02265, 1.02555, 1.0298, 1.04174, 1.02577, 1.0433, 1.01793, 1.01828, 1.03223, 1.02917, 1.02408, 1.05547, 1.06396, 1.11871, 1.10454, 1.10655, 1.11986, 1.11707, 1.12124, 1.12084, 1.12039, 1.1205, 1.12277, 1.12551, 1.12572, 1.1292, 1.12872, 1.12722, 1.13156, 1.13027, 1.13173, 1.13089, 1.13064, 1.13025, 1.13103, 1.13555, 1.13404, 1.13953, 1.14031, 1.14119, 1.14221, 1.14713, 1.14726, 1.14917, 1.15131, 1.15175, 1.15464, 1.15719, 1.15657, 1.16014, 1.16345, 1.16377, 1.16522, 1.16987, 1.17195, 1.17315, 1.17624, 1.17737, 1.17765, 1.18083, 1.18297, 1.18858, 1.18906, 1.19453, 1.19901, 1.19705, 1.19774, 1.19503, 1.19385, 1.19508, 1.19654, 1.20004, 1.20453, 1.20389, 1.2062, 1.20792, 1.21027, 1.21239, 0.00354115, 0.00348322, 0.00350509, 0.00370407, 1.22814, 0.00351226, 1.24054, 1.24129, 1.24601, 1.24664, 1.25099, 1.25387, 1.24962, 1.25165, 1.25433, 1.24049, 1.24257, 1.23807, 1.23969, 1.24455, 1.24674, 1.24444
0.00353594, 0.00369598, 0.00348449, 0.00362915, 0.00356999, 0.0034331, 0.00360326, 0.00333763, 0.00333752, 0.00338462, 0.00319628, 0.00347633, 0.00324687, 0.00335302, 0.00354927, 0.00338529, 0.00352266, 0.00356473, 0.00357196, 0.0035616, 0.0034661, 0.00339962, 0.00347613, 0.00363645, 0.00332179, 0.0036215, 0.00349241, 0.00373096, 0.00382184, 0.00383668, 0.00363179, 0.00351987, 0.00338012, 0.00333275, 0.00316499, 0.00376446, 0.00353352, 0.876665, 0.88194, 0.882077, 0.00343067, 0.801567, 0.00352127, 0.00336212, 0.00345748, 0.790894, 0.792816, 0.793435, 0.00357162, 0.00343718, 0.00351148, 0.00342837, 0.00353931, 0.807994, 0.00349317, 0.0034815, 0.00344037, 0.00341222, 0.00339102, 0.00367112, 0.0033154, 0.745844, 0.747832, 0.748541, 0.747846, 0.00337477, 0.00347526, 0.00370506, 0.00391995, 0.767866, 0.00344839, 0.00329676, 0.00338297, 0.783843, 0.78679, 0.787607, 0.792439, 0.793527, 0.794212, 0.797792, 0.00358228, 0.0037415, 0.00346695, 0.00355157, 0.00349208, 0.829624, 0.83081, 0.00328266, 0.00347117, 0.00372863, 0.00342474, 0.0034893, 0.00351169, 0.00344282, 0.00346805, 0.886145, 0.888865, 0.889588, 0.00322332, 0.0032916, 0.909177, 0.910322, 0.912291, 0.91501, 0.917965, 0.922116, 0.922196, 0.920722, 0.928329, 0.918626, 0.921844, 0.869553, 0.873544, 0.864737, 0.898001, 0.90125, 0.90488, 0.869371, 0.87343, 0.877704, 0.908933, 0.897942, 0.910461, 0.901311, 0.901232, 0.873561, 0.873861, 0.905316, 0.885881, 0.886037, 0.897666, 0.89925, 0.898131, 0.902147, 0.902901, 0.900694, 0.903655, 0.885705, 0.89632, 0.898266, 0.890364, 0.904105, 0.904624, 0.933977, 0.932881, 0.914538, 0.915674, 0.922895, 0.928445, 0.906556, 0.912287, 0.925612, 0.932539, 0.90807, 0.921254, 0.925592, 0.945882, 0.932269, 0.947017, 0.944069, 0.953471, 0.950137, 0.937231, 0.945187, 0.979812, 0.989272, 1.00851, 1.01192, 0.998184, 1.01014, 1.01746, 1.02301, 1.02005, 1.02295, 1.02418, 1.04236, 1.0315, 1.04358, 1.04958, 1.037, 1.0443, 1.04065, 1.02965, 1.00266, 1.00269, 1.00482, 1.00541, 0.977832, 0.978629, 0.977449, 0.98074, 0.970379, 0.956672, 0.964174, 0.979239, 0.991597, 0.997768, 1.02254, 1.08585, 1.08837, 1.02567, 1.03616, 1.04006, 1.02845, 1.03037, 1.04712, 1.04408, 1.04577, 1.05662, 1.08612, 1.0882, 1.1144, 1.07045, 1.11576, 1.11665, 1.11978, 1.11955, 1.11981, 1.11967, 1.12052, 1.12279, 1.12125, 1.12294, 1.12573, 1.12599, 1.12872, 1.12793, 1.1271, 1.13064, 1.13266, 1.13232, 1.13158, 1.133, 1.12926, 1.13001, 1.13473, 1.13401, 1.13799, 1.14039, 1.14365, 1.14484, 1.14636, 1.14739, 1.14972, 1.15075, 1.1543, 1.15546, 1.15468, 1.1608, 1.16116, 1.16432, 1.16629, 1.1707, 1.17216, 1.17281, 1.17496, 1.17385, 1.17569, 1.17896, 1.17896, 1.17985, 1.18382, 1.18599, 1.18844, 1.19147, 1.1962, 1.19618, 1.19855, 1.19835, 1.19859, 1.19926, 1.20704, 1.20895, 1.21212, 0.00346375, 0.00372623, 0.00360045, 1.22322, 0.00346957, 1.22896, 1.23248, 1.23325, 1.23721, 1.24492, 1.24476, 1.24533, 1.24864, 1.24997, 1.25135, 1.25163, 0.00340998, 0.00373437, 1.22968, 1.23213, 1.23312, 1.23537, 1.23647, 1.2024, 1.20532, 1.24179
0.335224, 0.00325406, 0.00362269, 0.00335687, 0.0035503, 0.00346971, 0.0034767, 0.0033605, 0.00381692, 0.00334544, 0.0036041, 0.00350277, 0.00381076, 0.0035051, 0.00345614, 0.00360064, 0.00357348, 0.00334311, 0.00403359, 0.0035291, 0.00348954, 0.00340828, 0.00348107, 0.003455, 0.00350322, 0.00332918, 0.00364347, 0.00326323, 0.0035044, 0.00339685, 0.00360291, 0.00345302, 0.624512, 0.00349691, 0.00344639, 0.00344205, 0.00349163, 0.00337224, 0.00368763, 0.00325939, 0.905269, 0.00337037, 0.00368026, 0.00323261, 0.00366157, 0.793104, 0.793795, 0.794065, 0.795111, 0.795423, 0.79708, 0.00331687, 0.00381193, 0.00344263, 0.00362225, 0.00362967, 0.0035753, 0.00341029, 0.00352723, 0.00343928, 0.00360285, 0.00333432, 0.00340581, 0.00357256, 0.00348759, 0.00346953, 0.00345975, 0.00326373, 1.51349, 0.00334974, 0.772063, 0.774083, 0.00340511, 0.781249, 0.786772, 0.786642, 0.789602, 0.791345, 0.797072, 0.797756, 0.0038124, 0.0035747, 0.0039424, 0.822484, 0.822882, 0.831513, 0.83353, 0.836645, 0.840599, 0.00328264, 0.00382483, 0.00336037, 0.0036794, 0.00317903, 0.00367987, 0.00338139, 0.00337239, 0.894456, 0.897746, 0.00315835, 0.00329948, 0.914943, 0.91724, 0.918883, 0.921015, 0.92248, 0.925158, 0.925408, 0.926131, 0.923845, 0.919305, 0.900497, 0.00373565, 0.957237, 0.881358, 0.980112, 0.923243, 0.93773, 0.886549, 0.935503, 0.913799, 0.914948, 0.918965, 0.897178, 0.915558, 0.891767, 0.903978, 0.879158, 0.878655, 0.881572, 0.882629, 0.882146, 0.884113, 0.903277, 0.909368, 0.905379, 0.924515, 0.904537, 0.923459, 0.902007, 0.928453, 0.889464, 0.904802, 0.917498, 0.92013, 0.99504, 0.990993, 0.987523, 0.928772, 0.910765, 0.908617, 0.939714, 0.922081, 0.922398, 0.929354, 0.942627, 0.928371, 0.936799, 0.946122, 0.946035, 0.957249, 0.944032, 0.945835, 0.969487, 0.990913, 0.991331, 0.997759, 0.997887, 0.986114, 1.00468, 1.01774, 1.02188, 1.02993, 1.03519, 1.0265, 1.04671, 1.04807, 1.05004, 1.05653, 1.06292, 1.03966, 1.04197, 1.05211, 1.0209, 1.01954, 1.02019, 1.03694, 1.01953, 1.00492, 1.00556, 1.01336, 1.00317, 1.03003, 0.967564, 0.970595, 1.03642, 1.02377, 1.02724, 1.03001, 1.02145, 1.02054, 1.02184, 1.05397, 1.04715, 1.04838, 1.06882, 1.0681, 1.07617, 1.08987, 1.09194, 1.10713, 1.11126, 1.11406, 1.11624, 1.11582, 1.12008, 1.11882, 1.12003, 1.12207, 1.12266, 1.12079, 1.12299, 1.12454, 1.12936, 1.12994, 1.13142, 1.12862, 1.13067, 1.13203, 1.13137, 1.13302, 1.13381, 1.13377, 1.13487, 1.13545, 1.13375, 1.13471, 1.13988, 1.14297, 1.14048, 1.14378, 1.14701, 1.14707, 1.15048, 1.15122, 1.15426, 1.15784, 1.15734, 0.00357968, 1.16509, 0.00358347, 1.16906, 1.17032, 1.16951, 1.17352, 1.17571, 1.17547, 1.17726, 1.17931, 1.18028, 1.18214, 1.18245, 1.18437, 1.18627, 1.19083, 1.19228, 1.19234, 1.19589, 1.19691, 1.1985, 1.19957, 0.00336075, 0.00363462, 0.00355377, 0.00363549, 0.00346709, 0.00377957, 0.00340595, 0.00355335, 0.00351718, 0.00369711, 0.0033243, 1.24804, 1.24774, 1.2485, 1.25119, 1.23427, 1.2358, 1.23695, 1.23275, 1.23124, 1.23404, 1.2322, 1.22908, 1.23121, 1.23453, 1.23564, 1.23883, 1.24056, 1.24326
0.00349546, 0.00341254, 0.00325366, 0.00365573, 0.00376484, 0.00372101, 0.0034424, 0.00331923, 0.00328796, 0.00337835, 0.00337894, 0.00344852, 0.00351479, 0.00344012, 0.00334311, 0.00362148, 0.00332095, 0.00382017, 0.00334752, 0.00358028, 0.00324349, 0.00362482, 0.00370959, 0.00363547, 0.00345062, 0.00359418, 0.00344041, 0.00337903, 0.00339363, 0.00390973, 0.00322219, 0.00384309, 0.00354968, 0.00371626, 0.00360193, 0.00359109, 0.893247, 0.00364025, 0.00362982, 0.00339419, 0.00361387, 0.00382528, 0.00368754, 0.00358168, 0.00360117, 0.00356938, 0.00344379, 0.792285, 0.794993, 0.797247, 0.796731, 0.797012, 0.796922, 0.793551, 0.794086, 0.792065, 0.00352701, 0.00348975, 0.00340787, 0.774377, 0.0034181, 0.00347897, 0.00335583, 0.0036289, 0.00324448, 0.00366871, 0.00326119, 0.771981, 0.773035, 0.773799, 0.00339864, 0.777019, 0.00340881, 0.783204, 0.784444, 0.788617, 0.791009, 0.796206, 0.801002, 0.802456, 0.00335999, 0.00351112, 0.00337759, 0.00353115, 0.00348505, 0.00356212, 0.00327323, 0.83942, 0.00337137, 0.00344473, 0.00341382, 0.00372357, 0.00357344, 0.00366369, 0.003561, 0.892503, 0.00331613, 0.00357915, 0.00324118, 0.904311, 0.905236, 0.00364855, 0.00349556, 0.0034501, 0.924103, 0.924465, 0.926441, 0.926468, 0.928833, 0.930453, 0.931047, 0.91857, 0.920329, 0.946025, 0.956493, 0.960026, 0.960236, 0.961518, 0.898409, 0.929159, 0.934526, 0.934556, 0.943329, 0.932195, 0.905876, 0.905993, 0.903422, 0.921537, 0.921592, 0.921043, 0.91306, 0.91235, 0.88771, 0.887449, 0.925276, 0.943045, 0.925736, 0.926417, 0.928126, 0.928358, 0.907129, 0.911178, 0.908923, 0.90863, 0.931593, 0.947148, 0.949631, 0.951224, 0.980363, 0.92909, 0.929938, 0.905521, 0.932191, 0.940426, 0.943846, 0.915456, 0.918656, 0.9264, 0.950009, 0.951488, 0.96119, 0.963071, 0.982035, 0.998026, 0.997367, 0.998986, 1.00677, 1.02187, 1.00034, 1.00213, 1.01147, 1.01526, 1.01846, 1.04558, 1.03747, 1.04158, 1.02861, 1.11547, 1.11553, 1.12244, 1.10763, 1.07759, 1.07571, 1.06298, 1.06314, 1.04246, 1.0458, 1.04164, 1.03346, 1.01908, 1.02038, 1.02575, 1.0678, 1.0582, 1.04269, 1.04094, 1.04224, 1.0229, 1.02158, 1.03592, 1.06648, 1.06975, 1.08071, 1.088, 1.09088, 1.09188, 1.09537, 1.10003, 1.10334, 1.10871, 1.11157, 1.11322, 1.11351, 1.11756, 1.11802, 1.11764, 1.1195, 1.12058, 1.12346, 1.11988, 1.12238, 1.12345, 1.12378, 1.12433, 1.12872, 1.12896, 1.12961, 1.1321, 1.13569, 1.13482, 1.13295, 1.13439, 1.13629, 1.13332, 1.13892, 1.13987, 1.14026, 1.14282, 1.14078, 1.14666, 1.14697, 1.14888, 1.15056, 1.15328, 1.15354, 1.15662, 1.15922, 1.15884, 1.16129, 1.16334, 1.16642, 1.16998, 1.17057, 1.17032, 1.1723, 1.17521, 1.17479, 1.17548, 1.18098, 1.17987, 1.1816, 1.18312, 1.18565, 1.19069, 1.19095, 1.1931, 1.19363, 1.19469, 1.19474, 1.19561, 1.19735, 1.20235, 1.20451, 1.20549, 0.00350123, 0.00369613, 0.00342115, 0.00340146, 1.25004, 1.25073, 1.25014, 1.25602, 1.25687, 1.25502, 1.25279, 0.00344027, 1.23375, 1.23405, 1.22783, 1.23057, 1.2322, 1.23014, 1.23392, 1.23397, 1.23529, 1.23667, 1.23911, 1.24326, 1.24158, 1.24108
0.00356673, 0.00367238, 0.00371086, 0.00343614, 0.00361181, 0.00338502, 0.00372913, 0.0034625, 0.00339553, 0.00339934, 0.00362242, 0.00336056, 0.00368164, 0.00345086, 0.00327541, 0.00338189, 0.00362111, 0.00350089, 0.00363458, 0.00316154, 0.0038093, 0.00336067, 0.00347809, 0.00336653, 0.00337422, 0.00329377, 0.00345202, 0.0031424, 0.00370655, 0.00365978, 0.00350614, 0.00341632, 0.00357127, 0.00338456, 0.0034101, 0.00352577, 0.00379665, 0.00342892, 0.00377618, 0.00347998, 0.00372728, 0.00338426, 0.00350556, 0.00320554, 0.00386805, 0.00348358, 0.00355451, 0.00351802, 0.00364867, 0.79455, 0.795094, 0.796727, 0.797864, 0.796625, 0.795016, 0.796627, 0.796268, 0.794423, 0.797446, 0.813835, 0.781775, 0.0035626, 0.00381832, 0.00344194, 0.799205, 0.00342441, 0.775271, 0.773616, 0.774841, 0.775418, 0.780047, 0.780713, 0.782929, 0.784479, 0.78592, 0.789324, 0.790214, 0.793996, 0.797945, 0.800567, 0.805897, 0.808583, 0.809474, 0.810983, 0.811714, 0.00332824, 0.0034729, 0.0035042, 0.883603, 0.00338626, 0.00347638, 0.00322046, 0.00357007, 0.00353531, 0.00337299, 0.00332463, 0.891153, 0.893789, 0.894371, 0.899199, 0.902267, 0.90451, 0.907641, 0.909005, 0.00354223, 0.00334368, 0.00376537, 0.928419, 0.926351, 0.93108, 0.930266, 0.932239, 0.931568, 0.930018, 0.930133, 0.931885, 0.932253, 0.929117, 0.930808, 0.932078, 0.961897, 0.915216, 0.928913, 0.963728, 0.954393, 0.928858, 0.926908, 0.90478, 0.897759, 0.899054, 0.899246, 0.911717, 0.90977, 0.90906, 0.893728, 0.92533, 0.932005, 0.941524, 0.989243, 0.937984, 0.965208, 0.956585, 0.958589, 0.946083, 0.944374, 0.949607, 0.963685, 0.948947, 0.958217, 0.950392, 0.950353, 0.917068, 0.939689, 0.929977, 0.943777, 0.933153, 0.953838, 0.949176, 0.953465, 0.936821, 0.967744, 0.958312, 0.967383, 0.968444, 0.988907, 0.991855, 0.995103, 0.999578, 1.01483, 0.989272, 1.00677, 1.00965, 1.00977, 1.02309, 1.0262, 1.02321, 1.02244, 1.0493, 1.09299, 1.09672, 1.09737, 1.09871, 1.10176, 1.101, 1.10173, 1.07001, 1.06321, 1.02931, 1.05074, 1.03306, 1.03496, 1.03045, 1.0401, 1.05826, 1.06758, 1.09197, 1.07696, 1.08031, 1.08134, 1.0858, 1.09293, 1.08589, 1.09638, 1.09939, 1.10087, 1.10319, 1.10484, 1.10874, 1.11011, 1.11064, 1.11245, 1.11378, 1.11541, 1.11739, 1.12085, 1.11981, 1.12033, 1.12522, 1.12216, 1.12377, 1.12324, 1.12461, 1.12574, 1.12705, 1.12658, 1.12722, 1.13246, 1.13469, 1.13316, 1.13675, 1.13692, 1.13673, 1.1406, 1.1404, 1.1415, 1.14102, 1.14447, 1.14366, 1.14627, 1.14963, 1.14956, 1.15136, 1.15504, 1.1547, 1.15823, 1.15755, 1.16037, 1.16358, 1.16415, 1.16482, 1.16378, 1.16859, 1.17139, 1.17354, 1.17376, 1.17752, 1.17728, 1.17952, 1.18236, 1.18143, 1.18274, 1.18704, 1.18864, 1.19143, 1.1932, 1.19388, 1.19413, 1.19416, 1.19673, 1.19781, 1.19808, 1.19978, 1.20231, 0.00357184, 0.00363944, 0.003338, 0.00351349, 0.0034292, 1.24511, 0.00347828, 1.25297, 0.00344421, 0.00349525, 0.00360462, 0.00344031, 0.00347591, 1.23053, 1.23069, 1.23261, 1.23106, 1.2295, 1.23097, 1.22961, 1.23636, 1.23716, 1.2401, 1.24051, 1.24178, 1.24299, 1.24516
0.00348905, 0.00369, 0.00338765, 0.00366353, 0.00341018, 0.00361687, 0.00324654, 0.00367309, 0.00350592, 0.00344202, 0.00350271, 0.00372994, 0.00346611, 0.0034772, 0.00364228, 0.00361525, 0.00331743, 0.00361865, 0.00339441, 0.00379501, 0.00343195, 0.00368122, 0.00369354, 0.00373858, 0.00312248, 0.00374025, 0.00347614, 0.00367756, 0.00347253, 0.00372345, 0.00357983, 0.00366664, 0.00341253, 0.00384425, 0.00327228, 0.00346024, 0.00326124, 0.88362, 0.904456, 0.00341525, 0.00335909, 0.00370328, 0.00334975, 0.00348936, 0.00329665, 0.00361902, 0.00358659, 0.00333399, 0.00344625, 0.00376106, 0.00365832, 0.00360886, 0.00363831, 0.796394, 0.795762, 0.797368, 0.79841, 0.798976, 0.799343, 0.798914, 0.799737, 0.801211, 0.792607, 0.795293, 0.00328584, 0.00338861, 0.00336321, 0.00380194, 0.00325734, 1.37561, 0.787109, 0.786474, 0.78632, 0.787385, 0.789381, 0.791442, 0.791837, 0.79404, 0.796647, 0.798955, 0.801607, 0.80887, 0.00338635, 0.817901, 0.820468, 0.821991, 0.824329, 0.826409, 0.82975, 0.83243, 0.835961, 0.0037764, 0.00350718, 0.00338433, 0.00347466, 0.00382838, 0.00338068, 0.00335932, 0.00326792, 0.00350599, 0.00345798, 0.906209, 0.908874, 0.909319, 0.909715, 0.00349261, 0.00316091, 0.933031, 0.931426, 0.932997, 0.934549, 0.93861, 0.938882, 0.933297, 0.935392, 0.937178, 0.936368, 0.940416, 0.94247, 0.943206, 0.947894, 0.942632, 0.923142, 0.949485, 0.929076, 0.938248, 0.959806, 0.915782, 0.922511, 0.925468, 0.982749, 0.923021, 0.949702, 0.918494, 0.925863, 0.927518, 0.92971, 0.924543, 0.935193, 0.930289, 0.931764, 0.936096, 0.9589, 0.941816, 0.952095, 0.955194, 0.95637, 0.954359, 0.960059, 0.95794, 0.949964, 0.948863, 0.943441, 0.950355, 0.935453, 0.934029, 0.937051, 0.969567, 0.952603, 0.949141, 0.952547, 0.967911, 0.970701, 0.941911, 0.966126, 0.988633, 0.990416, 0.998752, 0.999689, 1.0041, 0.990452, 1.01912, 0.99576, 0.999092, 1.00534, 1.01162, 1.01436, 1.01216, 1.01529, 1.01552, 1.0329, 1.04668, 1.10268, 1.09644, 1.07533, 1.07642, 1.08732, 1.04683, 1.04843, 1.02237, 1.02438, 1.02769, 1.0296, 1.03105, 1.09812, 1.05694, 1.04464, 1.04676, 1.09327, 1.09513, 1.09616, 1.09899, 1.10154, 0.00379943, 0.00340346, 0.00362773, 0.00323107, 0.00355768, 0.00380548, 0.00379653, 1.11537, 1.11482, 1.11508, 1.1164, 1.11839, 1.11937, 1.12225, 1.12073, 1.12377, 1.12306, 1.12559, 1.12661, 1.12867, 1.12827, 1.12661, 1.12661, 1.13115, 1.13342, 1.13377, 1.13871, 1.13999, 0.00357164, 1.15134, 1.14384, 1.14586, 1.14822, 0.00339824, 1.15396, 1.15296, 1.15742, 1.15532, 1.15628, 1.15707, 1.16032, 1.16094, 1.16137, 1.16127, 1.16392, 1.16556, 1.16707, 1.16766, 1.16741, 1.17085, 1.1728, 1.17452, 1.17535, 1.17834, 1.18107, 1.18234, 1.18392, 1.18836, 1.18775, 1.19077, 1.19241, 1.19435, 1.19794, 1.19895, 1.20061, 1.19968, 1.20052, 1.19898, 1.20044, 1.2027, 1.21194, 1.21381, 1.22003, 0.00344528, 0.00360997, 0.00335844, 1.2356, 1.23574, 1.23827, 1.24271, 1.24383, 1.24479, 1.24884, 1.2405, 1.24272, 1.23988, 1.23617, 1.23418, 1.23401, 1.23766, 1.23756, 1.24025, 1.2404, 1.2392, 1.23999, 1.24063, 1.24498
0.00351809, 0.00339491, 0.00362385, 0.00332791, 0.00367405, 0.00334988, 0.00350819, 0.0036815, 0.0038417, 0.00328852, 0.00347278, 0.00357203, 0.00348186, 0.00333585, 0.00342124, 0.00352962, 0.00366499, 0.00328851, 0.00363405, 0.00351305, 0.00326312, 0.00332162, 0.00364707, 0.00352611, 0.00371889, 0.00347543, 0.00334334, 0.00322383, 0.00359119, 0.00311417, 0.00367465, 0.00322384, 0.00345101, 0.00341691, 0.00359062, 0.00359237, 0.00366525, 0.00350926, 0.00372897, 0.00330525, 0.00350231, 0.00355427, 0.00367229, 0.00346162, 0.00359216, 0.919007, 0.00365251, 0.00346167, 0.00374459, 0.0032937, 0.00363835, 0.00351593, 0.00345646, 0.00338045, 0.00390454, 0.797124, 0.797287, 0.798374, 0.800508, 0.800424, 0.800836, 0.8026, 0.802844, 0.801532, 0.00352589, 0.00337005, 0.0038278, 0.00343434, 0.00329442, 0.0034297, 0.791603, 0.791732, 0.791343, 0.79105, 0.793549, 0.79353, 0.795711, 0.797013, 0.798486, 0.800961, 0.802665, 0.807391, 0.811735, 0.809929, 0.819109, 0.822128, 0.825601, 0.826568, 0.830544, 0.832573, 0.836248, 0.837338, 0.00367508, 0.00354992, 0.00335546, 0.00345904, 0.00348575, 0.00333753, 0.00339882, 0.00344059, 0.00346035, 0.886141, 0.888022, 0.00348602, 0.00326793, 0.00345598, 0.00355817, 0.00344985, 0.00375314, 0.00352749, 0.935679, 0.926476, 0.928698, 0.934975, 0.936038, 0.936922, 0.942393, 0.943066, 0.951666, 0.94702, 0.948783, 0.00323989, 1.05988, 0.946802, 0.947566, 0.9351, 0.940515, 0.944304, 0.945583, 0.948198, 0.92657, 0.927462, 0.924185, 0.939264, 0.972403, 0.977755, 0.936795, 0.981557, 0.960022, 0.931934, 0.95268, 0.954836, 0.959352, 0.957111, 0.994358, 0.995873, 0.967681, 0.957345, 0.964126, 0.940423, 0.940831, 0.942376, 0.94347, 0.949606, 0.956026, 0.963882, 0.967134, 0.97113, 0.960088, 0.950034, 0.967057, 0.9493, 0.961393, 0.961768, 0.970404, 0.96146, 0.984754, 0.973906, 0.973665, 0.989106, 0.998187, 1.00262, 1.02805, 1.02641, 1.00756, 0.996885, 1.01619, 0.990156, 1.01941, 1.02522, 1.02522, 1.03539, 1.01609, 1.03326, 1.0753, 1.07603, 1.05066, 1.04357, 1.02238, 1.02312, 1.02258, 1.07749, 1.07776, 1.07043, 1.06994, 1.071, 1.09141, 1.09331, 1.11587, 0.00344993, 0.00321101, 0.00327847, 0.00369084, 0.00351205, 0.00338571, 0.00341402, 0.00371633, 0.00353939, 0.00369481, 0.00325387, 0.00341061, 0.00344513, 0.00359446, 1.11887, 1.12091, 1.12372, 1.11834, 1.12463, 1.12234, 1.12189, 1.12377, 1.12608, 1.12735, 1.12974, 1.13156, 1.13199, 1.13336, 1.13587, 1.13624, 1.13737, 1.13804, 1.14105, 1.14322, 1.14792, 1.15015, 0.00357353, 0.00351778, 1.16033, 1.16025, 1.16062, 1.15791, 1.1553, 1.16059, 1.16179, 1.16468, 1.16264, 1.16364, 1.1649, 1.16725, 1.16701, 1.17041, 1.17074, 1.17171, 1.17721, 1.17705, 1.17841, 1.1827, 1.18413, 1.1862, 1.19061, 1.1855, 1.18562, 1.18997, 1.19173, 1.19351, 1.2019, 1.20098, 1.20314, 1.20593, 1.2041, 1.2053, 1.20488, 1.20635, 0.00333164, 1.21583, 1.21741, 1.22182, 1.22606, 0.00381002, 0.00338051, 0.00370197, 1.23833, 1.24323, 1.24762, 1.24832, 1.25055, 0.00382857, 0.003566, 0.00343492, 0.00351093, 0.0037711, 1.24239, 1.23993, 1.24036, 1.23758, 1.24051, 1.23828, 1.24174, 1.24084, 1.24463
0.00310046, 0.279227, 0.287358, 0.287471, 0.00356401, 0.00343915, 0.00326035, 0.00361859, 0.00357533, 0.00331655, 0.00356546, 0.00380072, 0.00340909, 0.00344039, 0.00337771, 0.00350992, 0.00348378, 0.00350319, 0.00360965, 0.00347645, 0.00334901, 0.00344381, 0.00350293, 0.00357845, 0.00344563, 0.00353768, 0.00352436, 0.00350985, 0.00347516, 0.00364001, 0.00367829, 0.00366266, 0.00344142, 0.00338758, 0.00331343, 0.00363244, 0.00352073, 0.00366707, 0.00338002, 0.00336521, 0.891871, 0.00345323, 0.00335439, 0.00343562, 0.00338235, 0.00340557, 0.00325498, 0.00378444, 0.0032707, 0.00354719, 0.00335155, 0.00342798, 0.00352138, 0.0034545, 0.789445, 0.790981, 0.792312, 0.793368, 0.792223, 0.793576, 0.799073, 0.802095, 0.802467, 0.803346, 0.804907, 0.805552, 0.807187, 0.00354241, 0.00327784, 0.873152, 0.00341112, 0.801997, 0.798098, 0.800275, 0.798349, 0.798304, 0.799228, 0.800167, 0.80231, 0.8026, 0.805143, 0.807834, 0.8106, 0.81269, 0.815039, 0.826657, 0.828232, 0.830272, 0.830583, 0.832098, 0.835255, 0.834837, 0.00330199, 0.00337048, 0.0035298, 0.00355862, 0.00340632, 0.0036259, 0.875469, 0.879924, 0.879386, 0.879738, 0.877856, 0.878482, 0.00339879, 0.00355225, 0.00349367, 0.00331282, 0.00381117, 0.00355979, 0.00342914, 0.00369273, 0.924904, 0.928026, 0.931869, 0.934234, 0.93842, 1.3888, 0.00327887, 0.95366, 0.958192, 0.959862, 0.962734, 0.95015, 0.95055, 0.953728, 0.951332, 0.960109, 0.960666, 0.947496, 0.960607, 0.965422, 0.965389, 0.998893, 0.957639, 0.991171, 0.934193, 0.942798, 0.942953, 0.976737, 0.996131, 1.00765, 1.01234, 0.00361714, 0.984047, 0.988101, 0.991648, 0.993591, 1.01466, 1.01571, 0.99372, 0.965383, 0.972794, 0.957452, 0.954707, 0.949786, 0.949049, 0.966178, 0.966149, 0.975756, 0.959372, 0.964313, 0.97689, 1.00758, 0.980413, 0.966745, 0.96439, 0.976913, 0.980604, 1.01685, 1.02934, 1.03027, 1.03564, 1.02413, 1.02293, 1.00782, 0.992711, 0.991625, 1.0228, 1.02334, 1.03987, 1.00714, 1.01868, 1.03928, 1.10805, 1.10909, 1.0221, 1.03124, 1.03608, 1.04364, 1.04537, 1.04639, 1.04131, 1.06456, 0.00343736, 0.00335478, 1.133, 0.00375083, 0.00321072, 0.0037492, 0.00362216, 0.0034685, 0.00343489, 0.00321462, 1.15449, 1.15858, 0.00348618, 0.00338073, 0.00358861, 1.15139, 0.00340952, 0.00356496, 0.00337526, 0.00348421, 0.00338097, 0.00340232, 0.00315206, 1.12165, 1.12208, 1.12693, 1.12665, 1.12962, 1.13129, 1.13035, 1.13076, 1.13196, 1.13336, 1.13566, 1.13577, 1.13596, 1.13736, 1.13995, 1.14317, 1.14497, 0.00323192, 0.00351567, 0.00335907, 1.1613, 1.16302, 1.16043, 1.15908, 1.16251, 1.16157, 1.16465, 1.16727, 1.16924, 1.16848, 1.16821, 1.16752, 1.16888, 1.17024, 1.17359, 1.17427, 1.17533, 1.17795, 1.1846, 1.18718, 1.19066, 1.19262, 1.19285, 1.19376, 1.19065, 1.18995, 1.19359, 1.19428, 1.19496, 1.19627, 1.19847, 1.19873, 1.20373, 1.20375, 1.20711, 1.20638, 1.20996, 1.21189, 1.21616, 1.2162, 1.21838, 1.21831, 0.00366467, 0.00346131, 0.00340787, 0.00333113, 1.24981, 1.25093, 1.25308, 1.25443, 1.25677, 1.25581, 0.00346647, 0.00333088, 1.25036, 1.25329, 0.00339038, 0.00333212, 0.00375968, 1.24744, 1.23916, 1.23873, 1.24381
0.00356819, 0.00347863, 0.286287, 0.00329581, 0.00351764, 0.00344382, 0.00379384, 0.00346885, 0.00374938, 0.00338841, 0.00360074, 0.00333532, 0.00365105, 0.0033415, 0.00348824, 0.00335029, 0.0032826, 0.00321087, 0.00352931, 0.00309453, 0.00352374, 0.00345945, 0.00360523, 0.00360048, 0.00350635, 0.00358723, 0.0036509, 0.00344456, 0.00376713, 0.489467, 0.490179, 0.00336113, 0.00380804, 0.00334315, 0.00359848, 0.00306772, 0.00372838, 0.00336947, 0.00372124, 0.584906, 0.00361643, 0.00334058, 0.00345078, 0.00341157, 0.00360865, 0.00357704, 0.00345653, 0.00334709, 0.671249, 0.670663, 0.939441, 0.00346216, 0.00346314, 0.00335944, 0.0034729, 0.003441, 0.00374609, 0.00354826, 0.00354192, 0.00343684, 0.796921, 0.00328214, 0.801087, 0.802592, 0.806038, 0.808817, 0.960418, 0.96132, 0.815113, 0.00352333, 0.814027, 0.812426, 0.811333, 0.00317929, 0.00353566, 1.34464, 1.34447, 0.805992, 0.806909, 0.807744, 0.811442, 1.38674, 0.814448, 0.817707, 0.82034, 0.823818, 0.826306, 0.826012, 0.8289, 0.830073, 0.832223, 0.832556, 0.836892, 0.838945, 0.00368027, 0.00329975, 0.00341716, 0.00334004, 0.925482, 0.875758, 0.877504, 0.875827, 0.874947, 0.876759, 0.00362232, 0.00348904, 0.00337419, 0.00346429, 0.0034795, 0.00343195, 0.903941, 0.00360097, 0.00340571, 0.00325038, 0.00337584, 0.00316304, 0.933122, 0.00333105, 0.00357544, 0.00331865, 0.948829, 0.00326149, 0.956376, 0.955543, 0.953822, 0.956035, 0.957075, 0.954676, 0.957058, 0.961315, 0.964437, 0.970415, 0.971633, 0.980759, 0.979081, 0.983957, 0.989018, 0.990552, 0.966773, 1.00123, 1.00244, 0.00335087, 1.0389, 1.04158, 1.04305, 1.049, 1.03203, 0.00337618, 1.04209, 1.04271, 1.01595, 1.00201, 1.01642, 0.990688, 0.992903, 0.995689, 0.97548, 0.962984, 0.992717, 0.972016, 0.980498, 1.00504, 0.984292, 0.994386, 0.996483, 1.03435, 1.0113, 1.00853, 0.985232, 0.999002, 0.985555, 0.984667, 0.98442, 1.06744, 1.05827, 1.07832, 1.01865, 1.02183, 1.01311, 1.01255, 1.01321, 1.06083, 1.05761, 1.01236, 1.02518, 1.03325, 1.04042, 1.05244, 1.0542, 1.07462, 1.07789, 1.08191, 1.08454, 1.08606, 1.09013, 0.00333954, 0.00371583, 0.0034063, 1.14662, 0.00329098, 1.15598, 1.15798, 1.16311, 0.00349497, 0.00341634, 0.00350321, 0.00386598, 0.00345463, 0.00355236, 0.00354101, 0.00354358, 0.00327654, 0.00369741, 0.00352813, 0.00342823, 0.00351478, 0.00353695, 0.00319191, 0.00348576, 0.00353793, 0.00348136, 1.13096, 1.13529, 1.13661, 1.13576, 1.13157, 1.13365, 1.13632, 1.13623, 1.13988, 1.13996, 1.14154, 1.14518, 1.1472, 0.00360634, 0.00344462, 0.00365708, 1.15754, 1.16297, 1.16368, 1.16692, 1.16622, 1.16529, 1.16781, 1.17172, 1.17341, 1.17189, 1.17142, 1.17606, 1.17666, 1.17854, 0.00333983, 0.00361371, 1.18729, 1.18505, 1.1882, 1.18945, 1.19126, 1.17772, 1.19238, 1.1899, 1.18639, 1.18963, 1.19146, 1.19579, 1.1959, 1.19703, 1.19874, 1.19978, 1.20283, 1.20505, 1.20718, 1.20936, 1.20845, 1.21038, 1.21266, 1.21514, 1.21628, 1.22285, 1.22211, 0.003665, 0.00331782, 0.00376287, 0.00338374, 0.00360986, 0.00339407, 0.00357732, 1.26322, 1.2658, 1.26836, 1.27087, 1.26184, 1.26374, 1.26787, 1.26806, 1.25871, 0.00375903, 0.00346818, 1.24057, 1.24659
0.00329014, 0.00347093, 0.00341463, 0.00361335, 0.00350384, 0.00339301, 0.00344874, 0.00338536, 0.00378094, 0.0036325, 0.00322446, 0.00341185, 0.00338145, 0.00338772, 0.00359438, 0.0036114, 0.00358705, 0.00356345, 0.00335775, 0.00364145, 0.00328406, 0.00361437, 0.00337157, 0.00374, 0.00342205, 0.00351896, 0.00335918, 0.0034647, 0.00353185, 0.00365509, 0.0033255, 0.00351287, 0.00329758, 0.00339892, 0.0034558, 0.00351332, 0.00348477, 0.00353158, 0.00334564, 0.00353428, 0.00328211, 0.00358522, 0.00345767, 0.00345609, 0.0033254, 0.0036099, 0.00375918, 0.00360785, 0.0034497, 0.00354362, 0.00349719, 0.00359574, 0.00333222, 0.00360563, 0.00331609, 0.00403958, 0.00316382, 0.00350313, 0.00349307, 0.00355324, 0.00327629, 0.00363214, 0.00357843, 0.00338135, 0.811795, 0.813087, 0.818242, 1.05118, 0.00351609, 0.00377826, 0.822196, 0.822026, 0.818996, 0.821194, 0.818404, 0.816877, 0.815583, 0.814438, 0.815025, 0.812143, 0.813116, 0.816208, 0.818654, 0.821777, 0.82422, 0.82622, 0.828833, 0.833624, 0.834506, 0.832196, 0.835326, 0.835736, 0.836651, 0.8379, 0.840103, 0.845559, 0.00339096, 0.00346111, 0.00354579, 0.00338463, 0.00335468, 0.874872, 0.877183, 0.879067, 0.880154, 0.883032, 0.883403, 0.0037007, 0.889578, 0.892241, 0.897642, 0.898849, 0.00358322, 0.00375691, 0.910767, 0.00352502, 0.00321468, 0.00393744, 0.00317002, 0.00337377, 0.00341195, 0.00399599, 0.0031901, 0.00352621, 0.954246, 0.956135, 0.954329, 0.958004, 0.957079, 0.960361, 0.966462, 0.967741, 0.972953, 0.975749, 0.976979, 0.981009, 0.985307, 0.986913, 0.978074, 0.96692, 0.0033379, 0.00366931, 0.00352484, 1.02553, 0.00354071, 1.01884, 1.01961, 1.01539, 1.00193, 1.00595, 1.01149, 1.0128, 1.02894, 1.03016, 1.02971, 0.995723, 0.984839, 0.987668, 1.01279, 0.988845, 1.00946, 1.00881, 1.02152, 1.05329, 1.04883, 1.04737, 1.04068, 1.04136, 1.04352, 1.0126, 1.01537, 1.01927, 1.05332, 1.03864, 1.06705, 1.06661, 1.06651, 1.06254, 1.06346, 1.06787, 1.04318, 1.0495, 1.05026, 1.0562, 1.08253, 1.07719, 1.07862, 1.08872, 1.09455, 1.08782, 1.08123, 1.08393, 1.08687, 1.08758, 1.09104, 1.09351, 0.00340726, 0.00330321, 0.00311947, 0.00358733, 0.00348991, 0.00350498, 0.00318071, 0.0036492, 0.00335332, 1.1745, 0.00338805, 0.00358645, 1.18739, 1.18951, 1.19111, 0.00374492, 0.00349712, 0.00387123, 0.0034814, 0.00370874, 0.00365904, 0.00335319, 0.00340458, 0.00344935, 0.00340177, 0.00342582, 0.00355958, 0.00347896, 1.13347, 1.13992, 0.00335817, 1.14237, 1.14251, 1.14303, 1.1427, 1.14107, 1.14597, 1.14787, 1.14957, 0.00350156, 1.1551, 1.15863, 1.16218, 1.16117, 1.16544, 1.16462, 1.16752, 1.16712, 1.16795, 1.17059, 1.17305, 1.17344, 1.17351, 1.17633, 1.17835, 0.00348814, 0.00336377, 1.1888, 1.19442, 1.18722, 1.18635, 1.18402, 1.18484, 1.18348, 1.18519, 1.19087, 1.19178, 1.19327, 1.19813, 1.20031, 1.20559, 1.20827, 1.21101, 1.21188, 1.21225, 1.20982, 1.20651, 1.21034, 1.21118, 0.00336723, 1.21612, 1.21715, 1.22026, 1.22299, 1.22766, 1.22993, 0.00337786, 0.00356261, 0.00324758, 0.00360303, 0.00351247, 0.00371336, 1.25997, 1.26211, 1.26754, 1.26746, 1.26984, 1.27099, 1.2716, 1.26936, 1.2691, 1.26997, 0.00324239, 1.24804
0.00362726, 0.00347964, 0.00344432, 0.00336133, 0.00342786, 0.00347214, 0.00361659, 0.0034776, 0.00339125, 0.00339887, 0.00352271, 0.00342967, 0.0034296, 0.00353559, 0.00345227, 0.00352661, 0.00330711, 0.00340765, 0.00346418, 0.00345196, 0.00389969, 0.0035631, 0.00360838, 0.00328778, 0.00341867, 0.00372553, 0.772174, 0.00326537, 0.00366785, 0.00342177, 0.00351245, 0.00319709, 0.0035773, 0.00336594, 0.00337928, 0.00347193, 0.00341482, 0.00345226, 0.00375802, 0.0036556, 0.00368335, 0.0036179, 0.00359453, 0.0034339, 0.00351809, 0.00343826, 0.00342433, 0.0033828, 0.00356339, 0.00360508, 0.00367093, 0.00345646, 0.00352783, 0.00343831, 0.00344299, 0.0032621, 0.00342656, 0.00320291, 0.00367694, 0.00339121, 0.00354885, 0.00345371, 0.00325161, 0.00359939, 1.05621, 0.00348722, 0.00350144, 0.00327544, 0.00354157, 0.82688, 0.826078, 0.826543, 0.825356, 0.826493, 0.827112, 0.82708, 0.00338078, 0.00354105, 0.00348354, 0.00363745, 0.00359287, 0.00349449, 0.827477, 0.823852, 0.824978, 0.831916, 0.833902, 0.00326574, 0.838891, 0.00342521, 0.00371372, 0.844288, 0.00331712, 0.00342768, 0.841053, 0.843609, 0.846593, 0.846969, 0.847343, 0.849066, 0.00355879, 0.863335, 0.00372585, 0.00335241, 0.00360141, 0.877152, 0.880173, 0.880944, 0.00346641, 0.00330298, 0.894221, 0.899616, 0.902424, 0.904671, 0.903819, 0.9059, 0.910374, 0.912806, 0.00340726, 0.919008, 0.922718, 0.00338417, 0.00340545, 0.00340237, 0.00345498, 0.00361733, 0.00340291, 0.00354474, 0.958115, 0.958439, 0.00340901, 0.966672, 0.970936, 0.973289, 0.979906, 0.981287, 0.98441, 0.986905, 0.990198, 0.991271, 0.991849, 0.984951, 0.987595, 0.987681, 0.990722, 0.995796, 0.993099, 0.00351801, 1.01541, 1.01768, 1.01945, 1.01973, 1.02122, 1.02148, 1.02432, 1.02631, 1.02738, 1.02878, 1.02916, 1.02545, 1.02394, 1.02533, 1.03003, 1.03258, 1.03542, 1.03546, 1.03674, 1.03925, 1.04253, 1.05059, 1.05359, 1.05658, 1.05882, 1.06249, 1.06295, 1.06629, 1.06725, 1.06905, 1.06996, 1.07321, 1.07592, 1.07644, 1.07583, 1.07812, 1.0783, 1.08029, 1.07922, 1.08102, 0.0034534, 1.09021, 1.08874, 1.08978, 1.08946, 1.08957, 1.09104, 1.09082, 1.09522, 0.00321207, 0.00359113, 0.00334125, 0.00341705, 1.15749, 1.15925, 0.0035088, 1.16946, 1.17116, 0.00357375, 0.00344892, 1.19593, 0.00340047, 1.19622, 1.19687, 1.19919, 1.20218, 1.2009, 1.20157, 1.19968, 0.0034923, 0.00338982, 0.00343501, 1.18631, 0.00330061, 0.00368285, 0.00351364, 0.00347248, 0.00365244, 0.00346567, 0.00364116, 0.00348538, 0.00339959, 1.14782, 1.14975, 1.15132, 0.00342186, 1.15312, 1.151, 1.15328, 1.15567, 1.15778, 1.15927, 0.0033705, 1.16991, 1.17079, 1.16856, 1.16926, 1.17261, 1.17565, 1.17529, 1.17508, 1.17695, 1.18121, 1.1803, 1.18464, 1.1861, 0.0034218, 0.00349121, 0.00360167, 0.00325728, 0.00333002, 1.18718, 1.18937, 1.19175, 1.19274, 1.19428, 1.20011, 1.20568, 1.20811, 1.2139, 1.21155, 1.21502, 1.21572, 1.2119, 1.21306, 1.21379, 1.21383, 1.21037, 1.21286, 1.21851, 1.21727, 0.00367087, 0.0034356, 1.22891, 1.23273, 1.23401, 1.23781, 1.23996, 1.24055, 1.24063, 0.00337454, 0.00343646, 1.2483, 1.26044, 0.00335899, 1.26537, 1.2683, 1.26788, 1.26792, 1.26596, 1.26697, 1.2691
0.00334592, 0.0036925, 0.00342878, 0.00343033, 0.00347067, 0.00345622, 0.00333741, 0.00359625, 0.00325171, 0.00344237, 0.00320523, 0.00378689, 0.0033542, 0.00355955, 0.00341312, 0.0035928, 0.00340972, 0.00365099, 0.00335477, 0.00364576, 0.00340122, 0.00353251, 0.00321967, 0.00358274, 0.00330452, 0.00362541, 0.00360906, 0.00348484, 0.00304549, 0.00363422, 0.00320358, 0.00366756, 0.0032424, 0.00357464, 0.00344045, 0.00343541, 0.00327383, 0.00351675, 0.00329851, 0.00344461, 0.00328527, 0.00352972, 0.00355225, 0.00380189, 0.00333093, 0.00345806, 0.00357241, 0.00363213, 0.00340051, 0.00368875, 0.00348271, 0.00335677, 0.00350472, 0.00339027, 0.00336218, 0.00378638, 0.00330719, 0.00367857, 0.00328104, 0.00345386, 0.0034807, 0.754928, 0.754383, 0.00375639, 0.00329201, 0.00367698, 0.00372938, 0.00366047, 0.00340785, 0.828519, 0.827982, 0.827011, 0.826061, 0.826523, 0.828008, 0.829722, 0.832234, 0.833741, 0.833367, 0.83303, 0.834969, 0.835194, 0.835392, 0.83606, 0.00332494, 0.839941, 0.00343367, 0.840773, 0.842079, 0.843103, 0.848152, 0.850472, 0.851488, 0.853133, 0.854658, 0.0036188, 0.846995, 0.850753, 0.850991, 0.853102, 0.857828, 0.86095, 0.863655, 0.864227, 0.00331699, 0.878235, 0.880123, 0.881249, 0.881844, 0.883664, 0.886542, 0.887956, 0.00340226, 0.903743, 0.904413, 0.90191, 0.904868, 0.905434, 0.909771, 0.910977, 0.00319379, 0.00363837, 0.00352054, 0.00365561, 0.00345447, 0.0036101, 0.00320944, 0.932535, 0.937442, 0.939397, 0.00331528, 0.00361143, 0.00305974, 0.00338063, 0.00347699, 0.00342536, 0.00334584, 0.987679, 0.990865, 0.992663, 0.994929, 0.997632, 0.998024, 0.998033, 0.999398, 1.00216, 1.00353, 1.00568, 1.00722, 1.01076, 0.00324842, 1.01998, 1.02288, 1.02567, 1.02558, 1.02791, 1.02946, 1.03253, 1.03429, 1.03869, 1.03703, 1.03913, 1.03934, 1.04103, 1.04087, 1.04387, 1.04357, 1.04636, 1.04713, 1.04859, 1.05166, 0.00364312, 1.05668, 1.05813, 1.06304, 1.06238, 1.0651, 1.06895, 1.07039, 1.07008, 1.06998, 1.06544, 1.07132, 1.07158, 1.07441, 1.07375, 1.07564, 1.0787, 1.07768, 1.08154, 0.00349583, 1.08865, 1.08957, 1.09095, 1.09119, 1.09118, 1.09363, 1.09555, 1.0978, 0.00340828, 0.00367137, 0.00339553, 0.00348586, 0.00355707, 0.00312831, 0.00350938, 0.00353237, 0.00339749, 0.00340996, 0.00359616, 0.00322808, 0.0036802, 1.19775, 1.19866, 1.20057, 1.20234, 1.20475, 1.20857, 1.20229, 0.00351681, 0.0034915, 0.00363025, 0.00342017, 1.19229, 0.00320043, 0.00364788, 0.00333746, 0.00342014, 0.00345765, 0.00365861, 0.00328479, 0.00371358, 1.15978, 0.00356537, 0.00307655, 1.15539, 0.00328325, 1.15397, 0.00330384, 0.00359944, 0.00330393, 1.16636, 1.16929, 1.17, 1.17025, 1.17378, 1.17228, 1.17764, 1.17629, 1.17603, 1.17728, 1.17889, 1.18213, 0.0035069, 0.003328, 0.00345931, 1.19775, 1.20135, 1.20249, 1.1919, 1.19463, 1.19468, 1.19545, 1.19773, 0.00340288, 1.20381, 1.2071, 1.2102, 1.212, 1.2083, 1.21, 1.21289, 1.20674, 1.20868, 1.20627, 1.20777, 1.2103, 1.21056, 1.21268, 0.00327013, 0.00344013, 0.00369731, 0.00338337, 0.00364728, 0.00353127, 1.23277, 0.00324192, 0.00356157, 0.00326318, 0.00353372, 0.00325189, 1.24047, 0.00336563, 0.00358065, 0.00347858, 0.00334168, 1.26526, 1.26321, 1.26419, 1.26511
0.00341729, 0.00322206, 0.00376467, 0.00319779, 0.00362909, 0.00336454, 0.00352064, 0.00313172, 0.00349381, 0.00342638, 0.00346483, 0.00338545, 0.00358133, 0.00342716, 0.00364294, 0.00315918, 0.00344975, 0.00333686, 0.00354867, 0.00305814, 0.0036296, 0.00331005, 0.00357189, 0.00329273, 0.00342352, 0.00352448, 0.00367557, 0.00330248, 0.00332352, 0.0035, 0.00331618, 0.00315467, 0.00347805, 0.00338869, 0.00357096, 0.00333678, 0.00352101, 0.00341011, 0.00338513, 0.00325739, 0.00351054, 0.00328172, 0.00344556, 0.00337407, 0.00323318, 0.00347055, 0.00333283, 0.00330232, 0.00334656, 0.00332629, 0.00368532, 0.00339431, 0.00359033, 0.00355397, 0.00357669, 0.00331852, 0.00334314, 0.00343952, 0.00355895, 0.00359051, 0.00355912, 0.743066, 0.744519, 0.00330197, 0.00366463, 0.00319215, 0.00387795, 0.00335017, 0.00362944, 0.822064, 0.822293, 0.822174, 0.822994, 0.822744, 0.824922, 0.0033664, 0.832949, 0.836113, 0.838074, 0.838529, 0.839221, 0.839127, 0.839975, 0.84075, 0.866905, 0.843571, 0.845783, 0.00337667, 0.847495, 0.848612, 0.84973, 0.850711, 0.854798, 0.856558, 0.858287, 0.859253, 0.00377342, 0.0034071, 0.00357966, 0.00354715, 0.00365641, 0.865869, 0.861657, 0.865662, 0.866999, 0.863518, 0.864568, 0.96271, 0.00346438, 0.88232, 0.884776, 0.88328, 0.888329, 0.00337366, 0.00341568, 0.901272, 0.903091, 0.904397, 0.906821, 0.908005, 0.907839, 0.910329, 0.912448, 0.915067, 0.914475, 0.00326263, 0.00359775, 0.00347742, 0.00351573, 0.00334527, 0.00360596, 0.00339865, 0.00352362, 0.00343542, 0.00353101, 0.00323205, 0.968783, 0.971904, 0.991061, 0.988249, 0.990778, 0.994892, 0.998987, 1.00128, 1.00212, 1.00334, 1.00402, 0.999797, 1.00407, 1.00383, 1.00559, 0.00342894, 1.0139, 1.01614, 0.00349102, 1.02461, 1.02488, 1.02624, 1.03335, 1.03603, 1.03913, 1.03977, 1.04069, 1.04379, 1.04393, 1.04413, 1.04724, 1.04655, 1.04776, 1.04995, 1.05017, 1.05303, 1.05358, 1.05572, 1.05951, 1.06245, 1.06297, 1.06575, 1.06808, 1.06745, 1.07124, 1.0682, 1.06689, 1.06872, 1.07039, 1.07295, 1.07199, 1.07401, 1.07674, 1.07922, 1.07989, 1.0827, 1.08398, 1.08794, 1.09207, 1.09479, 1.09648, 1.09911, 0.00358913, 1.21552, 1.10509, 0.00326374, 0.00343535, 0.00351744, 0.00336011, 0.00335393, 0.00354696, 0.00346197, 1.16636, 1.16938, 1.17424, 0.00350853, 0.00358505, 0.00340517, 0.00352428, 0.00338103, 1.2014, 1.20455, 1.20192, 0.00316733, 0.00349637, 1.20295, 1.20707, 0.00343777, 0.00363247, 0.00339497, 0.0034681, 0.00322818, 0.00354863, 0.00330184, 0.00370672, 0.00330727, 0.00353011, 1.20095, 1.24602, 0.00351981, 1.16527, 0.0036298, 1.16843, 1.17043, 0.00354339, 0.00333881, 1.17247, 1.17356, 1.17466, 1.17411, 1.17632, 1.17815, 1.17912, 1.17973, 1.17437, 1.17984, 1.18792, 1.17909, 0.00315967, 1.18256, 1.18853, 1.19003, 0.00381973, 0.00342095, 1.19174, 1.19276, 1.19466, 1.19679, 1.19816, 1.19988, 0.00343946, 1.20366, 1.20503, 1.2042, 1.20711, 1.20896, 1.2084, 1.20891, 1.20995, 1.20652, 1.20545, 1.20579, 1.21352, 1.21359, 1.2166, 1.21613, 1.21943, 1.22124, 1.21932, 1.22118, 1.22515, 1.22536, 1.22759, 1.22788, 1.23102, 1.22974, 1.23362, 1.23628, 1.23955, 0.00320603, 0.00358672, 0.00338627, 0.00361424, 1.25821
0.00317125, 0.00337897, 0.00336831, 0.00356113, 0.00335442, 0.00351257, 0.00349184, 0.00357589, 0.00333605, 0.00324145, 0.0034337, 0.00361091, 0.0034865, 0.00341957, 0.00339891, 0.00347185, 0.00346974, 0.00363921, 0.00338201, 0.00348966, 0.00351184, 0.00332673, 0.00337961, 0.00344438, 0.00331394, 0.00358432, 0.00341848, 0.00366725, 0.00348513, 0.00329251, 0.00349752, 0.00345988, 0.00354812, 0.00368557, 0.00336226, 0.00357353, 0.00315679, 0.00336959, 0.00338232, 0.00354034, 0.00321354, 0.0034821, 0.0034957, 0.00343982, 0.0034726, 0.00337981, 0.00337075, 0.00323824, 0.00309786, 0.00329726, 0.00337584, 0.60325, 0.601108, 0.600358, 0.00329101, 0.00345756, 0.00348754, 0.00345799, 0.00344451, 0.00335735, 0.0032707, 0.00326969, 0.00349874, 0.00361784, 0.00345147, 0.00336786, 0.00344504, 0.00342823, 0.00343896, 0.0033194, 0.0032392, 0.821643, 0.822217, 0.822949, 0.825103, 0.00342062, 0.00329684, 0.835687, 0.839728, 0.841754, 0.842766, 0.844317, 0.845802, 0.846544, 0.867977, 0.846186, 0.849596, 0.850848, 0.852366, 0.85524, 0.855712, 0.858643, 0.859178, 0.859923, 0.861637, 0.863847, 0.865871, 0.86681, 0.00338233, 0.00307596, 0.00336753, 0.00362595, 0.00337218, 0.862413, 0.866172, 0.868679, 0.869275, 0.871485, 0.87479, 0.878562, 0.886851, 0.886798, 0.887222, 0.888004, 0.891855, 0.00345676, 0.00335842, 0.89949, 0.89983, 0.891927, 0.90337, 0.909003, 0.908655, 0.908417, 0.0033892, 0.913347, 0.00334406, 0.00340115, 0.00363283, 0.00378513, 0.00326083, 0.00351747, 0.00341449, 0.937941, 0.940074, 0.950218, 0.00325369, 0.00351291, 0.00363956, 0.00345162, 0.978886, 0.981151, 0.00320539, 0.00367836, 0.0032571, 0.00354451, 0.00356768, 0.992525, 0.99733, 1.00229, 1.00339, 1.00694, 1.00798, 1.01074, 1.01163, 1.01541, 0.00346126, 1.02172, 0.00319707, 0.00332886, 0.00338688, 1.04225, 1.04363, 1.04304, 1.04118, 1.04151, 1.04075, 1.04022, 1.04257, 1.04595, 1.04711, 1.04965, 1.05182, 1.05363, 0.00328711, 1.06054, 1.06243, 1.06387, 1.06334, 1.06464, 1.06477, 1.06822, 1.06849, 1.06867, 1.06808, 1.07208, 1.07339, 1.07546, 1.0772, 1.07979, 1.08095, 1.08332, 1.08404, 1.08567, 0.00340649, 1.09007, 1.09469, 1.09617, 0.00352756, 0.00344815, 0.00354438, 0.00357687, 0.00317351, 0.00340311, 0.00339035, 0.0034383, 0.00331036, 0.00333998, 0.00338114, 0.00364741, 0.00344967, 1.16978, 0.00349509, 0.00360036, 0.00320646, 0.0036088, 0.00345631, 0.00348089, 0.00354423, 0.00351947, 1.2049, 1.20962, 1.20985, 1.21218, 1.21559, 1.21644, 0.00326604, 0.00348397, 0.00331164, 0.00332497, 0.0034728, 0.00371927, 0.00333276, 0.00362392, 0.00339566, 1.17389, 1.17335, 0.00353679, 0.00354377, 0.00328636, 0.00346523, 0.00359593, 0.00319465, 1.1804, 1.18341, 1.18539, 1.18568, 1.18016, 1.18095, 1.17896, 1.1763, 1.17997, 1.18092, 1.18076, 1.18251, 1.18451, 1.18728, 1.18729, 1.18892, 1.19166, 1.19456, 1.19157, 1.19336, 1.19367, 1.19312, 1.19282, 1.19751, 1.19768, 1.20029, 1.19999, 1.20503, 1.20655, 1.20664, 1.2089, 1.20942, 1.20753, 1.21023, 1.21038, 1.21225, 1.21546, 1.21552, 1.21584, 1.21863, 1.22064, 1.22435, 1.22309, 1.22512, 1.22781, 1.22843, 1.23096, 1.23107, 1.23089, 1.234, 1.2355, 1.23735, 1.23725, 1.23979, 1.24592, 1.2451, 1.24636
0.00354203, 0.00336894, 0.0034235, 0.00332771, 0.003385, 0.00331498, 0.00350324, 0.00334381, 0.00352965, 0.00337532, 0.00351804, 0.00327775, 0.00341942, 0.00345025, 0.00349995, 0.00318859, 0.00352624, 0.00330332, 0.00371735, 0.0033219, 0.362483, 0.362965, 0.00329127, 0.00335938, 0.00383898, 0.00327722, 0.00344822, 0.00333474, 0.00329657, 0.00336139, 0.00352599, 0.00349641, 0.00368504, 0.00350602, 0.00363987, 0.00328711, 0.00333254, 0.0033861, 0.0034877, 0.00332579, 0.0035569, 0.0034218, 0.00354928, 0.00340683, 0.00354871, 0.00326868, 0.0034894, 0.00345521, 0.00359479, 0.00356657, 0.00360776, 0.00312701, 0.580733, 0.00328494, 0.00368244, 0.00325218, 0.00352195, 0.00337131, 0.00367851, 0.00342307, 0.0035477, 0.00341072, 0.00366467, 0.00358096, 0.00364903, 0.00328272, 0.00336129, 0.00309322, 0.0034665, 0.00338406, 0.00346474, 0.00352718, 0.00321198, 0.00334601, 0.00371737, 0.00314968, 0.832218, 0.834548, 0.836842, 0.00345282, 0.00381771, 0.848931, 0.850095, 0.852183, 0.852665, 0.854513, 0.855945, 0.857172, 0.858803, 0.859126, 0.859111, 0.860461, 0.862677, 0.862575, 0.864896, 0.865981, 0.866388, 0.869464, 0.870523, 0.00347063, 0.875872, 0.876982, 0.876553, 0.877096, 0.879231, 0.879778, 0.00345697, 0.875446, 0.876361, 0.878016, 0.879758, 0.880689, 0.886438, 0.888444, 0.890849, 0.890641, 0.893801, 0.895976, 0.898462, 0.897341, 0.900682, 0.89914, 0.903128, 0.903655, 0.905229, 0.906943, 0.908905, 0.913448, 0.915032, 0.917701, 0.92047, 0.923236, 0.00355771, 0.93618, 0.935233, 0.937629, 0.00374462, 0.00353598, 0.00363917, 0.00333343, 0.00356797, 0.00340002, 0.00376995, 0.972201, 0.974073, 0.977503, 0.00360951, 0.00344236, 0.984471, 0.00316477, 0.992329, 0.00319388, 1.00499, 0.00340107, 1.01162, 1.01205, 1.01326, 0.00342534, 1.01951, 0.00328105, 0.00342559, 1.04232, 1.04078, 1.04418, 1.04083, 1.03875, 1.03953, 1.04256, 1.043, 1.04607, 1.04919, 1.05149, 1.0536, 1.05022, 1.05254, 1.05377, 1.05846, 0.00339486, 1.06294, 0.00324174, 1.06552, 1.06497, 1.06806, 1.07188, 1.07355, 1.07383, 1.07643, 1.07748, 1.08028, 1.08074, 1.08253, 1.08198, 1.08567, 1.08744, 1.08776, 1.08971, 1.09225, 1.09566, 1.09543, 0.00332817, 1.10339, 0.00340808, 0.00368389, 0.00343553, 1.11385, 1.11757, 0.00381185, 0.00343199, 0.00382206, 0.00338467, 0.00360777, 0.00324623, 0.00341937, 0.00334257, 1.14503, 1.1463, 0.00368714, 0.00340938, 0.00342994, 0.00338507, 0.00371309, 0.00332747, 0.00362809, 0.00353662, 0.00362112, 0.00337713, 1.21761, 0.0032917, 0.00372696, 0.00349917, 0.00349976, 0.00330827, 0.00351941, 1.18192, 1.18384, 0.00327975, 1.18333, 0.00332779, 0.00350065, 0.00325977, 0.00356296, 0.00327027, 0.00343107, 0.00346014, 0.00349948, 0.00345872, 1.17432, 1.17701, 1.17432, 1.17555, 1.17944, 1.18195, 1.18184, 1.1827, 1.18225, 1.1909, 1.19198, 1.19321, 1.19179, 1.19593, 0.0036378, 1.20268, 1.20602, 1.20764, 1.20155, 1.202, 1.20022, 1.20165, 1.20233, 1.20313, 1.20616, 1.20957, 1.21474, 1.21191, 1.21241, 1.21311, 1.21557, 1.21476, 1.21555, 1.21582, 1.21918, 1.21888, 1.22401, 1.22348, 1.22937, 1.22739, 1.23275, 1.24053, 1.23477, 1.23397, 1.2364, 1.23499, 1.23046, 1.2352, 1.23695, 1.23686, 1.24104, 1.24197, 1.2406, 1.24222
0.00356218, 0.0034441, 0.00349115, 0.00358859, 0.00333271, 0.00362604, 0.00341423, 0.00347, 0.00357066, 0.00350843, 0.0033031, 0.00344404, 0.00339573, 0.00366976, 0.00327243, 0.00357827, 0.00329116, 0.00375458, 0.00339628, 0.0032952, 0.00308247, 0.00345908, 0.00331941, 0.0034808, 0.0032952, 0.0036334, 0.00337505, 0.00345662, 0.00326027, 0.00336528, 0.0033452, 0.00344542, 0.00347942, 0.00330102, 0.00352039, 0.00363032, 0.0033156, 0.00374184, 0.00325956, 0.00353048, 0.00354917, 0.0034916, 0.00342741, 0.00339144, 0.00345775, 0.0034159, 0.00353597, 0.00341038, 0.00336181, 0.00383762, 0.00340105, 0.00355559, 0.00330273, 0.00337701, 0.00348361, 0.00334333, 0.601202, 0.00355155, 0.00329243, 0.00352482, 0.00338815, 0.00347415, 0.00332197, 0.00336593, 0.00324988, 0.00335762, 0.00357293, 0.00353874, 0.0033374, 0.734977, 0.740869, 0.760785, 0.00338015, 0.00378773, 0.00331461, 0.00346437, 0.0034187, 0.00352286, 0.00337968, 0.841844, 0.00363717, 0.00354708, 0.00349339, 0.00363473, 0.857582, 0.859282, 0.85928, 0.860393, 0.861368, 0.863124, 0.864204, 0.86403, 0.866195, 0.867659, 0.868274, 0.867774, 0.868823, 0.870883, 0.871033, 0.875, 0.877224, 0.878795, 0.880213, 0.877733, 0.879908, 0.882135, 0.881522, 0.883835, 0.883946, 0.878214, 0.880494, 0.882462, 0.883663, 0.88411, 0.887987, 0.891419, 0.890832, 0.894261, 0.894844, 0.894648, 0.895973, 0.896016, 0.898322, 0.00341633, 0.00345099, 0.903419, 0.904423, 0.0032754, 0.00331077, 0.00349128, 0.0034431, 0.00330909, 0.0034712, 0.932036, 0.935155, 0.936016, 0.00330765, 0.00327761, 0.00342071, 0.00319814, 0.00335169, 0.960614, 0.962484, 0.00346747, 0.00338866, 0.00352205, 0.00326141, 0.97952, 0.981815, 0.984399, 0.986732, 0.990086, 0.00335297, 0.996784, 0.00349453, 0.0034832, 0.00337702, 0.00343306, 0.00355813, 1.02656, 1.02966, 1.03972, 1.04138, 1.04319, 1.04621, 1.04331, 1.04524, 1.04528, 1.04491, 1.04413, 1.04627, 1.04754, 1.04922, 1.0527, 1.05367, 1.05475, 1.05641, 1.0574, 1.06202, 0.00363187, 0.00362449, 1.07377, 1.07589, 1.07367, 1.0758, 1.07515, 1.07772, 1.08067, 1.08045, 1.08031, 1.08437, 1.08521, 1.0879, 1.08821, 1.08872, 1.09255, 1.09425, 1.0967, 1.09768, 1.09843, 1.10109, 1.10334, 0.00334721, 1.10964, 1.11205, 1.11348, 1.11719, 1.11948, 1.12183, 1.12418, 1.12584, 1.13054, 1.13234, 1.13402, 0.00352213, 0.00374649, 0.00342143, 0.00350197, 0.00342301, 0.00372927, 1.16861, 1.17075, 0.00346908, 0.00372681, 0.00345153, 1.20562, 1.20777, 0.00359027, 0.00343877, 0.0034757, 0.00359135, 0.00359701, 0.00339767, 0.00351107, 0.00334342, 0.00379356, 0.00354034, 1.2018, 1.20461, 1.2052, 1.20358, 0.00329835, 0.00361231, 0.00354561, 0.00331572, 0.00334072, 1.17582, 1.17687, 1.17779, 1.17906, 1.1789, 1.18103, 1.18023, 1.18429, 1.18497, 0.0036554, 1.19188, 1.19215, 1.19865, 1.19891, 1.19935, 1.20149, 1.19907, 1.2011, 1.20072, 1.20245, 1.20344, 1.20418, 1.2051, 1.20533, 1.20836, 1.21022, 1.21284, 1.21475, 1.21478, 0.00343342, 0.00359142, 0.00371082, 1.21948, 1.2222, 1.22104, 1.22507, 1.22663, 1.2297, 1.23258, 1.23508, 1.23589, 1.2373, 1.2339, 1.23852, 1.23811, 1.23374, 1.23102, 1.23404, 1.2398, 1.23728, 1.23956, 1.24076, 1.23842, 1.24525
0.00335743, 0.00352862, 0.00364925, 0.003387, 0.0034317, 0.0033777, 0.00348479, 0.00324718, 0.00352619, 0.00343298, 0.00345486, 0.0032815, 0.00368423, 0.00336795, 0.00344603, 0.00332641, 0.00365052, 0.00330992, 0.00366564, 0.00320808, 0.00339119, 0.00342854, 0.00340064, 0.00330816, 0.00341555, 0.00337128, 0.00341875, 0.0031935, 0.003473, 0.00343891, 0.00346852, 0.00367077, 0.00357638, 0.00326765, 0.00379455, 0.00327273, 0.0034012, 0.00352994, 0.0034973, 0.00369399, 0.00382271, 0.00331688, 0.00352781, 0.00331347, 0.00332904, 0.00374094, 0.0037988, 0.0033935, 0.00355806, 0.00341563, 0.00363446, 0.00361467, 0.00349499, 0.00336705, 0.578217, 0.581098, 0.58242, 0.582349, 0.003443, 0.00361121, 0.00341937, 0.00370417, 0.0034527, 0.00325188, 0.00356245, 0.00338007, 0.00352428, 0.0035385, 0.00347684, 0.00350844, 0.00348991, 0.743396, 0.00339491, 0.00355346, 0.00347063, 0.0034275, 0.00353468, 0.0032864, 0.00363912, 0.00310132, 0.00333904, 0.00362404, 0.00378706, 0.00329173, 0.00346742, 0.856886, 0.859032, 0.859646, 0.86236, 0.865166, 0.865238, 0.864811, 0.867654, 0.869931, 0.867459, 0.868016, 0.0036471, 0.87456, 0.875649, 0.876635, 0.87682, 0.879613, 0.879979, 0.88034, 0.880607, 0.881905, 0.884398, 0.884903, 0.884717, 0.886342, 0.887106, 0.889535, 0.884804, 0.886574, 0.887089, 0.88856, 0.888968, 0.890724, 0.891971, 0.892859, 0.89251, 0.893695, 0.893713, 0.893946, 0.896128, 0.899532, 0.904551, 0.905613, 0.907497, 0.908302, 0.00344125, 0.00335546, 0.0036992, 0.00338807, 0.930817, 0.934232, 0.934131, 0.929781, 0.933793, 0.946838, 0.950085, 0.953111, 0.00363595, 0.00338537, 0.9638, 0.966057, 0.968004, 0.00345414, 0.00347641, 0.981102, 0.981954, 0.9839, 0.988095, 0.00364639, 0.00337748, 0.00348316, 1.00465, 0.00351723, 1.0099, 0.00335544, 0.00375379, 1.03883, 1.04162, 1.04314, 1.04392, 1.0307, 1.03619, 1.03616, 0.00375303, 0.00357551, 1.04781, 1.0475, 1.04751, 1.05095, 1.05322, 1.0554, 1.05754, 1.05986, 1.06129, 1.06443, 1.06638, 1.07128, 1.07388, 1.07492, 1.07517, 1.07811, 1.08019, 1.08278, 1.0839, 1.0858, 1.08764, 1.09273, 1.09423, 1.08621, 1.09044, 1.0912, 1.09234, 1.09574, 1.09673, 1.09736, 1.09957, 1.10293, 1.10499, 1.10784, 1.1102, 1.11773, 1.11446, 1.11686, 1.11919, 1.12123, 0.00366491, 0.00337689, 1.13202, 0.00358286, 0.00334317, 0.00356585, 0.00355747, 1.14529, 1.14972, 1.15162, 0.00332835, 0.00344826, 0.00361979, 0.00356338, 1.19856, 0.00339996, 0.00345432, 0.00333118, 0.0034337, 0.00344986, 0.00353686, 0.00329738, 0.00356032, 0.00347059, 0.0034101, 0.00344958, 0.00357961, 0.00330362, 0.00336488, 0.00319954, 0.00343156, 0.00346839, 0.0036065, 0.00339001, 0.00351667, 1.16706, 1.17053, 1.17191, 1.1735, 1.17474, 1.17828, 1.17923, 1.18098, 1.17986, 1.1817, 1.18591, 1.18949, 1.19374, 1.19274, 1.19586, 1.19731, 1.19894, 1.19765, 1.19913, 1.19633, 1.19925, 1.20064, 1.20073, 1.20347, 1.20531, 0.0033981, 1.20809, 1.20867, 0.00341647, 0.00333104, 0.00329563, 0.00355536, 0.00346721, 0.00340893, 0.00340966, 1.22587, 1.22653, 1.22985, 1.23015, 1.23384, 1.23621, 1.238, 1.24412, 1.24566, 1.24314, 1.23165, 1.22958, 1.23193, 1.23726, 1.23663, 1.24401, 1.2418, 1.24114, 1.24095, 1.24321
0.00350027, 0.00372948, 0.00348258, 0.00372382, 0.00331814, 0.00383068, 0.00303576, 0.00328791, 0.00344181, 0.00367039, 0.00325828, 0.00330172, 0.00324183, 0.00341776, 0.00341651, 0.00397692, 0.0033438, 0.00338858, 0.00335024, 0.00369335, 0.00333145, 0.00343424, 0.00346502, 0.00363965, 0.00336599, 0.00354503, 0.00319779, 0.00351058, 0.00335949, 0.00367052, 0.0034592, 0.00374941, 0.00327638, 0.0037083, 0.00343023, 0.00354243, 0.00329013, 0.00362736, 0.00318157, 0.00364368, 0.0035767, 0.00377991, 0.00332901, 0.00346262, 0.0032446, 0.504874, 0.507675, 0.00365276, 0.00332265, 0.00362941, 0.00327798, 0.00359708, 0.0034267, 0.00354991, 0.00347043, 0.00346738, 0.00347762, 0.0037432, 0.00340017, 0.00354479, 0.00354217, 0.00355316, 0.00319075, 0.0035136, 0.00335783, 0.00348983, 0.00343467, 0.00359201, 0.00341587, 0.00373877, 0.00338932, 0.00348683, 0.00338291, 0.00361452, 0.00345635, 0.00361764, 0.00348068, 0.00369021, 0.00335437, 0.00371692, 0.00322956, 0.00345636, 0.00330673, 0.0039961, 0.00354096, 0.839868, 0.0033532, 0.00344239, 0.00340573, 0.00379109, 0.00336343, 0.865158, 0.869601, 0.871, 0.873228, 0.873617, 0.877077, 0.877472, 0.880687, 0.881115, 0.881567, 0.883269, 0.883447, 0.883714, 0.8854, 0.884808, 0.887353, 0.888231, 0.888531, 0.889323, 0.890822, 0.890299, 0.889504, 0.890585, 0.890217, 0.890224, 0.889723, 0.890948, 0.892678, 0.891725, 0.89366, 0.89386, 0.894024, 0.894775, 0.89585, 0.901897, 0.905086, 0.907782, 0.908209, 0.910193, 0.91035, 0.911463, 0.00322357, 0.919265, 0.00341269, 0.933138, 0.934525, 0.939399, 0.93375, 0.944609, 0.949144, 0.951648, 0.952953, 0.956766, 0.959013, 0.959134, 0.960752, 0.0035097, 0.976697, 0.978295, 0.980534, 0.00330319, 0.00333299, 0.00372854, 0.00323056, 0.00346495, 0.00336929, 1.00213, 1.00516, 1.00674, 0.00328364, 0.00364292, 0.0032728, 1.03949, 1.04226, 1.04187, 0.00350236, 1.03658, 1.03738, 1.03907, 1.04099, 1.04848, 1.05077, 1.05348, 1.05563, 1.05544, 1.05693, 1.06009, 1.06266, 1.06762, 1.06957, 1.06989, 1.07118, 1.07445, 1.07519, 1.07841, 1.08035, 1.08392, 0.00328528, 0.00356926, 1.09353, 1.09505, 1.09545, 1.098, 1.09892, 1.09647, 1.09435, 1.09884, 1.09873, 1.09816, 1.10035, 1.10293, 1.10432, 1.10655, 1.10691, 1.11175, 1.11324, 1.11671, 1.1158, 1.12105, 1.12265, 1.12589, 0.00335072, 0.00376646, 0.00341014, 1.13754, 1.14079, 1.14058, 0.00342615, 0.00366222, 0.00332247, 0.00359623, 0.00340258, 0.00338097, 0.00348108, 0.00340048, 0.00324162, 0.0034969, 0.00349366, 0.00346695, 0.00336573, 0.00360458, 0.00333815, 0.00354037, 0.00336191, 0.00386059, 0.00342899, 0.0036095, 0.00349527, 0.00349588, 0.00326577, 0.00351129, 0.00328937, 1.18097, 1.16925, 1.1727, 1.1717, 1.17199, 1.17399, 1.17556, 1.17581, 1.17903, 1.17998, 1.18214, 1.18676, 1.18967, 1.19301, 1.20066, 1.20284, 1.20263, 1.1944, 1.19789, 1.19627, 1.19282, 1.19471, 1.1973, 1.19835, 1.19717, 1.2007, 1.20124, 1.19995, 0.00356233, 0.00322798, 0.00343504, 0.00360897, 1.27275, 1.27407, 1.33116, 0.00339212, 0.00368429, 0.00337584, 0.00352019, 1.2266, 1.2337, 1.23327, 1.23431, 1.23919, 1.23796, 1.24062, 1.23591, 1.23616, 1.23725, 1.23873, 1.23663, 1.23759, 1.24021, 1.23901, 1.2419, 1.24214, 1.24289
