0.852724673728206,0.852729398117449,0.85494986968883,0.855818865470706,0.857874328296404,0.859080707769759,0.860102085349993,0.860110510137868,0.861650538773864,0.861986950741323,0.863611793903808,0.864728459866366,0.865330696008214,0.865880638297386,0.866610450513306,0.866930527040501,0.867861942205307,0.867578033882531,0.869612896830615,0.869749170645607,0.87248241632251,0.873332168509114,0.875242233267251,0.874715025218252,0.878534417228587,0.879918282041565,0.882203453037897,0.883121811709049,0.88504744804807,0.886466516061837,0.888857265210519,0.891849141971438,0.893271518148135,0.8946890143465,0.896260444476872,0.897391315278883,0.898155259206995,0.898218317233658,0.90001300817318,0.900983806162524,0.902529937527536,0.903171332176214,0.905128163363242,0.90626997090561,0.908315195555681,0.910469831922168,0.911439597977273,0.913265068391463,0.913543695842499,0.914862315480614,0.914779492874886,0.915413668167604,0.915822902878869,0.915811214643176,0.917720997018239,0.918395860846105,0.920154084531626,0.921380514641831,0.920846252510059,0.939948110793737,0.938839912343555,0.94450723311388,0.945364073596472,0.946225938353635,0.946240461746337,0.946542390700727,0.946973757340079,0.94863412256331,0.948079364783989,0.949444893721171,0.948551213372018,0.948884734689633,0.948959124835418,0.948594118498668,0.950747099523692,0.951931554187319,0.953194703307327,0.953582073582282,0.955596848047226,0.956804433092492,0.958722313791784,0.960337086955062,0.961808617084502,0.963109587628093,0.963894268660214,0.963973199492885,0.96586068522548,0.966644644050125,0.968925604224328,0.97029634303255,0.97290569289583,0.975588389945222,0.977473156927088,0.979736764984846,0.980738147745295,0.982102331958788,0.983643373045554,0.984011477516656,0.988144540624108,0.990841508473479,0.993167128139979,1.00119342526775,1.00299258758892,1.00328459504926,1.00467334653242,1.00495749468935,1.00789349823554,1.00860685542459,1.01147025776179,1.0137280099414,1.02055814226116,1.4283099992661,1.0348140929206,1.03276548804775,1.0353710840393,1.03760756886521,1.03996543571533,1.04238478330396,1.04526039647958,1.04543546848479,1.05129783466206,1.05305866347166,1.0558151325101,1.05789558491619,1.0617959516818,1.06385705393741,1.06760831802528,1.07073210000664,1.07786159916181,1.07991504361994,1.08000204295923,1.08174423170597,1.08590231210195,1.19599999875325,1.1123057228883,1.10589754933786,1.1153783111199,1.1113607260255,1.12177306706376,1.12276973795045,1.12512080290852,1.12692852952989,1.12914972068524,1.13035208221279,1.13437986933148,1.14030543192067,1.14031299488178,1.14054661912575,1.14631130513103,1.15117540993796,1.15313994204255,1.15399311206983,1.15711254373839,1.15726845603061,1.16533772146645,1.1713097160095,1.17163720501857,1.17405666247848,1.17333020459352,1.17465390906439,1.1760562381028,1.17690277626332,1.17530355521895,1.17207951451909,1.1676130268339,1.16565577589934,1.16514860964162,1.16585227237953
0.851604908944844,0.852180863340817,0.853216308563847,0.854459061988295,0.855883933024864,0.857595214099975,0.858454903101565,0.859878150000074,0.860667301456511,0.862226500988136,0.863067563289864,0.864582127124811,0.865138346524163,0.866156053950094,0.866801129399964,0.867690404426421,0.868365908084092,0.86917041392491,0.870354737082173,0.871726838241571,0.873124654001029,0.874841301684074,0.876180342565097,0.877999889400593,0.879602838567977,0.881673362550482,0.882905027953949,0.884419868311936,0.885804521435471,0.887329952588731,0.889532958207962,0.891965593254468,0.895281548553277,0.897055137937463,0.898355987142369,0.899598642279885,0.89976986905694,0.900369761823812,0.901268572436759,0.902764755716397,0.903566121094232,0.904840651205684,0.905892441842677,0.90738837977727,0.908770602072953,0.910582787400507,0.91192071233966,0.913619509581869,0.914235956857244,0.915180507679754,0.91561394937761,0.916364037139062,0.91680808150111,0.917688511422605,0.918412482163146,0.919842731404361,0.920534523031177,0.921546148528666,0.92142184451961,0.940290538768485,0.940415535596978,0.942349449342367,0.943503689227019,0.944525020742996,0.945233308002852,0.945888441760987,0.946897879970487,0.947572657386065,0.948427646319685,0.948955545530914,0.949017462351374,0.949174174626251,0.949505033338473,0.950237192553089,0.951112616147419,0.952392515352169,0.953065503561332,0.954120867110313,0.955245451617519,0.956781500964609,0.958058725069202,0.959735097771841,0.961103126602933,0.962800352087936,0.963553917117554,0.964556967263885,0.965770150727692,0.967128743594402,0.96873800771875,0.970296313218068,0.972402320123284,0.97428011442387,0.976119965520126,0.977417773139141,0.979027832973651,0.980225390251192,0.981661838585497,0.982922434851346,0.985373210466685,0.987902254230527,0.989799597733738,0.99348285756737,0.996788189967056,0.999561296101446,1.00223264369292,1.00499608338532,1.00695930323334,1.00903291106157,1.0105673072716,1.01305034936622,1.01568295313653,1.01826181122262,1.03068930956447,1.03082562916658,1.03310981071785,1.03599528394881,1.03712330523837,1.04470306161867,1.04558171311181,1.04576881094656,1.04826513035801,1.05046448782376,1.05397351183653,1.05674363365435,1.05985190231888,1.06196757444267,1.06439045263551,1.07196298605445,1.07494826381841,1.07643388085819,1.07793139065324,1.07889141633059,1.08394724989106,1.08939464123885,1.09038766798613,1.10949277367471,1.11539457936041,1.11558979604463,1.1194114241857,1.12256993224179,1.1250687367014,1.12594889532051,1.12781239804691,1.12911990395305,1.13230668519658,1.13461707947182,1.13697621067377,1.13782547570863,1.14337138415058,1.1528522408923,1.15391898165769,1.15432713684692,1.15652167437145,1.15916165088036,1.16286250522468,1.165586935041,1.17005976959234,1.1722495773346,1.17335590779899,1.17513996481787,1.17599648039275,1.17706013743901,1.17640103501637,1.17553829361409,1.17601946698205,1.17431259145616,1.17272369739209,1.17095773352827
0.850886406936758,0.850441727315332,0.851785765952864,0.852085308990668,0.854401822147982,0.85553293313277,0.857515571108217,0.858142023407036,0.860389406695428,0.860971625480266,0.863083153062801,0.863716168917244,0.865226580730614,0.865786489168027,0.867092934041409,0.868072995677558,0.868971577131057,0.869761340851688,0.871365801870402,0.872589049977228,0.874346969208341,0.875071831110423,0.877920811585731,0.87954406334325,0.881553443098475,0.882515532900275,0.884261348348724,0.88509972722872,0.886642288162423,0.887807682978715,0.88968694102933,0.899721353951054,0.89823878148128,0.900356133042307,0.900360989833059,0.902297745771966,0.901551407899615,0.900972969694769,0.902847927353967,0.90377738985162,0.905122490752129,0.905272073372142,0.90714992427005,0.90732087389891,0.909570526901125,0.910166328580202,0.912578337260214,0.914409681682415,0.914903312965716,0.915640424811391,0.91633604271274,0.917213760080716,0.917839898417705,0.918623840856322,0.919584430557789,0.920196939606954,0.921660281197654,0.922673226574876,0.922805140012526,0.939751006999146,0.93994399083364,0.939789754045314,0.94189399810123,0.94256442653472,0.944277729926968,0.945450548265785,0.946546832831613,0.94733325246573,0.948585295331286,0.949319042233171,0.949558498399135,0.948586146489838,0.950357498253323,0.950479524347106,0.951947295837296,0.952116370852114,0.953412917005523,0.953325862693409,0.955270435803137,0.955884467112858,0.957724808219214,0.958387865740874,0.960776014814073,0.962449507137925,0.963605785932364,0.964121594614837,0.965998516355115,0.966877795554453,0.968766922673519,0.969804866639938,0.971922465833547,0.97336547163569,0.974868212053595,0.975159426473624,0.977445815569249,0.978164921891548,0.980029069187617,0.980156138052751,0.983006558623918,0.984024143783989,0.98588247311385,0.986479240959693,0.986617361129223,0.987468018299047,0.997281693084572,1.00369983856846,1.00660570570817,1.00788371521134,1.00947992856525,1.01117069347937,1.0130956331866,1.01405963718082,1.02914637525475,1.02631798641979,1.02917439366237,1.02811381841648,1.03484481986653,1.4880299992661,1.04505600771609,1.04298787146345,1.04506648941817,1.04616459716948,1.05215871344401,1.05526165912377,1.05780563311397,1.06067551024941,1.06194045996262,1.07100270960958,1.07229404746504,1.07399818515167,1.07547622482086,1.07683623193825,1.0824567875423,1.08937770103515,1.09000815828313,1.1401509422206,1.11838414856641,1.18132998544531,1.11688526915259,1.11073062620678,1.12204124297924,1.1239899805743,1.12603657298043,1.12568127341739,1.1308913988668,1.13026034640645,1.13491078397424,1.13580946418253,1.14006758743404,1.19223995890918,1.15395554163719,1.15324228170175,1.15475918533856,1.15998312462376,1.16086427603837,1.16266377936607,1.17051274030306,1.17097962006795,1.17313321010846,1.17580117021021,1.17631731465783,1.17761788136859,1.17799873354311,1.17841151484639,1.17845385110385,1.17903138482793,1.17958010965319,1.17828020222587
0.851534289158885,0.850776088867611,0.851663069925906,0.852283896174852,0.85410160286077,0.855190234575311,0.857236167363653,0.858465712691459,0.86025568323231,0.861665606747185,0.863081681691956,0.864075926143285,0.86542110178298,0.866304947676399,0.86747088446164,0.868280493490604,0.869578276784004,0.870772127830162,0.872258922465015,0.873836331857612,0.875331906925838,0.87708134382927,0.879033244831201,0.881494312072213,0.88263583842039,0.884302309269059,0.885271081322292,0.886593208134794,0.887745148827104,0.889114207865914,0.891764289994859,0.896649323491603,0.897988416476993,0.899194755869484,0.90041541558737,0.901810072135541,0.902178205653541,0.903122488113627,0.903917809003859,0.905462182238938,0.9063624129524,0.90786825816734,0.908748481653747,0.910110898876544,0.910944670345122,0.912147238789272,0.913092092472826,0.914213738600879,0.914914138571833,0.915668032284454,0.916568530413735,0.917478272996772,0.918022550033721,0.918736680848305,0.919581968061381,0.920998941519064,0.921946610708976,0.923307461221962,0.924799064188681,0.937923363535213,0.93845073157077,0.939370104133485,0.940543524834843,0.94209826161985,0.94359277428261,0.94519044600386,0.946715098319012,0.948222247845013,0.9492065124888,0.950328380361737,0.950583645796687,0.951332641440986,0.951567610598305,0.952535899301081,0.952603229600039,0.953418429831586,0.953681793164844,0.954625747770053,0.955265912032409,0.95645768738728,0.957284100366931,0.958579916948709,0.959881676986506,0.961672198038903,0.963015484644967,0.964895774815195,0.966039783416086,0.967735298673127,0.968718151398754,0.970188925813056,0.971584137771865,0.973226694714505,0.974407628602373,0.975593328117469,0.976901911843116,0.978204345513101,0.979246057887584,0.980349760481672,0.981612540111563,0.982926638620242,0.984047248288441,0.985156508417545,0.985850588691959,0.987266678658331,0.993264784000253,0.997499022591325,1.00119822360591,1.0043236276244,1.00693268844965,1.00848672423497,1.01069431749945,1.01134462943758,1.02930847733831,1.02832672027672,1.02860257298087,1.02897423383524,1.03233558989519,1.03356693099739,1.03583690948855,1.04032156229605,1.04272681941738,1.04503555231339,1.04841614821771,1.05365087382223,1.05657546386629,1.05850031890297,1.06116638114536,1.06570061818456,1.0698994402775,1.0715667034424,1.07355733437336,1.07431137604283,1.07866344045821,1.08240604452037,1.08477770810337,1.10761091310141,1.11109196684732,1.14097425708246,1.11707247592094,1.11643142917055,1.12061016743822,1.12225211287858,1.12336231295221,1.1245664460732,1.1323117790092,1.13199439142087,1.13377392073918,1.13467824065368,1.13656466922741,1.13894622589575,1.15346639359564,1.15293649671118,1.15462892170805,1.15681036964798,1.15801922185179,1.16641343569252,1.16926890223502,1.17013406314066,1.17146544247147,1.17313853386313,1.17445559850488,1.17735014604942,1.17786533476703,1.17901176361811,1.17902724739994,1.18010080710652,1.17999378373006,1.18014259702449
0.851685502687871,0.849926401779305,0.850836855954825,0.851922421737425,0.853646884719114,0.854356383154512,0.857317445817402,0.858486925758323,0.860540020867096,0.861927592899969,0.863440949772578,0.864139149696308,0.865649615507556,0.867273967216424,0.867673456218215,0.868762109962771,0.86994035356735,0.871949301721304,0.873085584724925,0.874892683749567,0.876632101048034,0.87747278953419,0.88081414866341,0.882817683790169,0.884514601094706,0.885055642219348,0.886832958579654,0.887516123452804,0.888860587278141,0.88949985854208,0.892675633704644,0.896294684826405,0.897458546741858,0.898482428447626,0.900354783334338,0.901533126631365,0.902970358346756,0.903976109548935,0.905256429442131,0.906226539018726,0.908007808783485,0.909655815834244,0.910730786100939,0.912276747420734,0.912589832345767,0.913590173038863,0.913824677726118,0.913977806577091,0.91507931499499,0.915288881920243,0.916953080722026,0.917770975872578,0.918448327164626,0.917744103124798,0.920150575183903,0.920207286199472,0.923220166055965,0.924369715042007,0.927210483735239,0.934794308943868,0.936762368932689,0.93702236009806,0.939622249761725,0.940927541574751,0.943126698710722,0.944904322198567,0.94697869171276,0.94941573958892,0.950005414084558,0.951472957492972,0.951810987219709,0.953313901053966,0.953015209950981,0.953945366043445,0.953571269602572,0.953680784666033,0.954297417809623,0.954717152180036,0.95567363986383,0.955952557602649,0.957334081500697,0.957288071264345,0.959532127977323,0.959759548653007,0.962995787396826,0.9647886693201,0.966598778706972,0.967826818955625,0.969054815354378,0.969497723650846,0.971600804616613,0.972747821525097,0.974347665786492,0.975178496739648,0.97680699402698,0.9776108679416,0.979033911385965,0.979181511182908,0.981039857070188,0.980751741750109,0.983314540880592,0.983094627480088,0.985492636086945,0.985612929841725,0.989428771854008,0.989428025695351,0.989863798229839,0.990568237536996,1.00537307204346,1.00436053290015,1.00975056892183,1.00842031565413,1.06347964144946,1.4266999992661,1.02727122143348,1.0245765493277,1.03178511372304,1.03248111005588,1.03402371152813,1.03499851307796,1.0404888525684,1.04309814935591,1.04520472613871,1.05219675418971,1.05516255777692,1.05696774766625,1.05775157610789,1.05736505517462,1.06873829273631,1.06988020581565,1.07133491404884,1.07311939748659,1.07424104621404,1.07736734361387,1.07814493925722,1.08056947736402,1.10715834682582,2.1132699992661,1.09884658919593,1.09558564151285,1.10323420376428,1.11149673500181,1.10636320293201,0.00439370935163677,1.13279731690691,1.13126029178535,1.13252568834258,1.13267134114956,1.13350193206903,1.13313087537898,1.15210267738774,1.14976231953234,1.15285270780798,1.1546084628555,1.15580752258379,1.2769899992661,1.16907000979405,1.167346074053,1.16994220248519,1.1693414293457,1.17197435232256,1.17827637603077,1.17798181896277,1.17893927049425,1.18007272712836,1.1803088462106,1.18165423676871,1.18082380485018
0.85889275104912,0.859606667796786,0.86096509594253,0.860471734909129,0.859687717564055,0.860121811477066,0.860476897776938,0.860365053051075,0.862534193585285,0.864099228110664,0.865536448018966,0.866185170517651,0.867517147729399,0.868326727772963,0.86909774391922,0.869667645831392,0.87087437928692,0.872282971350029,0.874147982286009,0.876361652947379,0.878428409843505,0.88036069407086,0.882401581553916,0.884584118418048,0.885719377384247,0.887285426756036,0.888162468403707,0.889389493788054,0.890403372998916,0.891605862004808,0.89365749035299,0.895657380925873,0.89755168767087,0.899104513209919,0.900436459646272,0.901874553795179,0.902856934971678,0.904378576839627,0.905314795417373,0.906980448294106,0.908289997171558,0.910224597882181,0.911016518848151,0.912296470680672,0.912676163311595,0.913501157357727,0.914108231739487,0.915008622552295,0.915841900842296,0.91679869375925,0.91793611839663,0.919082404087022,0.91970985900026,0.920442203947225,0.921543043602578,0.923141509304789,0.924580895559688,0.926913462497563,0.929223097902969,0.933208860544341,0.935333365179208,0.93721318597334,0.938865954348693,0.940716160682892,0.942615580642521,0.944644948002306,0.946483368594475,0.948455384126878,0.949181790572462,0.950231824510637,0.950671982601259,0.951727139438035,0.951696167279294,0.952393363990005,0.952392145649907,0.953118834326864,0.953479307683359,0.954471489589274,0.95518639117494,0.956384805330915,0.957197798961533,0.958459304560433,0.95943287231763,0.960963959697051,0.962511654235006,0.964695129200017,0.965852949503253,0.96762293424083,0.968526963584832,0.970017156748234,0.971287274173258,0.972979194738895,0.974050642212724,0.975371636345075,0.976583058790271,0.977980111286769,0.978979965918139,0.980126147743327,0.981040199411302,0.982146231992848,0.983421293096969,0.984877760875474,0.985728338043717,0.986870961543449,0.988234034675545,0.989078989664315,0.989837758186057,0.990676233361598,1.00407692662698,1.03893416427957,1.05194532615385,1.06192558585181,1.07396306979601,1.0865101179817,1.02753813432597,1.02746297093724,1.02981774177636,1.03100622627637,1.03279668167645,1.03493583899709,1.03827078999253,1.04085314899959,1.04428078894916,1.0479004758014,1.05093619986206,1.05368910045023,1.05559443148221,1.05697525430413,1.0667265035641,1.06830336332236,1.07023402797417,1.07121121618834,1.07295060791401,1.07468059932915,1.0763732856077,1.07865030811565,1.08094402871387,1.09098895059466,1.09280359485908,1.09430567530736,1.09468688179999,1.09883794438452,1.10162820118701,1.12029085343034,1.1336125584152,1.13272290184921,1.13215653575251,1.1326766910472,1.13247038704381,1.13301558594159,1.15147625592713,1.15024478274651,1.15196151519161,1.15390156382154,1.15440801644144,1.15539654291366,1.15821032581369,1.1693958367899,1.16985178248478,1.17005531797229,1.17117095562977,1.1727681603178,1.17534567949193,1.17874145876164,1.17979692036143,1.18254729948468,1.18258128754259,1.18349434314201
0.860939482475777,0.863174433265816,0.862733166733517,0.864681302716401,0.864821014159612,0.865957862285276,0.863288344375927,0.860918373492487,0.863996985876928,0.867387878848625,0.867110447967573,0.869106617127104,0.86890390149025,0.87150087003658,0.870290920478736,0.871484911418955,0.871582848870721,0.873357849847257,0.875110441670099,0.878560175668727,0.880581185358302,0.882543932065768,0.884640914194634,0.885705259196198,0.887695215516495,0.888520226866448,0.890085487779229,0.890413855855216,0.892182096162154,0.892640139294931,0.894734051510065,0.895156223782852,0.898075708451742,0.89940665368398,0.900952985372117,0.901370653313127,0.903173732697709,0.903750385366103,0.90570299486103,0.906530710025433,0.908893660100192,0.910631891034926,0.911537480802081,0.91227161255255,0.912794703461432,0.913019389680801,0.914379148378772,0.915756215204516,0.916645922658909,0.917898678174932,0.919070580344933,0.920614704966909,0.921187848394988,0.922068629059637,0.923286444689258,0.924470392611915,0.92634929495248,0.927722720080382,0.930286706958954,0.932052981388192,0.934901133869531,0.936427909836426,0.938669435357986,0.939833093490956,0.942326022845608,0.944154615077842,0.946193792018585,0.948080378549602,0.948612712537408,0.948509973338682,0.94979033031921,0.949746905897637,0.950731131129658,0.94985828768435,0.951631132167755,0.951234866507641,0.953135823815188,0.952879899143671,0.955295945183046,0.955550837377603,0.957779062701029,0.958075034741234,0.960125746209277,0.960055767956181,0.962893052751061,0.963420264519688,0.965974035759179,0.966236957759952,0.968661589933796,0.969085161945838,0.971470083046611,0.972560609713036,0.974163597956417,0.974631557750916,0.976741850459774,0.977718169608297,0.979408525218608,0.980125772816672,0.981685798618678,0.981825962201028,0.984527583163167,0.985312831022017,0.986988863494447,0.986170047182435,0.988677007127235,0.988121751886837,0.990741739386577,0.991984894123802,1.00140806311855,1.2741699992661,1.13413413209284,1.5323599992661,1.08809772695475,1.1100498578179,1.02649341426873,1.02644231429085,1.02847267121975,1.02764542835125,1.03143278088759,1.03330422162618,1.0367005518814,1.03769417580831,1.03969755945038,1.04022642514147,1.04113723025788,1.04391735651163,1.05372306299022,1.05828916598432,1.06217714580217,1.067193591033,1.06836392248121,1.06932009657774,1.07068332179832,1.07225454757763,1.07346939011243,1.07397201738474,1.07835446865487,1.08828517682913,1.08814706481701,1.0873791311616,1.09272625000834,1.09822099501327,1.10024044416317,1.8205099992661,1.1415715117278,1.17722994465839,1.12930252006273,1.12535426440174,1.12948603539263,1.13310961644288,1.15032622644483,1.14690513139492,1.14969146028624,0.00412881934866719,1.15194011895128,1.15259185691022,1.15469452980886,1.4433799992661,1.16953742754882,1.16823192643222,1.17030732376499,1.16993120274341,1.17247466974369,1.17961270132088,1.17867854875674,1.18594011562983,1.18408406499805,1.18470952003573
0.86205173716345,0.862044522207771,0.863840460385592,0.863995750877242,0.865724348564386,0.866033896109912,0.86760762621401,0.86966227581099,0.871399644065449,0.871041479571305,0.871730806504077,0.872665702399829,0.873961933523148,0.875473715707999,0.877181129542648,0.878798958727517,0.880096998956079,0.88128283438965,0.882423100274841,0.88346996087954,0.884243875667024,0.886018547850295,0.887048622000111,0.888266528150588,0.889196252783272,0.890783948525655,0.891778643106266,0.89336257909971,0.894292053971002,0.895722759377831,0.896878160097379,0.898342273337615,0.899386714654909,0.900643641029514,0.901303750484811,0.902317969959371,0.903103686921523,0.904360793730753,0.905613841979903,0.907362547107133,0.908746895342148,0.910410414092812,0.911203116724661,0.912043347953622,0.912528136438579,0.913083482589044,0.914194205247937,0.915484391609417,0.916795969114904,0.918259775348262,0.91957206731451,0.920964986101664,0.921959297703898,0.923135513344036,0.924221079712899,0.925689099087471,0.926937147875926,0.928743884969582,0.930260683551398,0.932347536829137,0.934569675782872,0.93707945373174,0.938757586344828,0.940632183631851,0.942179410652752,0.943949902177661,0.945428382976206,0.947082903331808,0.947704641845611,0.948546155285151,0.948865198165366,0.949588705467997,0.949988071644082,0.950852184856394,0.951329315340624,0.952281394543755,0.953280407065907,0.954767165449361,0.955888933100504,0.957504502038256,0.958435233569397,0.96000633373248,0.960775694315917,0.962359271176913,0.963185375539668,0.964884508335715,0.966014463328603,0.967911775330696,0.968739636361957,0.970240286942959,0.971328853359102,0.972967347692044,0.974147833108377,0.97568262219262,0.97694171234832,0.97849216685516,0.979782521783179,0.981329391577857,0.982739404669968,0.984352772650791,0.986172630341762,0.988026964083954,0.988842510271626,0.989933736784733,0.990414041943146,0.991295997003669,0.992317251545912,0.994146712806,0.9973699854545,1.06395234135835,1.0995261675822,1.13411094842587,1.07658052791955,1.0683795361971,1.02378959257194,1.02670455819622,1.02844018010609,1.02930390773722,1.0307878006602,1.03398159690247,1.03669977330505,1.03837976981866,1.03955774639858,1.03986475702551,1.03995547655914,1.04492823358702,1.05146722582741,1.0598491346006,1.06142341184837,1.06416458366986,1.06660475158119,1.06681475740444,1.0682830225453,1.06974455133107,1.0711481718275,1.07225623731403,1.07374301192471,1.07692922418228,1.08009795763276,1.08356351276771,1.08714802319016,1.09857010248428,1.09893237963189,1.09905022384451,1.11881287377066,1.11809033187885,1.12128394196547,1.12284818185284,1.12333854321474,1.13564107974852,1.1509617243529,1.14952179456267,1.14911562323479,1.14679799583101,1.14851889876437,1.15019529283079,1.15327131965592,1.15671328791884,1.16083544801794,1.16452591349192,1.1671112743114,1.16907773269391,1.17106419383152,1.17369198331949,1.1760994950658,1.17774241065092,1.1811283027356,1.18487356825735
0.861814706313552,0.863520952556085,0.864132107136611,0.865011494297842,0.865865448703796,0.867338061860525,0.869078294762123,0.873043761291615,0.873946282688493,0.876564254176937,0.878899346467547,0.881643668968154,0.883619524839268,0.884966787504987,0.887915536660887,0.889287890625076,0.891125609174793,0.890903044200681,0.892132218617195,0.891148734628904,0.891057510597811,0.889912266331033,0.889759094132375,0.889689420929705,0.891130030346384,0.892018134711689,0.893892751073245,0.895612595037455,0.896661730292066,0.898036930288096,0.899325132015426,0.900955918290961,0.901192080741606,0.901152175091693,0.902249674795302,0.901881052068253,0.903626753140738,0.903342385571688,0.90602646118545,0.907118316070901,0.909098848042364,0.909983628403781,0.911290029958226,0.911517043024278,0.91243546248415,0.912136934875996,0.914046191795638,0.914697900481375,0.917023798878786,0.918428212178535,0.92020599764162,0.921401572096243,0.922818201900312,0.923838686097333,0.925230810015543,0.926280272812696,0.92779050994526,0.92862175945352,0.930584037753439,0.931270326260516,0.934763856669393,0.937687409665208,0.939182411221651,0.941169757977575,0.942204610251963,0.943436145368966,0.94496684301228,0.946252204925588,0.947282548670052,0.947854282088249,0.948494398298807,0.948182155953627,0.949903873875533,0.950523055276711,0.951710035117885,0.951595691806457,0.954063015051814,0.955364727805537,0.957146667849444,0.958350485948893,0.959793031463627,0.960607632647997,0.962233938523064,0.962921517372633,0.964427835119627,0.964282812852682,0.967069298485687,0.968239537326342,0.96963444640032,0.969850759526334,0.971736193340578,0.972330546736785,0.974574709145959,0.97578311623057,0.977486206372158,0.97847849028413,0.980325965126998,0.982096723431202,0.98372905272392,0.986479496900839,0.988067999829021,0.990695367154458,0.991184029259729,0.992650436249153,0.992587720696269,0.992951408694191,0.993641453051588,0.994150509273297,0.995808508628387,0.995141350932022,1.0656544210527,1.2875299992661,1.06621606383725,1.00314006219063,1.01714889661506,1.13594999829613,1.08427195854268,1.13562999840625,1.02799948741355,0.00438556935154553,1.02228905395224,1.02454811353476,1.02320301132294,0.00449754935280091,1.03669431586994,1.04578309202782,1.04881454241909,1.4525999992661,1.05526757702039,1.04941071579345,1.05920461103539,1.06172911438634,1.06515341677858,1.06703587149223,1.06876761542923,1.06952335467252,1.07227020798649,1.07474001555344,1.07590911223083,1.07848468312449,1.08324906832309,1.09795439263245,1.09750184753508,1.09522700337037,1.11662163507182,1.11202311244776,1.11020256554019,1.10671449447313,1.10920740997876,1.4166899992661,1.26217746915867,1.32651999878492,1.19840982066032,1.14220166860348,1.14503988258492,1.14671010871451,1.14605254509074,1.14730728111982,1.14934100147672,1.15237341237991,1.15821806468913,1.16675773012397,1.1689266915706,1.16880611737854,1.1731903658266,1.17595389339784,1.17839376764562,1.18498298736491
0.868733646612466,0.869342599706287,0.868321809019271,0.869010838236442,0.869414623184551,0.871465504785294,0.872185252062416,0.873511415719187,0.875583895057398,0.877390036096978,0.87990531123921,0.882020184772006,0.884582919803124,0.886252651499106,0.889219436137853,0.890964677112378,0.892708222385665,0.893402728663121,0.893916461970105,0.893606368634311,0.893062608692124,0.892414757021181,0.891508307620595,0.891345084920279,0.89211541695703,0.893640242601139,0.894637302277327,0.896301978599425,0.897345513772564,0.899083815296069,0.900120298322409,0.901729474477106,0.901834413382278,0.902472564786331,0.903052445286884,0.904125243118377,0.90454518905785,0.905344104114094,0.906552384956195,0.907955543047988,0.909407878844661,0.910653006546983,0.911799798111083,0.912513440369244,0.913135628065304,0.913527460109666,0.91455405517594,0.915508971254571,0.917496332154808,0.919536473241125,0.921000269264121,0.922495433572883,0.923719229159054,0.924988933439318,0.926111067813432,0.927411978482704,0.928604465304323,0.930083425174641,0.931290407401195,0.932900364472327,0.934721003595836,0.936909319301816,0.938448968155472,0.940245239565071,0.941389956930223,0.94281936835592,0.943936687357596,0.945315795143598,0.946182704671633,0.947292783095053,0.947608133780468,0.948356992465769,0.949257029649135,0.950692860055526,0.951698629306021,0.953207949990697,0.954350042205961,0.9560919114796,0.957235485238911,0.959024289336326,0.959730211597966,0.961243349863997,0.962164605824277,0.964101740245601,0.964572586479162,0.966175652525849,0.967048591200944,0.968965960425136,0.969398729949336,0.970723517543409,0.971618755496332,0.97328633888779,0.974596682393555,0.976449850525532,0.977558977504752,0.979058463845999,0.980376923394207,0.981895042129048,0.984023108596368,0.987191326111003,0.989158278111807,0.990821311065644,0.991739258448599,0.992885361491656,0.993097170024982,0.993770927439473,0.994210523113397,0.99500099256899,0.995866256268436,0.996385030328468,0.998354671153113,0.999472231364186,1.0005994719818,1.00162626212936,1.01086259360844,1.06591021637566,1.05158825211133,1.03706796928053,1.02463229829582,1.02118403440045,1.02087025926203,1.02209761907515,1.02252063083414,1.02378335213542,1.03375156885203,1.03559125447158,1.03819127535392,1.04115701648885,1.04484742999865,1.05151398918501,1.0568215085138,1.05988674873801,1.06307727040866,1.06457266374758,1.06640176238028,1.06808429832194,1.07030831990473,1.07245789348252,1.07412825533462,1.07589620848784,1.0797901899051,1.08251672304988,1.08525232600487,1.09580326086436,1.11654244697656,1.11376426452004,1.1107949662598,1.10850318537444,1.10907573188736,1.18552341665332,1.23199578298087,1.26427015025774,1.23354840979229,1.20465036169733,1.14129584669792,1.14403862485726,1.14463824883245,1.14600346058206,1.1486305706928,1.15201886538078,1.15569413778374,1.15979867291152,1.16427093973047,1.1686166103004,1.1722407624127,1.17493626179346,1.17696102322555,1.18578400910615
0.874561426484788,0.871406761762222,0.869739703097829,0.870415674168768,0.870762727400928,0.873732867139874,0.873583908366421,0.87638072936503,0.876750729641354,0.880366936350307,0.880709983988268,0.883636956237763,0.88502718870357,0.8870761392279,0.890119085541452,0.893004627051492,0.894243558343475,0.895840601099616,0.895891215633679,0.896311683290261,0.895311692539123,0.894668887575155,0.893255086076621,0.890863632361318,0.893278558340733,0.894278379974937,0.895731065274594,0.896137281645037,0.898286064458865,0.899425081315122,0.901273062591095,0.902546944461431,0.902933336192268,0.902268300644707,0.904401933990442,0.905409587947219,0.906076390055472,0.905446275694739,0.907644452203972,0.907718276111566,0.910307285780283,0.910878596277207,0.912827029540774,0.913413525983095,0.913985065273199,0.91378022273842,0.915498663975229,0.914647064834885,0.918465104385902,0.920103476688927,0.92225240220261,0.92339733794549,0.924842369559476,0.925953806192335,0.927107224346345,0.928190431411223,0.929557719182774,0.931138935984856,0.932136385481424,0.933545958135499,0.934864994090506,0.936055272073284,0.937957907713727,0.939291017789575,0.940785967153026,0.941741915269313,0.943249251908154,0.943855385583165,0.94564869395733,0.946152587305639,0.947305706149097,0.946754360945867,0.949209817807841,0.949587941604898,0.952329532157795,0.953522662812218,0.95516993935058,0.955736708374435,0.957904195488208,0.958868229718948,0.960344462317964,0.96012306954479,0.962898415434859,0.963986174839118,0.965612450286368,0.96591899661418,0.967935699926561,0.968572596417569,0.969886407843746,0.969926325322677,0.971929010562357,0.972959222304433,0.974970533414163,0.976496849923231,0.977882081700835,0.978922719862276,0.980263171738538,0.981589307786143,0.982887110731123,0.990186281149378,0.989793927777484,0.991960178742584,0.992116786413286,0.99325578411143,0.9934944001577,0.993873676666369,0.994615055088106,0.995071870321033,0.996088520088434,0.996416929078267,0.99804590869798,0.998890423902949,1.00017662066844,1.00076805772914,1.00698997907173,1.0933399318603,1.03963077754891,1.0106346516307,1.01415893522989,1.01788410423653,1.01912341155605,1.02010885162767,1.02224930858654,1.02495800747036,1.02763194440891,1.0309677334721,1.03105790781052,1.03228430394687,1.04169342763002,1.05298413267263,1.05401079431351,1.05369891339756,1.06204209050588,1.06091898335203,1.06408754076245,1.06476683454018,1.06865026253236,1.06954197291645,1.07255002820107,1.07355209530106,1.07473605356264,1.07576687949459,1.08183271775203,1.4098899992661,1.18543277094676,1.4746699992661,1.10939178212559,1.10677590734067,1.10570857330648,1.10382635523726,1.20597647025833,1.4795699992661,1.27019423745762,1.5961299992661,1.13617418503928,1.12907006540599,1.14261230092052,1.14207982042469,1.14737103327616,1.14608709994333,1.14963300065731,1.15135994360149,1.15403763833636,1.15505302673081,1.15817435710393,1.15977643464711,1.16234498265348,1.23584999698489
0.884818225302247,0.886162690702888,0.886749219008349,0.88688605972551,0.886859009714929,0.886565260906714,0.88586039499673,0.884907529130994,0.884243035975552,0.884084265102389,0.884344586037549,0.885392320999718,0.886864541236464,0.890089271744792,0.892543318430903,0.894291791754468,0.895706557465258,0.896709163678418,0.897031506056666,0.897306380174766,0.896738987449796,0.896295947576558,0.895043228386026,0.894105240913052,0.894616736875075,0.895496026634939,0.896418797732562,0.897621963222932,0.898745184081957,0.900282741070087,0.901495850874596,0.903120144864679,0.903522497983198,0.904459267554841,0.905306220666079,0.906762115077371,0.9074365373079,0.908609190627372,0.909847388891028,0.911380248869808,0.912838646349739,0.914169415062318,0.915316134471225,0.914820460486416,0.915682000186105,0.91725319675607,0.918815651600063,0.920076177611409,0.920413957838082,0.921939350686193,0.923288030968586,0.924745404846539,0.925890904581071,0.926984014182405,0.927860448248953,0.928739820729659,0.929825682843576,0.931067036648457,0.931922032504861,0.933084062335685,0.934403851004528,0.936020532862842,0.937294197888195,0.938701735960139,0.939929904073292,0.941317704147651,0.942486444979329,0.943899240234873,0.945132228177461,0.94662065667813,0.947160248557103,0.948162590203276,0.949554653256497,0.95152863488697,0.952825785911922,0.954581148287016,0.955398921269819,0.956771727775572,0.957954504199464,0.959792636226999,0.960461737121749,0.961985456829119,0.962673669557351,0.964421970136637,0.965063267639461,0.966816473328792,0.967400800938307,0.968974857247851,0.969264519915931,0.970383090332595,0.971315136525054,0.972970706342096,0.974277533683568,0.976072337109031,0.977367326371859,0.978969616021196,0.980175578700002,0.981496686995372,0.983689202920686,0.986822349254911,0.98890714270337,0.99053284403479,0.99159077030445,0.992660522022447,0.993092276119756,0.993751671249093,0.994637676906834,0.995649390246861,0.99643587057031,0.997142297181785,0.997989316343239,0.998639441708321,0.999916173519867,1.00105577982885,1.0032296798697,1.00627762121345,1.00874048023739,1.01058804828976,1.01275691773912,1.01520738738891,1.01657884027579,1.01843247490242,1.02003852284326,1.02279260507048,1.02480127263466,1.02793006539313,1.02973613627044,1.03119365228692,1.03819586635066,1.04084261829686,1.05200402857245,1.0578401581511,1.06099563775786,1.06200207997751,1.06327647750009,1.06584289202287,1.0686017547774,1.07010741347962,1.07182011399097,1.07338766292135,1.07477364105341,1.07616307821983,1.08237591311586,1.08322254260433,1.0847685241183,1.08663022940222,1.09015565141917,1.09351241119214,1.0969082318481,1.10043788028885,1.18098723230662,1.27018767258984,1.23842913301528,1.21286296169192,1.13393408206571,1.13661428063094,1.14090831255617,1.14341891802462,1.14668992438367,1.1482533827431,1.15070148489026,1.15276966637493,1.15492454687249,1.15667620385418,1.15900215057187,1.16093144365193,1.16270778569205,1.16592982077868
0.886277516145737,0.886466704838289,0.888134195188339,0.888279853713926,0.890380367761448,0.890477923136407,0.892492459426113,0.892070730907315,0.895722439566916,0.897322871325602,0.898667944699209,0.899250478612838,0.896871303958052,0.893549496374728,0.894774334277187,0.896697785869372,0.897286204723331,0.897751409975718,0.898512925944927,0.898373166791644,0.898537130147787,0.898026291023019,0.896980777383993,0.895457995398403,0.896120874865896,0.895689914039496,0.897593597804418,0.897765029482937,0.899776580335319,0.899982465077727,0.90230761161233,0.903410602560535,0.904569807342583,0.905237086304663,0.906535639643101,0.907482642786336,0.909099186300035,0.9105208253172,0.912235636314988,0.914191297599742,0.915511033244501,0.917672937670701,0.919268866556885,0.92310283511964,0.923860474368195,0.924353389922266,0.922792986603093,0.920774316243024,0.921960949931046,0.922538512980612,0.92505238398269,0.925427179369025,0.927332221458071,0.928016839971906,0.928785382451112,0.928802124660461,0.930243942338264,0.93085910395082,0.931865166830583,0.931747823462406,0.934197902107578,0.935545343367908,0.937063616505207,0.937488847264908,0.939508878580765,0.940192595915143,0.94218850219298,0.942946897117159,0.94525480319882,0.946562575154061,0.947617908635626,0.947507985762741,0.950464387544989,0.952436725689439,0.954006276648451,0.954910389113271,0.956220777362847,0.9562746222007,0.95862947029119,0.959881253034718,0.961292967802533,0.962225935799314,0.963285279502249,0.963128314857444,0.965466614657487,0.965990604930784,0.967822520022286,0.968083280219179,0.969410331764062,0.9689375915528,0.971185915358933,0.971639564881766,0.97405038235939,0.974656756740298,0.977294715558906,0.978330977600299,0.980144218450014,0.980836734907644,0.98328773022623,0.985439264371582,0.98778772579506,0.989942248414337,0.99106777662668,0.99212867813342,0.992677640533373,0.992789682321318,0.994570333266978,0.995896689379311,0.996694394915675,0.997202664555213,0.997804461432191,0.997169210336351,0.999452904338091,0.999773412282306,1.00213600345075,1.00186988661931,1.00895623175243,1.00956393034144,1.01177304747025,1.01247779732604,1.0150142977119,1.01522465327801,1.01819323308778,1.01870753996561,1.02176971021284,1.02188771648493,1.02867108481438,1.03149345715575,1.03282300727487,1.03578487198211,1.04879661713608,1.5202699992661,1.14063600686437,1.4569199992661,1.0604761909397,1.05856402340104,1.06949002870673,1.06907299612971,1.07159504045371,1.07238123914016,1.07523582877971,1.07749798077241,1.08095444151967,1.08122981178014,1.08362723527209,1.08430900160665,1.08581583268757,1.08809375289021,1.09212730981089,1.09541461743746,1.15625908566823,1.4819999992661,1.17990317827817,1.11192254913346,1.12677654711411,1.4871699992661,1.23019666331911,1.4904599992661,1.22856479831188,1.5212999992661,1.14047951185176,1.13644179929235,1.13825622315025,1.14186759924369,1.14263283961929,1.1440559166967,1.15503945571029,1.16312892208098
0.887665656521419,0.888060572641694,0.890115128409041,0.890429644302374,0.892263950182113,0.892548161463047,0.894477032573709,0.895218198305258,0.897293298467464,0.898162232655547,0.899173189674509,0.898943124061814,0.898254099698148,0.896766076401776,0.897346286460692,0.89805847739017,0.898777081345179,0.899505328918034,0.899839099878435,0.900364882452124,0.900201995594927,0.900059280779844,0.899510299803217,0.89852438949477,0.898859111171854,0.898888837748139,0.899612750019279,0.900624029519762,0.901197779635145,0.902260350543066,0.902880548660846,0.903980500943686,0.90467790456048,0.905870487946622,0.906775972360949,0.908263732736939,0.909793515931488,0.9119551518392,0.91359853157778,0.915793244058333,0.917209695753583,0.919089780022991,0.921253835633656,0.923790583513762,0.925165566515385,0.926352729404504,0.926620566245188,0.927717105307415,0.927895870307208,0.927822287023288,0.928075244391533,0.928756686604649,0.929418806396575,0.930049392475398,0.930350069509231,0.930545202228608,0.931164453698322,0.931782547864463,0.93232680690401,0.933006458243602,0.934317166066139,0.935817495362541,0.937091048467463,0.938452846325653,0.939515349604513,0.940702493231598,0.942025671247308,0.943542014316468,0.944997800842725,0.946689171915712,0.947624420626172,0.948960429161771,0.950644555723282,0.952788628163594,0.95415802199156,0.955883205686549,0.956601293824634,0.957812621420254,0.958532021546342,0.959875228162036,0.960355284840043,0.961594972287672,0.962464616871469,0.964143614101405,0.964851168621651,0.966284628571616,0.96714134770755,0.968592056495134,0.969087114805086,0.970012541714567,0.970996105844622,0.972353225644374,0.974008298029679,0.975908827605925,0.977329388339939,0.978986173556199,0.980279904811963,0.981870525791532,0.983263825773203,0.984858294514757,0.986965545541882,0.98893392627204,0.990065532073964,0.99117289682609,0.992073269210933,0.993083105318068,0.994447414615858,0.995813267081651,0.996747831637901,0.997577388260072,0.998287381765642,0.99890041006592,1.00026139912169,1.00149763106245,1.00314733402727,1.0048866168937,1.00784175869497,1.0096970502292,1.01112344762907,1.01273679955696,1.01405078251578,1.0157100701237,1.01686931336725,1.0185794188432,1.02005752407339,1.02230661240086,1.02568875228619,1.02940006138399,1.03076124250901,1.04032631852355,1.04376253178382,1.04260168096664,1.0444332568379,1.04722174331166,1.05241854754397,1.06496653240367,1.06906253295475,1.07052169228205,1.07154258318367,1.07233462207291,1.0750298798156,1.07795880716903,1.08129896636165,1.08197489193439,1.08321248777699,1.08392322168714,1.08493043181181,1.08600953024259,1.08853193822066,1.09836544562608,1.10561541889861,1.10650622441404,1.10838568010629,1.110497000527,1.11276395514254,1.11439498041481,1.11601691696338,1.11760093592382,1.12088076753555,1.12464113981469,1.12875468567822,1.13384672008186,1.13728369905771,1.14070389360624,1.14248941937548,1.14420065634715,1.14619966731204,1.15018748109458
0.887699766216084,0.889376311321637,0.891099163834157,0.893201971889694,0.892991634604029,0.894185429183322,0.895392860013401,0.897797225440775,0.898114935292551,0.899520879952199,0.899445406176287,0.899893869490419,0.899026198894822,0.899489680913368,0.898831233339228,0.900395911541983,0.900252811386851,0.90097216368265,0.901648936440251,0.901984299387884,0.902235850855551,0.902637804536998,0.90259471891399,0.905176271800605,0.901972854142426,0.90164095569003,0.901681841634277,0.902808265535841,0.902982490605319,0.903619870255725,0.903876742390112,0.903620561168582,0.905126320289819,0.905542988213531,0.90714609246923,0.907910327729571,0.910395376004344,0.913026046073323,0.914759979910662,0.917698186944535,0.918376153704895,0.920301519436383,0.922611648500273,0.925826615634057,0.926739426598557,0.928605417187109,0.929710292874933,0.930749572842931,0.931954732549609,0.932635728278884,0.931620739347709,0.931552925273449,0.931762477962869,0.93250427508306,0.931987557326315,0.931828820399482,0.932257642747868,0.932380193301316,0.93306629035202,0.932935394492294,0.934802633124839,0.935500237031531,0.937611497778316,0.938884322267933,0.940013298912584,0.94009358160969,0.942430895340488,0.942924561833767,0.945462329278774,0.946018797986328,0.948337186918592,0.948348868372342,0.951527659790779,0.952190183240724,0.955101744255067,0.956184074116537,0.957648063424424,0.958098059774241,0.95910647295581,0.958717272521655,0.960216081653014,0.95893001184878,0.962656113042897,0.963447214986852,0.965425803227917,0.964492570130982,0.96762832245594,0.96770620783784,0.969773270980286,0.969086676508341,0.971559640629871,0.971106564432168,0.974686333046271,0.976051543099177,0.978062025354942,0.978454168680753,0.980901313443085,0.982026888465368,0.983465407747589,0.983313314870855,0.986620192860325,0.987962138208302,0.989580302797696,0.989633072724562,0.991682345575979,0.992449616692398,0.994423475546398,0.995676607249355,0.996861473314525,0.997548947456658,0.998725805514587,0.999262984511572,1.00106135999076,1.00207921453077,1.00416629562239,1.00590700988664,1.00788912660491,1.0090964535221,1.01098190144868,1.01199107555412,1.01391259993452,1.01474166248252,1.01654425303582,1.01656327599275,1.01928897597843,1.01964751540496,1.02271282145042,1.02203724123525,1.02894370633238,1.3925999992661,1.04164903147515,1.03796840876176,1.04100869285189,1.04254053992129,1.04255172024166,1.5005299992661,1.10333927494809,1.13936997707908,1.07093939851753,1.0687441160099,1.07412546695166,0.00425433935007436,1.08218176765854,1.08086372127519,1.08275245480765,1.08253137655718,1.08402301576301,1.08505180475385,1.08536755978034,1.10027638266005,1.10342319371264,1.10410918973592,1.10723735256129,1.10880740238047,1.111531008258,1.1125953354309,1.11472230861023,1.11469476136015,1.12012791067721,1.12048085812705,1.12655304290143,1.12763849671427,1.13325357516113,1.14176939065127,1.1427940940085,1.14468512047792,1.14515634687842,1.14727209344694
0.896733120184834,0.896075062727388,0.89528178745359,0.893949439898475,0.895615861512572,0.895419644139271,0.897331757621135,0.898114484660897,0.899538545340818,0.899873755020309,0.900758233526216,0.900382249294583,0.900580535716992,0.899555165114198,0.900096713561759,0.900109803145408,0.901427742687741,0.902024287599966,0.903041722874442,0.90386463134644,0.903791898124364,0.903779802574171,0.903962912932103,0.904139030541812,0.903186841008775,0.902372767077273,0.902436430458013,0.902969603613019,0.903174225834012,0.903812830011686,0.904154741337943,0.904852871999551,0.905514477101029,0.906478196531534,0.907342454337948,0.908525150510676,0.90996639927766,0.911751394251302,0.914219355942313,0.916473880712008,0.918113971310066,0.920528973042156,0.923101098542717,0.925475376787129,0.927164493393327,0.930497100642255,0.931571067011909,0.933236436690393,0.933825499716479,0.934409209921122,0.933813248245552,0.933453633211979,0.933531228969476,0.933584368535977,0.933533385211771,0.933190349515768,0.933561191981465,0.933848231408956,0.934126563206774,0.934608107793819,0.9357246864055,0.937033316594709,0.938210530251097,0.939410600490901,0.940752549445009,0.94211212185589,0.943583687451813,0.945187633214356,0.946460818181452,0.948055230612665,0.949688330094306,0.951779415560788,0.953186338950245,0.95504300072593,0.956168261221115,0.957673567775287,0.958005994025763,0.958840145779131,0.959224073654495,0.960221201478711,0.96070840539879,0.961900045897426,0.963342885982558,0.965503276918761,0.96638846457205,0.967932988572714,0.968830719029,0.970360974219163,0.971202558808531,0.97257329508058,0.973323918773262,0.974547590463058,0.97596556835485,0.977751413203817,0.978765611051618,0.980160085204797,0.981202894241332,0.982774802475478,0.983847215888391,0.985483595996968,0.987023398969847,0.988854578393234,0.989622332717958,0.990535824748119,0.991827189019532,0.993266949309781,0.994573818079526,0.995874010018883,0.996961301820234,0.998000314316779,0.999236033491622,1.00048442209665,1.00196845296294,1.00349706672856,1.00475952325324,1.00621150502886,1.0077058233596,1.00931417633838,1.01068222155131,1.01227370718903,1.01347789226615,1.01501227583546,1.01589205545183,1.0172978166171,1.01852713164453,1.02043467399442,1.02177536345433,1.02342732161357,1.02625730158161,1.02779929711252,1.03075310943456,1.03607927895056,1.03840779217529,1.03979059658559,1.03892977838541,1.03876386009149,1.04072433797843,1.0441857470833,1.04957767733556,1.07370437911914,1.07695740288938,1.0811347608124,1.08276295380592,1.08284149575277,1.08309750855408,1.08280934584641,1.08337304756899,1.08369275679297,1.08336317665581,1.10037381718986,1.10225722299712,1.10350160908707,1.10619176858765,1.10832549843843,1.11050948447664,1.11216895250211,1.11381467658672,1.11577328288033,1.11864970438426,1.12111349615109,1.12455621590354,1.1273349024477,1.12985237685015,1.1334467618989,1.1366510901525,1.1393640415093,1.1423967998859,1.14400804623937
0.897373176710909,0.898399128944436,0.897776730008397,0.900438535627266,0.897768062396747,0.89742267843512,0.898221445922144,0.899735068679947,0.90034300045181,0.901295749631202,0.901688099019825,0.902705797381158,0.901613646629307,0.900232397153664,0.900349417536535,0.900039605244801,0.90234712470106,0.903114794627922,0.904633558607202,0.906109502759426,0.905231711078475,0.905146550413402,0.904441734291915,0.905416306622138,0.903366780880553,0.902651527409373,0.902755641559919,0.902684401726523,0.903536470028472,0.903238265288364,0.904730432951148,0.905080267493227,0.906187090108006,0.906550347612262,0.907695553192052,0.907989344909862,0.909518590433003,0.909459630385147,0.914043012995849,0.915596139887181,0.917107530222673,1.4702699992661,0.923767694293806,0.925658186819206,0.926530035730899,0.933956200520835,0.933576432547708,0.935462298674645,0.936404565137067,0.937877254672434,0.936125967927659,0.934647127980457,0.935169894668651,0.935280102492444,0.934965094739399,0.934131471270844,0.934817017899579,0.935082040549719,0.935264012908828,0.935063116042475,0.936844450974629,0.938168116906726,0.939025691059123,0.939578474926805,0.941571681423069,0.94372011992533,0.945044277493368,0.946634190574894,0.948074275578611,0.948454096906609,0.951717988984039,0.954144014186067,0.955575532939229,0.956886234837293,0.958009077670208,0.958654069993756,0.9590165613853,0.958312924867727,0.959984837607668,0.960319299705642,0.961939118697051,0.962442380824669,0.964912179681878,0.966514159490705,0.968303213886112,0.969774703867841,0.970849559708134,0.971712783250046,0.973298577515911,0.97496066994796,0.975606776097411,0.976213039953609,0.977805114787899,0.978616480061271,0.980078888453036,0.980521012408653,0.982033123796237,0.982345343353417,0.984679563141047,0.98627770694893,0.98803510992707,0.989541166223793,0.990226963155482,0.99010939502382,0.992289198915341,0.99352993169218,0.995028104289009,0.995693901017081,0.997326910906865,0.997644365121479,0.999898475974714,1.00082207744052,1.0029502542613,1.00450751170922,1.00533104207839,1.00575663693062,1.00769569712189,1.00898715700251,1.01068954049303,1.01196152253071,1.01352032265099,1.0144952541173,1.01592191020903,1.01609654848888,1.01857930531202,1.01958634464007,1.02159159047708,1.02239555175921,1.02472843188463,1.02535044406766,1.0277711765664,1.02722165461705,1.03562204623563,1.03552351056752,1.03638261524907,1.03813387505843,1.03912120067834,1.04126730064439,1.04769270268622,1.5149199992661,1.14486192003044,1.4810499992661,1.15148055114081,1.5232799992661,1.08288317146025,1.08124542754142,1.0828614273809,1.0833207295759,1.0820631765019,1.09733920317227,1.10079264437934,1.09963290520898,1.10512869173994,1.1063110662915,1.10970404935218,1.10999931924958,1.1129877125387,1.1145565169475,1.11795096852817,1.11986503967463,1.12260974671751,1.12648453184516,1.12779789932069,1.12738025165026,1.13287810779556,1.13886253963968,1.14125905823169,1.1422756244969
0.899066736385617,0.898873290762175,0.900013015894457,0.900327431769242,0.900245157831685,0.899632540676608,0.900577956218119,0.901118588936626,0.902239009112156,0.902834590768969,0.904108982816505,0.904509993772388,0.905347542016788,0.905538513451829,0.906040286301153,0.906067524214387,0.906253853667321,0.906146777310065,0.906819814001612,0.906631810358976,0.906034697954045,0.904983452669675,0.904286939796004,0.903580181973547,0.903177660363695,0.902646493506475,0.903154199597406,0.903665911504477,0.90434681134691,0.905043206047378,0.90561477241454,0.906263850854188,0.906741465429452,0.907355746874811,0.908082592604186,0.909009583716757,0.910139391940449,0.911432092208331,0.913805322745307,0.915706880875262,0.917399565954218,0.919412703968855,0.922189638249574,0.924583251230242,0.926542125853733,0.930468921283296,0.932142381290397,0.9363369776814,0.937300314554838,0.938248422683998,0.937419495159111,0.937694154785194,0.937508030241154,0.93774918675454,0.937342343452407,0.936235636957513,0.936427243104099,0.935952199882951,0.936251164159962,0.936631483934346,0.937968577620319,0.939103399451324,0.940281018409765,0.940956166609125,0.942773198793718,0.944069131333322,0.946064108776601,0.947704976069002,0.949461413406725,0.951408537933458,0.952887469699269,0.955038756798022,0.956321053763529,0.958372502503308,0.958612508244687,0.959560304008972,0.95941131646535,0.959977432039775,0.960322852647055,0.961428947656046,0.96235806546592,0.964071445910111,0.965290618152283,0.967258639926901,0.968489091499531,0.970386307818917,0.971184483412889,0.972633426699538,0.973627016589143,0.975280981158884,0.976370845707269,0.978073776916367,0.978865162842681,0.980180147020637,0.980763862426253,0.981869247110671,0.982351147428918,0.983455777840149,0.984598927340341,0.986359984754499,0.987857257559879,0.989733975950159,0.990484745699846,0.991565465493471,0.992815630979097,0.994408248601953,0.995588912169201,0.9970113326603,0.998302829895689,0.999867746392568,1.00117661964515,1.00273680287559,1.00382313420016,1.00504264686584,1.00569057860257,1.00646076044317,1.00775092570861,1.00915621778277,1.0104469620865,1.01185228715223,1.0131711362587,1.0146976544375,1.01575437624948,1.01715850891376,1.01819696242068,1.01972126350406,1.02078397238392,1.02229303846206,1.02380979324356,1.02534180778514,1.02704020269855,1.02876367082689,1.03221801167331,1.0337309482711,1.0351486892271,1.03662942383076,1.037813787637,1.03913156086859,1.03982020967679,1.04144021920964,1.04360044933058,1.0473900460183,1.05138745804997,1.05517575901844,1.05984606657797,1.06610788825679,1.07144107235544,1.07583926395704,1.07934590139384,1.10056474976007,1.10216948005421,1.10343182452281,1.10626814204245,1.10826696262077,1.11001736989977,1.11104626164601,1.11196369163015,1.11499481035736,1.11752682610831,1.11969006084469,1.12194907271021,1.12376415829751,1.12524365890123,1.12629136435799,1.12610412669311,1.12747379636195,1.1302319558127,1.1330644875241
0.899667864906148,0.901717257221077,0.900945299480545,0.903291631068978,0.901423881828764,0.902491327906198,0.902092644544425,0.903124083757564,0.903806018422383,0.904880372462963,0.906019764694704,0.908505609847208,0.908389062993408,0.911197692941697,0.910041258135048,0.911086184944188,0.909286638293595,0.910331375022713,0.908662022085854,0.908174671485555,0.906771555490465,0.905344604430575,0.90343750311371,0.903040474671837,0.90222376587139,0.902474511971868,0.903072967392806,0.904676364288565,0.905102258673367,0.906808913950858,0.9065592347181,0.90716519539275,0.907454015014418,0.90725156213352,0.908656312025667,0.909044050114975,0.910909198919162,0.911829214313998,0.914294653578162,0.915521632760736,0.917613867109842,0.918086684759569,0.921514489194938,0.922880173472594,0.925877409596424,0.927853726336968,0.929274966874659,0.939669627289619,0.939075055838886,0.939457253776137,0.938144250226993,0.940877991065988,0.939270884308442,0.941409680684312,0.940046078817275,0.941686104639468,0.938555896512728,0.93568387943017,0.937398876625959,0.936829887103471,0.93927572548785,0.940334460868161,0.941523605139635,0.942207073880419,0.943836248770745,0.944694911196895,0.947090883703254,0.948514537866471,0.951202912719778,0.953330386898749,0.954515022116354,0.955023264173653,0.95750083871518,0.959903095242258,0.959679406992141,0.959871579305428,0.960234364030497,0.960198786647343,0.961070862814875,0.960994200416164,0.963226358931257,0.964394316524018,0.966166018135545,0.966971831006309,0.969176354478427,0.97042312209459,0.971917954166888,0.972429234998634,0.974220232108432,0.974682406416217,0.977367977839619,0.979367692636813,0.980272929106512,0.98090666815032,0.981897046440233,0.982177140274313,0.983099378367658,0.982864923668483,0.984938747149269,0.985193027791582,0.988207233552461,0.989798928329515,0.991126425705237,0.99186754482605,0.993555275955737,0.994872383368051,0.996407312479658,0.997648055272545,0.999519805746731,1.00149899128552,1.00270467310063,1.00432648278971,1.00495766153213,1.00551390681619,1.00618377131942,1.00617791512926,1.0078948200678,1.0090229692586,1.01038089251951,1.01123749149027,1.01312513777075,1.01442788890083,1.01601785539477,1.01718700062831,1.01832887727182,1.01857974911229,1.02047989302115,1.02069537942,1.02337495372067,1.02427573456421,1.02659331720989,1.02773845552264,1.03049878000032,1.03126551837365,1.03384203108893,1.03495805804666,1.03665425704504,1.03723565866214,1.03914995844278,1.04079809075726,1.04223442222587,1.04293651525255,1.04895570096687,1.05047775764451,1.05810461730214,1.06422898142222,1.06863239380465,1.06748961346314,1.07882077682335,1.5227799992661,1.17084504666276,1.6849999992661,1.08561669903432,0.0040151893473933,1.09643549354429,1.11085386285725,1.10903556620363,1.10432698756487,1.10580179299119,1.10841369874545,1.10910918070615,1.11043988681902,1.11187088681723,1.11311482616242,1.12475697321165,1.12667638912326,1.12619589782249,1.12847391795529
0.900492677059267,0.901197192507302,0.901577294219356,0.901769245668937,0.901884373084313,0.902037025951626,0.903169469044279,0.904430859875211,0.905759401092762,0.906701337646246,0.908247856516923,0.909284405267342,0.910550552329666,0.91107365768977,0.911531754243134,0.911003107097673,0.911396327446444,0.91101307759063,0.910907732842079,0.909188572103076,0.908561172521041,0.904576934370664,0.902653725143917,0.901938662520361,0.901898313724328,0.901728641562215,0.902913020386202,0.903771174475309,0.905236351646146,0.90580360346973,0.906961406307825,0.907353139449357,0.908348977762159,0.908955339579805,0.909582798579829,0.910292058883544,0.911589773206834,0.913114200334307,0.915079574582659,0.917114252908315,0.918474199441397,0.919946287488425,0.921407449062292,0.923147058528952,0.924246708209194,0.926192269575344,0.926890853526469,0.928323646722841,0.929084854504828,0.931893878329346,0.933989925209513,0.935501321653867,0.93712098498844,0.938922252939649,0.939701450974476,0.940704344629728,0.940524724677277,0.941425397206139,0.941020237737117,0.942488348184027,0.942579483323625,0.943339635493108,0.944448616182539,0.945493905020466,0.947202737353373,0.948283406595045,0.950137577394677,0.951555828020272,0.953032784120435,0.954626576716566,0.955166821686924,0.956338117514462,0.956955507138457,0.9582888858275,0.958582765857246,0.959520960839826,0.959796474112972,0.960671027714428,0.961177532051794,0.962215406227924,0.963601181612755,0.965321378693622,0.966544983163439,0.968007054877019,0.969487226576237,0.971048214926265,0.972314990645462,0.973655253103179,0.974782371190312,0.976201656423256,0.977656767386152,0.979513185232564,0.980470749145442,0.981830461615563,0.982155010666796,0.982982464088711,0.983385992252987,0.984387468420203,0.985576553651252,0.987244179841148,0.988671821106568,0.990366608546483,0.991289257576741,0.992505265305232,0.993756201266094,0.995373924467596,0.99662273574808,0.998277176749221,0.999665304364914,1.00155742097964,1.00285445836811,1.00460234469358,1.00537451753214,1.00639244227736,1.00683615159693,1.00741271862975,1.0083261418452,1.00934241245661,1.01051224713882,1.01174861259546,1.01312523524039,1.014583491098,1.01579807628015,1.01715845974049,1.01808331631045,1.01925570992355,1.02043713754175,1.02191107958341,1.02340780655018,1.02512767741447,1.02644151240729,1.0279670146695,1.02991447312915,1.03170978363094,1.03328669185589,1.03466957134909,1.03588161614837,1.037058998797,1.03821679789612,1.03964978364617,1.04109219884049,1.04280201287453,1.04694068525666,1.04839189985623,1.05707491305224,1.06688579826609,1.06976533166312,1.07140898324135,1.07587914337328,1.07642135247273,1.0804695412646,1.0830985409566,1.08508124869558,1.08748921614045,1.09068723869537,1.09521422990634,1.09935136060122,1.10289654131616,1.10509904079138,1.10721186660108,1.10888436260167,1.11092900703876,1.11182294445897,1.11743214908864,1.12195960518973,1.1238352123417,1.1241028375596,1.12572541130361
0.900773458886281,0.902970353769434,0.90194964777575,0.902449578406229,0.901693978568678,0.901597504469705,0.903433253566274,0.906525505647808,0.907285920428769,0.908736260861394,0.909872508334568,0.911759928729905,0.911784429325785,0.913080426985976,0.912102876024925,0.912202676540538,0.912320209357646,0.913339755919082,0.91344523281842,0.915172943852848,0.913101137655042,0.898306284483189,0.900543187610329,0.901710133577131,0.901196717653765,0.90083177614027,0.901857401572401,0.903025508308726,0.905048826713583,0.904972786616603,0.90756555377973,0.907366307085842,0.909556886758154,0.910600303665577,0.910636977415632,0.910413969564983,0.912338034152881,0.913001537061096,0.916593213704712,0.917859269240069,0.920024982982069,0.920006226061642,0.922283529310569,0.921398524531136,0.923681539978433,0.923060675266934,0.924728108038459,0.923799907005784,0.926804107199352,0.927600941398723,0.930623647074305,0.93067810909463,0.93505801545742,0.937548179799948,0.939001500029386,0.941347478400885,0.941422225229954,0.94351901731174,0.943063952875551,0.944825731607277,0.944892184985064,0.947278264039074,0.947106758733147,0.953194686906246,0.951652886522081,0.95487334195309,0.953272108764484,0.955370355317484,0.954904778262827,0.95568784165031,0.956274206514512,0.956401590542898,0.956932796142494,0.955894905246268,0.958038654120987,0.958136862828256,0.95983005493055,0.960067632454917,0.961649920139465,0.961903914641564,0.964366004030298,0.965770050390365,0.967248863924455,0.968319588030563,0.970079455274328,0.971382429882999,0.973028406497297,0.974123503858648,0.975636508787416,0.97644457952538,0.978254638000937,0.979187712583246,0.981084720778723,0.982283462721822,0.982850142139087,0.982628994227742,0.984073002734407,0.984194962448752,0.986675421611602,0.988205094049805,0.989650848959779,0.990635579794586,0.991773720632149,0.99222318594222,0.994136916976348,0.995372184127087,0.997044949435269,0.998170505014633,1.00003733761389,1.00110331454215,1.00330631862336,1.00484352764201,1.00613876931963,1.00715913983578,1.00767139465714,1.00800323106031,1.00874641208847,1.00940390431008,1.01063207612933,1.01193126997007,1.01325234231607,1.0144853299379,1.01587496361151,1.01669187953343,1.01821498212247,1.01876011319232,1.02077101488815,1.02185566634893,1.02379405811283,1.02529773919346,1.02645401495826,1.02705033967746,1.02966567427167,1.03168363875454,1.03304102569482,1.03398643736648,1.03544835617452,1.03615671824502,1.03749860383872,1.03777049370689,1.03991149071714,1.04043391458708,1.04668908030258,1.04750502334595,1.05461745125004,1.5192899992661,1.1506705330116,1.4800499992661,1.07431400512172,1.07026498718762,1.07172036309843,1.07122377878587,1.07823920971267,1.4972399992661,1.08914381874961,1.08766902168911,1.08654408039942,1.08529501716327,1.08543611416119,1.08724054975219,1.09861310648107,1.11257930370262,1.1124262083729,1.12512012015537,1.12213574389261,1.11926714272524,1.11787471727516,1.11520218187025
0.910758470202139,0.910212634358418,0.90980164558287,0.909381352604539,0.908799847704264,0.908304025337213,0.908254247129106,0.90838001898377,0.909231243157513,0.910419471852951,0.91180874588303,0.912731059085772,0.913694427454306,0.914024970183548,0.914158250907722,0.913710443658201,0.914537718975993,0.914969166569338,0.915661347399213,0.915995042114228,0.915904265086216,0.916148566558961,0.916520115977936,0.916348977707058,0.915652261655984,0.914398028031322,0.913956514521888,0.913090810861478,0.912475033120011,0.912798149424456,0.911986017346368,0.913017949251437,0.91249152790732,0.912441065578101,0.912234562418747,0.913389007724594,0.914516435874475,0.917544733660173,0.919335475807536,0.919917802446435,0.921604620522525,0.922101537491664,0.923413229527355,0.923411380601788,0.922844419546556,0.923163416096599,0.923573516551188,0.92438202200269,0.926109900901657,0.927666228539799,0.929628131363053,0.931407635786848,0.93364292592692,0.935727677872561,0.937571672637645,0.939328543410552,0.940656555429225,0.942185560847473,0.943170844281307,0.944698978829595,0.945775007894294,0.947221761723503,0.948785443561955,0.951111673417801,0.952158493609685,0.953255459501776,0.954006353477158,0.954943010526027,0.955329336691335,0.956291847038745,0.95625244350229,0.956975413315125,0.956626375735299,0.957053691015958,0.957767109540147,0.959089364601157,0.959881331976393,0.961113084949503,0.962525818586563,0.964133949810481,0.965682506333774,0.966784689606919,0.968290518382416,0.969496120387281,0.971280572522553,0.972573541860819,0.974190284539203,0.975228223480529,0.976363987186953,0.977406882920229,0.978517864111632,0.979949134057982,0.981005093193251,0.982407623649129,0.982815716299825,0.983712373380054,0.984572149629117,0.986057033726249,0.987377449151252,0.989163096999666,0.990001987972171,0.991132719971017,0.992077618123726,0.993271056102016,0.994376249663902,0.995753625197466,0.997054106370216,0.998759419175138,1.00005824866666,1.0018663061015,1.00324317284306,1.00513190798702,1.00624920370445,1.00776532020226,1.00819872960884,1.00888171139415,1.00915044989811,1.00962312996891,1.01070595527214,1.01189006252684,1.01332598958427,1.01476980631758,1.01604447357615,1.01743509964928,1.01850663229009,1.01986370502888,1.02100904781089,1.02253245624804,1.02355936579412,1.02496806039392,1.02610966058021,1.02761322095683,1.02928720735122,1.03115875913668,1.03262116110344,1.03406459348336,1.03520549392451,1.03628515595718,1.03728438957798,1.03833172688183,1.03999638127434,1.04181690739239,1.04511897802486,1.04745032531085,1.05035360815396,1.05020830223012,1.05121320961542,1.05252051469994,1.05525898019107,1.05752696931576,1.06032761489009,1.0639719984594,1.06829119226207,1.07236192703456,1.07567325743986,1.07810725656901,1.07992307332263,1.0814322254278,1.0830624971454,1.08462171568653,1.09779718541958,1.10395732333493,1.10757065048911,1.11058224373909,1.11381810072294,1.11568089001948,1.11592556354914,1.11538053391565
0.917784791408744,0.916460568287798,0.917674648268835,0.916993236844904,0.918726058556292,0.91869342762993,0.914842055990818,0.910614743482448,0.910772348430753,0.912721486769779,0.91380216420791,0.914596854300208,0.915276588696453,0.916610522863071,0.915652516077479,0.915512654302594,0.916155891024646,0.917468423349269,0.917357171326259,0.918151320947931,0.917922575662139,0.918789657375941,0.917959100029358,0.916237426300549,0.915452453896139,0.913149307202979,0.91390706902738,0.913949060295477,0.913750331115036,0.914514692736264,0.913579303196474,0.914564882361632,0.914830829151446,0.917609053894832,0.920335790097226,0.923080080580949,0.920529549537211,0.918632900939202,0.923761627609786,0.928213286133859,0.928152527905263,0.928815605557969,0.927049827899574,0.923380350571899,0.922750701782056,0.921501483876396,0.922992286850791,0.923820189378556,0.926188738262974,0.926393237780211,0.930093283146014,0.930598057819002,0.933180725933326,0.933652538373489,0.936352242260493,0.937857792076128,0.939789584915974,0.941288780648544,0.943030688743045,0.94501952916538,0.945943921478048,0.947879760297691,0.948761465303469,0.951264049700653,0.951420979947009,0.953531061403862,0.953623570984225,0.955347161411372,0.955519464100185,0.956522921143985,0.956603945422621,0.956774121628584,0.956814109101694,0.956069526500304,0.958037558196034,0.95908009487356,0.960279516290289,0.961313589773549,0.963492174346889,0.966489611421689,0.967027835915822,0.968153534510875,0.96919349395431,0.970755612706732,0.972362784810922,0.974567120557724,0.97536997561478,0.976482680486616,0.977210021244715,0.977453941787283,0.978986859311717,0.979878221338805,0.981343601774469,0.982083020631696,0.983235121285228,0.983290872394307,0.985428227177927,0.986654524337003,0.98847825357276,0.989914158729558,0.99071288847168,0.990962535599301,0.992611914979966,0.99369789325281,0.994812641781422,0.995393460017303,0.997292833882819,0.998661622129917,1.00041273517568,1.00176893990827,1.00356976992948,1.00500308486256,1.00666789713959,1.00868913145928,1.00881463060925,1.00993515512752,1.00935126148976,1.00933204273104,1.01054651009458,1.0117016628668,1.01335605011982,1.01505803216727,1.01628185018933,1.01796105092763,1.0189041163171,1.02033441828725,1.02137091192469,1.02270722005355,1.02344292259762,1.02390841059673,1.02582103216695,1.02712988456816,1.02898678025206,1.03035708465483,1.03232230029386,1.03389341171363,1.03508997440218,1.03594823306063,1.03718880251142,1.03781510706962,1.03993875988149,1.0415807893029,1.04419263475108,1.04625121303389,1.04805136059451,1.04793207256768,1.04999638480847,1.05038715293336,1.05548669823325,1.05682375206466,1.05750178004628,1.05914562979548,1.05976815658961,1.06130015675203,1.06135851318311,1.06170378888837,1.06248186412698,1.06265885338658,1.06489116084796,1.06658466766427,1.06836468647691,1.0700160147264,1.07105153464565,1.0716130190384,1.07297780712655,0.00413147934869706,1.14755996620562,1.4433599992661
0.918412229096487,0.918478039471419,0.918841021023938,0.91902995600518,0.91974959830056,0.920275144572265,0.920475681805311,0.918978144599768,0.917656161167496,0.917149646468484,0.916705014326046,0.916446328409877,0.916647412839837,0.916887781822078,0.916720401409748,0.916565304246499,0.917336442550259,0.918114566616986,0.918593415827076,0.918967534782687,0.919053762068407,0.919068094897033,0.91829962850123,0.917168575230407,0.916574368382465,0.916404588525926,0.915486245126906,0.915130300536252,0.915328220228661,0.915950639510625,0.916845601831862,0.917995939440457,0.918987463484265,0.919948222767809,0.921217098335933,0.923700107653588,0.926646642420401,0.929181288651669,0.929268363395316,0.929895303358627,0.929995913561099,0.930871572028882,0.930786463192838,0.932738487683436,0.933302076237001,0.932815085089472,0.932218682097518,0.931681473639923,0.930649463171072,0.931625362007339,0.932217951159084,0.932217862906135,0.933251620197072,0.934157944987896,0.935860040728596,0.937249138505008,0.939243095853254,0.941055897575059,0.942373543258556,0.943812008313078,0.945168848474693,0.946779444443177,0.947983830587215,0.949199310185455,0.950278754842453,0.951228488419041,0.952181012030487,0.953300918680135,0.953907459590958,0.955058990346702,0.955113296410871,0.955862530795791,0.955900918734383,0.956688626846705,0.957615095671459,0.959095579059528,0.960101481846962,0.961549842576884,0.964025634459903,0.967628107059884,0.968745435469493,0.969069988457914,0.970902013067987,0.972125573922763,0.974468254995866,0.975297206214209,0.977835723120165,0.978585941133464,0.978723099059279,0.97845974606747,0.979178331852878,0.979916954758997,0.981102750604169,0.982354083730765,0.983256722937018,0.984548256787023,0.985701901012108,0.987477588280838,0.98870889280336,0.990430440595289,0.991052823518265,0.992042456564202,0.993034361750968,0.994272921766733,0.995098654618542,0.996056286656415,0.997120337636868,0.998464683485913,0.999914670554299,1.00176034157843,1.00293407151022,1.00455152249442,1.00568031543881,1.00719654270565,1.00791580678615,1.00878560468121,1.00896414233069,1.00926013605919,1.01064123838801,1.01208429434281,1.01342033079097,1.0147204424486,1.01582232105617,1.01705659655978,1.0182112614729,1.01961447286974,1.02055762432417,1.0217779358124,1.02259816181828,1.02379180102354,1.02516083971996,1.02694560012195,1.02833684797008,1.03007784122282,1.03176002659259,1.03362031491958,1.03479516535215,1.03604872263346,1.03726699360917,1.0385910643056,1.04001446872544,1.04155025185052,1.04345965678494,1.04525924186189,1.04683990096449,1.04797902201879,1.0496124490616,1.05114715975331,1.05377852670466,1.05524163966786,1.05660922140745,1.0578067682134,1.05895015388296,1.05989892563764,1.06097859601359,1.06185824095719,1.06285210379674,1.0637514487788,1.06509380402431,1.06645848131081,1.06803922060527,1.06953672669369,1.07080251391437,1.07179044606945,1.07283901733976,1.10882174125906,1.15322883556386,1.15584317051149
0.919212556938528,0.919341342449239,0.91979993695478,0.920093925299728,0.920674511272071,0.922102063916612,0.922123716501682,0.923687750596291,0.923357616846274,0.923413166539231,0.919695455131673,0.918200130892125,0.918066180720696,0.917752345412021,0.917663902436083,0.916658770329182,0.91831096518993,0.918827764532441,0.919573720137036,0.919969270825369,0.920038929128172,0.919831294234571,0.918727086005523,0.917302633966694,0.917308976627387,0.918246385687675,0.916739305807291,0.917250489726695,0.916618136096669,0.918089067253716,0.919930471867845,1.3264999992661,0.93391542135679,0.933588956173573,0.934257237580515,0.932464132772541,0.932778262522172,0.930266409553573,0.931572195232307,0.930909000025023,0.932359297589671,0.932064764789757,0.933509219957611,0.933499992676448,0.935847419101229,0.936334759319764,0.937912577754335,0.937414520538833,0.938931511706635,0.938232291782863,0.935466168116891,0.931258272081739,0.93408912602618,0.933274723991402,0.935932153734102,0.935793253678549,0.938992696211307,0.94101807079073,0.941871504450204,0.942171387941991,0.944372403296186,0.945896418356249,0.947022351998084,0.947699978508978,0.948894701039746,0.949269425972109,0.950696271708908,0.950912259272685,0.952631288320598,0.953050043017144,0.954135768712603,0.953793299335353,0.955504845904641,0.955346828069046,0.957700795211478,0.958413714749026,0.960078537569863,0.960895641646341,0.963435740843515,0.971614410665354,0.970625945428769,0.975986809925994,0.972994850353257,0.984837625139898,0.981295822288996,0.984065698575101,0.981192105895375,0.982719849406987,0.980113440319239,0.978129527050245,0.979551112323984,0.978848611359799,0.981411288476434,0.981518289761812,0.983885132851301,0.984341603503978,0.986406681714583,0.987388705577445,0.989323041675095,0.990959382282326,0.991614317571361,0.992411451734201,0.99359130875527,0.99470059207701,0.995647521580278,0.995870074938878,0.997291193545567,0.99703852846637,0.999918024472617,1.00102048918739,1.00284416499115,1.00326692546322,1.00509126083434,1.00564112253276,1.00724053192538,1.00806645700649,1.00843830097999,1.00825721637066,1.01046695446294,1.01278724785048,1.01337585256214,1.01454825250451,1.01529837220525,1.01581842681673,1.01757318882044,1.0185832714169,1.01994927365252,1.02023264343179,1.02195609675889,1.02238894396696,1.02466451910245,1.02609531969421,1.0278291542068,1.02896819192502,1.03134731994771,1.03336411674128,1.03457034525264,1.03568426680897,1.03727703166646,1.03884536958877,1.03993080334198,1.04075310633573,1.0427347106527,1.0439274293316,1.04578332735064,1.04681406770114,1.04888720939946,1.05021417717831,1.05252736454501,1.05374880196791,1.05552269801684,1.05685893856338,1.05793913083504,1.05857252704723,1.06043857854941,1.06183582051134,1.06303582367023,1.06401742392655,1.06508370759025,1.06549080451045,1.06756420661697,1.06843407110918,1.07022824788278,1.07069490312413,1.07225548463225,1.5093499992661,1.15441079413207,1.5100799992661
0.919877567800569,0.919834798161087,0.920654295430802,0.920665534232337,0.921057468893997,0.921969139030746,0.922316548783887,0.923106963983469,0.922903961433483,0.92257613576332,0.920677333334987,0.919756960906424,0.920115616011559,0.920091085988594,0.920466874621241,0.922961090091512,0.922323621706283,0.921957564407273,0.920737995297363,0.920700950566307,0.921319036183895,0.919937373667617,0.919361842546341,0.918910721229917,0.917651485116485,0.917563450758763,0.91766940358157,0.918714897975595,0.920278421935886,0.922112446200565,0.921974390977429,0.928945243110971,0.933566890080204,0.935284299438601,0.935527174335746,0.935117340084944,0.934388185165105,0.933916239942035,0.933746426793858,0.934333322975941,0.93446628650931,0.935177921988789,0.935387163295298,0.936237845883232,0.937117817265811,0.938203132045323,0.938922937607774,0.939594368709139,0.939932126242702,0.940051068775434,0.939339295203123,0.940138638915608,0.939057627594266,0.939778264763182,0.938789741660705,0.938826378576727,0.939640339980922,0.940553733324318,0.941366208042118,0.942286751681977,0.943452338309112,0.944834518960629,0.945781385278242,0.946941738952481,0.947656170349985,0.948614594448937,0.949355542996711,0.950397824346107,0.951101203259147,0.952130074533577,0.952799630033632,0.953886523264173,0.955127170060062,0.956847210573847,0.957934667471319,0.959415804602549,0.960463022725041,0.961962584516284,0.964570550513286,0.96845995816143,0.970271411357187,0.97224935125932,0.97287946443881,0.974852520896054,0.97922074342765,0.981096319678658,0.981679206797343,0.981805556262231,0.981600607056943,0.981386809497718,0.981937267703232,0.982603490275062,0.98345504544355,0.984431995175981,0.984846381913882,0.985805818707337,0.986580854243352,0.987969905541252,0.988925135075494,0.990347245595895,0.991159153338654,0.992369898127357,0.993647196042311,0.995157588873983,0.996326010600082,0.997573096396623,0.998215019187666,0.999139741848709,1.00039459787033,1.00201735304406,1.00272133647178,1.00375690185081,1.00461779926156,1.00574762901325,1.00673883955618,1.00774260117903,1.00840582827264,1.00903466249062,1.01038092118286,1.01164951217026,1.01285691983235,1.01387599456687,1.01478974183675,1.01566276767113,1.0170720310739,1.01854152487465,1.01947699344603,1.0205113099231,1.02144111325712,1.02262461128506,1.02378550219144,1.02530269279234,1.02678683346338,1.02860208666792,1.03039777545624,1.03232635880476,1.03379359242853,1.03529599744415,1.03684316378008,1.03844330852778,1.03970949693079,1.04096154916665,1.04232387580688,1.04360802771052,1.04496116715306,1.04627391818796,1.04836456459849,1.05035046084041,1.05213800267721,1.05350394624105,1.05524005404664,1.05650409530461,1.05787992909662,1.05879505102663,1.0606547904803,1.06213615360913,1.06327551222626,1.06416726132669,1.06515376436822,1.06611477344419,1.06742339719338,1.06864115055357,1.06987890899359,1.07081097613167,1.07180252134075,1.08274557367845,1.08509305982622,1.08584120667209
0.924774621757285,0.928014686621499,0.922952119552263,0.921107111663959,0.921523268725095,0.922849335457991,0.922857973404329,0.923793450981525,0.923340900566921,0.923593894283682,0.921442109586259,0.920641972216654,0.923341190141087,0.929612886959046,0.92917707608202,0.92576474338856,0.928737225306063,0.92985613286342,0.930707807909932,0.92951348994361,0.925170317869912,0.919724024368803,0.920089559951788,0.921756245474278,0.925849028976417,0.930754013362995,0.931729869535136,0.931148075921149,0.927765911867411,0.924104689174189,0.923605235055246,0.924869315125841,0.935944159525353,0.937040055247002,0.937655935846783,0.936034903849114,0.93666773013615,0.935320840651773,0.936432498159137,0.936626738458689,0.937050732515353,0.937390779637474,0.937632699812367,0.937674734859355,0.938948109860956,0.939424951081738,0.940784366186085,0.940840639641084,0.941966001456402,0.941555351969323,0.942055362313128,0.941634300160396,0.941481949810198,0.941568587261434,0.940699845427201,0.941182891786571,0.940273535095618,0.939908337665315,0.941090374774658,0.941367403986153,0.942956095218628,0.943095508522629,0.94508077687656,0.94550718241197,0.946961246327276,0.946949151182161,0.948633499221175,0.948722799001327,0.950311598076536,0.94990252875134,0.952216585571466,0.952021022827784,0.955513626745707,0.95715476752208,0.958878106505635,0.959577630713779,0.961085442980732,0.961885794723839,0.964713296728904,0.967709145712676,0.969200528040063,0.971220442626826,0.971700686931826,0.97215705896537,0.979123474876588,0.98140249435955,0.981254185426885,0.982495078143074,0.982521105639656,0.983671608802977,0.984116805819322,0.986542649821676,0.985748557304627,0.986474486679412,0.98639409878297,0.985664666560431,0.987342883263036,0.987387210429243,0.98901972424818,0.989214733635466,0.990905089284384,0.991596711982014,0.993817840109443,0.995468347038586,0.997289085796941,0.999176686856173,0.999481314771603,0.999763609024624,1.00143876126087,1.00245549351537,1.00331611616221,1.00300439953684,1.00472317184523,1.00504350578516,1.00664927413502,1.00742984634909,1.00842052228718,1.00920270808058,1.01018453302696,1.01075454325118,1.01239257978956,1.01324553682841,1.01440416313569,1.01451111715272,1.01684815895723,1.01817943189564,1.01946306795394,1.01973549230964,1.02138469250974,1.02155575129191,1.02332856002725,1.02322793535275,1.02610617710566,1.02719853387741,1.0297648645943,1.03108288854273,1.03324564841661,1.03431739261628,1.03651914102804,1.03793232625574,1.03958652330861,1.04062858321074,1.04204780865634,1.0427081786349,1.04416224478499,1.04445728062238,1.04776171974859,1.05041703093473,1.05174921219123,1.05310299881898,1.05481697995121,1.05667724619498,1.05757954806027,1.05872518555608,1.06068722413969,1.0630410416382,1.0635090295649,1.06394361000579,1.06529049074222,1.06567993348718,1.06748758068916,1.06783929671773,1.06967317607316,1.06972947640564,1.07149453706398,1.07160370316854,1.07310529252011,1.07370477291781
0.930279138699299,0.931010007403237,0.932036029944353,0.933167186335565,0.931937055928651,0.930607334824746,0.929848190077837,0.929842364396201,0.930343437775968,0.931112536191103,0.932040418835372,0.932771044448376,0.933214485779243,0.932467392686848,0.931728361897021,0.932353323768412,0.931291739737763,0.931899984771811,0.932241286671485,0.933250038657485,0.9353287697479,0.936497616695324,0.937279142001123,0.937498700121545,0.936783017950893,0.933919085371457,0.933700802500497,0.935324650600542,0.937423266758674,0.939406003699668,0.94082757413165,0.941364878920675,0.940855776576372,0.939747345130254,0.939572996833424,0.939378889383051,0.938733970794798,0.939008916022605,0.938782212946627,0.939223423133245,0.939150215588177,0.939446502282195,0.939711702828722,0.940165781378777,0.941008392190387,0.941843213790245,0.942743116635892,0.943489984589161,0.944149753198333,0.944761284729991,0.944627472437828,0.943984987492067,0.943633347272159,0.942784090435147,0.941587924819347,0.940546879773636,0.940467401774774,0.940416672235169,0.941259017300617,0.942084549295847,0.942846989969365,0.943748932258774,0.944531075700759,0.94556977457057,0.946231356440759,0.947185026870717,0.947982214660961,0.94902021645365,0.949950714407245,0.951135525019826,0.952469833625632,0.954205533792241,0.955939464246728,0.95815387108157,0.959132828616057,0.960627478598051,0.961396193815629,0.962776268597053,0.964730554097064,0.966925298370945,0.968915145495192,0.97015000285355,0.972438632434955,0.974241478109685,0.977925507953206,0.979609838918908,0.9811259957015,0.981745366099387,0.982537881901295,0.983270021123641,0.984045933960977,0.985320274325256,0.985708417355359,0.986871693207374,0.986803309725022,0.987708106629684,0.987924410263429,0.98893050608297,0.989118810865963,0.989806335780756,0.990743906472636,0.992065758765905,0.994013397077046,0.996149893902697,0.997619583356361,0.999259617107031,0.99984420377797,1.00093935987658,1.00179305934196,1.00322588590053,1.00358059734522,1.00439235432308,1.00499285572621,1.00593703098875,1.00671321024486,1.00757319536225,1.0085163627429,1.00939282509653,1.01052975888544,1.01148764939531,1.0127460411111,1.01375872545912,1.01476613221345,1.01567476568714,1.01691486459033,1.01822451736748,1.01938005733564,1.02068750395431,1.02147241032038,1.02252560649295,1.0233285434706,1.02446008657269,1.02600638166921,1.02768992453412,1.02968411096942,1.03143095176841,1.03333523210254,1.03472766273104,1.03649653444558,1.03808170597342,1.03961055301943,1.04102276433988,1.0420615686629,1.04298777739405,1.04405236303795,1.04512980784946,1.04750387596274,1.04975468206593,1.05141924970028,1.05276049150812,1.05482111706039,1.05644142112228,1.05788446856745,1.0588952247684,1.06099662470034,1.0627565179044,1.06393843326749,1.06490302872396,1.06600428700473,1.06713510304831,1.0682453745358,1.06937064274334,1.07028802761595,1.07110894017035,1.07200022969239,1.07273606528347,1.07377720831459,1.074659819581
0.94371682370511,0.941460471346649,0.93910134877488,0.935314052139049,0.936731190844735,0.937288177511776,0.937745436626879,0.938276766254188,0.936359399435565,0.934713959731329,0.934950740883444,0.935602356188543,0.93468547526774,0.934562302873162,0.933612473195529,0.933260243820255,0.933364388407103,0.933172187066486,0.934399834999505,0.934892535181289,0.936249001324604,0.935954213880259,0.93694102416338,0.936244905090805,0.93814494371596,0.939216345225607,0.942554000367837,0.94407981238197,0.944083185256103,0.941382446655308,0.94288482261071,0.943183257079903,0.944419261949036,0.943748350672628,0.942360009572884,0.940782315180987,0.941299154389386,0.941678603287425,0.941313196648431,0.942141148782117,0.941196698619867,0.942016112611521,0.941521869299231,0.942749921210555,0.942932428977089,0.944039109953391,0.944891674801677,0.945521027449368,0.946825133816794,0.947697447773072,0.947696537633657,0.948391662665718,0.945957179602942,0.944951407385799,0.942020560536823,0.939805064107472,0.940258905004359,0.940301250347447,0.941506090872579,0.942265460963137,0.943211120628058,0.943255708326622,0.944664150391952,0.944468273931117,0.946230256753027,0.94606186549648,0.948064055542191,0.947976145330459,0.950295685678291,0.950729670850052,0.953360251077854,0.954758417790203,0.957055563396286,0.958583986659241,0.960087741982023,0.960710504993506,0.96210188089434,0.962049291148925,0.964975192228932,0.96625315298274,0.968702357605782,0.9697210321696,0.972881162443465,0.975313685606738,0.97778006684914,0.979401965696528,0.980993912830006,0.981208676519642,0.982631101701797,0.98216941418019,0.983901661043665,0.984254515389972,0.985733708094543,0.986777036964723,0.987585649432503,0.988452948867249,0.989054485644448,0.989563418474212,0.989752183957296,0.988971244551292,0.99081588691992,0.991260670269664,0.994357395372098,0.997043255639297,0.998135025941385,0.999706169516765,1.0003313974904,1.00119076908034,1.00252876899389,1.00355683678975,1.00446813242598,1.00452808024111,1.00579667679965,1.00600469478149,1.00714802819605,1.00725770852349,1.00872875711981,1.00937171739156,1.01091844934359,1.01202081338568,1.01328311930791,1.01410984467769,1.0153969602458,1.01592963436765,1.01734588827748,1.01744953561514,1.01980116488994,1.02088622857333,1.0221021443612,1.02231819622037,1.02381001454335,1.02403777928329,1.02619814577444,1.02748887488871,1.02968784183633,1.03198578057763,1.03365760638098,1.03472589685716,1.03672547739605,1.03784709938425,1.03997411718221,1.04128989374026,1.04243297491121,1.04260275214598,1.04414428222508,1.04406837524673,1.0474156052728,1.04955888585988,1.05115576311259,1.05207281651032,1.05465970071404,1.05722277257009,1.0578405591292,1.05891694868783,1.06099021906316,1.06366208123244,1.06428287020084,1.06578564109912,1.0667557102878,1.06818533701651,1.06923190009482,1.07039739366207,1.07116469475147,1.07162949389553,1.07262446109875,1.07304473814422,1.0745828123062,1.07622763207936
0.944296580254256,0.942180444807706,0.939732786058568,0.937152564606981,0.937188458311346,0.937463106341423,0.937593995262648,0.937318485200681,0.936161081863524,0.935204967429772,0.934989826122183,0.935452642447231,0.934787927974824,0.934406791845734,0.93369964343861,0.934258638105738,0.934178165769612,0.935350891326159,0.935661935288995,0.936889823201736,0.936954456464027,0.937315270455763,0.936681647808435,0.935940836737621,0.938727259780351,0.940617843898253,0.94333578237506,0.945291654318155,0.946104704579195,0.946430003439854,0.945622990166283,0.944990631131167,0.945494811165124,0.945156405107728,0.943878318700729,0.943498797426402,0.942762865172177,0.943038008204693,0.942521968861315,0.942724075319568,0.942327239173683,0.942553057204676,0.942927228638331,0.943766884302656,0.944992018545705,0.945419948309782,0.947305132139333,0.948344444450843,0.949777737927342,0.950173566525824,0.95025105242704,0.949616507092161,0.947828530062437,0.945177534189179,0.94316912053099,0.941533872113852,0.941500822929296,0.941610307509382,0.942405212298979,0.943013862454009,0.943733894208736,0.944547699302212,0.945041152160042,0.945728991463085,0.946666514816339,0.947910353071951,0.948860479133451,0.950083467177437,0.951195462805609,0.952590478856928,0.954061603890259,0.955868942651217,0.957327295735205,0.959137285419567,0.960126283037693,0.96157334080641,0.962535355846523,0.964107515217901,0.965867914306263,0.967827955098231,0.969969723310882,0.972332840037176,0.97490147671732,0.976846592763453,0.979137252562109,0.981091570833418,0.98244199587624,0.983615462658344,0.984010182257122,0.984425424024754,0.984035915883398,0.983964283423173,0.98459035372281,0.985761071586364,0.986302283259026,0.987516368459449,0.98835165113281,0.989784865739616,0.989885951868946,0.990445971451022,0.991402731286233,0.992819072735296,0.994607084992305,0.996582493278919,0.997633218663997,0.998810975074381,0.999662708458552,1.00097820768041,1.0022126876639,1.00403013477241,1.00468586147223,1.00591846432884,1.00641105958365,1.00745399217019,1.00792767054075,1.0087270912431,1.00960830332571,1.01057805820943,1.01181421654071,1.01300581135921,1.01418280688019,1.01532599359232,1.01634777777927,1.01745562729932,1.01824667692307,1.01924893808573,1.02030988723914,1.02159862433064,1.02235066666199,1.02336844270774,1.024287430096,1.02542941309581,1.02686277450501,1.0281919646519,1.03056000420905,1.03355392977583,1.03541803279252,1.03644874124191,1.03787174401944,1.03917857089433,1.04065298554856,1.04220837313517,1.04320204330541,1.04427412812445,1.04530715304245,1.04645178730468,1.04820421988254,1.04990266617137,1.05168601785277,1.05321039201022,1.05514233655598,1.05665920465299,1.05827719353678,1.05940449300863,1.06126053596195,1.06262278632984,1.06422088977695,1.06544429762951,1.06702332367788,1.06844736831949,1.06969840056274,1.07085653814441,1.07173609182631,1.07253562111407,1.07317066750296,1.07380903062218,1.0747572355696,1.07577793597745
1.03643040329422,1.4460499992661,0.961802077630437,0.935803832221698,0.943263947691328,0.953541525780578,0.953495514696711,0.953288900867375,0.95300948237393,0.952508519486989,0.942146558351844,0.93669317446322,0.93513994806917,0.934100946683383,0.933759662164527,0.934650383183243,0.935157656515229,0.936766339190582,0.93729823533796,0.938360356664006,0.93841593472799,0.938212412698043,0.937217471076072,0.931271782131732,0.939750542908748,0.940085769406761,0.944428498131556,0.946176143545788,0.948479824008174,0.94982217398386,0.951230861606402,0.95044451917262,0.947704754330483,0.946939273061917,0.945520337361386,0.945766051890236,0.944463942205346,0.945007140024547,0.943852184413628,0.944420385548696,0.943333230915157,0.943945149842581,0.943897023914333,0.945731339372425,0.94752789785253,0.952717371411602,0.95308184683638,0.954092211823882,0.95299287900648,0.953637699754566,0.952686019701416,0.953510425446916,0.949741985778467,0.945916547009043,0.943724330267119,0.942792106190783,0.94215133012115,0.943313590129239,0.943222321225332,0.943719542653956,0.944593389875599,0.945370049967365,0.945995592180272,0.945502396402057,0.947654206322128,0.948864081716152,0.950125220472807,0.951273289013457,0.952458033439464,0.95328845818926,0.955173002632705,0.956047121859328,0.958178226909158,0.95899861848425,0.960810249719642,0.961223752534942,0.963486214808295,0.964527105765494,0.966987612142895,0.968728747286935,0.970590059282824,0.976663804811645,0.976700424498169,0.978883511723115,0.980450891695482,0.983451831757143,0.984088452480309,0.986337602970971,0.985779313306853,0.986504711538891,0.984664113403203,0.981496051783163,0.984110952246205,0.983426054380896,0.985779579806193,0.984927166266688,0.988397352227813,0.989649659594434,0.990548736828933,0.990440261753101,0.992077557549066,0.993462003060099,0.994944189681345,0.996670096538759,0.997323116772803,0.997590743002746,0.99915181078102,0.999696162211246,1.00227089637554,1.00415295902538,1.00540363575362,1.00659083183647,1.00734762046718,1.00848499693198,1.00883638567378,1.00973224726496,1.01047158522939,1.01152281944553,1.01268141847087,1.01400638112782,1.01516203270244,1.01634895553833,1.01752116423344,1.01856093980011,1.0195088938716,1.01988906396616,1.02135198053432,1.02151875149054,1.02317622340722,1.02317675469169,1.02515885289267,1.02583809879446,1.02747835422723,1.02898172641527,1.03026433955199,1.0378392872496,1.03681500317187,1.03875819315856,1.03874403049776,1.04015238290066,1.04147890275467,1.04312438007069,1.04427270350346,1.04535686069107,1.04675612408807,1.04769328431425,1.04930077645647,1.0499581728836,1.05241390002436,1.0542354330472,1.05560364849297,1.05674588490961,1.05851400160854,1.06009211898328,1.06133468024963,1.06208970023708,1.06408077062019,1.06507453645899,1.0672979044571,1.06882114160442,1.07029935534086,1.07130658414442,1.0724524506585,1.07320566449175,1.07373529385709,1.07379764123148,1.07488660159653,1.07512977018528
1.02956179877129,1.04228284578256,0.970397291502132,0.96482912807611,0.962529668286562,0.959903728267118,0.957311912404816,0.955100903110635,0.953478866377403,0.952018150135214,0.949697421188833,0.946357334575757,0.94192302681252,0.936968479379087,0.932555780746074,0.933159739403712,0.933996758573217,0.935933128328518,0.936876065170119,0.938308060090958,0.938766309299111,0.939923937038512,0.941978572882213,0.943698299956336,0.945372039945954,0.946503059645557,0.946775243905478,0.948110910517528,0.950421671074305,0.951990235185895,0.952622797344014,0.952520910602404,0.95067813568558,0.949298542563998,0.94860645733593,0.948790444249855,0.949792885081972,0.951412333512139,0.95317035883783,0.954574452938677,0.954983203493779,0.955072574805307,0.955254795926999,0.955526960607219,0.955520207979116,0.955140402988871,0.955850702086279,0.955719531569214,0.955951177871133,0.955291701631058,0.955116077063502,0.953948151642072,0.952121192826937,0.950695920119538,0.948703057230333,0.946510013241764,0.945124295400598,0.944585999495132,0.944495388095714,0.944934213986861,0.945611498803909,0.946742238118009,0.947418193394976,0.947928186313403,0.948735659519573,0.949769338923835,0.950785338404506,0.952099077384235,0.953417376947564,0.954910791440766,0.956432876058278,0.957902738775693,0.959208984866941,0.960523409550898,0.96152684095384,0.962712739658641,0.964203747381075,0.966104341249208,0.968261653459596,0.970627627172112,0.972675108833191,0.975387185349467,0.976942647574903,0.978445249678244,0.980407243031971,0.982544119870934,0.9836691962269,0.985061837606793,0.985466792413545,0.986181336609265,0.985324233582406,0.984981846899042,0.985155283587597,0.985932011718658,0.986470854865216,0.987443845356219,0.988855700813385,0.990427157271474,0.99093227004609,0.991419593902626,0.992312468832884,0.993345283781318,0.994690476450601,0.996086880533713,0.996961900172338,0.99783255896086,0.998790690346433,1.00004682995929,1.00169311445406,1.00381672854842,1.00468972321235,1.00611051135723,1.0066771252441,1.0078103564603,1.00852486092723,1.00965744292244,1.01084121549971,1.01225423597284,1.01336366457858,1.01461887026478,1.01588892703002,1.01734607683881,1.01820599551054,1.0194020539541,1.02032647282968,1.02169306454536,1.02241829404135,1.02359779061235,1.02432657494111,1.02552056460203,1.02644952709009,1.02768939500193,1.02881623192719,1.02991112621173,1.03209947569149,1.03496533318389,1.03670135921635,1.03764288579436,1.03893455920679,1.04020266378901,1.04163504742148,1.04328093512088,1.04477813179558,1.04654693451312,1.04803227865246,1.04985483772005,1.05090521165453,1.05225076091279,1.05372816118277,1.0553181332812,1.05670570391396,1.05799453005025,1.05968169638646,1.06112318092845,1.06268052224097,1.06390450552871,1.06549907110008,1.06680175597408,1.06852121416286,1.06995362934744,1.07139543550272,1.07254927457279,1.07346744678474,1.074082172727,1.07454809078548,1.07474213846131,1.07553613334899,1.07611502761445
