1.06257393538637,1.06175937911479,1.05815766644404,1.05693092507117,1.05222023819935,1.04432983768906,1.04050240460571,1.04086552005208,1.03242553940674,1.03835315372044,1.04051221853669,1.02704750522808,1.02318081642079,1.01997166098937,1.01481934722332,1.01194386544531,1.0063106690611,1.00550592672049,0.999921799991193,0.999666637785637,0.995711623599506,0.995652740013608,0.995721437530489,0.995122787740529,0.991864562654188,0.987605316607586,0.985878064754587,0.985603274687064,0.983846581041115,0.979650144152804,0.977935650410082,1.0041221624519,0.972684215941104,0.972275956412213,0.987242201161217,0.952264369744872,0.9502328860314,0.949474269166418,0.944742973039536,0.946816656656234,0.910707278997554,0.954864080062256,0.963841864125462,1.01958891768103,1.15229289243253,1.25635000264479,1.29827511580397,1.44850677129103,1.50602622078212,1.53986465481134,1.56877649548713,1.56438966833775,1.57701038358182,1.62017205204485,1.75280732927947,1.7096162190235,1.80776534278402,1.80387902611477,1.85265426310005,1.85202617151714,1.88154647591386,2.00485851871468,2.00650725911981,1.92169526756513,2.05992448546003,2.05567505334441,2.09490133548328,1.96565186443778,2.00613432974246,2.05403612687026,2.03701877054582,1.98479884378552,2.02033508787479,2.05610686630766,2.08241801527296,2.08841432710354,2.0275875828712,1.93515998087374,1.94033192250176,1.94326628786566,1.9451996322693,1.98310103372547,1.9830225222776,2.04434977699008,2.10765944576112,1.99815560385332,1.93133254779039,1.99174710692145,1.97366003211987,1.94971404052146,1.89519765391115,1.98287531331286,1.96736930235979,1.86442116634861,1.86794436757149,1.86747329888431,1.88161517343074,1.88005475840445,1.78269074912257,1.76327879363829,1.80382995645985,1.78591953241596,1.73334630414028,1.68854570920309,1.62698292014702,1.60383185695824,1.61383225262987,1.54826537973275,1.54360376251585,1.52560501309311,1.49250262388761,1.37490228891887,1.39553117184504,1.33194671300649,1.20203970858513,1.06015970836456,0.955552036624161,0.919620291116273,0.877879679859574,0.860641510088015,0.860509022019745,0.85367852605561,0.86947601075887,0.901278054109132,0.900831520249408,0.902674576488006,0.905609923245008,0.908183135948738,0.91072101850093,0.912831013662265,0.915130417691571,0.916664335104207,0.91732481265936,0.918282652323296,0.920898064930253,1.13309684342988,0.926585237934875,0.932878911874243,0.924986548577752,0.92145844038938,0.920965781054035,0.91749164948607,0.918452433329301,0.912058657293907,0.913527802762055,0.91365734665103,0.913861476415475,0.907821983288566,0.911036045685483,0.91211459670051
1.06009101084768,1.05709776189788,1.05446762839445,1.04953122111002,1.04522290540851,1.04500699892688,1.03926584930185,1.23748762729556,1.05600841555877,1.20880150703238,1.03976635978199,1.02750875998428,1.01702748169448,1.01556520597802,1.01293507247459,1.01028531110919,1.00439695251942,1.00238509666791,1.00007882288692,0.998626361101444,0.996359343044381,0.994259161814029,0.990470984454609,0.992374887065302,0.989204987357808,0.98844931467212,0.985936948340484,0.985995831926382,0.98117228484826,0.97996909690975,0.977097540704138,0.97260570449324,0.973145470697302,0.980175189460392,0.961922259225196,0.959787729236404,0.942113820929203,0.979511767725945,0.948956093610518,0.899468365235875,0.913096971191903,0.961500260192929,0.986408017027666,1.09226107660981,1.1323902403991,1.27481000682373,1.44866379418675,1.44924281611475,1.50551589637101,1.5427106947964,1.56667631425677,1.5611903268373,1.57325164801535,1.60718822135441,1.674207556037,1.74963742957198,1.78644948468904,1.798559875522,1.82843348143412,1.8810067097098,1.88155628984485,1.88093801219292,2.00297424396595,2.01668430554914,2.06002262476986,2.0667353535622,2.09410640707366,2.09445970858904,2.01684132844486,2.01751848968269,2.00554549388348,2.03193515429665,2.02507521653956,2.02416252095815,2.02368163833998,2.12677698331591,1.93763309148144,1.93670076803806,1.9422652669054,1.94270689379963,1.94670116370969,1.94595530495499,1.98295382476072,1.95977331977899,1.93037078255406,1.93833969451222,1.92667093057348,1.92534604989078,1.94934111114411,1.95315873029648,1.8966108599727,1.89698378935005,1.96640753712346,1.8629294488392,1.8615456845706,1.87232138078989,1.84325251721838,1.88265545011494,1.80348646887545,1.81441918799046,1.74535855566341,1.74660492489825,1.73358183848387,1.69448313744778,1.67568945961542,1.53316173994999,1.55666610465416,1.48739937977647,1.47891032947622,1.48506366420253,1.47497494315205,1.36965183584299,1.36025990389231,1.22275691689014,1.22359110102369,1.07080782348107,0.961949738231949,0.921368152224337,0.878262423167909,0.85871012847057,0.895478020898206,0.870586947746141,0.910864301893281,0.897891266526915,0.901145566040862,0.903148589354483,0.90592495042956,0.90771010447536,0.909972215566931,0.913229459260173,0.914475828495008,0.917284575542329,0.916377768319505,1.11450925814816,1.1222033800388,1.13267484439761,0.933533501070806,0.93308794860418,0.927381147737592,0.921195427039037,0.920626219042025,0.915094106146934,0.917142273543077,0.916546567932411,0.913859513629279,0.913543505051628,0.914709400052402,0.908272442720683,0.907442184159525,0.90799765265316
1.05989473222802,1.05422228011988,1.04688145974463,1.04717587767412,1.0431521659711,1.04064961357045,1.03693013372791,1.0334854439529,1.03110065872404,1.03737176062214,1.02500620758362,1.01935338333744,1.01799906086179,1.01300376999147,1.01251307344232,1.0121793997889,1.00594755361473,1.00105040205423,0.999195569098455,0.996182692286688,0.995701809668523,0.994445626502705,0.992492654237097,0.991226657140296,0.989479777425331,0.984916299518257,0.985299042826592,0.980468625996782,0.980827815870759,0.980628593071805,0.977018047863176,0.969739055253119,1.21420898300399,0.962972349840372,0.960876094182413,0.957499120531179,0.963007679991911,0.975502776919408,0.904062266328996,0.902524423343967,0.944766526473895,0.939603417383763,0.990029357560376,1.05185712275298,1.1216243581108,1.37015234632312,1.41914348979003,1.43582717246105,1.50288576286757,1.51989330526103,1.5837034845122,1.61302751028926,1.60689380342492,1.58767812656029,1.78294591132813,1.78269074912257,1.77003077815456,1.81355556206396,1.81481174522978,1.88209605604891,1.88159554556878,1.87639416214781,2.00347475444608,1.99186487409325,1.92953659842051,1.92568953747519,1.9258563743019,2.0190102071921,2.00792046518136,1.98004890118977,2.02359331296113,1.99325845229282,2.01132589923244,2.01817602305854,2.06217187565513,2.10126076276023,1.97952876284767,1.93860467064876,2.04716637518219,1.94233396442228,1.92590544395681,1.92310847362667,1.92124382673991,1.99648723558622,1.93137180351432,1.92991934172884,1.92568953747519,1.92476702796279,1.94919390217936,2.02796051224855,1.8982203446539,1.89699360328103,1.9663879092615,1.86320423890672,1.86145735919176,1.89259696220067,1.86337107573343,1.88235121825446,1.84443018893633,1.75636978622629,1.74521134669867,1.74372944312024,1.72196214420005,1.69253997911316,1.54854998373126,1.53850051840471,1.51755758968709,1.57041542196128,1.48586840654313,1.48592729012903,1.47344396991871,1.37738521345756,1.34157417930076,1.25463256472278,1.16932987661894,1.06225007566393,1.01031475290214,0.948613587419213,0.881805252252755,0.851494926411902,0.852140683070581,0.899128803223865,0.894828338667135,0.895572234635643,0.901010133793297,0.903341923794847,0.905927894608855,0.908982971323849,0.913988076125155,0.915005780768088,0.915400300793602,1.26471147184227,1.26462314646342,1.11538269800564,0.939857598196221,0.941761500806915,0.935188129834532,0.929077976404545,0.928630461151722,0.921425073024038,0.921136543453139,0.918539777315049,0.918206103661629,0.918354294019471,0.918290503468082,0.915016576092169,0.919548649420097,0.920476065897986,0.906467660812918,0.907942694639656
1.44427696703737,1.45633828821542,1.04716606374313,1.04414337300038,1.04162119273776,1.03945231399053,1.03553655552833,1.03331860712619,1.03223907471806,1.46229534432208,1.47783079706809,1.01959873161202,1.01626199507781,1.01287618888869,1.01288600281968,1.01134521565535,1.00603587899357,1.02445662744858,1.02245458552806,0.993287582646717,0.992963722924279,0.992914653269364,0.988920383359302,0.991766423344359,1.0173611553479,0.985927134409501,0.979784595007271,0.97586981793817,0.998096408828364,1.19728976598938,1.20390435547189,0.96703237308802,0.963188256321997,0.960762252583011,0.958568839008321,0.956097691186813,1.24802778917125,0.958718010759262,0.960036021690273,0.902093591773815,0.926594070472759,0.909473667872997,1.00275802604527,1.00338611762818,1.18661220907992,1.36982848660069,1.4672317516065,1.44154869422411,1.50775347263512,1.53007035169036,1.62734603559339,1.60457771571294,1.60753170893881,1.61814056833138,1.66421697429635,1.769775615949,1.77911847824477,1.79671485649721,1.82327135373708,1.88255731080511,1.88212549784186,1.92938938945576,1.910252224039,1.92778971870554,1.92684758133118,1.92173452328906,1.92547363099356,1.92922255262905,2.02092392373377,1.9806671788417,2.09538221810144,1.98664386281031,2.02000141422137,2.08064169376504,2.10209494689378,2.1017416453784,1.96308061452024,1.93323645040108,2.04857958124374,1.99814578992234,1.92587600216386,1.92296126466193,1.92287293928308,1.9356408634919,1.95341389250203,1.9305179915188,1.96307080058926,1.96973445972668,1.93649467548742,0.00435089834805174,1.89484435239576,1.89783760134557,1.89675806893744,1.85678592804387,1.85613820859899,1.88704227726432,1.86508851365545,1.8882003211203,1.75922564014233,1.75654643698398,1.75466216223525,1.7421984698869,1.73257100359262,1.63493220424322,1.67010533288612,1.51218936943941,1.51789126334051,1.49848912178721,1.51616401148751,1.48559361647561,1.4777719134822,1.37715949304495,1.32583263400411,1.29833399938987,1.16199887017467,1.01903933754599,0.986800574266984,0.917817471994704,0.909338235625432,0.85134084769547,0.867540703569032,0.926688284210196,0.897833364334115,0.897842196872,0.901135752109879,0.904816957621585,0.904868971455795,0.908376470389102,0.910492353909027,0.912653381511474,0.907921103991493,1.11095661513233,0.918743907079495,1.11987747839584,0.939727072914148,0.94174089155185,0.928890530322771,0.931306720130774,0.927720709749603,0.921241552514656,0.92097461359192,0.918911725299303,0.917841025429063,0.918345461481587,0.918197271123744,0.918153108434321,0.918728204789922,0.921627240002287,0.922624335390155,0.908205707989999
1.05466390701411,1.36279189808591,1.4650432449973,1.04369193217517,1.04016873095229,1.03744045813903,1.03312232850653,1.03130675127468,1.02609555392273,1.02000110278232,1.47628019597279,1.01353372226455,1.01438753426007,1.01312153716327,1.01277804957886,1.64798473245055,1.00491709086152,1.0018747722568,1.68886956892553,1.03394669870909,0.991629028310597,1.02325932786866,0.990294333696916,0.990480798385592,0.999293708408284,1.16306858865182,0.976419398073216,0.974631299848122,1.08714801856769,0.990628007350336,0.95614577944863,0.958177263162101,0.959227353777277,0.960018356614503,0.95924894442544,0.95641075558517,0.958509955422423,0.959095847102106,0.959605190120121,0.901410542177402,0.932252783077531,0.931952476789452,0.976533239672618,1.06497834847719,1.22324761343929,1.39095788000699,1.38975076649608,1.46722193767552,1.50188474190731,1.5176655429279,1.62771896497075,1.65922168342603,1.66650362021538,1.66423660215832,1.66402069567669,1.76876478105776,1.76751841182292,1.85154528889897,1.85050501221478,1.96937134428032,1.88107540722668,1.92587600216386,1.97640793279509,1.92859446104614,1.92813320628994,1.92789767194635,1.9293697615938,1.92952678448952,2.02445693888764,2.05155320233157,2.01024636682432,2.01093334199312,2.09176087756873,2.11616812392334,2.10180052896429,2.10164350606857,1.95243249940374,2.00460335650912,2.00195359514372,1.99007873865435,1.92531660809784,1.9240113552771,1.92219577804526,1.92558158423438,1.94964534300458,1.94864432204432,1.97336561419038,1.97053920206729,1.9166999766948,1.91638593090335,1.98819446390562,1.89780815955262,1.89802406603424,1.89773946203574,1.85777713507315,1.88748390415855,1.80025768558206,1.88475563134529,1.75923545407331,1.75708620318804,1.75676234346561,1.76019721930964,1.6956804370277,1.62370506719872,1.6748945312058,1.51725335782662,1.54361357644683,1.49633005697096,1.46860570194412,1.46229534432208,1.43723056459161,1.39963339499592,1.32793281523446,1.25476014582555,1.13914222491538,1.06091538105025,0.983571790973593,0.912430605278161,0.89865380896429,0.900873720152634,0.87814661878231,0.879638336291719,0.899631276490192,0.897694987907255,0.901658834631271,0.904040675680833,0.906014257201505,0.908299921727435,0.910871171644969,0.914477791281205,0.907390170325316,0.917588807402801,0.919003976250543,1.00864638463504,0.928190797043686,0.929590263601855,0.925928685952115,0.929145692528327,0.924193582954329,0.921975634552181,0.921099250515404,0.919264045421591,0.918065764448573,0.917884206725388,0.917723258257268,0.916931274026943,0.917945053097482,0.92163116557468,0.921223887438887,0.907845536722925
1.05342735171026,1.35746293356217,1.57570513076109,1.04232779576854,1.03878496668369,1.03855924627108,1.0329064220249,1.03140489058451,1.02437811600071,1.02230737656331,1.01291544461262,1.0113157738624,1.01006940462757,1.00802810698311,1.00927447621795,1.00688969098909,1.39075178745634,1.03753859744886,1.03267088768131,1.033426560367,1.02612499571568,1.0144856735699,1.02264105021673,0.990637821281319,0.988989080876183,0.977444953860934,0.975976789785885,0.9687714016582,0.963193163287489,0.957303823304618,0.956851401086304,0.958038886735242,0.956716950231838,0.954454839140267,0.952467518116219,0.95187377529175,0.965539674185513,0.963418883700097,0.918425935715647,0.89200977768883,0.887196044541692,0.92602976944124,0.994455440433688,1.03864757164993,1.14282244903398,1.31968911320878,1.35573568170917,1.40086995029977,1.42423691997018,1.50129590604834,1.65608122551148,1.66056619197069,1.66462915939764,1.66834863924017,1.66812291882757,1.70356102360701,1.76739083072014,1.79538016188353,1.85450909605582,1.96974427365767,1.96875306662839,1.92393284382924,1.91618965228369,1.93004692283162,1.93069464227649,1.9296543655923,1.91864313502943,1.9297132491782,2.024820054334,1.98793930170006,2.01044264544398,2.01096278378607,2.05797151319442,0.00420967588120703,1.9357586306637,1.94953738976377,1.951706268511,2.00600674863968,1.97713416368783,2.02640991115324,1.91831927530699,1.89970224823233,1.89835773968766,1.88542297865213,2.01185585150552,2.01698853740961,1.97267863902157,1.9038044713832,1.90184168518661,1.89490323598166,1.98610409660625,1.87061375679885,1.95299189346977,1.85526476874151,1.85493109508809,1.86130033629603,1.89128189544895,1.88347000638652,1.7724842609003,1.75851903711155,1.75765541118505,1.75957894165771,1.66517873953268,1.65413806717686,1.54263218334854,1.50418120175732,1.50196325335518,1.49052020982905,1.48478887413501,1.46611296347445,1.44476766358652,1.348345791679,1.36345924539275,1.33138731894046,1.13004471089418,1.01831310665325,0.987310898678098,0.923165082987315,0.922439833487675,0.871523196761914,0.86660347316016,0.885919252120809,0.901087663848063,0.900403632858551,0.90271285081884,0.904269340272736,0.905292933274258,0.911087078126594,0.910235228917274,0.922181727102824,1.23938171597527,1.09947431588228,1.11572618559005,1.00952963842351,0.928370391980674,0.921435868348119,0.929264441093221,0.92805634618922,0.921823518621946,0.921724397919018,0.920876474282091,0.919559444744178,0.918493651839429,0.917976457676628,0.917724239650366,0.9177046117884,0.917187417625598,0.918736055934708,0.921639998112564,0.906619776743154
1.04707773836429,1.04652815822924,1.04210207535593,1.0385494323401,1.05418302439594,1.27507498296027,1.03010945169476,1.02661569226483,1.0216792849804,1.02013849781608,1.0134453968857,1.01070731014146,1.01013810214445,1.00891136077158,1.00682099347221,1.00525076451494,1.00261081708052,0.999794218888415,0.996359343044381,1.02882382673599,1.02000110278232,1.02163021532549,1.02238588801117,0.988351175362291,0.98588787868557,0.974524328000407,0.973554711619292,0.967460260478877,0.966925401240306,0.957138949264105,0.957554078544684,0.96162097154402,0.960147900503478,0.954361606795929,0.951811947526557,0.950819759104181,0.965763431811924,0.963340372252233,0.897551704514904,0.896549702161545,0.889202993427706,0.919227733876954,0.952519531950428,1.05328014274551,1.15060489630347,1.2751731222701,1.32101399389147,1.35751200321708,1.40014371940703,1.4324609941339,1.53713638199808,1.66041898300595,1.65944740383864,1.66884914972031,1.67480620582696,1.77534992874732,1.8550979319148,1.78720515737473,1.78947217543179,1.81332984165135,1.87885745882453,1.9228631253521,1.91567932787258,1.93102831592992,2.05016943806297,1.92724995250148,1.92559139816536,1.93093017662009,2.08291852575309,2.09946481339035,2.01041320365103,2.0580402107113,1.95743760420504,1.94558237557764,1.94984162162424,1.88881859877223,1.95231473223194,1.96969520400275,1.97664346713868,1.9267788838143,1.91554193283881,1.89969243430134,1.89724876548659,1.88521688610149,1.91518863132343,1.91213649878773,1.98019611015451,1.90451107441397,1.9020772195302,1.89630662811222,1.8947658409479,1.87049598962706,1.95357091539776,1.85584379066951,1.85490165329514,1.85385156267997,1.84480311831368,1.80400660721754,1.76723380782442,1.75841108387074,1.80961036180881,1.76317084039747,1.65717057185059,1.65580643544396,1.55684275541185,1.50478966547827,1.50437748037698,1.46373799217657,1.45890953813296,1.44983165197373,1.36426398773335,1.34889537181405,1.3928519686867,1.24624165373235,1.08971926848522,1.02670401764367,0.95179330105769,0.901551862783556,0.887710294525198,0.904844436628337,0.858280278293517,0.886578748282864,0.900808948208147,0.901388951529239,0.902624525439993,0.904899394641842,0.910944776127341,1.07708873931016,1.07831548068303,1.08503802340635,1.10854238811053,1.11856241164412,1.10240868124618,0.94847717377855,0.923028669346652,0.925492947416472,0.930544177693398,0.931831765438362,0.92442911729792,0.92159092845765,0.921511435616688,0.920824460447881,0.919167868897958,0.914652479252701,0.918962757740415,0.920772446613671,0.920828386020274,0.920272917526639,0.921416240486153,0.921217017687199
1.04585099699142,1.04564490444077,1.03908919854416,1.03714604020954,1.0330241891967,1.0323862836828,1.02944210438792,1.02668438978171,1.01974594057676,1.01901970968402,1.01375944267716,1.01150223855108,1.01083489124424,1.00829308311965,1.00614383223439,1.00323890866343,1.00169812149911,0.997782363036909,0.995986413667029,0.993827348850779,1.02129654167207,1.00754722436495,0.987359968333013,0.984082115384706,0.983689558145388,0.97644000732828,0.971065898722015,0.967997082503645,1.01373000088421,0.95773465487477,0.961512036910109,0.961890854646051,0.961250004952864,0.952636317729125,0.952166230435042,0.948866786838573,0.965607390309296,1.1402217573235,0.968964736098564,0.897913838568175,0.888334460535714,0.953991621597872,0.983395140215899,1.07142610113299,1.20034189852508,1.25560414389009,1.28827472013234,1.31251512966024,1.38729728375034,1.44771184288141,1.53624331427863,1.66012456507646,1.62996635516584,1.62967193723635,1.69778061825805,1.77643927508643,1.79364309609955,1.78645929862002,1.78976659336128,1.82695157785569,1.83493030374483,1.88775869422607,1.96130429301233,2.05135692371191,1.92265703280146,1.922922008938,1.92930106407692,1.93085166517222,2.09046543867898,1.93599416500729,1.9354151430793,2.02049211077052,1.95647583896871,1.94517019047635,1.94558237557764,1.92337344976321,1.94521926013127,1.93828081092632,1.91728881255378,1.91719067324395,1.90513916599688,1.90470735303363,1.8951682121182,1.91631723338647,2.00717460642665,1.90863292542681,1.91617002442172,1.90514897992787,1.90185149911759,1.89264603185558,1.94984162162424,1.86775790288281,1.86719850881678,1.85234021730859,1.85482314184728,1.85496053688104,1.84399837597308,1.8162347652223,1.82200535664028,1.76155154178529,1.76090382234041,1.68749561858792,1.67594462182098,1.61817001012433,1.60233032551784,1.51586959355802,1.50452468934173,1.48754658874122,1.50793012339281,1.38279268942917,1.35966125410235,1.35315461786065,1.32201501485174,1.2381549746024,1.15502116524579,1.04985508083246,1.050120056969,0.888178419033085,0.904724706670345,0.894835208418823,0.860575756750429,0.888205898039838,0.900858017863062,0.902772715797836,0.901564620893834,0.90490037603494,0.91273581853173,0.91640917289865,1.09129931137348,1.09771762223633,1.11154545099131,1.11246796050371,1.12468630457748,0.947392734404933,0.94751540854222,0.924898223198905,0.935170464758763,0.932713056440631,0.924419303366937,0.924685260896575,0.923636151674497,0.921330859286601,0.921074715687946,0.918202178089236,0.91899416231956,0.920965781054035,0.919158054966975,0.917919536876927,0.920707674669184,0.921657663188334
1.21281540480441,1.04558602085488,1.03724417951937,1.03402521015696,1.03203298216742,1.03014870741869,1.02768541074197,1.02572262454538,1.01964780126693,1.01714524886628,1.01489785867118,1.01535911342738,1.01207144654809,1.00873471001389,1.00585922823588,1.00340574549014,0.999902172129228,0.99569199573754,0.99389604636766,0.990598565557387,1.02194426111694,0.97557049304319,1.00715466712563,0.983316628768036,0.983444209870814,0.980439184203834,0.971740115780543,0.971653753187893,0.961915389473508,0.961152847036133,0.962424732491524,0.962199012078916,0.956182090993267,0.952623559618848,0.952283997606837,0.952647113053207,0.966351286277804,0.968824396885508,0.969148256607945,0.891550485718828,0.935872160824044,0.930308643349807,0.973902124776088,1.05387879253547,1.10586318495218,1.2166232100258,1.25482884334243,1.30455603163306,1.34250650274414,1.39463810412559,1.45386517760772,1.64474613522617,1.63197821101735,1.64303851123514,1.68153856248126,1.76034442827438,1.80627362527461,1.78939366398393,1.79082649790744,1.7895212450867,1.8222801467078,1.96258991797109,1.96214829107686,1.97275715046943,1.92115550136106,1.92244112631983,1.91438388898283,2.03543872765756,2.03579202917295,2.03762723426676,1.93609230431712,2.03721504916547,2.06384024392223,1.94561181737058,1.91919271516447,1.9326476145421,1.8944812369494,1.88778813601902,1.91535546815014,1.91603262938796,1.90467791124068,1.90455033013791,1.89536449073786,1.89248900895986,1.92136159391171,1.90845627466912,1.91778932303391,1.91262719533688,1.93897760002611,1.89212589351349,1.97719304727373,1.94952757583278,1.8675321824702,1.88586460554636,1.86286075132232,1.82206424022618,1.82106321926592,1.81421309543982,1.80497818638486,1.75026552115489,1.80198493743506,1.72183456309727,1.63866149801674,1.60119190952382,1.60025958608044,1.56921812238136,1.50281706535069,1.47516140784073,1.50513315306267,1.3707411821821,1.36976960301479,1.35286019993116,1.30996350760467,1.21794809070849,1.14988847934171,1.01254251523527,0.957630627206351,0.901944420022874,0.958587485477189,0.881562848157476,0.864591617308654,0.883159574728403,0.901896331761058,0.906610944205269,0.907109491899203,1.07465488442639,1.07573441683451,1.08394867706724,0.928621628613838,1.1755715367241,1.1027423548996,1.12203654321209,1.27086480656858,0.94662921057446,1.04715624981215,1.03752878351787,0.93611652770552,0.937715217062643,0.943717417251817,0.927437087144195,0.923249482793769,0.921881420814745,0.922255331585196,0.920454475249824,0.920409331167302,0.916928329847648,0.916139289796619,0.916530865642839,0.91933372433157,0.921336747645191
1.04353490927944,1.33937585876058,1.55679368575694,1.03125768161976,1.03017814921164,1.03184651747874,1.02711620274496,1.020756775468,1.01680176128187,1.01378888447011,1.01343558295472,1.014426789984,1.01095265841603,1.00666397057648,1.00624197154422,1.37976999868642,1.03655720435056,0.993336652301631,0.990323775489865,0.987566060883655,0.975750087980178,0.975769715842144,0.981432354019309,0.981233131220354,0.981387209936787,0.980376375045543,0.972641034644779,1.00732150395234,0.960401099922839,0.961154809822329,0.961252949132159,0.960990917174914,0.957294009373635,0.953548031917442,0.952323253330769,0.951978784353268,0.965757543453335,0.968252244709202,0.893480885943175,0.889471895136639,0.888034154247636,0.916543623753117,0.97169006473253,1.09471455935554,1.0941649792205,1.21778125388178,1.25584949216466,1.30950225284847,1.33854167462703,1.38758188774885,1.45757484351928,1.63926996173768,1.59929782084411,1.60121153738579,1.6330969991494,1.75359244375811,1.75291528252029,1.81465472233405,1.81476267557486,1.85760048431545,1.82090619637019,1.96353205534546,1.94795734687551,1.91600318759501,1.92215652232132,1.91660183738497,2.01095296985509,2.01102166737197,2.03725430488941,2.03717579344154,1.93533663163143,1.94940980866099,2.06329066378718,1.91301975257619,1.90632665164582,1.87572681484097,1.88795497284573,1.88772925243312,1.89955503926758,1.91742620758754,1.91590504828518,1.93095961841303,1.89797499637933,1.8931563562667,1.92189154618478,1.96948911145211,1.97190333847392,1.91686681352151,1.916013001526,1.97250198826388,1.8835975874893,1.93989029560752,1.89875029692698,1.86733590385055,1.86179103284518,1.87088854686637,1.80674469396179,1.80291726087844,1.75349430444828,1.75192407549101,1.80353553853036,1.70587711131899,1.6664938062844,1.6378763835381,1.59393941452742,1.56938495920807,1.55878591374648,1.49490703697843,1.49530940814873,1.3928519686867,1.38752300416295,1.32932639343404,1.30393775398114,1.28169938637376,1.10467569930324,1.04032575384801,0.963599460030183,0.917992159966201,0.92809658330625,0.883689527001482,0.89435334440756,0.881395029937667,0.0040851665388263,0.905628569713875,0.909544328176074,1.02454495282742,1.07370293312104,1.08367388699972,0.928971985949929,1.15236158994941,1.08658862450166,0.979421479560901,0.978576500103269,1.0433877003147,1.04478127851427,0.954070133045735,0.950089602639049,0.949260325470989,0.942002923509095,0.942569187326811,0.939056781428012,1.10408686344426,0.922996283374409,0.921006999564164,0.919487803048003,0.920784223330851,0.912278489347925,0.91704217144705,0.918451451936203,0.920350447581404
1.1652080256061,1.03746008600099,1.03664552972941,1.03030573031442,1.02999168452296,1.58900300724299,1.0198931495415,1.01937301119941,1.01604608859619,1.0152315323246,1.01373000088421,1.01389683771092,1.01017735786838,0.999558684544824,0.999087615857642,1.00988293993889,1.00669341236943,1.02315137462785,0.98778196736528,0.984111557177655,0.97721138230354,0.97683747153309,0.980401891266098,0.980648220933771,0.980514751472402,0.980285105487401,0.980438202810735,0.973843241190191,0.977595107004974,0.961532646165173,0.960788750196665,0.959750436298669,0.956776815210834,0.950915935627814,0.951890458974421,0.952341899799637,0.963592590278495,0.966607429876459,0.893183523834392,0.888905631318922,0.926339889660301,0.917867523042717,0.959871147649759,1.00022603185167,1.12861187697067,1.20235375437658,1.25226740735588,1.29095392329069,1.38005460268492,1.39224350496575,1.45282490092353,1.63892647415328,1.60067177118173,1.60087786373237,1.66058581983266,1.74848919964697,1.79652839180853,1.81781480811056,1.8198070361001,1.78086535795974,1.79680318187606,1.95903727495527,1.89523690963508,1.89318579805965,1.96422884444525,1.91154766292875,2.02043322718462,2.04576298305163,2.05559654189655,2.07448835903873,1.94636749005627,1.91837815889289,1.91816225241126,1.89715062617676,1.90718046364134,1.90538451427146,1.90307824049046,1.90282307828491,1.91899643654481,1.92885943718268,1.92878092573482,1.9905694352035,1.90013406119558,1.90174354587678,1.8927539850964,2.01194417688437,1.97048031848139,1.91674904634972,1.90375540172829,1.90274456683704,1.88701283547137,1.87065301252278,1.86890613280782,1.86681576550845,1.90112526822485,1.80746111092354,1.80703911189128,1.83077901093904,1.75282695714144,1.78962919832752,1.70611264566258,1.69469904392941,1.69817317549737,1.63950549608127,1.68250032771759,1.56877649548713,1.54886402952271,1.49892093475046,1.45120560231134,1.38031957882146,1.38688509864906,1.30387887039524,1.30319189522643,1.22684932611003,1.14906410913914,1.00311132756065,1.01401460488271,0.925968923069145,0.915178505953388,0.88248732045607,0.885487439157559,0.874011028266093,0.945290590388385,1.01028531110919,1.06550830075027,1.07501799987276,1.07453711725459,0.99708557393712,1.01318042074916,1.095028605147,1.04909940814677,0.980549100230843,0.990156938663154,0.989283498805672,1.0329653056108,0.954947498475611,0.948887396093637,0.948800052107889,0.940043081491799,0.939880170237482,0.937006651245673,0.932225304070778,0.930562824162266,0.929742379532091,0.922088494758485,0.921534989051047,0.912142075707262,0.921765616429146,0.917654560740387,0.918201196696138
1.14567830295002,1.0342313027076,1.0337111643655,1.0269788077112,1.02527118372016,1.02351449007421,1.01916691864877,1.01860752458274,1.01601664680324,1.01320004861113,1.01033438076411,1.00909782546026,1.00086393736556,0.999421289511063,0.998430082481784,0.993523116990307,0.99010786900824,1.02240551587314,1.02141430884386,0.984386347245178,0.982570770013331,0.983002582976581,0.982109515257132,0.979319414678679,0.981176210420654,0.979703139380112,0.975935571275756,0.974546900041668,0.974098403395747,0.961541478703058,0.961530683378977,0.959978119497473,0.958018277480177,0.95222511402094,0.952653982804895,0.952647113053207,0.941938151564608,0.962503243939387,0.897930522250846,0.88348343445084,0.877917954190407,0.941440585263772,0.983493279525729,1.05119958937713,1.09510711659486,1.18170524358845,1.22995052830065,1.3083343950615,1.33403708030585,1.39978060396066,1.44077339367646,1.53229811402349,1.60046567863108,1.59327206722058,1.62925975213507,1.7477825966162,1.74769427123736,1.77858852597169,1.81364388744281,1.78121865947513,1.83784504124677,1.91017371259114,1.89506025887739,1.89808294962014,1.89757262520903,1.91179301120333,2.02650805046307,2.04803981503967,2.07162269119171,2.07405654607548,1.95973406405505,1.93964494733295,1.91853518178861,1.93502258583998,1.91439370291381,1.84082847626559,1.90264642752721,1.89523690963508,1.92896739042349,1.93956643588508,1.92494367872048,1.92946790090363,1.90146875580926,1.89986908505904,1.89276379902738,2.01674318913503,1.97202110564571,1.96921432138459,1.90440312117316,1.97584853872906,1.99034371479089,1.86563809379049,1.86460763103728,1.91917308730251,1.90527656103064,1.92877111180384,1.80779478457696,1.83111268459246,1.84810059912396,1.830229430804,1.69975321838563,1.69905642928584,1.70113698265422,1.71172621418483,1.68261809488939,1.56601878088092,1.60002405173685,1.50593789540327,1.50533924561331,1.43847693382645,1.36034822927115,1.30593979590166,1.28752886137764,1.24397463567529,1.18834927486391,1.01383795412502,1.01076619372736,0.959812264063861,0.894907831508097,0.887370732513188,0.885107640028519,0.943378836632905,0.929624612360296,1.05916850133529,1.08192700728476,1.06847210790713,1.1739620520429,0.995103159878563,0.996398598768313,1.00922540656303,0.961633729654298,0.98675150461207,0.991010750658671,0.989420893839433,1.0041810460378,1.00459323113908,1.33219206128106,0.955052507537129,0.943192371944229,0.939026358241965,0.935922211872057,0.931185027386585,0.930923976822439,0.930053481144251,0.922158173668464,0.922254350192097,0.922081625006797,0.913552337589512,0.915824262612066,0.917231580315022
1.24260068533767,1.20991048123346,1.02927526756121,1.02759708536312,1.02483937075691,1.02339672290242,1.01850938527291,1.01617366969896,1.01378888447011,1.01276823564788,1.01100172807095,1.0096474055953,1.00467174258694,0.995996227598012,0.991835120861239,0.979130987203806,0.986241180200956,1.02471178965413,1.02140449491288,0.982197840635979,0.98216839884303,0.982708165047092,0.982678723254144,0.983051652631496,0.981579562984053,0.981481423674223,0.978032808326813,0.97479322970934,0.973263237869098,0.966863573475114,0.95962874355448,0.958868163903301,0.9620351194315,0.958185114306888,0.95514966545386,0.954006342494346,0.945035428182828,0.914101917724558,0.915053869029904,0.910004601539175,0.885486457764461,0.917840044035965,0.965905733811177,1.00438713858844,1.08362481734481,1.15037917589086,1.34187841116123,1.28583105131759,1.32558728572953,1.47161857875588,1.41712182000754,1.53248457871216,1.62729696593848,1.59641252513512,1.63192914136243,1.69252035125119,1.79419267623459,1.77901052500396,1.79780420283632,1.79897206062329,1.84096587129935,1.87436267843434,1.90314693800734,1.95048934106911,2.03078692437164,2.02425084633699,2.03501672862529,2.14256759826748,1.98575079509087,2.07711849254216,1.95950834364245,1.96727116304996,1.94670116370969,1.99668351420588,1.88591367520128,1.84362544659573,1.87894578420338,1.89242031144297,1.91610132690484,1.9293108780079,1.92851594959828,1.92653353553972,1.91758323048327,1.90030089802229,1.92851594959828,2.02064913366625,1.87878876130765,1.88564869906474,1.9474470224644,1.94681893088149,1.86102554622851,1.86593251171998,1.86503944400053,1.86035819892166,1.83164263686554,1.8539497019898,1.80122926474937,1.78749957530422,1.74932338378053,1.80264247081091,1.8166960199785,1.72120647151436,1.70232446830316,1.71163788880598,1.64584529549626,1.61615815427283,1.58299688148143,1.54728398663446,1.50416157389536,1.43780958651961,1.39634572811663,1.36052488002885,1.28815695296055,1.24052013196929,1.20465021422659,1.03187595927169,0.977423363212772,0.929206538900422,0.903804159944144,0.922831409333895,0.911524779448434,0.929822853766151,0.931977993010008,0.947641026858802,0.960647429590511,1.0069976442299,1.14721909011435,0.99519148525741,0.989774195354819,0.993042234372143,0.962719150421012,0.988890941566353,0.99120702927833,0.973697995011643,0.972751932064886,0.990421914799694,0.972207258895332,0.957842608115583,0.946933442434931,0.946818619442431,0.942252197356062,0.93191910942411,0.932131090333342,0.934877028222372,0.939659356790366,0.922161117847759,0.919668379378089,0.919364147517617,0.917515202920429,0.916386600857389
1.03666515759137,1.03279846878409,1.02755782963919,1.02768541074197,1.0255361598567,1.02224849297741,1.01890194251223,1.01342576902374,1.01527078804853,1.0147702775684,1.01193405151433,1.00979461456004,1.00607513471751,1.36271338663805,0.996545807733057,0.985848622961638,0.984307835797314,0.981186024351636,1.21941036642495,0.981168359275867,0.982560956082348,0.983267559113121,0.984072301453723,0.984121371108638,0.982286166014826,0.98135089839215,0.978917043508377,0.977282042606617,0.975712795042443,0.995868646495234,0.988782988325541,0.958719973545459,0.958756285090096,0.957129135333122,0.956650215501154,0.948358425213656,0.947149348916556,0.915206966353238,0.914318805599281,0.884316637191293,0.892509306775863,0.892538748568812,0.980949508614947,0.989057778393064,1.05698980865707,1.17708288209547,1.20344310071569,1.30993406581172,1.34599044824309,1.35736479425234,1.41905516441118,1.49592768580066,1.62430371698868,1.58300669541241,1.63009393626862,1.64902500913474,1.80751999450944,1.79505630216109,1.79841266655726,1.8675910660561,1.79537034795255,1.84246740273974,1.92953659842051,1.94952757583278,2.02887320782996,2.0283334416259,2.00990287923991,1.99086385313298,2.0194125783624,2.08296759540801,1.92198968549461,1.92531660809784,1.93244152199146,1.96849790442283,1.98061810918678,1.84849315636327,1.89006496800707,1.89101691931241,1.91553211890783,1.92760325401686,1.92874167001089,1.93572918887075,1.93476742363442,1.92606246685254,2.02410363737225,1.88097726791685,1.8800842001974,1.88470656169037,1.94946869224689,1.87615862780422,1.86124145271013,1.87083947721146,1.86615823213259,1.86070168650607,1.83353672554525,1.80836399257398,1.81016975587484,1.80106242792266,1.83016073328712,1.8069704143744,1.81204421669258,1.72049986848359,1.7046601838771,1.70479757891086,1.54995337586182,1.53561522269572,1.59032788792569,1.53968800405365,1.48614319661065,1.48560343040659,1.39602186839419,1.37404847692336,1.29185680494112,1.2032075663721,1.20975345833773,1.04083607825913,0.978220254408588,0.931893593203555,0.92537910581707,0.901395821280927,0.903702095061921,1.04386858293286,0.94794722150547,0.947678319796537,0.962164663320475,1.10602020784791,1.16614034904948,1.06392825786202,1.2277325798985,0.987291270816132,0.96084370821017,0.975526330353767,0.976927759698133,0.97437908182186,0.988861499773404,0.990078427215291,0.974796173888635,0.958715066579967,0.954867024241551,0.952068091125213,0.933965314034056,0.933486394202088,0.933986904682218,0.936090030091866,0.940692763722871,0.921593872636944,0.920279787278327,0.919756704756936,0.916561288828886,0.915195189636059
1.03011926562574,1.02590908923405,1.02623294895649,1.02642922757615,1.0256539270285,1.02249384125199,1.0174200389338,1.01614422790602,1.01510395122182,1.01500581191199,1.01445623177695,1.01291544461262,1.00785145622542,0.99957831240679,0.99984328854333,1.41463889546885,0.982825932218888,0.978083840767925,0.975581288367271,0.977633381335807,0.981795469465678,0.982757234702007,0.985348112481507,0.985554205032149,0.982933885459701,0.982129143119098,0.979870957599921,0.976440988721378,0.975807008779879,0.986064529443263,0.985760297582791,0.96656032300774,0.958775912952061,0.953100516664619,0.952383118309765,0.951736380257989,0.94453884327509,0.943708584713933,0.915840946294737,0.915186357098174,0.892123619288233,0.89246514408644,0.960232300309932,0.977595107004974,1.11634446324197,1.18606262894488,1.20984178371657,1.27728311743143,1.34480296259415,1.36070153078654,1.40008483582113,1.49094220886132,1.58459655223165,1.58361515913335,1.62481404139979,1.6344218798321,1.76687069237805,1.75333728155255,1.76929473333084,1.81849196934838,1.81692174039111,1.84164303253717,1.83444942112667,1.88454953879465,1.88547204830704,1.95466026173687,2.0106585519256,1.99189431588619,1.98813558031972,2.08452801043429,1.92794674160127,2.00633060836212,1.92905571580234,1.98413149647868,1.90217535884003,1.84826743595067,1.92001708536704,1.93432579674019,1.90401056393384,1.94983180769325,1.92857483318418,1.92122419887794,1.90160615084302,1.92995859745277,1.96141224625314,1.88061415247048,1.88013326985232,1.88322465811195,1.87910280709911,1.86796399543345,1.86683539337041,1.87050580355804,1.87821955331064,1.86048578002444,1.83117156817836,1.81033659270155,1.77243519124538,1.83561727891364,1.8287867829495,1.80288781908549,1.67388369631456,1.72528906680327,1.70522939187411,1.64862263796444,1.52731263708415,1.52267064772921,1.49865595861392,1.54033572349853,1.48747789122434,1.44246138980553,1.40363747883696,1.31507656564679,1.29090485363577,1.20461095850266,1.13229210108927,1.00499560230938,0.975781492559324,1.04695015726151,0.991236471071279,0.902647097481254,0.916932255420041,0.91609807128649,0.948213179035108,0.945959900481422,0.960334365192155,1.19961566763234,1.19972362087315,1.20093073438405,0.983316628768036,0.95899574500608,0.959493311306915,0.95617423984848,0.979646218580411,0.980200705680948,0.993002978648211,0.987978245984939,0.972466346673282,0.97006684054795,0.986329505579803,1.03422148877662,0.934675842637222,0.935125320676241,0.93361201251867,0.936140081139879,0.942107932570613,1.01162000572287,0.918979441423086,0.916568158580574,0.917600584119981,0.917817471994704
1.02841164163471,1.02551653199474,1.02544783447786,1.02623294895649,1.02470197572315,1.02292565421524,1.01827385092932,1.01890194251223,1.01531004377246,1.01564371742589,1.01467213825857,1.01389683771092,1.00768461939871,1.002336027013,0.999391847718114,0.996035483321944,1.01441697605302,0.976538146638109,0.973992412941131,0.97558226976037,1.00670322630041,0.982109515257132,0.982639467530212,0.985436437860354,0.984700393036632,0.981540307260121,0.979810111227826,0.976089649992189,0.975515535029686,0.971536967409196,0.971725394884069,0.969027545256855,0.960921238264935,0.95562760389273,0.949534134145414,0.952108328242243,0.94709537229615,0.94447014575821,0.969201251835253,0.915257017401251,0.966008780086498,0.898050252208838,0.958967284606229,1.00364127983373,1.08198589087065,1.13657097499784,1.21036192205867,1.2707961090517,1.3444889168027,1.35959255658547,1.38419608155973,1.52620366288307,1.52603682605636,1.58936612268936,1.62098660831644,1.6652278091876,1.76751841182292,1.82435088614521,1.76867645567891,1.76919659402101,1.78960957046555,1.86601102316785,1.83439053754077,1.83465551367731,1.88507949106773,1.99030445906696,1.99139380540606,1.99204152485094,1.98748786087485,2.08142680824368,1.92239205666492,2.00034411046252,1.92935994766281,1.98180559483572,1.9737581714297,1.86117275519325,1.93429635494724,1.93951736623017,1.89435365584662,1.94672079157166,1.95627956034906,1.9120383594779,1.87256672906446,1.87192882355057,1.96112764225463,1.9607448989463,1.88431400445106,1.88357795962733,1.87268449623625,1.86853320343047,1.86687464909435,1.87059412893689,1.87809197220786,1.86036801285265,1.88721892802201,1.81069970814792,1.80948278070603,1.71469983527267,1.69939991687024,1.72854729188961,1.66951649702715,1.70862501199422,1.72642748279729,1.58373292630515,1.51706689313794,1.56705905756511,1.45441475774277,1.45360020147118,1.4922180198891,1.4965950331075,1.39271457365293,1.36731612026905,1.26673314162476,1.20628914070075,1.12309644775825,0.995741065392455,0.946305350852022,0.924937478922837,0.890199107422475,0.897180737923749,0.916423893795125,0.915513160999906,0.946275909059073,0.948121909476967,0.954256597734411,0.962509132297977,1.47147136979114,1.50161976577077,1.14963331713615,0.970050156865279,0.956301820951259,0.95562171553414,0.979187908003507,1.13745422878631,1.17682771988992,1.14866173796884,0.968969643064056,0.969521185985297,0.969417158316878,0.940876284232252,0.940107853436287,1.03017814921164,1.03769562034458,0.966300253836692,0.966884182730178,0.946431950561702,0.921893197531925,0.918616325976716,0.917390565996945,0.917669281636861
1.21308038094095,1.22386589109122,1.02504546330756,1.02748913212231,1.02711620274496,1.02387760552058,1.01839161810111,1.01779296831115,1.01670362197204,1.01561427563294,1.01475064970644,1.01279767744083,1.00688969098909,1.00541760134165,1.00358239624784,0.999166127305506,1.00724299250448,1.01354353619553,0.973819687755831,0.974199486884872,0.975315330837633,0.981412726157343,0.982629653599229,0.987379596194979,0.987202945437285,0.982403933186621,0.980329268176825,0.975227005458787,0.975349679596074,0.972602760313945,0.972043366247917,0.976934629449821,0.962443378960391,0.956263546620425,0.949211255816075,0.945468222539176,0.944708624281096,0.940794828605094,0.967076535777444,0.91007035487676,0.909653262809985,0.896091391584641,0.976468467728131,1.00714485319465,1.08264342424651,1.10004352387929,1.22790923065619,1.2574393489839,1.34485203224907,1.36697263268465,1.39982967361558,1.43875172389397,1.52702803308564,1.59930763477509,1.6215852581064,1.65621862054524,1.77015835925734,1.74618292586598,1.80139610157608,1.8160090448097,1.77692997163557,1.86542218730887,1.83613741725573,1.83487142015893,1.90232256780478,1.9918354323003,1.91524751490933,1.99179617657636,2.06804060638293,1.88795497284573,1.91372635560697,1.9220583830115,2.01772458223333,1.98272810434812,1.97322821915662,1.86167326567338,1.9361021182481,1.91764211406917,1.95201050037147,1.94520944620028,1.95144129237446,1.93856541492482,1.88511874679166,1.92616060616237,1.96125522335741,2.01023655289334,1.98727195439322,1.8835387039034,1.87260598478839,1.90621869840501,1.86541237337789,1.83369374844098,1.87842564586128,1.84900348077439,1.89264603185558,1.81285877296417,1.81315319089366,1.68484585722252,1.69901717356191,1.69845777949588,1.66619938835491,1.61707084985424,1.59273230101652,1.60612831680825,1.51836233202769,1.49525052456284,1.45503303539469,1.45351187609233,1.42409952493642,1.43663191480165,1.42073334660927,1.39985911540853,1.26461333253244,1.17528693272559,1.04524253327047,0.992620235339876,0.95303672611323,0.897603718349114,0.896435860562143,0.955391088156041,0.917503426203249,0.941957779426574,0.945780305544434,0.946775438146106,0.950326118375738,0.955727705988756,0.962105779734578,1.14278319331005,0.967800803883986,0.970794052833787,0.955945575256578,1.16994815427087,1.00330760618031,1.18726974245578,1.00009845074889,0.999882544267262,0.962415899953639,1.0532310730906,0.966630983310818,0.940388531862399,0.947032563137859,0.953704073420071,0.952587248074211,0.965543599757906,0.968196305302599,1.24726230255458,0.918325833619621,0.919357277765929,0.921592891243846,0.910723962680225
1.05235763323312,1.1420078927624,1.19925255218597,1.02702787736611,1.02768541074197,1.02498657972166,1.02547727627081,1.02014831174706,1.01766538720837,1.01639939011157,1.0160951582511,1.0179401772759,1.67686713133338,1.00639899443994,1.00529983416985,1.0039455116942,0.995073718085614,0.989705497837938,0.99811603669033,0.975246633320753,0.975773641414537,0.975431135223232,1.70150009810059,0.986084157305229,0.986741690681086,0.982502072496451,0.976463560762639,0.976277096073963,0.971305358637998,0.970246435484938,0.984562998002871,0.963032214819369,0.962226491085668,0.961825101308465,0.95738920450417,0.952781563907673,0.940818382039453,0.937467906001872,0.932809232964264,0.910107647814495,0.899087584713737,0.894061870657366,0.894029484685122,0.971008977922313,1.06040505663914,1.15085024457804,1.24197259375477,1.27141438670363,1.34538198452215,1.35709000418481,1.35986734665299,1.4565247529041,1.46633868388705,1.59759019685308,1.6314875144682,1.63210579212013,1.7767435069469,1.73074561242979,1.74590813579846,1.76631129831202,1.78346604967022,1.86435246883173,1.86350847076719,1.91402077353646,1.90169447622187,1.99646760772425,1.99334677767167,1.88136982515617,1.88256712473609,1.87294947237279,1.87143812700142,1.91864313502943,1.96996018013929,1.88184089384335,1.91280384609457,1.8611433134003,1.86042689643855,1.97960727429554,1.9508426425845,1.9470446512941,1.95414993732575,1.89813201927505,1.9123818470623,1.88196847494613,1.99938234522619,2.01669411948012,2.03711690985565,1.88605107023504,1.88513837465362,1.90763190446655,1.86096666264261,1.83394891064654,1.91512974773753,1.84969045594319,1.85446984033189,1.81356537599494,1.81872750369198,1.68435516067337,1.70944938219678,1.75855829283549,1.67036049509168,1.62035851673353,1.59687377989132,1.53177797568139,1.48393506213949,1.48569175578544,1.41147880969234,1.39700326149249,1.40025167264784,1.3836366874937,1.4065522163389,1.26946141443802,1.2609527362758,1.12119254514755,1.05506627818441,0.96751031152689,0.925422287113395,0.897087505579411,0.887238244444918,0.880924942643584,1.03764655068967,1.04754880705147,0.945279795064303,0.94831033695184,0.949066009637527,0.953392971807911,0.956929912534168,0.956848456907009,0.957836719756993,0.970154184533698,0.976725592719884,1.12667853256702,0.941687896324542,1.0810928231512,1.0014135175006,1.04800024787668,1.14591383729361,1.10224184441947,0.947532092224891,0.947271041660745,0.987821223089211,0.955957351973757,0.95231736497218,1.04139547232516,0.952261425565577,0.978818904198548,0.920901990502646,0.919954946162791,0.923256352545457,0.91180349508835
1.05158233268546,1.14501095564318,1.02533006730606,1.02515341654837,1.02631146040436,1.02616425143961,1.02474123144708,1.02103156553553,1.02014831174706,1.01670362197204,1.01718450459021,1.01883324499535,1.01502543977396,1.01187516792843,1.01140409924125,1.00524095058395,1.02083528691587,1.01884305892633,1.03046275321015,1.02759708536312,0.974693127613314,0.975764808876653,0.982992769045598,0.986035087650314,0.985505135377234,0.981589376915036,1.15393181890669,1.16015385114988,0.969067782373885,0.967132475184047,0.967122661253064,0.968666392596682,0.962150923817099,0.961851598922119,0.955533390155294,0.955412678804203,0.955746352457624,1.0798268260544,0.927385073309986,0.906418591158003,0.891351262919874,0.891754615483274,0.942551522251042,0.971207219328169,1.06183789056265,1.15328409946181,1.29759795456615,1.26068776013926,1.32528305386906,1.344891287973,1.35173159786812,1.39484419667624,1.4591745142695,1.62046646997434,1.63210579212013,1.62841575407054,1.66087042383116,1.76561450921223,1.76592855500368,1.76635055403595,1.77083552049516,1.86683539337041,1.86548107089477,1.82667678778817,1.90199870808234,1.88134038336322,1.99634984055246,1.88252786901216,1.8815268480519,1.87462765457088,1.87324389030228,1.97341468384529,1.97028403986173,1.97027422593075,1.88092819826194,1.86221303187744,1.97603500341774,1.96564205050679,2.0180876976797,2.0172829553391,1.95241287154177,1.89127208151797,1.89865215761715,1.86703167199007,1.90947692349135,1.94961590121163,2.03448677635221,1.88602162844209,1.90216554490905,1.87473560781169,1.8343709096788,1.88609032595897,1.83034719797579,1.84904273649832,1.87716946269546,1.73870471045697,1.70653464469485,1.77768564432126,1.7693143611928,1.68624924935308,1.72647655245221,1.68640627224881,1.5806513519765,1.51671359162256,1.5065561730552,1.50837175028705,1.38290064266998,1.69616131964587,1.38969188291019,1.29672451470866,1.26209115226982,1.27492777399552,1.23778204522504,1.11793432006121,1.02967763873151,1.03448646491316,0.918809660417081,0.912981166806304,0.96218527257554,0.906019164166997,0.939945923575068,0.955838603408863,0.948643029212162,0.942298322831682,0.9551840142123,0.931378361826949,1.10755118108125,0.954145700314304,0.959500181058603,1.10893494534984,1.10864052742036,0.947312260170873,1.12723792663305,1.00985349814594,1.00041249654034,1.08508709306127,1.14560960543314,0.942159946404822,0.944247369524897,0.946079630439414,1.17206796336319,0.939624026638827,0.942946042276557,0.946734219635977,0.950174983838601,0.95270305245981,0.919013790181526,0.921814686084061,0.924121941258153,0.911101799023069
1.34059278620247,1.1341174922521,1.48950937493781,1.02132598346502,1.02170872677335,1.02342616469537,1.0238677915896,1.0213946809819,1.02017775354001,1.02223867904643,1.01975575450774,1.0179401772759,1.01809720017162,1.01200274903121,1.01159056392993,1.0251926722723,1.01972631271479,1.33606856401933,1.02031514857377,1.02117877450027,0.984818160208428,1.02044272967655,0.98492611344924,0.985593460756081,0.982325421738757,1.00309169969869,0.967469093016762,0.964184370316767,0.987261829023183,0.965320823524593,0.96352094858232,0.977224140413818,0.986103785167194,0.959530604244651,0.957106563291861,0.951882607829635,0.949434032049388,0.949390850753063,0.921546765768226,0.96334233503843,0.905385184225498,0.941095134893172,0.96707849856364,1.01060917083163,1.03255312050951,1.15371591242506,1.25116824708579,1.26791081334271,1.29534075044007,1.32592095938295,1.34346826798047,1.40005539402818,1.48199190380487,1.61725731454292,1.633332533493,1.63103607364298,1.65665043350849,1.76564395100518,1.76695901775689,1.7871070180649,1.92749530077605,1.92698497636494,1.86480390965694,1.81066045242399,1.80973794291159,1.87456877098498,1.89379426178059,1.94339386896844,1.88145815053502,1.87526556008477,1.8753048158087,1.91211687092576,1.9101933404531,1.93651430334939,1.87910280709911,1.90886845977041,1.9581540211668,1.96513172609568,2.01734183892499,2.0176264429235,1.96983259903651,1.94928222755821,1.87551090835935,1.87062357072983,1.85001431566563,1.95625011855611,1.86464688676122,1.86663911475076,1.89479528274085,1.87514779291298,1.85363565619834,1.81826624893578,1.84552934920642,1.84566674424018,1.87763071745166,1.87874950558372,1.70334511712539,1.68821203554967,1.71798750215195,1.71424839444745,1.72870431478534,1.64348995206035,1.53636108145043,1.52130651132258,1.50547664064707,1.45767298282911,1.39481475488329,1.34530347307429,1.29122871335821,1.28750923351567,1.22112780434697,1.20711351090331,1.20328607781996,1.10172170607737,1.00506429982626,0.94033651802819,0.910883929755247,0.880653096755356,0.874690152290114,0.923105218008319,0.942295378652387,0.95627237915831,0.960703368997114,0.939031265207457,0.918714465286546,0.931013283594384,1.07486097697703,1.18903625003271,1.09891492181625,1.10278161062353,1.10304658676007,0.94480381941163,1.08037640618945,1.01293507247459,0.993817534919796,1.06735331977507,1.02164002925647,1.09830645809531,0.932150718195308,0.934166499619207,0.938590619706322,0.940619159240499,0.945152213961525,0.950168114086913,0.952573508570835,0.953496999476331,1.26071720193221,1.27082555084465,0.917054929557328,0.911968369128863
1.04486960389312,1.35854246597029,1.48904812018161,1.21479781886297,1.02083528691587,1.02608573999175,1.0255950434426,1.02415239558811,1.02114933270732,1.02296490993917,1.02298453780113,1.02064882222719,1.01855845492782,1.0411403101196,1.0095885220094,1.0312969373437,0.995760693254421,1.56342790310142,0.993022606510177,0.9846611373127,0.98459243979582,0.984504114416973,0.985750483651808,0.985652344341979,0.982080073464183,0.9691168520288,0.967057889308576,0.962533667125434,0.962750555000158,0.96243258363631,0.961729906177931,0.953988677418577,0.95591515207053,0.958496215919047,0.956403885833482,0.954288983706655,0.950324155589542,0.949498803993875,0.921069808722455,0.921053125039784,0.911607216468691,0.897333835247083,0.897501653466891,0.96970961346017,1.0247314175161,1.10443035102867,1.14855378472803,1.25686032705591,1.28106148085987,1.3153022860594,1.33514605450693,1.34910146436469,1.49500517628826,1.61799335936664,1.6918824457373,1.62200725713867,1.66092930741706,1.70309976885081,1.76725343568638,1.75671327381069,1.819286897758,1.92608209471451,1.88512856072264,1.81034640663253,1.81014031408189,1.85467593288253,1.89325449557653,1.97389556646346,1.88836715794702,1.87393086547109,1.87316537885442,1.91452128401659,1.91312770581701,1.87059412893689,1.96704544263736,1.91585597863027,1.93424728529232,1.93459077287673,2.01805825588675,2.01774421009529,0.00395227609938612,1.94151940815069,1.83095566169674,1.83124026569524,1.83544062815595,1.97707528010193,1.86389121407553,1.86554976841165,1.89025143269574,1.88974110828463,1.89905452878745,1.84718790354254,1.84596116216967,1.80342758528955,1.8022499135716,1.76268995777931,1.72844915257978,1.70577897200916,1.71631913388485,1.71474890492758,1.70899794137157,1.64446153122767,1.52869640135274,1.51112946489325,1.47807614534267,1.42795639981272,1.40645407702907,1.31888437086817,1.30031641344843,1.26519235446043,1.24809648668813,1.18268663668674,1.12444095630291,1.04820634042733,0.987566060883655,0.952943493768892,0.935157706648485,0.873171937167051,0.871999172414588,0.921250385052541,0.922389782439662,0.954375346299305,0.962383513981395,0.978637346475363,0.918087355096735,0.921019757674442,1.09158391537198,0.937611189394223,0.940587754661353,0.941219771816655,1.07526334814733,0.945302367105564,1.08060212660206,1.08096524204843,1.00765517760576,1.01837199023915,0.922129713268614,0.931788584142037,0.929441091850914,1.03161098313515,1.30576314514396,0.942395480748413,0.945626226828002,0.948300523020857,0.952155435110961,0.953688371130498,0.947667524472456,1.09955282733014,1.06756922625669,1.13620785955147
1.06512555744194,1.06604806695434,1.20404175050565,1.06910019949003,1.07295707436634,1.11236982119388,1.23089266567501,1.02480992896396,1.02689048233235,1.02572262454538,1.02427997669088,1.02280788704344,1.01865659423765,1.06896280445627,1.00762573581281,1.00586904216686,0.995103159878563,0.993052048303126,1.01706673741841,1.02022682319492,0.984769090553513,0.985770111513774,0.986339319510785,0.985779925444757,0.981913236637473,0.977915041155018,0.966455313946223,0.963620069285247,0.961942868480261,0.961608213433742,0.960963438168162,0.955098633012749,0.958008463549194,0.958469718305393,0.955952445008266,0.952314420792885,0.951622538658586,0.946293574134843,0.916583860870147,0.916295331299248,0.911120445491936,0.897092412544902,0.948181774455963,0.985721041858859,1.01728264390004,1.05976715112525,1.18975266699447,1.21499409748263,1.25947083269737,1.30524300680187,1.30452658984011,1.36894523281222,1.52345576220785,1.60287990565289,1.61607964282496,1.66797570986282,1.637935267124,1.71781085139426,1.71815433897866,1.76005982427588,1.76744971430604,1.88133056943224,1.79481095388652,1.9249927483754,1.85309588999428,1.84561767458527,1.89215533530643,2.02819604659214,1.88765074098526,1.88602162844209,1.87531462973969,1.91211687092576,2.07152455188188,2.07096515781585,2.0692673477558,1.91839778675485,1.9336878912263,1.93452207535985,2.01792086085299,2.01748904788974,1.92193080190872,1.94256949876587,1.83162300900358,1.83128933535016,1.83695197352732,1.86143773132979,1.86061336112722,1.91327491478175,1.88987850331839,1.9179659737916,0.0042536815477346,1.84765897222972,1.84594153430771,1.84662850947651,1.80323130666989,1.78129717092299,1.75231663273033,1.70928254537007,1.70791840896344,1.68669087624732,1.68812371017083,1.57625471089614,1.54828500759472,1.51584015176507,1.55092495502913,1.40978099963229,1.34632412189651,1.32256459498678,1.25208094266721,1.2306669452624,1.25436758858624,1.14647323135964,1.12000505949862,1.10137821849297,1.00733131788332,0.977317372758156,0.935009516290642,0.922301457060815,0.870613445359795,0.842246277853567,0.922734251417164,0.872177785958477,0.90374920193064,0.903024933824098,0.904864064490303,0.917672225816156,0.913312877673528,0.922946232326395,0.993356280163597,1.12271370444991,1.12926941034652,0.999548870613841,1.07122000858235,0.89861357184726,0.906145763876677,1.01987352167954,1.27797990653122,1.28169938637376,1.29190587459603,1.17520842127773,1.17616037258308,1.23659455957611,0.982227282428928,1.49009821079679,1.49816526206477,1.25538823740846,0.948169997738783,0.949221069747058,1.40326454945961,0.935840756244898
1.05678371610643,1.06039524270815,1.05742162162032,1.07714762289606,1.06115091539384,1.10395928234149,1.3933132234429,1.24650662986889,1.0285882923924,1.02608573999175,1.0243290463458,1.02084510084685,1.01738078320987,1.64782770955482,1.00647750588781,1.0054470431346,0.992541723892012,0.994170836435183,1.01676250555794,1.0130430257154,0.982521700358416,0.98432746365928,0.985593460756081,0.986133226960143,0.98276704863299,0.979256605520388,0.977437102716148,0.966240388857696,0.966411151256799,0.966908717557635,0.985995831926382,0.954479373967724,0.958525657711996,0.95841966725738,0.955700226982004,0.954885670710419,0.951943454201729,0.946377973941296,0.914910585637553,0.918502484377314,0.911088059519693,0.895655653048998,0.900775580842805,0.971680250801547,0.995515344979847,1.04187635494332,1.14426509688848,1.22898876306432,1.2453485860129,1.38632570458303,1.38537375327769,1.33276126927807,1.47661386962621,1.60370427585546,1.60273269668815,1.6637262777472,1.64741552445353,1.77534992874732,1.7253872061131,1.72624101810862,1.76636036796693,1.77305346889731,1.79478151209357,1.79316221348138,1.79232802934783,1.85396932985176,1.92167563970316,2.0205608082874,1.89580611763209,1.98704623398061,1.88933873711433,2.08620619263238,1.87591327952965,2.07196617877611,1.898740482996,2.10890581499595,1.94313870676288,1.99003948293042,2.01986401918761,1.92145973322154,1.92180322080594,1.94203954649279,1.82660809027129,1.82754041371467,1.8335661673382,1.97122617723609,1.86117275519325,1.91955583061084,1.89107580289831,2.01459393824977,1.95725113951637,1.89105617503634,1.79489927926536,1.81049361559728,1.79807899290384,1.79057133570188,1.78987454660209,1.64694445576635,1.70939049861089,1.62710068731882,1.62245869796388,1.53663587151795,1.52950114369334,1.51742019465333,1.51630140652127,1.41744567972998,1.39514842853671,1.29108150439347,1.22674137286922,1.25349414872875,1.19781971826246,1.14744481052695,1.12132012625033,1.05441855873954,0.97299139198087,0.970151240354403,0.874746091696716,0.921623314429893,0.845602642249737,0.842481812197158,0.838436509845984,0.872271999695914,0.902714813605036,0.902246689097149,1.02459402248234,0.974653871889382,0.900335916734768,0.889221639896573,1.10560802274662,1.11938678184669,1.12503960609287,1.12620746387984,1.13993715332499,0.900211279811285,0.897201347178813,1.00903894187436,0.905990703767146,0.909044799089042,0.910616990832511,1.17543414169034,1.18279458992755,1.18435500495384,1.48198208987388,1.49594731366263,0.938861484201452,0.942799814704911,0.943999077071028,0.949142558299194,0.937793728510506,0.935079195200621
1.05572381156027,1.05476204632394,1.05173935558119,1.06592048585156,1.05799082961733,1.07696115820738,1.07487079090801,1.30265212902237,1.02695917984923,1.02543802054687,1.02477067324003,1.02202277256481,1.01407348846861,1.12204635714307,1.00296411859591,1.00137426177667,1.30704877010273,0.989784009285802,0.984788718415479,0.971150298528468,0.9791918335759,0.98276704863299,0.982384305324655,0.984739648760564,0.981667888362899,0.9773497587304,0.977210400910442,0.966695755255305,0.966397411753423,0.966356193243295,0.96638759782244,0.99250246816808,0.959909421980593,0.95847168109159,0.956328318564913,0.953051447009704,0.951166190867879,0.947552701479956,0.917694797857417,0.918585902790669,0.908368619244316,0.891866494296479,0.897436881522404,0.921855904594189,1.02383834979665,1.05381009501859,1.127846390354,1.16325505334049,1.25480921548047,1.274652983928,1.31227959531665,1.4086229557763,1.4697637458001,1.65904503266833,1.61303732422025,1.60325283503024,1.61186946643328,1.77448630282082,1.72600548376503,1.79253412189847,1.77300439924239,1.77346565399859,1.81113152111117,1.79238691293373,1.79338793389399,1.85412635274749,1.94146052456479,1.89494249170559,1.8944812369494,1.9395566219541,1.87640397607879,1.85958289837401,1.86957348011466,1.86383233048963,2.07076887919619,2.10938669761412,1.92957585414444,1.92924218049102,2.02635102756735,2.02026639035791,1.8986227158242,1.96258010404011,1.87531462973969,1.83283012251448,1.83333063299461,1.88294005411344,1.90141968615434,1.93951736623017,1.91650369807514,2.01520240197071,1.95836011371744,1.87577588449589,1.7831912596027,1.79727425056324,1.79732332021815,1.74875417578351,1.75366114127499,1.65132146898475,1.62441167022949,1.64349976599134,1.56080758352897,1.53908935426369,1.51767535685889,1.50443636396288,1.53517359580149,1.52168925463091,1.40067367168011,1.29568423802447,1.24517193525521,1.22027399235145,1.13510869928138,1.10085808015087,1.08075914949778,1.02743024853641,1.00401420921109,0.914822260258706,0.894357269979953,0.846860788201752,0.860668007701669,0.854201608577001,0.839766297494174,0.923375101110351,0.873000193374849,0.883825940642145,1.09108340489185,0.975475297912656,0.878668719910603,0.892366023383512,0.893857740892921,0.894025559112729,1.23795869598274,1.43796660941533,0.999283894477301,0.895408341988227,0.897339723605673,0.90202783843623,0.905263491481309,0.909631672161822,0.911555202634481,0.917131478218995,0.923060073925798,1.51397550487831,1.46751635560501,1.2233555666801,1.04785303891194,1.05378065322564,1.06103314822205,1.06427174544642,0.932515796427874,0.935216590234383
1.04794136429079,1.25025555150438,1.04994340621131,1.04840261904699,1.2646918439803,1.08877713111086,1.06762810984259,1.07405623463643,1.10763950646009,1.02474123144708,1.02370095476289,1.02098249588061,1.01238549233954,1.00154109860338,0.999372219856148,1.00228695735809,0.992541723892012,0.988429686810154,0.98363067455949,0.978579444282564,0.977580386108499,0.982158584912047,0.982737606840041,0.983650302421456,0.981687516224865,0.980131026770969,0.975312386658339,0.973959045575789,0.966155007658144,0.966369932746671,0.966724215655156,0.961119479670791,0.959153749294905,0.95845990437441,0.95875922926939,0.955326316211553,0.951734417471792,0.947222953398928,0.973128787014631,0.943546654852714,0.910495298088322,0.890983240508013,0.893958824382045,0.982619839668246,0.979503916581158,1.05828524754682,1.15151759188488,1.15705264895927,1.23459251765558,1.28112036444577,1.31110192359869,1.35237931731299,1.47757563486254,1.47194243847832,1.50537850133724,1.53719526558398,1.6384554054661,1.68432571888042,1.73419030220481,1.77109068270072,1.77100235732187,1.84839501705344,1.78668501903263,1.78599804386382,1.90849553039305,1.82692213606274,1.88874990125535,1.88796478677671,2.00010857611893,1.90176317373875,1.85414598060946,1.85933755009944,1.86740460136743,1.86814064619115,1.90001629402378,1.91484514373902,1.914285749673,1.92878092573482,2.02270024524169,1.98358191634363,1.92805469484208,1.89160575517139,1.87398974905699,1.82987612928861,1.82998408252942,1.88345037852456,1.88138945301813,1.81141612510967,1.81092542856053,2.0154968199002,1.95765351068667,1.84429279390257,1.77617429894989,1.74685027317282,1.71944977786841,1.71567141443998,1.68951728837041,1.62355785823397,1.62406818264509,1.55062072316866,1.54630259353616,1.51786182154756,1.50567291926673,1.50449524754878,1.57179918622988,1.46720230981355,1.42058613764452,1.27612507357544,1.24776281303471,1.17990929421857,1.14006473442777,1.09176056612967,1.06111165966991,1.02427997669088,1.00213974839334,0.919860732425355,0.90628217751734,0.845434824029928,0.877456699434208,0.902559753495506,0.904069136080684,0.872626282604398,1.31579298260854,0.880366529970654,1.09205498405916,0.888194121322658,0.890946928963376,0.892101047246972,0.892502437024175,0.893263016675354,1.12265482086401,1.13577604658822,0.893861666465314,0.895678225090259,0.894316051469825,0.898765687777496,0.904445991030429,0.909744532368126,1.46626998637017,1.46625035850821,1.02764615501804,1.03383874546828,0.903335054043159,0.904949445689855,0.906738525308047,0.912940929689274,1.06020877801948,1.06522369675177,0.932018230127038,0.93514298575201
0.996349529113398,0.996732272421734,1.2532389865232,1.06166123980496,1.06171030945987,1.06599899729942,1.06535127785455,1.06440914048018,1.09408646777263,1.02021700926394,1.02278825918148,1.01754762003658,1.01281730530279,0.999519428820892,0.999401661649097,0.992738002511671,0.991894004447137,0.986898713576814,0.9846611373127,0.97640565856984,0.976333035480566,0.982119329188115,0.982914257597735,0.982394119255638,0.980908290104819,0.976110259247253,0.975429172437036,0.976124980143727,0.966598597338574,0.965267828297285,0.96630712358838,0.964747689955189,0.960681778348951,0.959699403857557,0.9590418704817,0.955808180222816,0.951029777227216,0.950011091191185,0.944627168653937,0.912432568064357,0.887394285947547,0.887384472016564,0.895673318124767,0.913896806567014,0.980889643635951,1.0506401953111,1.09045531330894,1.17873162250061,1.22201105813544,1.30192589812963,1.33121066818276,1.35268354917347,1.45818330724022,1.4556611269776,1.5022380434227,1.52692007984483,1.56772640487195,1.64121312007231,1.73959777817642,1.77246463303833,1.7741526291674,1.76317084039747,1.82363446918345,1.78657706579182,1.84754120505793,1.82439995580012,1.89463825984512,1.8884358554639,1.87948555040744,1.93628858293678,1.85283091385774,1.85937680582337,1.86711999736892,1.86420525986698,1.92506144589228,1.93740737106884,1.91527695670227,1.93498333011605,2.03522282117594,1.90445219082808,1.91899643654481,1.93309905536732,1.85523532694856,1.82988594321959,1.82992519894353,1.83312454044397,1.80522353465943,1.86295889063215,1.81186756593489,1.88582534982243,1.87828825082752,1.84073033695576,1.73720317901658,1.6910188198108,1.71599527416241,1.71528867113164,1.60751208107684,1.62313585920171,1.57992512108376,1.52767575253052,1.53201351002498,1.54963933007037,1.50891151649111,1.50431859679109,1.57157346581727,1.47776209955121,1.40577691579125,1.27293554600598,1.20701537159348,1.19266740449641,1.08917950228116,1.04271053907687,1.0450560685818,0.99492650912087,0.916925385668353,0.892079456598809,0.875670563995311,0.837355014651663,0.839877194914282,0.867503410631297,0.869425959710857,0.873294611304337,0.875433066865523,0.880937700753862,1.08477304726981,0.887944847475691,0.889573960018861,0.89206179152304,0.89291952909095,0.891681992394,0.887339327934043,0.881548127261002,1.13513814107433,0.894758659757156,0.89210202864007,0.890298228125403,0.88640798588376,1.45730005345175,1.17873162250061,0.90149199780456,0.895671355338571,0.90391015039876,0.903654006800105,0.904437158492545,0.907316565842943,0.914109768869344,0.916554419077198,0.921497696113312,0.92890230703995,0.933589440477409
0.993395535887529,0.995731251461472,1.31581261047051,1.04531123078735,1.05747069127523,1.06738276156802,1.06752015660178,1.06225988959492,1.08720690215358,1.01636994831862,1.08230975059309,1.12838615655806,1.0112568902765,1.01011847428248,0.999735335302517,0.990991122796705,0.990520054109524,0.987193131506303,0.982315607807774,0.979759078786715,0.977240824096489,0.982109515257132,0.98216839884303,0.982119329188115,0.976150496364283,0.975394823678595,0.97489725737776,0.975026801266735,0.972185668247169,0.969625213653717,0.96643961165665,0.965518083537351,0.961178363256689,0.96031964429568,0.9595021438448,0.959626780768284,0.955793459326342,0.951163246688584,0.950185779162682,0.910148866324624,0.91141780760072,0.931451966309322,0.890909636025641,0.923265185083342,0.963101893729347,1.05066963710405,1.08089654453155,1.13518721072925,1.22737927838311,1.27379917193248,1.32196594519682,1.33450814899304,1.37618791387764,1.41119420569384,1.42406026921249,1.48140306794589,1.59377257770071,1.6600460536286,1.69134267953324,1.72810566499538,1.74125633251254,1.82081787099134,1.81984629182403,1.76547711417847,1.91312770581701,1.86871966811914,1.87245877582365,1.87967201509612,1.8782980647585,1.90795576418899,1.84720753140451,1.85211449689598,1.85105459234982,1.8598773163035,1.90594390833749,1.9386929960276,1.93573900280173,1.93546421273421,1.90482512020543,1.90330396090307,1.98277717400303,1.88415698155533,1.82815869136659,1.82724599578518,1.82880641081147,1.78388804870249,1.78362307256595,1.80728446016585,1.81602867267166,1.87892615634141,1.83812964524527,1.83871848110425,1.80960054787783,1.70121549410209,1.69245165373431,1.61388132228478,1.60361595047661,1.5986697292612,1.52297487958968,1.49819470385772,1.49167825368504,1.51168885895928,1.51277820529839,1.54583152484898,1.48361120241705,1.47846870258198,1.41010485935473,1.23564260827076,1.21065633998816,1.15322521587591,1.11077015044366,1.0364786929027,1.01012828821347,1.00108965777816,0.966049017203529,0.895549662594382,0.852332054724748,0.837788790401109,0.837659246512134,1.06113128753188,0.87168708940933,0.870896086572104,0.876307488116104,0.881843526583589,0.883384313747912,0.886186191043546,0.888062614647486,0.891909675592804,0.893267923640845,0.884539413424606,1.40157655333054,0.876249585923305,0.889345295426958,0.888306000135864,0.889314872240911,0.889978293975359,0.887684778304643,0.890841919901859,1.17619962830701,0.899719601869039,0.896797994615414,0.898402572331127,0.899926675812779,0.904063247722094,1.04204319177003,1.04958029076494,0.983414768077865,0.924593991338433,0.928583354283004,0.935485491943316
0.990677077005251,0.991491633276836,1.03799985220505,1.04849094442583,1.03876533882172,1.05857966547631,1.06815806211567,1.07148498471889,1.06875671190563,1.01593813535537,1.01528060197952,1.11295865705285,1.01063861262458,1.00965721952628,1.00880340753077,0.991344424312092,0.991913632309103,0.986702434957155,0.985907506547535,0.98216839884303,0.981766027672729,0.980231128866995,0.980318472852743,0.980344970466397,0.974078775533781,0.979425405133294,0.968008859220824,0.97135639107911,0.970249379664233,0.969942203624466,0.970318077181113,0.965825259577117,0.962560164739088,0.957436311372888,0.960264686282176,0.961560125171925,0.957332283704469,0.951014074937643,0.953984751846183,0.951850221857391,0.904256582162458,0.923378045289646,1.03545804408047,0.928301694463793,0.955379311438861,1.00386700024634,1.09136800889036,1.13449042162946,1.20264817230607,1.25382782238217,1.29161145666655,1.31523358854252,1.3521437829694,1.37561870588063,1.39882865265532,1.47402299184671,1.48427854972389,1.5910737466804,1.68895789430438,1.73974498714116,1.74037307872407,1.79317202741236,1.74584925221256,1.76617390327826,1.75724322608377,1.86605027889178,1.80361404997823,1.87819992544867,1.9061107451642,1.90659162778236,1.84357637694081,1.88249842721921,1.85155510282996,1.86044652430051,1.87111426727898,1.87091798865932,1.97701639651604,1.93832006665025,1.91580690897535,1.90319600766226,1.87474542174268,1.87044691997214,1.78120884554414,1.82783483164416,1.77854927024776,1.79392770009805,1.81764797128385,1.81740262300928,1.78338753822236,1.85510774584578,1.82054308092382,1.81664695032359,1.80683301934064,1.71605415774831,1.69346248862555,1.6043716231623,1.58971942420475,1.57923814591495,1.51514336266528,1.50537850133724,1.48304199442004,1.49402378318997,1.5143288063937,1.41012448721669,1.48993137397008,1.45584759166628,1.25841092815121,1.21744758022836,1.22417012295169,1.16259751996464,1.13689483472028,1.05000228979721,1.00057933336705,0.975157326548808,0.91763002591293,0.894669352985211,0.845451507712599,0.837649432581151,0.84767338168714,0.874219083602932,0.874843249613448,0.874132721010282,0.876417404143113,0.881437229840894,0.881992698334529,0.887485555505689,0.888360958149368,0.891034272949125,0.892333637411268,0.875920819235376,0.877509694661516,0.877365429876067,0.888864412808794,0.889238323579244,0.899625388131603,0.901048408124131,0.900352600417439,0.898050252208838,0.897847103837491,0.900498827989085,0.898178814704715,0.899752969234381,0.8992239983544,1.04167026239268,1.04134640267024,1.02136523918895,0.916309070802624,0.920856846420125,0.923423189372167,1.05732348231049
1.20553346801506,1.02336728110947,1.02676290122957,1.04340732817666,1.33346787230884,1.05472279060001,1.03858868806403,1.05385916467351,1.01401460488271,1.01623255328486,1.01617366969896,1.01483897508528,1.00986331207693,1.00971610311218,1.00482876548267,1.15572776827657,0.994219906090097,0.98778196736528,0.988311919638359,0.984013417867825,0.982717978978075,0.982109515257132,0.9795372839465,0.978689360309573,0.974116068471516,0.967508348740694,0.967381749031014,0.971750911104625,0.970484914007824,0.96941617692378,0.97049276515261,0.970074691692736,0.968838136388884,1.35801251369721,0.958562950649731,0.958913307985823,0.958366672030072,0.958818112855288,1.1518512655383,0.953378250911437,0.932282224870479,0.939635803356007,0.911560109599973,0.908342121630662,0.955293930239309,0.996908923179427,1.1255990001589,1.11323344712038,1.20368844899026,1.25187485011657,1.26091348055187,1.2975685127732,1.31978725251861,1.37316522313489,1.38000553303001,1.41367713023252,1.47905753844096,1.60244809268964,1.61370467152709,1.74111893747878,1.74460288297773,1.7477825966162,1.74533892780145,1.71608359954126,1.73243360855886,1.81342798096118,1.81384997999345,1.87830787868949,1.9080637174298,1.9116948718935,1.8869343240235,1.84161359074422,1.85213412475795,1.85853280775884,1.87123203445078,1.87083947721146,1.94003750457227,1.91385393670975,1.91616021049074,1.95134315306463,1.87535388546362,1.85805192514067,1.77982508127555,1.7754775098501,1.76359283942974,1.80171014736753,1.74449492973691,1.82065103416463,1.82060196450972,1.85594192997934,1.7891777575023,1.78701869268605,1.73830233928667,1.71948903359235,1.59815940485009,1.58787440517995,1.58379180989104,1.59704061671803,1.51092337234261,1.46875291090886,1.45446382739768,1.42798584160567,1.4543362462949,1.39379410606106,1.33576433215885,1.318982510178,1.32363431346392,1.20183361603448,1.17210721908712,1.1876622996951,1.11685478765309,1.0204721714695,0.967033354481119,0.937568989490997,0.909217524274341,0.901864927181913,0.846290598811642,0.846856862629359,0.860048748656645,0.871948139973476,0.871073718722895,0.873785307853485,0.876236827813027,0.879645206043407,0.883542318036738,0.886443316035299,0.889109761083367,0.892031368336993,0.891757559662568,0.876365390308904,0.878026888824318,0.87707003055348,0.897226863399369,0.897207235537403,0.90046742340994,0.901000319862314,0.899842276006326,0.898943319928287,0.897689099548666,0.899498788421922,0.897986461657449,0.899057161527689,0.884056568020245,0.884510953024755,1.03477106891166,0.907707160296065,1.0449971849959,1.0209923098116,1.00987312600791,0.925817788532008
1.03519306794393,1.02368132690092,1.02347523435028,1.03412334946679,1.03564450876915,1.06041487057012,1.04299514307538,1.06432081510134,1.06498816240818,1.01889212858124,1.01626199507781,1.01578111245965,1.01277804957886,1.01030493897116,1.00523113665297,1.00099151846834,0.99569199573754,0.995544786772796,0.989538661011228,0.986515970268479,0.984602253726803,0.982629653599229,0.978994573563143,0.975641153346268,0.973735287949378,1.23461214551755,1.29419252051506,0.972570374341701,0.969402437420404,0.971086507977079,0.971933450220908,0.972828480726553,0.969814622521688,0.970111984630471,0.968963754705466,0.959246981639243,0.958527620498193,0.958621834235629,0.959891756904823,1.00586904216686,0.93295546053591,0.933584533511917,0.911909485542966,0.911174422112342,0.928184908685096,0.976587216293024,1.06200472738936,1.09977854774275,1.18939936547908,1.23307135835323,1.24807685882616,1.27185601359786,1.4603227441945,1.34198636440205,1.39633591418564,1.39516805639867,1.45209867003079,1.53670456903483,1.59210420943361,1.6508307724356,1.67487490334384,1.69410039413945,1.72346367564044,1.74524078849162,1.78000173203324,1.79274021444911,1.79329960851514,1.81891396838065,1.81246621572485,1.81396774716524,1.81292747048105,1.88130112763929,1.88110484901963,1.88110484901963,1.87858266875701,1.91666072097087,1.91388337850269,1.91659202345399,1.91089012955289,1.87833732048244,1.83451811864355,1.82040568589006,1.77128696132038,1.77070793939238,1.7561342518827,1.75335690941452,1.74467158049461,1.74168814547579,1.74621236765893,1.75609499615876,1.7761644850189,1.78666539117067,1.75634034443334,1.70489571822069,1.59587275893106,1.59096579343958,1.59615736292957,1.54131711659682,1.49788065806627,1.44698561198867,1.41709237821459,1.39213555172494,1.38298896804883,1.33991562496464,1.31261326897007,1.29446731058258,1.20256966085821,1.17300028680657,1.16580667539606,1.14670876570323,1.15627734841161,1.03015852134967,0.967059852094773,0.94505701883099,0.949318227663789,0.893243388813388,0.916504368029185,0.899574355690491,0.862088083514903,0.874428120332869,0.870320990216503,0.873878540197823,0.878045535293185,0.87942439259629,0.883374499816929,0.886175395719464,0.889955721934098,0.892092214709087,0.892008796295732,1.11500976862829,0.897173868172061,0.896578162561395,0.898310321379887,0.898617497419653,0.89903949645192,0.901854131857831,0.899403593291388,0.897704801838238,0.894814599163759,1.00944131304466,0.884633627162042,0.886440371856004,0.886516920517671,0.885160635255827,1.34779621154396,0.999823660681364,1.05200433171773,1.00288560714805,1.04635150747155,1.00404365100403
1.01698822597055,1.03420186091465,1.02098249588061,1.02250365518297,1.05711738975985,1.04516402182261,1.03672404117727,1.05833431720173,1.01586943783849,1.01937301119941,1.0192061743727,1.32472365980303,1.01280749137181,1.01245418985643,1.01280749137181,1.00010826467987,0.998832453652086,0.993591814507188,0.993405349818512,0.987536619090706,0.987801595227246,0.982207654566962,0.979661920869984,0.977244749668882,0.975086666245731,0.962042970576287,0.962080263514022,0.975636246380776,0.9778100320935,0.9782133846569,0.976115166212744,0.975061150025175,0.970093338161604,0.970750871537462,0.968632043838242,0.959045796054093,0.956403885833482,0.958312695409666,0.958643424883792,0.978930783011754,0.978720764888718,0.912271619596237,0.912848678738034,0.919266008207788,0.919220864125266,0.979286047313337,1.08828643456171,1.10887606176395,1.17242126487857,1.22480802846558,1.22759518486474,1.2351617256526,1.27819581301285,1.3495529051899,1.34019041503217,1.39716028438821,1.43982144237111,1.53597833814209,1.52833328590637,1.6582599181897,1.68075344800263,1.66000679790466,1.67836866277377,1.76242498164277,1.70565139090638,1.72264911936886,1.78009987134307,1.82108284712788,1.81326114413447,1.81371258495969,1.81121003255903,1.81053287132121,1.87815085579376,1.87885745882453,1.88623753492371,1.87873969165274,1.91546342139095,1.90978115535182,1.90866236721976,1.88467711989742,1.83044533728562,1.84725660105942,1.77559527702189,1.82385037566508,1.7578615037357,1.7540046288594,1.74630069303778,1.74142316933925,1.75747876042736,1.73917577914415,1.84080884840362,1.79714666946046,1.75545709064487,1.71479797458249,1.58638268767054,1.5621128363497,1.5383925651639,1.55350601887765,1.4944065264983,1.49487759518548,1.41693535531886,1.40880942046498,1.34521514769544,1.34257520026102,1.29276950052253,1.22694746541986,1.18684774342351,1.1639420285093,1.15541372248511,1.13504981569548,1.16600295401572,1.01037363648804,0.967792952739199,0.91989802536309,0.884133116681912,0.834838722747633,0.834838722747633,0.931540291688168,0.896005028991991,0.938043983750572,0.873754884667438,0.875189681377146,0.878736436034385,0.879670722263963,0.884079140061505,1.07841361999286,1.08465528009802,0.891362058243956,1.40048720699143,1.18305956606409,0.897379960722703,0.897891266526915,0.897699894872747,0.897725411093303,0.877655922233162,0.87034552504396,0.869239495022181,0.868648696377007,1.16609127939457,0.881642340998438,0.884221442060758,0.887422746347398,0.888136219129859,0.876807998596235,0.866328683092637,1.01150223855108,0.879813024263215,0.880249744191957,0.882056488885919,1.03976635978199
1.01733171355495,1.27063908615597,1.27099238767136,1.02004035850625,1.04691090153758,1.04634169354056,1.11624632393214,1.06702946005263,1.0179401772759,1.01941226692334,1.01659566873123,1.01583999604554,1.012699538131,1.012699538131,1.01113912310471,1.01006940462757,0.997909944139688,0.995220927050359,0.993837162781762,0.988704476877677,0.987889920606092,0.982011375947303,0.978827736736433,0.977817883238287,0.979372409905987,0.96096441956126,0.962285374671566,0.980728695167831,0.977255544992963,0.978647160406346,0.975578344187977,0.972986485015379,0.96858689975572,0.967239447031761,0.966090235713657,0.965870403659639,0.961978198631799,0.958032016983553,0.957115395829746,0.977944482947967,0.928602000751872,0.911095910664479,0.911344203118348,0.919572202854456,0.919912746259565,0.997782363036909,1.08821773704483,1.07810938813239,1.1699874099948,1.19367823938765,1.22455286626002,1.23140299008612,1.24382742671054,1.31487047309615,1.34355659335932,1.37694358656333,1.37652158753106,1.47276680868089,1.53547782766196,1.54648905822484,1.66420716036537,1.62049591176729,1.69443406779287,1.69585708778539,1.78395674621937,1.73645732026187,1.74336632767387,1.84728604285237,1.78446707063048,1.85641299866652,1.79813787648974,1.81031696483958,1.87713020697153,1.87759146172773,1.88775869422607,1.88460842238054,1.90500177096312,1.9078379970172,1.92197987156363,1.87886727275552,1.86416600414305,1.83660848594292,1.77581118350352,1.7856643702104,1.7560753682968,1.7542892328579,1.73332667627831,1.71448392879104,1.67759336222612,1.69327602393688,1.83657904414997,1.73218826028429,1.74034363693112,1.78481055821489,1.59234955770818,1.54990430620691,1.52586998922965,1.50015749005431,1.49404341105193,1.41728865683425,1.3655005430372,1.4092019777043,1.35707037632285,1.31393814965277,1.28791160468597,1.22753630127884,1.18342268151046,1.16186147514091,1.12792490180186,1.11938678184669,1.08485155871768,1.02335746717849,0.942233550887195,0.932064355602658,0.898948226893779,0.837365809975744,0.843306182399726,0.843859688107164,0.892862608291249,1.14508946709105,0.876020921331402,0.87973549420845,0.8834490856924,0.885155728290336,1.13526572217711,0.905589313989943,0.982678723254144,0.984837788070393,1.0030818857677,1.37187959817612,0.896602697388853,0.898146428732471,0.884528618100525,0.881288058089953,0.877304583503972,0.871567359451338,0.870368097085221,0.869272862387523,0.872586045487368,0.874628324524921,0.87776093129468,0.88608020058893,0.880827784726853,0.880825821940656,0.865802656391951,0.869404369062695,0.879375322941376,0.881326332420787,0.879536271409496,0.993935302091592
1.03516362615098,1.02869624563321,1.03483976642854,1.03364246684862,1.03806854972193,1.04019817274524,1.02669420371269,1.40936881453101,1.01624236721585,1.01611478611307,1.01633069259469,1.01646808762845,1.01142372710322,1.01240512020151,1.01136484351732,1.16217552093237,1.00264025887347,0.998910965099949,0.996251389803569,0.98844931467212,0.98768382805545,0.982482444634485,0.976111240640351,0.974713736868378,0.97519658227274,0.979414609809213,0.981374451826509,0.97695818288418,0.979194777755195,0.97841457024205,0.973363339965124,0.973568451122668,0.972879513167664,0.967021577763939,0.961873189570282,0.962187235361736,0.96187417096338,0.956399960261088,0.951969951815383,0.976908131836167,0.996791156007631,0.996908923179427,1.04440834913692,0.921881420814745,0.927732486466782,0.968740978472153,1.00701727209187,1.07261358678193,1.12193840390226,1.17999761959741,1.18691644094039,1.21944962214889,1.24648700200692,1.30485044956255,1.30876620802475,1.4112138335558,1.38635514637598,1.43313815537172,1.55715680120331,1.54651850001779,1.65661117778456,1.60332153254712,1.69344286076359,1.65339220842215,1.69655387688518,1.71236411969872,1.79175882135082,1.77952084941507,1.75339616513845,1.75466216223525,1.80923743243146,1.78144437988773,1.8151454188832,1.81507672136632,1.85114291772867,1.84843427277738,1.91267626499179,1.91195984803004,1.89861290189322,1.87593290739161,1.85478388612335,1.85381230695603,1.77416244309838,1.78599804386382,1.78726404096063,1.84045554688823,1.74942152309036,1.71796787428999,1.67556187851265,1.6457079004625,1.83656923021899,1.72715371369003,1.74151149471809,1.74084414741125,1.57922833198397,1.55537066576441,1.5254970598523,1.52265101986724,1.44112669519185,1.38480454528067,1.36279189808591,1.36364571008143,1.36325315284211,1.31434052082307,1.26403431060445,1.18747583500642,1.18277496206559,1.13237061253714,1.12856280731575,1.07224065740458,1.06728462225819,1.00062840302197,0.979547097877483,0.896278837666415,0.868058879124932,0.838918373857247,0.844383752021654,0.844552551634561,0.846232696618842,0.871285699632127,0.877180927973587,0.880822877761361,0.884331358087767,0.88679956172998,1.30376110322344,0.907945638818951,1.31892362659211,0.913476770320943,0.915414040296978,0.931985844154794,0.891402295360985,0.886475702007543,0.887170528321136,0.886945789301626,1.13227247322731,0.870140413886416,0.869127616208975,0.868343483123437,0.873059076960747,0.875030695695222,0.877717749998355,0.880462706494287,0.880065242289477,0.881041728422281,0.880874891595571,0.879719791918877,0.880640338645079,0.880230116329991,0.880802268506297,0.886571878531176
1.02320044428276,1.03717548200249,1.0135042804716,1.02323970000669,1.0509836828955,1.10485235006093,1.1039494684105,1.10432239778786,1.0131607928872,1.01274860778591,1.01346502474767,1.01290563068164,1.0127584217169,1.0093039180109,1.00834215277457,1.00843047815341,1.00189440011877,1.00234584094398,0.991776237275342,0.986574853854376,0.983925092488979,0.977292837930699,0.975444874726608,0.974110180112927,0.975776585593832,0.980383244797231,0.979331191395858,0.980459793458898,0.979377316871478,0.979826794910497,0.976873783077727,0.973741176307968,0.974611671986156,0.959181228301657,0.986417830958649,0.957536413468914,0.957320506987289,0.953756087254281,0.953026912182247,0.951841389319506,0.996320087320449,0.916911646164977,0.883340151058489,0.882070228389295,0.922052183213848,0.987889920606092,0.996997248558273,1.03137544879156,1.09134838102839,1.15007494403039,1.17289233356575,1.18674960411368,1.24745858117424,1.24121692106908,1.30900174236834,1.35720777135661,1.34013153144627,1.3216322715434,1.33607837795031,1.53871642488634,1.54658719753467,1.65330388304331,1.6176106160583,1.65148830581146,1.69185300394435,1.69257923483709,1.74601608903927,1.83031775618284,1.78077703258089,1.75547671850684,1.80966924539471,1.77595839246826,1.81392849144131,1.84499939693334,1.84416521279979,1.88127168584634,1.87257654299544,1.84372358590556,1.8426047977735,1.86519646689626,1.76482939473359,1.78300479491402,1.75337653727649,1.80232842501946,1.78024708030781,1.80900189808787,1.73767424770376,1.79532127829763,1.62835687048464,1.66454083401879,1.66441325291601,1.77713606418622,1.68467902039581,1.6581421510179,1.67215644446156,1.58335018299681,1.52439789958221,1.48169748587538,1.43924242044312,1.3870323076138,1.36520612510772,1.40033018409571,1.36496077683314,1.31545930895512,1.26088403875892,1.15733725295777,1.17644497658158,1.13293000660317,1.142812635103,1.05143512372072,1.04946252359314,1.00690931885106,0.962720131814111,0.896046247502119,0.855317452529763,0.830203603144384,0.829709962415942,0.831494135068643,0.839595535095071,0.8719344004701,0.877719712784551,0.882013307589594,0.884562966858965,0.890528855503503,1.02972670838642,0.899405556077584,1.31837404645706,0.914408112371226,0.916917534523567,0.917954867028465,0.890830143184679,0.885433462537153,0.887384472016564,0.886005614713459,0.883585499333063,0.88021343264732,0.879625578181441,0.878775691758317,0.873586085054531,0.87539479253469,0.878465571539256,0.880656040934651,0.880733570989417,0.881396992723864,0.881730666377285,0.881418583372027,0.882167386306026,0.879888591531784,0.880360641612064,0.884602222582897
1.02111989091437,1.0173611553479,1.01996184705838,1.05094442717157,1.02325932786866,1.10248719269404,1.10260495986584,1.10444016495965,1.01160037786091,1.01276823564788,1.01162000572287,1.01098210020898,1.00798885125918,1.00933335980385,1.00929410407991,1.00503485803331,1.00269914245937,1.00268932852839,0.994102138918302,0.984258766142399,0.982973141183632,0.97610044531627,0.975427209650839,0.975619562698105,0.979784595007271,0.979388112195559,0.982796490425939,0.982354863531706,0.982305793876792,0.980385207583427,0.978072064050745,0.976622546444563,0.972031589530737,0.972083603364947,0.973787301783588,0.96160919482684,0.96170733413667,0.956561890122307,0.955879821918992,0.975620544091203,0.970022677858527,0.916503386636086,0.88025366976435,0.880448966990911,0.949100358395967,1.02647829723107,0.991393493967006,0.990392473006745,1.07532223173323,1.11133935844067,1.16879011041488,1.17960506235809,1.22636844349187,1.23399386786562,1.24803760310223,1.28215082719898,1.28148347989214,1.29558609871464,1.30746095520402,1.29910929993752,1.31800111707971,1.62093753866152,1.61662922296001,1.66022270438629,1.64868152155034,1.66504134449892,1.78924645501918,1.80693115865046,1.86368512152489,1.75202221480084,1.80981645435945,1.81605811446461,1.7598733595872,1.7457707407647,1.70800673434229,1.80726483230389,1.82495934986615,1.83633369587539,1.81173998483211,1.75553560209274,1.72555404293981,1.78273981877748,1.68924249830288,1.79800048145598,1.81574406867316,1.77814689907746,1.78912868784739,1.62640389821903,1.62911254317033,1.61178114105443,1.59602978182679,1.62321437064957,1.68436497460435,1.65202807201552,1.59074988695796,1.57314369477454,1.57262355643244,1.53180741747434,1.44709356522948,1.36869007060666,1.38228236501806,1.40079143885191,1.34652040051617,1.3043008694275,1.20830099655225,1.16604220973965,1.12676685794587,1.12734587987386,1.10096603339169,1.04690108760659,1.03683199441808,1.00907819759829,0.938478740893116,0.901392877101633,0.845081522514542,0.832254714719821,0.838799625292353,0.919185533973728,0.871778358967471,0.885406964923499,0.957676752681971,0.882542278469575,0.884694473534137,0.890514134607028,0.893325825833645,0.898867752659719,0.907852406474613,0.912779981221154,0.917321868480065,0.915644667675078,0.889764350279931,0.886734789785493,0.88731184892729,0.884943747381104,0.884572780789948,0.882988812329299,0.883625736450093,0.881466671633843,0.878567636421479,0.877906177473228,0.880269372053923,0.881559903978181,0.882103595754637,0.882896561378059,0.882553073793656,0.88067370601042,0.880488222714843,0.881269411621086,0.880694315265485,0.87629865557822
1.03677311083218,1.03547767194243,1.019029523615,1.02875512921911,1.03049219500309,1.10078938263399,0.993660512024069,0.993846976712745,1.00973573097415,1.00953945235449,1.00864638463504,1.00811643236196,1.00496616051643,1.00356276838587,1.00336648976621,1.0054470431346,1.00229677128907,1.00258137528757,1.02335746717849,1.0407379389493,0.983669930283422,0.974869778371007,0.976531276886421,0.976388974887169,0.981365619288624,0.981873980913541,0.986123413029161,0.986702434957155,0.982374491393672,0.980392077335115,0.979153559245067,0.973604762667305,0.972699918230676,0.973004150091148,0.97356158137098,0.971499674471461,0.961716166674554,0.961791733943123,0.955878840525894,1.21362014714501,0.966144212334063,0.98113793608982,0.915553398116936,0.96197231027321,0.948553722440217,0.935910435154877,0.992953908993296,0.996271017665535,1.06949275672935,1.09190777509442,1.12572658126168,1.1398193861532,1.18672997625172,1.24030422548766,1.2476548597939,1.27852948666627,1.27556567950942,1.25507419161701,1.31183796842241,1.28134608485838,1.29648898036507,1.36151608705812,1.65513908813712,1.64111498076248,1.5965989898238,1.65101723712428,1.82409572393965,1.74220828381788,1.74196293554331,1.71228560825086,1.76016777751669,1.72704576044922,1.7587251296622,1.70838947765063,1.69103844767276,1.70168656278927,1.78603729958776,1.83520509381235,1.80556702224383,1.74401404711875,1.70076405327687,1.71658411002139,1.60855235776104,1.62455887919423,1.75629127477842,1.76066828799682,1.77198375042017,1.60807147514287,1.5932622532896,1.5654495728839,1.61617778213479,1.65521759958498,1.5949306215567,1.65235193173796,1.67019365826497,1.57202490664248,1.56659780280891,1.50126646425539,1.44083227726236,1.3380411641469,1.33192708514452,1.34582361141638,1.32525361207611,1.26772434865404,1.22063710779782,1.1889282967919,1.09862050388676,1.12752253063156,1.0681973178396,1.03108103086207,1.00409272065895,0.989430707770416,0.952931717051712,0.907486346848948,0.84402358075458,0.833063382632817,0.890410106938609,0.846236622191236,0.855157485454741,0.886057628547669,0.886755399040557,0.884152744543878,0.887944847475691,0.893101086814135,0.894575139247775,0.900211279811285,1.19381563442141,0.913523877189662,0.915915532170207,0.907880866874463,0.905243863619344,0.884575724969243,0.885396169599418,0.884512915810952,0.885050719228818,0.884936877629416,0.887937977724003,0.888512092686506,0.880942607719354,0.880295869667577,0.880664873472536,0.879798303366741,0.881143793304504,0.880785584823626,0.879820875408002,0.879456778568534,0.877892437969852,0.880763012782365,0.881739498915169,0.877554838744038
