1.70477575533098,1.72163052574091,1.77182559768993,1.77164588211361,1.77116201289056,1.77082202541975,1.77701302204836,1.77643968073862,1.77596681057975,1.77561884300385,1.78238399627108,1.78421756624434,1.81277198052917,1.81361678439901,1.81159691447939,1.81245500777263,1.81954923449037,1.82206786901664,1.83913025686929,1.84115858420705,1.83991873926326,1.82645090163921,1.82641424785863,1.82646183787432,1.84487189902751,1.84659453018498,1.84500682797059,1.82944631839312,1.82935179159976,1.8307918892149,1.82998783393986,1.81271106258934,1.78173621111176,1.78159831075455,1.80224244152713,1.80455382731624,1.80983134952925,1.80617980564602,1.77768054044717,1.77650777280162,1.77742750967257,1.78015804363045,1.80165381109971,1.81665030848143,1.81581131074098,1.81810199430427,1.82018932141951,1.82243169314401,1.82069476853629,1.81981422058978,1.81709171387526,1.81581512821043,1.81290811320433,1.81310782810735,1.81183046566843,1.81125956289316,1.81722433008682,1.8171954202392,1.81729373120193,1.81726290800235,1.81738725850438,1.81809076275806,1.80059742550677,1.79522907686454,1.79274411670243,1.77429747709289,1.77462632782661,1.77419235361282,1.77491069795606,1.77618107184017,1.77697791220546,1.76906497550617,1.77008396850055,1.76861202832599,1.77842677174688,1.77981773368812,1.78812302483121,1.78447408837216,1.78251950967526,1.78211149918727,1.782645847557,1.78093946291083,1.77549556974876,1.77366981378805,1.77356298704679,1.77314655512994,1.77453624201521,1.76874035176872,1.75882932591641,1.75876451396978,1.75867491979741,1.76523144635677,1.76157084362482,1.76158138555846,1.76235403237036,1.76626570575796,1.76535429232148,1.76333072221499,1.75840200636958,1.75568605955441,1.75552885445679,1.75621458115802,1.75737002746693,1.75786616313227,1.75860279250207,1.75827735148037,1.75822604130673,1.75750778520546,1.75823410037501,1.76168282419292,1.75682984585629,1.75679834318541,1.75674061762626,1.76357388000621,1.76453352455499,1.76581451094869,1.76837510034515,1.768495225582,1.76760154301963,1.7672199864336,1.76645208279176,1.76508451336679,1.76465180588355,1.76020742828971,1.76316006630163,1.76698826921246,1.71534114339044,1.70998379061117,1.70554663781354,1.70063459652303,1.69634260773875,1.69291130456538,1.68653578078772,1.6858920524785,1.68529038376764,1.68302555148297,1.71268668791576,1.70042555348462,1.69670740503841,1.69394700855543,1.67270570469819,1.6727104834546,1.67315635256791,1.67407365029295,1.67361468908681,1.67749098690133,1.67634985267746,1.67460253036407,1.66142645303616,1.66126240234407,1.66053850815824,1.66586329318764,1.66491058899671,1.6674707329687,1.66699851900855,1.6647628447555,1.66436381713006,1.66478323721842,1.66376526526112,1.66391326600648,1.66402827720086,1.66439306261737,1.66420265789159,1.66353242519822,1.66295310666205,1.66336670290555,1.66338179235854,1.6633925978353,1.66355121488712,1.66338287025419,1.6643235687047,1.66419308771297,1.6640422000436,1.66400859529791,1.66444754231543,1.66337028103036
1.69265296193311,1.72650541353406,1.76991821436679,1.7718584607737,1.69919243545256,1.76774109809491,1.77618514964866,1.78125171540027,1.80982164236551,1.78734811319442,1.78473196809883,1.78471304028427,1.81220312647437,1.81312564195684,1.81059044913012,1.81147477016472,1.80866463779781,1.82027844693492,1.86310693670422,1.84282183832758,1.85487272979809,1.84116757242715,1.85917508822129,1.84112510177994,1.86227013078261,1.8480645800919,1.87853269384825,1.84245861837987,1.8529170354299,1.85362638224246,1.86966407874736,1.81307688266933,1.78268407709518,1.78016475999188,1.78154302903876,1.79694569019644,1.86714591335272,1.80681586307934,1.78124267941229,1.77820990072501,1.78137945737261,1.78089882145128,1.7830742234905,1.81728678079818,1.85743290444861,1.81870057932221,1.7802837300113,1.8239713381525,1.87971927573932,1.860763470367,1.85329794870155,1.81776624388702,1.78173505954517,1.78003204620202,1.78147394496582,1.79527622746233,1.86970555397575,1.79442149448027,1.77813701391173,1.79506447734549,1.8627663001194,1.81946712625704,1.77870097424831,1.79003264718152,1.77597491582854,1.77478645917052,1.77689873813735,1.77534476094425,1.77708257932298,1.77476960482331,1.77451423482983,1.77180554190739,1.77258177485754,1.77111799843115,1.77282948126288,1.78322394065535,1.86441365619652,1.80237046155166,1.79515969631866,1.78445976910287,1.78380820461334,1.78188069020352,1.77794652585891,1.77272887828686,1.79682878977333,1.77465110317511,1.76857139537393,1.76499445221329,1.76650441030002,1.76579013171208,1.79228372448453,1.77374362391475,1.79153432399794,1.77758917062278,1.78975328128306,1.76263343165371,1.76120803162861,1.76103530267756,1.75876601903127,1.75742850362061,1.75922217017451,1.75774401669314,1.75864391071342,1.75866726203691,1.76050514637596,1.75990723769843,1.760403933858,1.75822575599712,1.75963903696757,1.76291422403634,1.68447723401809,1.70691954531183,1.6850320041643,1.76414674899956,1.75769919972187,1.76933535592401,1.84257141687688,1.76932539177852,1.77076731751905,1.76870279020033,1.8448293508105,1.76334305143702,1.76314582091635,1.76272633694181,1.76547574453966,1.76769190703485,1.68686161655265,1.71539742634235,1.76041717766391,1.75951106992863,1.76085239920536,1.70056620000031,1.68585174649344,1.68592983743256,1.68480846768023,1.68311929105975,1.85693654713071,1.6989135488705,1.69583554136968,1.69435145191526,1.70618007357092,1.68920870678132,1.68756904103444,1.67534026173392,1.6775666798263,1.67736021134507,1.67574330041241,1.6745576013777,1.5932493768308,1.66190782823782,1.6706452602868,1.66656576564713,1.58912806069585,1.66754605424774,1.66593571025953,1.66467020011909,1.66806941322178,1.66407348470473,1.66576836447085,1.66378420415318,1.66615300781065,1.66451860569922,1.66687379590908,1.6192714118746,1.58623590474209,1.66377186766802,1.66453162699527,1.66408540221882,1.66449708331326,1.66460658084885,1.66290836775522,1.66462484925078,1.66312606814516,1.66393084547512,1.66372256191714,1.6636834863062
1.77151953422479,1.77211814240092,1.77431082497437,1.77193493685707,1.69577670148771,1.768576571835,1.77792196535798,1.78202935606943,1.70410750651259,1.78749226056869,1.78577094320365,1.78502415700032,1.78936759634809,1.79981191845826,1.81027549104283,1.81050172188893,1.88638701415776,1.8245103537345,1.78469609472444,1.83244850737209,1.85806248047284,1.84054733077123,1.8751362022804,1.84050483109284,1.87208108451837,1.84874011725099,1.86990041621242,1.84219842765635,1.86992946340888,1.85444315339143,1.87012649530208,1.81380414185756,1.87419222442144,1.77931107542182,1.78208660896388,1.7811748570528,1.78361926248124,1.80646449159371,1.86952137143561,1.79412476842122,1.78055105775634,1.79345219827662,1.85669485793911,1.81796839737622,1.78126177479572,1.81921396023977,1.85460100608975,1.83948230373867,1.87653874329822,1.86152040739556,1.86253282446826,1.8192567871278,1.77896343995508,1.77831351983274,1.78064381312534,1.77719577341611,1.77918625940228,1.78669996388926,1.78095536903876,1.7880869842962,1.77830417500723,1.82087546879452,1.87460098832321,1.83737562998599,1.86638599791367,1.7939183947471,1.86592935412124,1.77503045136045,1.77475164122767,1.77381982828223,1.77499179648727,1.77259971323608,1.77248820669946,1.77177124578308,1.77168025564684,1.78708847679518,1.86310353622404,1.80732000984417,1.78731995460939,1.78899118562229,1.78423768968309,1.78238305306498,1.88252322203859,1.76651635711545,1.69695578438072,1.72333102002704,1.76994584682681,1.76558327604969,1.76463099736109,1.76649396100555,1.76774453625614,1.77109997265042,1.68779588061681,1.75946184219366,1.76112773615046,1.7605672143182,1.76111696624367,1.76079653489593,1.76113993518226,1.75887784500666,1.76033879765621,1.75914682906653,1.7592191433017,1.7593569969733,1.76064919001648,1.76136575524722,1.76148504567072,1.7584633934791,1.68057438500753,1.7637705636843,1.76135818892349,1.76015653033028,1.76087544788432,1.76334266612885,1.68639440440438,1.77291991065078,1.77564605927982,1.76917023474852,1.76128487365141,1.76901012687538,1.77103084688089,1.76323348651775,1.76413579507418,1.76301756833936,1.76166081447608,1.76427724053599,1.83981712677681,1.72015163517494,1.68675450578131,1.75924326807984,1.75997194873365,1.70683294994541,1.68504137222166,1.68569242234262,1.68493964436883,1.68342785390302,1.89424112055618,1.69805792986754,1.69661091852055,1.69393692407787,1.69157689211033,1.69001645088885,1.68453945698898,1.66729955047991,1.60149803496151,1.67650846967829,1.67503525632304,1.67462441093522,1.59564433963239,1.66227040744279,1.6714188926397,1.66430859157539,1.66519427617191,1.66734793951557,1.5880477560983,1.66656921286074,1.66341999728676,1.66606925019246,1.66370769190075,1.66473949530734,1.66279630011359,1.66432025878357,1.5863705394788,1.60726960542822,1.58607369445505,1.66467428986499,1.6651210075855,1.66473231298867,1.66633047746072,1.66459410431333,1.66773912485878,1.66421179550681,1.66451907793741,1.66441221348818,1.66485885312207,1.66466417739112
1.77107320141447,1.77217150475369,1.77296661549997,1.77171453425361,1.77406396103074,1.76940796905925,1.77834815413677,1.7830986204083,1.81097980675388,1.79442091597027,1.80911117177433,1.78014418451708,1.71382248918193,1.72076359704921,1.7188760483827,1.7375366807236,1.72813704850253,1.82244331419732,1.87600267722154,1.83333274802345,1.85649242098569,1.81733777354914,1.78404402590892,1.826711819295,1.86743689151294,1.8262843853561,1.78559095301206,1.83651025540561,1.87283993908528,1.85525539602454,1.87400740549762,1.79635118692776,1.78335563388026,1.78022338214972,1.78224600631293,1.78098123595347,1.78355342749888,1.80516274010051,1.86227922925266,1.79761756967756,1.78506769124347,1.79571876706126,1.85600060813768,1.81818688015524,1.85455231964331,1.81958530346861,1.86428431335681,1.83943024541871,1.8536490042434,1.86091800047308,1.85597769870342,1.82526827166671,1.85509711072417,1.79405374034567,1.85139877066048,1.77639882244092,1.78024302798835,1.78979894730094,1.85062503841353,1.84800139157033,1.8592433933174,1.83866065275419,1.85296557762618,1.83726559320113,1.87008590178312,1.7915310214413,1.77699435460716,1.77552565547628,1.85270292215662,1.7728701313235,1.77490235765453,1.77263585200632,1.77265096363305,1.77203352940938,1.77407789144153,1.79029895160546,1.86695628470408,1.81068040352494,1.87027976993301,1.79330962830488,1.70996645506579,1.78289235546066,1.79571928660277,1.76636755634193,1.69763705435396,1.71329914577147,1.69552373789415,1.76679894465718,1.76836307744611,1.76726105101682,1.76698680496515,1.76813574743813,1.7635923238026,1.76193219463748,1.76097166989104,1.75938159275275,1.76068328607827,1.76146520302316,1.68215035175333,1.73880097737848,1.76066267594842,1.75948943639793,1.75918986754856,1.746403219405,1.68292964369007,1.76362960349021,1.76084722796769,1.75818339753647,1.75962098881009,1.75986262285884,1.76098276296097,1.75964867723008,1.76090188129208,1.76031475272734,1.7782396968112,1.7761261914833,1.77523729538519,1.76886588805767,1.76096251801322,1.7591455638698,1.68660851879582,1.76115599999567,1.76534038358685,1.76394588606359,1.76529036967447,1.76465653985633,1.76795226851201,1.76315924567339,1.75874038780866,1.75977103592585,1.76062336407991,1.71636640543789,1.6857086812892,1.68625316672197,1.6808189827025,1.68359408707206,1.68326104065731,1.69509734103202,1.61951284406123,1.6936663921987,1.69077239227049,1.69023017596944,1.60650052652135,1.66659313433566,1.70416590623017,1.67663794812353,1.59947368040033,1.67476809928276,1.70153813829018,1.67278605908702,1.67321775547523,1.6652706308374,1.6678159228143,1.66791888107593,1.66817712799433,1.66600321581518,1.66952767342748,1.66529482248476,1.66634849304587,1.66457156757351,1.66620516151647,1.66364378433011,1.58678579554359,1.6192712085882,1.66628152202565,1.66526958853819,1.66656872395073,1.66428326135717,1.58899180663765,1.66558206181183,1.66353010376371,1.66591920134191,1.6814981613742,1.66525788674024,1.66603309374295,1.66492600533623
1.7717360575343,1.77152867345199,1.77069041566605,1.76961269550126,1.88431399722733,1.74824704912951,1.70087639074321,1.78389486718637,1.78092167286689,1.78016023190746,1.78333625316261,1.78027948468705,1.71406254868628,1.72076142493706,1.71893470935497,1.74426535891398,1.9133265017796,1.81982480332934,1.87021142880092,1.80179044264086,1.78590365131781,1.81706490958231,1.85796819051046,1.82455546319863,1.78476959134956,1.82444655590502,1.85838668688608,1.83734362984929,1.86819642716202,1.80209724969944,1.7835712015425,1.77988286806042,1.78356002819675,1.78001647773053,1.87710223410313,1.79042948359534,1.78426507482617,1.80382165929183,1.87418220235578,1.84290308051217,1.85610928800476,1.80163304976779,1.78353399523946,1.81593877769622,1.86507266781598,1.81503618790009,1.78217099380848,1.82556950655895,1.85700587193106,1.86157430183255,1.85665909167477,1.82321305607924,1.78193458749207,1.78998438330534,1.77974314643219,1.7771935229742,1.77958347833944,1.79155681917419,1.85095594252449,1.8472067107617,1.86902403092231,1.83918376403707,1.84746697024587,1.81129940553148,1.77838124094336,1.78878434190979,1.77735583810866,1.77578285416323,1.7749438753408,1.77256412487441,1.77362731926252,1.77215307895868,1.77333165101119,1.77176086183796,1.77218513863227,1.7918918871058,1.86763807772041,1.80834477438857,1.79693738930062,1.79660715049882,1.79638088900428,1.78494924347051,1.77877998722461,1.76620883825773,1.69996816935857,1.72207619542955,1.7718897253663,1.76659433354285,1.7679961049253,1.76802694020613,1.76942599526212,1.75017436852122,1.6869880860697,1.76557680249635,1.78993819828624,1.75784746681121,1.7601352982681,1.76145390616011,1.68582088736841,1.73869373204339,1.75877500663526,1.71430047024702,1.68446767870602,1.74620832618533,1.76233155764018,1.76571501920869,1.68423379551169,1.7568992099064,1.7589689768647,1.75721300725211,1.78133462980376,1.75793281285385,1.76148497229654,1.76104159465298,1.76339283417536,1.76793257654028,1.6871730020286,1.75951827903121,1.76235825755494,1.760212717745,1.76099574092886,1.7605019464994,1.76090506299355,1.76328738309356,1.76572039102402,1.7652096002543,1.7660147537073,1.76463731303795,1.68612189537338,1.76131475747677,1.76309229482563,1.76574363304677,1.83578788260216,1.7904771418995,1.8424059648214,1.78894606777236,1.88198793597674,1.70641328715626,1.70596229240752,1.69324965402231,1.61197990929992,1.68957882893317,1.70415617375632,1.66585218203702,1.60641297281225,1.67664901364024,1.67457932031055,1.67291023290606,1.67242608114747,1.67244789389189,1.69964030588907,1.63258439850414,1.59081192036362,1.63829823100826,1.66547483813478,1.66592342660279,1.66396346667817,1.66569406610672,1.69150390185546,1.66484767651138,1.66393099242195,1.66419951101456,1.66432293664163,1.66458454733174,1.66624074834683,1.66512877292228,1.66420033112291,1.66366010459622,1.58786283967084,1.66483683181387,1.66798155697762,1.66553581758453,1.66725984771314,1.66601076525179,1.66681238840593,1.66557127818906
1.77110746012775,1.7495164650435,1.7485391147265,1.74745482257551,1.74721364035474,1.74791987028096,1.7482888636545,1.78421872697528,1.78003738955517,1.78020776099789,1.78159098300748,1.78041698102973,1.76602381749113,1.76723866248309,1.76862850097626,1.76937846672183,1.81455330480491,1.8165437383721,1.80341618457008,1.79655372144784,1.79444422894784,1.81685821280347,1.81905932995139,1.8215187937581,1.82106480356031,1.82174458631055,1.81954700392019,1.8094010099762,1.80588454404985,1.80064952998458,1.7785986018518,1.77766434154387,1.77816222205843,1.77930469483484,1.78741826814721,1.78842510141961,1.8062998316652,1.80772806235414,1.84035194087598,1.84178515090341,1.84038474872061,1.81069187122857,1.81141116509783,1.81352919773245,1.81363527807866,1.81322568182739,1.81026733797421,1.82619294022075,1.84960847229898,1.85061248437969,1.84957102747784,1.82126521846314,1.80162545271933,1.79521366132251,1.77682804948502,1.77619251866419,1.77770221476534,1.79381371985206,1.84420597659709,1.84578015816748,1.84442590784345,1.82882721847025,1.80930616807191,1.81064163138103,1.79847972298465,1.79279084865111,1.79052054607383,1.78173794451669,1.77314070387105,1.77173847469228,1.77176988777076,1.77097188983435,1.77137719622154,1.77043587795539,1.77098933981812,1.79191138048246,1.80273789724466,1.80565992847354,1.79974573218238,1.79400846199953,1.79020479753734,1.7868696783039,1.77750117338617,1.77325781619525,1.773085369517,1.77291665252567,1.76919479152508,1.76619853400746,1.76652984418279,1.7535892078201,1.74991203825572,1.74998759581637,1.74979308641884,1.76478806731623,1.75915904309333,1.75748077147162,1.75887502064912,1.76144129373825,1.73812840579087,1.7383697405584,1.71149750173784,1.70514747503826,1.69838979659625,1.74577952599024,1.76449242494129,1.76493848734909,1.7633879771707,1.75753410247125,1.75757674826423,1.75602938631801,1.77321258555088,1.75658219932952,1.76011429675041,1.76455800344422,1.76659367405582,1.7686946797764,1.76687539834106,1.76095805520039,1.76028752690533,1.75985655096793,1.76017115142751,1.76103280488815,1.76198327961767,1.76268857447535,1.76419899994544,1.76448128504178,1.76493720449013,1.76525380870844,1.76641888219803,1.76598707413112,1.76563854207676,1.76654164635668,1.7895342882382,1.79032224108622,1.79076972690166,1.78894486861806,1.78894541602921,1.70692571743399,1.7061907555288,1.69443123822206,1.69048719336021,1.6896116872574,1.6883902124945,1.66569239129468,1.6304430320846,1.67637223670528,1.67316541559396,1.67268332341966,1.67240517548178,1.64595419623189,1.63255719571233,1.62117697491163,1.61152391176682,1.62766334530566,1.66549842846034,1.66535862670319,1.66588631222896,1.66528541731304,1.66482756332665,1.6644313747789,1.66453973253972,1.66333469739507,1.66350975079072,1.66390449707733,1.66487769409175,1.66449731523413,1.66417705664424,1.66355098190998,1.66473003761733,1.66506726399431,1.66509728017971,1.66567114840334,1.66542003839406,1.66548659178075,1.66564446203509,1.66507200172078
1.77089039501641,1.72011554820374,1.69480507787727,1.71281939874084,1.69711030155683,1.74801608269326,1.78018006344853,1.78407471491276,1.78216690742799,1.78168397539031,1.78392281485604,1.78178386898869,1.81094083845322,1.79638413064825,1.79681143501162,1.80168694859921,1.92626095952867,1.81724309573219,1.78512468028347,1.79360221964632,1.78471707474411,1.8168222788311,1.86603640922421,1.82204724409457,1.85977843064689,1.82237577706957,1.86478092220673,1.80220847947319,1.78459200875395,1.79478702413812,1.7811618540109,1.77819118737762,1.78027749599653,1.78061687326116,1.78513057767433,1.78812051397385,1.86209475942363,1.80956052649457,1.8691650696006,1.84362438868213,1.85858997449864,1.84099171087653,1.86656350167495,1.81297597141062,1.78283274829441,1.79689478651722,1.87090264825952,1.82665200039488,1.87586620557134,1.85317217324119,1.85641127164405,1.86225126245563,1.87005571821877,1.79848482173193,1.77951763186076,1.77805364469321,1.77997912023,1.79675167238608,1.86689391330964,1.84761510156233,1.86550099381406,1.8294616022684,1.77807621448902,1.81138553198094,1.86656176375209,1.83773521748823,1.85688841634825,1.78247899652026,1.77502484133826,1.77281875333812,1.7735701129472,1.77181487923105,1.7734298721193,1.771125698847,1.77222137682299,1.7913623326022,1.84990594844723,1.80982950223001,1.71223415438542,1.78996606800261,1.7823753859222,1.7857206099829,1.78064837855575,1.77201321715397,1.77377907147415,1.77086115145213,1.77227696137438,1.76532168003257,1.76737640071653,1.7533267104472,1.68868160870333,1.75068886334408,1.76500360027789,1.76532016122771,1.76158549885595,1.7589262691961,1.76015667587026,1.76494676096214,1.76223355191708,1.73828928114177,1.68263793562947,1.69829519836398,1.6844776082376,1.74536899064341,1.76140789142462,1.76276427436862,1.76068058138472,1.75879545908089,1.7597940961371,1.75632015363043,1.7817045102364,1.75660669183345,1.7597406014712,1.76450317745831,1.6871827351892,1.76642761910164,1.76529282428665,1.76070021770213,1.7613427388939,1.76001854282704,1.76715625824236,1.76280895393733,1.76415192311635,1.76322493133827,1.76491747891195,1.7639765864983,1.76374787114723,1.76409851379508,1.84162736691325,1.76462137332484,1.76518810042767,1.76766344685387,1.84505319770909,1.79048157837211,1.84503373276139,1.78894269859081,1.86007040486245,1.70840482206829,1.7099142742362,1.69661557681397,1.69206480108244,1.68992851187376,1.68784329070629,1.66576262790347,1.60488493594989,1.67702273746764,1.67764146506373,1.67398813185016,1.67344566933841,1.63530447369557,1.59265152777601,1.59391952545941,1.59006895419261,1.61844880032067,1.66653326685162,1.66612483939416,1.66725725006297,1.6660791089307,1.58881662153259,1.66501587418429,1.66367795916664,1.66350147989818,1.58840623612757,1.66421911769807,1.66535032548608,1.66512453809402,1.66460135723133,1.66375621531107,1.66724169085753,1.66551555321311,1.66598379096442,1.66537334277653,1.66532692754841,1.66511436828273,1.58764872467037,1.66564725196437
1.69476458798363,1.71336983539404,1.69547337900961,1.71863920009056,1.77252680141388,1.74815429321478,1.69936781715949,1.78561481640622,1.78191604781629,1.78240628823718,1.78516945543556,1.78235470356405,1.79124713230212,1.79618441110424,1.79764292754474,1.80448360865655,1.80988863170797,1.81605660783922,1.78472688424215,1.79841055894242,1.86106285963497,1.82058105835523,1.8598660238695,1.79875213154833,1.7840345683109,1.78239040991458,1.78529756627727,1.79437641240326,1.7851726920315,1.79841576252429,1.85979750060863,1.85469016648421,1.87214832380536,1.82916284963891,1.86768119941457,1.78918674720785,1.78526039247383,1.79833780245336,1.87203681238817,1.84445798641727,1.8561979734563,1.84036477259224,1.86711502901654,1.81267343776896,1.7855557146654,1.79098755548765,1.78460001669182,1.79907402024291,1.85754969733598,1.85489716414151,1.85563378598896,1.86187799631534,1.85594751343352,1.7998545039015,1.7791178128309,1.77884332983523,1.78093290424007,1.79898185081936,1.86039061104513,1.84855364192712,1.85160328291761,1.83018729895653,1.8621238471009,1.81179839310978,1.85508757826838,1.83731960303211,1.85093120799452,1.78407464355836,1.77554509794633,1.77332365874616,1.85211897372551,1.78377892092087,1.77394969428217,1.78587721768385,1.85219664192587,1.85257458217956,1.85085811916489,1.81055737229604,1.89035786348931,1.79521957995249,1.87090264825952,1.79486743966402,1.79843450685914,1.77329346881264,1.77703799798774,1.76963805049181,1.77088894085647,1.75653403346075,1.69296707004971,1.75283151682441,1.76530497323975,1.75155078154005,1.68834810137507,1.688446359691,1.68644028326725,1.70607353514673,1.68495415442627,1.76574308114436,1.76244909291405,1.76182294039807,1.75884912958857,1.75831136795413,1.75861612809428,1.76155788159024,1.75961908790655,1.76110027841621,1.75924034511063,1.75770522066865,1.68516811266496,1.75697747703928,1.76001246009753,1.75748764879999,1.68663771623671,1.76388150969414,1.76163509140291,1.76140341197085,1.76145796079513,1.76117468836835,1.76276307893988,1.76175100790697,1.76393477244296,1.76132630861441,1.68560607400274,1.76229904876797,1.77131769745635,1.76830792430435,1.77127877262756,1.76306505946849,1.76292873857767,1.76244326342538,1.84868341045582,1.76945724393528,1.68602468214767,1.70892696882011,1.6807594176265,1.70360264338505,1.64160555970486,1.70784322239831,1.70547504212547,1.69848605994451,1.69461968143049,1.68889894415237,1.60680223321075,1.66524828347378,1.6812977709498,1.67736402102567,1.67701180392206,1.67587344919876,1.59732280367936,1.62615146783445,1.66915819778518,1.59454061402561,1.58993919552198,1.61026426647919,1.59014040397342,1.66626755764386,1.66769297339285,1.66653057075241,1.6676751164078,1.66549982518032,1.66545603516231,1.66316952137654,1.58898369624278,1.66454593464008,1.66614522095892,1.66592167458065,1.66556042799708,1.66677170123331,1.58812561588911,1.66524119751552,1.68108953733175,1.66597960450726,1.66737139636986,1.66560119428875,1.66516378186043,1.66634005354234
1.77126055958834,1.73758915421975,1.81418179065112,1.72833419419909,1.81295549894579,1.74824719257431,1.77950960886538,1.78496965592784,1.78374359005732,1.78330460251004,1.78465017949262,1.78269796925446,1.78997071942311,1.79258355154235,1.71964053969414,1.80807190407198,1.81355640918738,1.82154550330299,1.86256163402966,1.84500315497577,1.86090662678229,1.81988234014979,1.78597521583091,1.78360169359127,1.78581054055833,1.78120772133852,1.88118014064704,1.81462822903483,1.86004445102311,1.84008204065682,1.86279835258049,1.85404019305152,1.87803708716138,1.8269607330343,1.78656744683488,1.79087177778508,1.78544039706774,1.79458125146624,1.78475671112451,1.79764731598007,1.78376215724875,1.82599870249617,1.8567615116112,1.81253894814835,1.87576888518543,1.7954762658034,1.78264815234258,1.79402682221477,1.78482399586604,1.85481237245145,1.85493972153535,1.86157588950343,1.85604440989062,1.85068621744926,1.85657644559819,1.79452937409862,1.78200803183443,1.80094953893638,1.87925302969883,1.84839598400798,1.77943343875685,1.83053856734773,1.85239172752164,1.79692013986099,1.77832494047538,1.79080190523375,1.85190473048358,1.78611260286734,1.77451004204678,1.7741492198653,1.77598376136208,1.78781017061458,1.84590945866825,1.83554040833588,1.84772057727403,1.85237503889105,1.84663897416637,1.80771648994892,1.71192268366427,1.79119440843086,1.78560345096345,1.78466616208919,1.7812098342802,1.77068771729328,1.6990548825025,1.72390023241924,1.77171287741829,1.75643518303409,1.69368078479877,1.75239405923601,1.76562614172892,1.75232202473966,1.6884922187968,1.68889732765879,1.68590563567761,1.71607466928354,1.76120140059806,1.76562763669682,1.684029413383,1.76159659202415,1.78881896379329,1.75810743969183,1.68375690389116,1.76109547348589,1.76205926103881,1.76148544981373,1.76425699505547,1.76238967445988,1.78279332778145,1.75863043642726,1.76093704628376,1.75904929202719,1.75989774205137,1.76044460425768,1.76235872515297,1.7591788930626,1.6867642383803,1.76113087495424,1.76403801182045,1.76159173715123,1.68614136006854,1.76096768413523,1.76410032971875,1.76258668080009,1.84481961833665,1.76705677802613,1.76217214751873,1.76236411740442,1.76420360293635,1.76146635635927,1.68880805799862,1.76862694917908,1.84175388907333,1.7431985674044,1.83846431291141,1.71855849619469,1.78882869511568,1.70859884008921,1.69878154258975,1.69913512778223,1.78161693314294,1.68811937661611,1.68811251160206,1.66423265564587,1.68019493464464,1.67808517319138,1.67784697572639,1.67644825036247,1.67441299411054,1.61820094925394,1.59621994876445,1.59517613865209,1.69783006575263,1.66678677056397,1.66712543905561,1.66696424339088,1.66722691320985,1.66654491064609,1.58967307923155,1.66659823183572,1.66682602342368,1.66750852891272,1.69146502505108,1.66426353266607,1.66499751166837,1.66737544901572,1.58972174160081,1.6669670935765,1.66768323259737,1.66614534198288,1.66645196356989,1.66709005644598,1.66558206041848,1.66677028442395,1.59248576417473,1.66653176765873
1.77367625470466,1.73847476483157,1.69740214286515,1.71528588135548,1.69932942575047,1.71363456878468,1.70260934053712,1.76882326379069,1.78311708748329,1.78295545186258,1.78485477690536,1.78312107720455,1.79275983768415,1.79380662520198,1.79634819565557,1.81190138137276,1.91266469355767,1.8412808362323,1.85917530025548,1.84417342328901,1.86602770494862,1.81856397295275,1.78587395348499,1.78328727359544,1.78482438369172,1.78150509510856,1.78518649088656,1.81421228126203,1.85974598849166,1.84073117410694,1.86238427128271,1.85339419954302,1.87268323421021,1.82519554801626,1.86929679007397,1.79924254187972,1.78571102330326,1.80102793895139,1.86024558939178,1.83745926262364,1.85712146528535,1.82417585145142,1.78483136050591,1.79578689222927,1.78508479344632,1.79905064133762,1.87417275947373,1.85179117672786,1.8563234024295,1.85302532713079,1.88267894162022,1.86154422770933,1.85887631772672,1.84964455939971,1.8753114589144,1.84851473038871,1.85291703658136,1.84699773411106,1.85439637145538,1.84746038661355,1.85413359581284,1.83029632105708,1.86990006636588,1.79516325718633,1.77913264722366,1.77981397402918,1.7770354833352,1.78697032039591,1.85005568926893,1.79313217870122,1.85037686090604,1.79824481353628,1.85172987035979,1.83576741961058,1.8517389148033,1.85219392203487,1.89149656292997,1.80251294586917,1.78904446478288,1.78809909529632,1.86986127355738,1.78237128568162,1.78291498961659,1.77075281824739,1.69873691999395,1.71485011467595,1.69588382980771,1.75628287801669,1.76835397448518,1.76664954254569,1.76581076883574,1.76198935415941,1.76680410794047,1.76246465550077,1.7654116421015,1.77689301476345,1.79155886722435,1.79591026337911,1.79565174415845,1.76131052872208,1.68428245770825,1.7578948661343,1.76165544997621,1.7605797964903,1.68559634148382,1.76153495156901,1.76122557429705,1.76366285074648,1.78569607323295,1.76104614760219,1.76199663389993,1.75992617441228,1.76081030243624,1.75887035059739,1.75981212795302,1.75868844761404,1.76175419297377,1.76066894555855,1.76320096045717,1.7612690946833,1.7629175084046,1.76133636177823,1.76380787429914,1.7626508050108,1.76126415770638,1.76226585684354,1.76349312374347,1.76252783938912,1.76144491238005,1.76016817643196,1.76683511764486,1.76574517846292,1.76153790498682,1.7430561780196,1.68350410848424,1.71485894092569,1.86609480617672,1.70957488604134,1.61812132177542,1.6367698711113,1.61388791593394,1.63013766732836,1.60579009409197,1.63000352268965,1.60304549830364,1.67774636592333,1.70207341026961,1.67592034154427,1.59377071270536,1.61084937620571,1.5914632486196,1.59511245765232,1.66922025516456,1.66773333649781,1.66899523535725,1.66521865117823,1.66618720643012,1.66510198085399,1.66566152234089,1.66605885931737,1.66822657791141,1.66701413514439,1.66497044510145,1.63479994437713,1.58996511579855,1.66974243984427,1.66897734641101,1.66687117256985,1.5891572581175,1.66505709707033,1.66664197992221,1.66568237664566,1.66870888676642,1.66627021160058,1.66825782630117,1.6672567614319
1.74122071980582,1.74002008401974,1.7286601742046,1.72426794891327,1.71856142634361,1.71427383878205,1.71370728369247,1.76940086165848,1.77957894564556,1.78143263888392,1.7829004564128,1.7843387761096,1.7843107108575,1.78427003108118,1.80669152521922,1.81258260045617,1.84401647370529,1.84369142801209,1.84172915193934,1.84263844244231,1.84093921717962,1.81692036604108,1.81358162048664,1.81378235530896,1.81333032258378,1.81198814084484,1.81262238759192,1.8136107000089,1.81378303840545,1.813178250166,1.81484728529754,1.8237430916881,1.82093171695821,1.82337610142007,1.81436212801236,1.81514942038777,1.8151222131313,1.81500617330897,1.83500499382322,1.8363601813316,1.83503616983994,1.82250418253948,1.80788529064585,1.80136457629649,1.79838679509196,1.80234552964935,1.84931881969775,1.85008907541967,1.84919438092107,1.85031640629873,1.84876631885395,1.85067683797572,1.84963962791819,1.84830100185809,1.84715128591591,1.84777251287931,1.84648374717199,1.84654891677603,1.84561252251604,1.84617860394862,1.84450588205438,1.82947587672887,1.79867991789169,1.79144580932405,1.77904296727679,1.77887155355985,1.78232259336649,1.78676862108099,1.78978732615945,1.79310140489484,1.79578735375493,1.79717192766231,1.79814587107645,1.79916378452201,1.83348297808275,1.83306285957607,1.83069700056002,1.80187782435322,1.79945566451557,1.78879734908958,1.78815121337069,1.78058085775974,1.77910515732799,1.77081947822846,1.75335771903243,1.75403645055204,1.75381951203115,1.75626382253215,1.7674297872544,1.76643721306209,1.76591417385971,1.76180402773946,1.76209153188125,1.76249411455307,1.77690731364866,1.78086076353608,1.79656656780326,1.79767249750666,1.79818383088414,1.76393777686375,1.76399844927608,1.76379494769425,1.76487780752074,1.76624486444442,1.76598730060556,1.76353693794594,1.76325051496918,1.76726851493119,1.76933215539424,1.76679363467823,1.76271753633212,1.76042585041252,1.75962369678068,1.75810017789227,1.75840549452018,1.75782097378737,1.75930349765103,1.75884798006894,1.76006628190173,1.75950008144681,1.759896520636,1.7593357381054,1.76201485006425,1.76200294269692,1.7626705204978,1.76583588426319,1.76655102474661,1.76489371134577,1.7616239403663,1.76028377887162,1.76191448710679,1.7625872422185,1.76041324269055,1.74299054860456,1.70106290022519,1.7097094934619,1.71003203250166,1.71029554830747,1.65595419158364,1.64502569254343,1.63020011437829,1.63690864641102,1.64349371642643,1.64855785722786,1.65744118749266,1.67864336000039,1.67891820786654,1.6758910535934,1.63299413744796,1.62130159765706,1.59440127947652,1.59463169634641,1.61820630385434,1.62512493212026,1.6335972602956,1.64392458281152,1.66481532787254,1.66593769351027,1.66653866375568,1.66637855961676,1.66625751843249,1.66662565185197,1.63479872187175,1.62367774467556,1.61308163661503,1.67094466108376,1.67068680612148,1.66690756837384,1.61470575868172,1.66499530629549,1.66560016858454,1.66602279243619,1.66567029155358,1.66603995381372,1.66660207231156,1.66713804716072
1.6989786671518,1.74049241346082,1.77449972437065,1.77487162630044,1.77651904108381,1.72894154084805,1.70382564500326,1.76993616898315,1.77942823883991,1.78145002005553,1.78436466486953,1.77952293144785,1.71610286438097,1.78074928673008,1.81290593653568,1.81901178879754,1.88554677667283,1.84782698559524,1.85944428180225,1.84397805971184,1.85954485127445,1.81549411250448,1.85995366803814,1.84057437553039,1.86053756245588,1.81001706326317,1.87284914302989,1.81345909202027,1.78833455664789,1.80173083595722,1.78806136119549,1.82702256040332,1.85870442433626,1.8253116951748,1.7868328267233,1.81583268851351,1.86738924787708,1.81489567003391,1.85976869817304,1.83792572099906,1.86715600648472,1.85348127741301,1.85848401047315,1.80330378866783,1.78414768286259,1.80512875896734,1.86870468825418,1.86156219919306,1.85521318256185,1.85145314911236,1.8557385723061,1.855144678859,1.85626516672925,1.84871765690698,1.85681002612209,1.84953130054022,1.8577940746401,1.84774313178207,1.8564419501543,1.84776616395764,1.85390489079449,1.82861712329598,1.77992361362282,1.78619735974232,1.77804995500793,1.777124476812,1.86588957807477,1.78854721508074,1.77630909821659,1.77606179768551,1.7776696151351,1.77520013365174,1.77442818529559,1.78770017183972,1.84893645477597,1.83501238107187,1.8798750905637,1.80860977605489,1.86937464986479,1.79153106328779,1.78312498717725,1.78144766976595,1.77930699922363,1.78009146265629,1.77557804984894,1.75489293644066,1.76913860539613,1.76815223694609,1.76825617314037,1.76677547433921,1.76582822167425,1.76136105609758,1.68751363863305,1.7629434002454,1.79568018654941,1.7953037630963,1.79236217444216,1.79780126332073,1.793020555973,1.75992474602308,1.7604681318317,1.76071071621933,1.76029282828874,1.76349413067178,1.76282828137866,1.76299909930061,1.76329486566809,1.76661281526352,1.68126486375797,1.76655055172461,1.76350202626147,1.76159628226615,1.76252865626878,1.75961879586535,1.76140648848751,1.75935421556656,1.76220284950759,1.75933782692266,1.76171195314111,1.75996036633745,1.76118903650781,1.75883906227244,1.77180427607144,1.77008175141216,1.84381717352991,1.73929977342387,1.68708547993401,1.71624704659547,1.76286566381356,1.7617238468847,1.76301162373817,1.76172105047147,1.76193276792905,1.74307333528497,1.68483752444431,1.70988735273296,1.71045149944645,1.7109920589027,1.71182057057336,1.65595983959023,1.61355678653278,1.64530032158851,1.68801951008225,1.67880003166459,1.68098725310813,1.67971937130465,1.6802269094277,1.67621924984642,1.67585109863525,1.63300198165906,1.59364448773662,1.59439798348476,1.59151270519397,1.59126292165863,1.59079870992071,1.62522510710326,1.66914480694465,1.66744341563693,1.66779823856205,1.66758388933189,1.66920733730294,1.66709557662053,1.58927409311707,1.61288420643118,1.58992622994301,1.67002606883673,1.66904599033139,1.66700535672584,1.5901305086531,1.66599882589839,1.66762886674804,1.66625485415423,1.67820882438171,1.66533919786308,1.66584190567621,1.66771822570351
1.77441897142549,1.77397529940709,1.77636928188401,1.77438085407999,1.77855157772876,1.79052394846274,1.81476573793078,1.77021352290387,1.81206984382528,1.79476236850773,1.81231315567158,1.78049099667177,1.71616126400872,1.7817987277649,1.81737909885921,1.82124830163692,1.88576737941347,1.85058482616551,1.86044348245104,1.80277925404517,1.78864792110445,1.80299866651603,1.86672736296372,1.83991177478551,1.87986625667705,1.80303316586671,1.78661346767824,1.81317339512022,1.86618726410259,1.80342978083758,1.88278599883259,1.82957606181598,1.86117360744318,1.82642596661544,1.86536487063784,1.81599883626632,1.8735992642093,1.80968155395473,1.78591323292955,1.81957207555798,1.86022758574999,1.85421319866397,1.87409165494924,1.80409546381913,1.86505343147458,1.80646149358153,1.86766007871636,1.8614685137293,1.85870312759572,1.85250359779588,1.85831944010995,1.85834819331407,1.86916037514573,1.82929372417018,1.78267250160233,1.85064228796431,1.85231942124763,1.84858469561092,1.85386905982881,1.84874371864639,1.8529900360058,1.83912834953995,1.8511457257646,1.78913100462863,1.7802573587423,1.77804800731052,1.87008596545557,1.78954875386566,1.77844796156756,1.77562231208568,1.77490624358893,1.77476931653019,1.77556878001115,1.77451380526692,1.77432964134927,1.80085164789638,1.88448034671855,1.80512304597133,1.79842126361014,1.73397460503943,1.70994095602844,1.7708133242285,1.7978798483619,1.78178937086043,1.70113918797692,1.72719776108977,1.79866822733133,1.76798423575503,1.76944322036567,1.76709646961561,1.68892484741062,1.76112642788482,1.76206357449012,1.76322417481798,1.79491685253642,1.79432896970414,1.79247089983412,1.76777198344997,1.76025435364946,1.75984921306661,1.76188397772922,1.75996896119226,1.68397101838249,1.76296270748734,1.76187897508842,1.76311158271669,1.76269142994692,1.76621527839687,1.68488639905567,1.76497645570579,1.76141302338143,1.76036107350365,1.68699947523912,1.707387118693,1.68691053631098,1.70682472912287,1.68513951216971,1.75818397904744,1.76114515997095,1.76005027795461,1.68762069608215,1.75997482519281,1.76261742844391,1.76348129465254,1.76469632562418,1.73911230788118,1.68801978244531,1.70779168241128,1.68868177822294,1.76325736391282,1.76725252500967,1.76099397488801,1.76195807518948,1.74317271150571,1.76684303783588,1.74355888679401,1.86700949404967,1.71122725176256,1.70456405018712,1.69533176254037,1.69593934613554,1.65547562706805,1.60883632024578,1.67878320110303,1.67996848701813,1.68054147408373,1.67590064922436,1.67645384079003,1.67711077005983,1.67273060321728,1.67025866125019,1.62067544056063,1.59118950002823,1.59137653716238,1.59157668117867,1.61320833199471,1.58921568012287,1.66794353106826,1.66847200785588,1.66737859355746,1.69064743310487,1.66687152577302,1.66814909362149,1.66674753346929,1.66615278803125,1.66760539241755,1.66782812686686,1.66755486798997,1.66881942735827,1.66752473684231,1.66929301151719,1.62346324725391,1.59043026636244,1.65273511050482,1.68169133822608,1.67354490456158
1.77436263792749,1.77457845155824,1.77529275168559,1.77387013931066,1.81252726894486,1.79518045577191,1.88878120272531,1.77045192810374,1.70846769894542,1.77411200799486,1.78829261170456,1.78145683104069,1.79300392754957,1.78286188494414,1.79623726559591,1.80606834481561,1.74426429870041,1.79986543935367,1.78802797111711,1.79867073196767,1.87429928163381,1.79958491597121,1.78691248700017,1.78496368223855,1.78689933300984,1.79963464011199,1.86213368931903,1.81290538722214,1.86605100946866,1.79943174504297,1.78393452062153,1.78376680038791,1.78705529946175,1.7848269504732,1.78678091920618,1.79942892468989,1.86869263102136,1.80827991349056,1.78580589550334,1.81820257862469,1.86437033403798,1.85494669932702,1.87345579999092,1.79839985607689,1.78470785923221,1.80230807057937,1.85964224922394,1.86146360998523,1.85872262574127,1.84731013496106,1.78373318521228,1.79717174615294,1.78307115717393,1.8293195838559,1.85437695565504,1.8500699788078,1.85324128723212,1.81328352835095,1.78118782649028,1.81345168953356,1.87075723707527,1.83908995532718,1.85176860409112,1.79268997393415,1.7795210151082,1.77865965870566,1.77836223517703,1.78965131034976,1.85437690765913,1.77494569403809,1.77716655889823,1.77518980197883,1.77538668659147,1.77428665058773,1.77488149899117,1.80053701525867,1.84675780157913,1.78294954414009,1.71406341270867,1.72733573627607,1.70751042071828,1.77035272440332,1.78110115946476,1.78220238536959,1.77995267896282,1.72484848732261,1.69576383571421,1.70684691685123,1.69384975458342,1.76626402676676,1.7664847738215,1.76117384366688,1.76604579251309,1.71340853499925,1.68818856164298,1.7633445693086,1.76220951520476,1.76334703558525,1.76168591649453,1.76036973730933,1.75968086184174,1.76071379774106,1.76200428704853,1.76303058438824,1.76287831421217,1.76342839938407,1.76276452511366,1.76571116263948,1.76222256283151,1.76178280483177,1.78269465900801,1.75929159730268,1.68762885207788,1.71737342568596,1.76388055732354,1.71688198406681,1.68798025188426,1.75859874643871,1.7612614242549,1.76118410194821,1.76260963672308,1.76097070016649,1.76294315591466,1.71273624172229,1.68795337706758,1.73898800720866,1.77129034368848,1.76175931236313,1.76439670659422,1.76362071166812,1.76304337967575,1.76257342136242,1.76502411588677,1.74314719846817,1.68764372348081,1.74346525866563,1.8696860910869,1.71109437980971,1.70801084263091,1.69459579854172,1.69499186406873,1.69012692739586,1.69029423684792,1.67871229981833,1.6806721876299,1.68052958541314,1.67741549752609,1.67567392736993,1.67632787524123,1.67304350856997,1.67371010831418,1.67015599127228,1.6703342669358,1.66932325459167,1.66983834830848,1.6689812892675,1.6691867289144,1.66862539054736,1.66794930510709,1.66989000809818,1.59029595755807,1.61509126200079,1.59047114232439,1.66725797499631,1.66883259148844,1.66946501209936,1.68749387297785,1.66704892741494,1.66780011283399,1.66712324947004,1.59034473984846,1.61197381747011,1.59011104153503,1.65273710282053,1.67928159913907,1.67182572668439
1.77543608664575,1.77547222947623,1.77535146347171,1.77354084352443,1.88729213422598,1.7914838958199,1.78032898257125,1.77056280112574,1.70842876297762,1.7742819037629,1.78621145699882,1.77284443456519,1.71497909615794,1.77826263842071,1.81277208986556,1.8153147234875,1.90313660165674,1.80160564889626,1.78630837387816,1.7829627164326,1.78456898654852,1.79644347043585,1.78697198960663,1.78468876850509,1.78611236615976,1.79689792545658,1.7871762425845,1.78169267456025,1.78694806455556,1.7807934440212,1.78752919611104,1.78341103458512,1.78667388956158,1.78425407311413,1.78413463478297,1.78226670165026,1.78576169950363,1.80663833193303,1.86065435329356,1.81599596613322,1.78482928698692,1.79751354794888,1.78539966580242,1.7911886418987,1.78513612801469,1.80022993393703,1.88412908022414,1.86155031669645,1.85829950519884,1.84620476445,1.87445500121544,1.84647898629789,1.88350620189763,1.84755457116135,1.87113617848461,1.84922622759043,1.86700944202057,1.81284374281949,1.78125335134238,1.81260032107392,1.86559785664467,1.81307734724944,1.78091767611385,1.79547403231933,1.86986127355738,1.83912218790325,1.85026980369367,1.78982287909997,1.77632282444615,1.77500653297087,1.77733684220931,1.77487324911744,1.77573478878496,1.77383461635674,1.77419430409128,1.80059401613021,1.85055062218649,1.78351982974399,1.71784122233061,1.73373917980346,1.78442961808611,1.76988488108553,1.70189824269433,1.77550628054034,1.88290278851881,1.72083688975583,1.69528368558704,1.7128163891763,1.79645895576696,1.76675804257668,1.76542021645196,1.76036553196874,1.68827331793115,1.70380083562565,1.68734504883485,1.76332620980606,1.76289618348371,1.76415531232126,1.68381529857398,1.74317816820788,1.76178405843466,1.76133054050117,1.76219387476838,1.73794649753008,1.6844577769172,1.70654425113426,1.68579117173608,1.76565042864438,1.76186797915471,1.75957826093959,1.78543464047387,1.75949488902655,1.76255129517457,1.75946136956661,1.76135781413304,1.76039330222903,1.7622716260385,1.76042769635939,1.76262445025226,1.76255654016302,1.76532457399835,1.76246513279527,1.68664799206162,1.70088367383309,1.68686979402313,1.73907482407023,1.76453998850431,1.76292848538067,1.76561095784717,1.76494689705031,1.766770724891,1.76204906068426,1.76304319809168,1.74295538588896,1.68521321956805,1.74338845437881,1.86226037178646,1.71065377726065,1.70129336166544,1.69333793277281,1.69213840054563,1.68956417701674,1.61007234442496,1.67889331593244,1.68061176114783,1.68064470592697,1.68013624344063,1.67524465397976,1.67365636196913,1.67226222505877,1.67333052668821,1.67092847302434,1.67022374012853,1.6694674081219,1.66864474664963,1.6690272732689,1.6691326330674,1.66942378749715,1.59003318076407,1.6687346148905,1.66713797391008,1.66937403893429,1.66789358344956,1.66710508185481,1.69012175744166,1.66950364502121,1.59123027504784,1.66689705482305,1.66784645480074,1.66735342059373,1.66894132433375,1.62340413806224,1.59045362429968,1.65317954147443,1.66779959743141,1.6671899407853
1.77886906787568,1.77884685352071,1.76704279579783,1.76700981659362,1.76694129982618,1.77105842182826,1.77083286826065,1.7703354053647,1.76938832175836,1.77421888847858,1.77365582009522,1.77315902409071,1.73321306559292,1.77852548476398,1.81321988849616,1.81735335310894,1.82278274034804,1.80490414257438,1.78205135422473,1.78120301610285,1.78250389593736,1.79636234355678,1.79486416531844,1.79379252197966,1.7945501647037,1.79598359197689,1.78171623197104,1.78160973920068,1.78047966491104,1.78128987658494,1.78100442642231,1.78383344579266,1.78516347096253,1.78640031006807,1.78166245184477,1.78108896883794,1.78283730734578,1.80554523691836,1.81479270952939,1.81398847344527,1.80889134805921,1.80501331794754,1.80200465426206,1.79087361111908,1.79068503927598,1.79765779019391,1.80525132306675,1.8086683428773,1.84220122839389,1.84429142869364,1.84449216404322,1.84565624526464,1.84524241453785,1.84674867366539,1.84645225878407,1.84801136714885,1.84651365229761,1.81216293708162,1.79795976289067,1.81157390782749,1.81077453332788,1.81301378948201,1.79683474914645,1.79936935502875,1.83743793571474,1.83789898131807,1.83714389377564,1.79078093332969,1.77580961197323,1.77469800097197,1.77481893405084,1.77362548108293,1.77354355126627,1.77241596486932,1.77308768847515,1.80087614681583,1.80109815945009,1.78408495105799,1.77918927404906,1.77997038124911,1.78073590429648,1.77759473279078,1.77690136262566,1.77580574398238,1.77571160155322,1.71608168549217,1.71034556932018,1.71762092916067,1.7664416199176,1.76623814071483,1.76529521582383,1.7602686115956,1.70320815411592,1.7109941018991,1.71717103593126,1.76281678560931,1.76319293134066,1.7637393769053,1.74301613939578,1.74312632068451,1.74137239277286,1.74044400724211,1.7390822796934,1.73781343918778,1.7373779046928,1.73723751362412,1.73723872700179,1.76490774223713,1.76116169890822,1.758750905299,1.7581699773012,1.75812829768556,1.7581467185518,1.75781815615704,1.75935616272812,1.75943095903659,1.76079090151945,1.76047716508176,1.76191991626535,1.76210792000233,1.76347793517007,1.76247049531888,1.70054278991348,1.70834016479847,1.7142323660068,1.73923054414331,1.76316021029262,1.76268801430354,1.76384836991269,1.75350387069566,1.74349731326286,1.74321538313343,1.74287352514123,1.74266262089447,1.74193995970772,1.743416528153,1.74349245893731,1.7101892966797,1.70689329717585,1.69270494587543,1.69220196526987,1.68820980938097,1.67880854510197,1.67875089495,1.67979459065389,1.68007718043066,1.6806351901094,1.67580442003003,1.67273771351921,1.6727013282415,1.67179919919136,1.67085835197259,1.67030630642047,1.6685807198463,1.66843652434402,1.66830021875472,1.66908267933403,1.66931732992535,1.66773145731337,1.66860992992523,1.66826206631822,1.66963886815294,1.67027561379947,1.66733290208532,1.66806950077262,1.66861586904481,1.66771574278693,1.66704795770605,1.66706745086338,1.66673771130919,1.6673019488098,1.65263167139761,1.65323282796572,1.65391491701826,1.65500823089245,1.66576140570035
1.7785859825978,1.77938435488954,1.69841417271357,1.72034135431142,1.70077924591292,1.77086391322413,1.88882986509457,1.77056099126587,1.78551965515752,1.77616682888296,1.81232288814543,1.77318897413573,1.71562143924411,1.77874744480352,1.81123727943875,1.81459849411962,1.88613396868616,1.80601624659216,1.78570653921764,1.78418175237579,1.78649453723883,1.80495058114965,1.87965211256571,1.85362236811487,1.87765631049117,1.80557054213559,1.78696440399009,1.78188880188214,1.78786871989004,1.78230371726234,1.78663021269103,1.80506842433919,1.87356903144047,1.7979297287503,1.78422937706641,1.7829470596206,1.78692302537966,1.8054513674902,1.87622631145647,1.81463757634144,1.86865466384739,1.85383537442816,1.87347182644677,1.79051825904238,1.78459657367876,1.78311934650616,1.78395574994106,1.79886548239618,1.8552528303058,1.84468651450455,1.87643069340735,1.84642084288743,1.87991490168952,1.84843710258982,1.88212419061067,1.85046217168143,1.86590967107664,1.81156806205083,1.78193864921958,1.81104672065478,1.85213869804432,1.81482361120887,1.78032366084751,1.80393713891954,1.86129643824292,1.8615276353488,1.86885869514481,1.79248588686244,1.78042552393011,1.77527109541988,1.77645779397988,1.77428092340426,1.77469336917944,1.77270339473603,1.77475625538193,1.80090947577052,1.87228451184349,1.8024842779346,1.79356181038473,1.79440620353806,1.87271288839596,1.77811942984878,1.78054432976112,1.77529200139331,1.77587477357037,1.7115452358969,1.6970731441431,1.72317500862774,1.76914991917961,1.76776062360912,1.79735272070663,1.76003624769531,1.68840932562755,1.71781075132168,1.86891722359375,1.75861075696294,1.76166771278545,1.76254654731972,1.7598022977492,1.74315615406009,1.68554787534226,1.70582446074676,1.68567440449889,1.73705259938324,1.7915829863672,1.75824571559369,1.76152572919269,1.76163053254919,1.76263944498707,1.75976697710902,1.76060008743353,1.75896737651443,1.78264857537123,1.75858443306873,1.76128328333835,1.7607071627957,1.76209386130367,1.76193817580903,1.76297100589294,1.76265606740111,1.76402876105166,1.76247442065801,1.68568420933885,1.714486651912,1.764527890958,1.76304771891549,1.76477430321854,1.7636940965673,1.76540208455916,1.75361003511283,1.68794522580121,1.70382653354581,1.68533382878075,1.74300047593098,1.84236548861341,1.78994365156764,1.89457202466714,1.71006947145289,1.71037055074233,1.69269889273439,1.69318978135656,1.68585758167494,1.68049781089096,1.67967271368579,1.68003130044577,1.68038335008935,1.68106642319525,1.67717133201632,1.67420832350157,1.67302809098606,1.67333030159886,1.67143336194278,1.66849219475511,1.66944012793117,1.66852870768222,1.6681344472642,1.5928555981811,1.66902507563019,1.66848555645411,1.6689074613616,1.59141519941164,1.61592561186977,1.58958548696699,1.66742430595771,1.66847625309905,1.6688225919073,1.68835989331202,1.66764095464575,1.66786311177725,1.66693852502755,1.66756335673909,1.65242501708201,1.66849630579832,1.62070354574205,1.5928734125464,1.66537650641938
1.77505758430646,1.77606028609846,1.77701458361003,1.7776739349056,1.77877641519317,1.77050575786049,1.70378649959881,1.72582300496523,1.70896736815337,1.77587769288597,1.78926108633599,1.79025653161477,1.79457446586302,1.79699165236456,1.81264730211457,1.81259282052001,1.90724351516536,1.85515037321896,1.87926309594652,1.81369586426545,1.87321897703625,1.80582783748377,1.8733648879683,1.85443631477639,1.88141508643587,1.8229225817736,1.87624577640417,1.79982082159299,1.78702732118864,1.79931399426688,1.87580781508084,1.83639206097148,1.87922419095299,1.80118618995057,1.7882472244,1.79615895995932,1.87659610460649,1.80649929565911,1.78468883968825,1.81767110589654,1.87685979140193,1.85473403954036,1.87614842390322,1.7896027115254,1.78416310807696,1.7827284643477,1.78289874555831,1.78062012639226,1.78314517083312,1.79715797788167,1.78393757823873,1.84638480675513,1.85752079172915,1.84964957078429,1.85847427799929,1.85203158701348,1.85722873944316,1.81117281391391,1.8758842636086,1.81093824866941,1.86154948036536,1.81571752393874,1.8557978488415,1.82378219947774,1.85211960212755,1.8591351476131,1.85316091773212,1.79449989169131,1.77798986496359,1.77698916530786,1.77659512162801,1.77402676583649,1.77483244209581,1.77151641937952,1.8506494828422,1.83639834425193,1.86819716592879,1.80170242075558,1.79672032849203,1.79693796244256,1.79905173026058,1.77731701394976,1.77861411449663,1.77386185678396,1.70058933609431,1.70786070415306,1.69848066606112,1.72744241079986,1.76626597625139,1.7679043291959,1.79633405511014,1.76288464439324,1.76380390894758,1.76079948822521,1.76151447888164,1.75967593031618,1.86631865307532,1.77263777438808,1.86990993592664,1.74311308743234,1.76047799993679,1.71833318936009,1.76189894111916,1.73667039964037,1.75984460488132,1.7587502036818,1.76079222910318,1.76062411463045,1.76036267919817,1.76000471167235,1.76197483380743,1.76059907673266,1.76178813928409,1.76001244107767,1.76223692360854,1.76112146583273,1.76421535931124,1.76185330512497,1.76417836600855,1.76189041628766,1.77224264944516,1.77048174818833,1.77207775377491,1.72001210734429,1.68657932148632,1.76241688524707,1.76290289762073,1.76403011342733,1.76556551303449,1.75366936585168,1.68776358697725,1.71045437876609,1.76459297788042,1.77367897209325,1.83886351025505,1.78987461011992,1.64362991426625,1.67851246029446,1.71008117682016,1.66616732525104,1.61380961710058,1.6383915507989,1.60973170982885,1.63432485225764,1.60725966205461,1.63184380875519,1.59854909538441,1.67947615601232,1.70303693181443,1.67377170400894,1.6735371744771,1.67050868400689,1.67420517236277,1.66937426802802,1.67065104570395,1.66910007024913,1.66992439129204,1.66879262111535,1.66816811031029,1.66899842830018,1.66769177503516,1.66748539185083,1.6676360545822,1.66724301291846,1.68899262117775,1.66905532203658,1.66965948859378,1.66880113345326,1.59147371815108,1.61258673917265,1.59133949576778,1.61233492269037,1.59187290242232,1.61156077850934,1.59018086006072,1.66569664309241
1.77910259488073,1.77803960245669,1.77731425766432,1.77672151636915,1.77952817095014,1.77719288613774,1.89015348153842,1.7338676292157,1.7091360963055,1.77539466920992,1.78909180719955,1.79068337857602,1.79303609222335,1.79715419339074,1.79955536276696,1.81232088992633,1.89316089693736,1.85424646037601,1.88845972551533,1.81368649849455,1.78775918866259,1.80232937476491,1.86256202172793,1.85524591699835,1.87752976885482,1.82162868749088,1.79096417556009,1.80406273889126,1.87182703694473,1.80375936852208,1.78922133793999,1.83542040735635,1.86202015814081,1.80364928439124,1.78811121437792,1.79994091732768,1.86860726309253,1.80764497134626,1.78844641645775,1.81900951215615,1.8719526717301,1.85562061060103,1.86778847699609,1.78884858502624,1.78447189460452,1.78329333773344,1.78471436795684,1.78008017720504,1.87012405035138,1.81536375735571,1.85549614100064,1.84567318847544,1.86997915551839,1.80757352141992,1.78346557056263,1.78205568981708,1.78245463976553,1.79500625067733,1.87870950240027,1.80432072674039,1.78039594220617,1.79169263375243,1.779354747024,1.8229974869819,1.85408541767725,1.85982536730471,1.85251300676568,1.79638002965493,1.77792276692364,1.77751011735621,1.78051324109319,1.77285667940967,1.77418972415737,1.77146944597617,1.86516037486718,1.83639280478728,1.89584697874173,1.80229577866919,1.71453098656831,1.78924940246185,1.78489140046704,1.77763228329877,1.78104470948287,1.77437654333651,1.70037524892008,1.72290673779289,1.79706236914578,1.76983471146301,1.76715906149516,1.76708185501342,1.76860776498879,1.76342026233485,1.76373242980237,1.76092882779329,1.68696862035176,1.76423631061447,1.76201938767033,1.71642610261998,1.68681788997407,1.7058251770373,1.6860929816549,1.70791483437128,1.68510008668508,1.70987502289124,1.68641396062073,1.71036919103999,1.68576182184796,1.71012357150738,1.68542116508143,1.76014606992517,1.76242724143537,1.76098367819816,1.68698813611755,1.71129588608404,1.68778622652216,1.76130644171109,1.76243458826118,1.761805057762,1.762019578706,1.76201623571086,1.7642116875809,1.76277802154362,1.76391439216766,1.7631851685173,1.76357096032353,1.76319118270031,1.76544329564642,1.76458990950214,1.76709508579643,1.75364735304779,1.76340747456619,1.72004190862832,1.83612851918697,1.7782434101618,1.83963136787718,1.79910308845199,1.86203636342906,1.68033855207576,1.62062218066031,1.65617518244658,1.70960624738871,1.68480125975856,1.68643704004841,1.68159263681096,1.68299238470539,1.67903060448243,1.67920517608247,1.68049258243186,1.5979927738984,1.6284676891281,1.703426231403,1.67133669350061,1.66892509647603,1.67032376681085,1.66928815076093,1.66955612227095,1.67006008598365,1.66914205770665,1.59164877142347,1.66902774049865,1.66805004793735,1.6675435044726,1.66850105344908,1.66749695098053,1.66819006745724,1.66892844524947,1.66894481983056,1.66979714704944,1.67069157952609,1.62267285859433,1.59167699044758,1.62237363231738,1.67190896580318,1.67063134051511,1.67809291230834,1.67667008723684
1.81530102514408,1.77655999804907,1.77662703018744,1.77607438555691,1.77985537436493,1.77921760056106,1.78331376897848,1.78624192661518,1.78443538737601,1.77506252257653,1.81279004689031,1.80575925905148,1.81272186446088,1.81026569796885,1.81226615169506,1.81256674814814,1.89479597874094,1.8533369360205,1.87328715497489,1.81395868879275,1.78899316942623,1.791591673525,1.78824108954631,1.80132342426553,1.78790531659401,1.8202371693959,1.8648879794191,1.82659975580249,1.86339910609903,1.82825459618267,1.86018719454867,1.84117781673552,1.86218885930407,1.80690915847133,1.78888180129516,1.80398282409867,1.87280877302587,1.80749559666608,1.78609916366103,1.81764158459668,1.87959374146751,1.82770931953199,1.78894269674503,1.78871617559319,1.78498245386608,1.78322912590333,1.78406475518381,1.78125802817387,1.78447832928561,1.81448144405096,1.88138452259793,1.84497919026034,1.8670764126475,1.80825205077419,1.78351941371497,1.78057865835864,1.78230610192616,1.77901165951786,1.78183059283077,1.80435597931412,1.86443055314806,1.80247483370625,1.8597978955946,1.82227872004856,1.8735985183864,1.86150506766814,1.85618818950112,1.79765201383214,1.77693043561322,1.77598275005175,1.77534040255044,1.77376296057347,1.77483183779481,1.77293263095296,1.77415984510568,1.79552271872231,1.85204111278324,1.80529796068478,1.79637283489082,1.7884158000535,1.78715983260666,1.77875376911608,1.78118868129481,1.77476999024232,1.77624460757674,1.76978519722098,1.77496965235069,1.76893035123151,1.69438476537166,1.76502489539278,1.76684078251884,1.76455162348271,1.76349867394116,1.76156951929139,1.764196780098,1.76690553250846,1.69056023326595,1.7076831221997,1.68734344706982,1.71406716279886,1.76192663272625,1.75984620155865,1.76132588753249,1.7590943776729,1.76085003819626,1.75911642106945,1.76133543251004,1.75899237162246,1.76099183465214,1.76032640537187,1.76326292701651,1.76132369283551,1.76257930329947,1.74344582533398,1.76360205805798,1.76196390074555,1.7639031364978,1.76086036814401,1.76170760074237,1.76095459458972,1.76348853823481,1.7625254726794,1.76498566217142,1.76336018112178,1.76360657135516,1.76340009145865,1.76492675481913,1.76388202253914,1.76624358513161,1.71734178023996,1.69107603787074,1.698109836288,1.68876960720621,1.71696941239715,1.83885583070442,1.7990637671632,1.88332128489444,1.68043959962873,1.62417510851375,1.64856355805309,1.69434582912807,1.68441615528073,1.68530922332081,1.68129425680679,1.68178404382821,1.68033424737792,1.68084238367515,1.68109534562955,1.59736339512592,1.61674813315115,1.59602864706362,1.63680658255792,1.67223244812925,1.66744212955447,1.59343954661221,1.66934649062669,1.66995687856817,1.66906661924594,1.6696837753876,1.66910327682953,1.59277773839028,1.66665317287181,1.66762023066983,1.66668581219249,1.59309891002739,1.66884380738951,1.67055754971534,1.66996894945191,1.67100421697942,1.63371789348815,1.59371089287491,1.63341096665996,1.67052474022347,1.67002958740064,1.67824950493948,1.67727894287931
1.77444568463183,1.7750379445567,1.76555761194593,1.76561635953334,1.76551458903968,1.76532409299501,1.787800953448,1.7899232980371,1.78870033346152,1.7750778091289,1.77527085669365,1.7755683942015,1.79546057745393,1.79527789364431,1.79453094054591,1.81204915278494,1.84931546277254,1.85143264152147,1.85355678523221,1.8142732961971,1.79007931073021,1.7906370081464,1.80626119436164,1.80952387765018,1.81357435154001,1.81933497224086,1.8231223444795,1.82515372064885,1.82590570291336,1.82769447453186,1.8381121811675,1.83972885130136,1.83829907655858,1.81580682973953,1.8138811107192,1.81017836848862,1.8081871899654,1.80678136904309,1.8104266549953,1.81446009382062,1.82530227135885,1.82730716796831,1.81159487788724,1.81143494288962,1.81170817215281,1.81162721102868,1.81151683357796,1.81174438636364,1.81238069542439,1.8133720701967,1.81293257652103,1.81282532043573,1.81413915551435,1.80920126250361,1.78051929172173,1.77875066695473,1.77790270654246,1.77888950584834,1.79653701916219,1.80409609653942,1.80387317961122,1.80393768886316,1.80599101100584,1.8072359557812,1.80760822591276,1.81578815093963,1.81373834578798,1.79799698301313,1.77601659447655,1.77443108701633,1.77433167502948,1.77356669900889,1.77403580531934,1.77326675716111,1.77388599267881,1.79547086153495,1.80919681881373,1.8062199166418,1.79477290618043,1.78692488655102,1.78408693208671,1.77044003956457,1.77034938977964,1.77017917336279,1.76993567122852,1.76979742983037,1.76680291916461,1.76749931181837,1.76715549064506,1.76399615056244,1.76500307676973,1.76415484860346,1.76196611278853,1.76070846907742,1.76279583778542,1.76554662655261,1.74899284589045,1.74959140321318,1.75026891469161,1.75062655993306,1.75993384421181,1.75889756581453,1.75896454952128,1.75809655529816,1.75881967208508,1.75806197396225,1.7588279759741,1.75785395257137,1.75895490189497,1.75920426750787,1.7604367918735,1.76000556915302,1.74287261578599,1.74326333628973,1.74344590695628,1.74345660712396,1.76090744519876,1.75999356467408,1.76046825644424,1.76011669986267,1.76130664508471,1.76209202270181,1.763168421749,1.7633580322133,1.76353457892988,1.76299650546298,1.76300074792095,1.76170665638128,1.71806976563858,1.71199975306991,1.69798486627612,1.69870241231375,1.70026903621684,1.70320825465597,1.70647779165715,1.70888554715378,1.71003067983404,1.68018519548842,1.63517322476578,1.64220592734465,1.64778947284997,1.65287217472584,1.65780210507226,1.68163473213246,1.68136489130664,1.68065180990644,1.680001305894,1.68018677472837,1.63693982329853,1.62590956478816,1.6162378294019,1.6259544135226,1.63518019198993,1.66760714329072,1.6684381175783,1.66904737053536,1.66902974991632,1.66911508401102,1.66921620725784,1.66913630139416,1.66915906799957,1.66656802694059,1.66667849983431,1.66655599852991,1.6672058391448,1.66820793080919,1.66913472470616,1.66959060406433,1.66989982692698,1.66980911941127,1.6701045906666,1.66937395659017,1.6697939193029,1.66945394089489,1.66981373736869,1.6704379188759
1.77489703106591,1.7753241277394,1.70124634666476,1.72284240221798,1.70352382717937,1.76519179398617,1.88764250328465,1.79290906804858,1.81494092361157,1.73715803115223,1.71365541593391,1.77607548732327,1.79631296865919,1.79591615797841,1.72593793040093,1.81213684885294,1.90951108899706,1.86125588108131,1.87916381491878,1.81428916716105,1.78926619318728,1.79091575986827,1.8782603984915,1.81067979005161,1.87288828794342,1.81846293185993,1.88509259513547,1.81433229652994,1.78935333324405,1.82930302930775,1.86036246430954,1.8413312269355,1.8806643195329,1.83983445450529,1.87888302373414,1.81222772172018,1.78933647384248,1.80371221004329,1.87778350727276,1.81349218315055,1.87786136706357,1.82937578477693,1.87264558735141,1.84960677565815,1.86787413061823,1.83789746998083,1.86848899474427,1.82343466926128,1.87049471187864,1.8138985862079,1.78446826498937,1.80219532488283,1.8699975281913,1.80976767140342,1.78243238731427,1.77896763123345,1.78288526091529,1.77991154705961,1.8697347513973,1.80367306691514,1.7833100308561,1.79329023949832,1.77987899105959,1.78562231879712,1.77898150977759,1.8183994097549,1.86314573542189,1.79773422495384,1.77796553715151,1.77465086861263,1.77689848344771,1.77483663183967,1.77676790491144,1.77502818773867,1.77582340212787,1.79476327620922,1.87115569142821,1.8026297653766,1.79806656209779,1.78636184788314,1.78488011554888,1.75714720650894,1.70449522042161,1.76863640894425,1.77787363145123,1.76975693567861,1.69915369463179,1.76730339054544,1.76792326728738,1.7656331418775,1.76728894867288,1.7663255090393,1.77033799140539,1.76060779210683,1.7635457470791,1.76161837041171,1.76192108611118,1.76087836434834,1.76065292600234,1.76041934337892,1.76153428001741,1.75986813111507,1.76058968907606,1.75924863970106,1.76153172939843,1.75934861879372,1.76139519348965,1.7587136111176,1.76069243539384,1.75972137680622,1.76131016823687,1.7606031403432,1.6877669703893,1.70575777937928,1.68705797282847,1.71404769625922,1.76198430012785,1.76091157808988,1.76341102096237,1.76120025839734,1.76336115522217,1.76389443183896,1.76551452192678,1.76407734154998,1.76544077191686,1.76402208662375,1.76469813108476,1.7624419098164,1.68858450509896,1.70375655639988,1.68845833096094,1.70892710212796,1.76876033518469,1.70124002684782,1.68700045969364,1.69837812291818,1.7124194887466,1.67992344902436,1.62045732805296,1.63562690591127,1.61639876982536,1.63492967044004,1.61034719211091,1.68263203136352,1.68176398205049,1.68101506791798,1.67772354252065,1.67911635596123,1.67494663795523,1.63477949696284,1.59596051582333,1.61678776385089,1.59381918373185,1.66707527355858,1.6692066420829,1.6692053926895,1.59107455546782,1.61587755027518,1.59128867215655,1.66882378898179,1.6700349194026,1.66796056237949,1.66786444623751,1.66734681088206,1.66835126631913,1.66844343785472,1.66934358233164,1.66954349537438,1.69118240385004,1.67061690185894,1.67193450395424,1.67028726594354,1.67004163366196,1.67021923890385,1.67024800934196,1.67198329831542
1.77588068427073,1.77664878954579,1.77819807311596,1.77752148891278,1.77827088084897,1.76498168504867,1.70427316831842,1.72516391289404,1.70867981626317,1.7314558855534,1.78888709111025,1.77649881067019,1.71787919834018,1.79625407300112,1.81238136391246,1.81331269628424,1.89958430167811,1.86115174174102,1.87798944932447,1.81423064985105,1.78827026327486,1.79178155647558,1.78920342635148,1.80895918590627,1.87978748542224,1.80536196968005,1.79151932891815,1.81608499680171,1.8794767158591,1.83074320385731,1.87582719364555,1.81930953167473,1.78836437372621,1.83867708517848,1.86626689796359,1.81352066696297,1.87306325745463,1.80067047197301,1.78865807728003,1.80091744734495,1.78807337661815,1.83146556492701,1.86859522453277,1.8504571171503,1.86825655930104,1.83701634427286,1.78687554557782,1.82363329366553,1.86643461408919,1.81444841128851,1.86667875460783,1.79801416805392,1.78420302805749,1.80965111650103,1.872016320668,1.79171618993064,1.78156262550896,1.7812289276305,1.78278869462948,1.80351985127295,1.86377876038739,1.79623257298274,1.78073458843196,1.78469842336142,1.86656196492161,1.8199880380921,1.84923829149165,1.79806446778025,1.85197298661774,1.78291556541815,1.77726807585146,1.77599124517406,1.77720822402105,1.77612372619052,1.77690998615996,1.79257202557872,1.89340400564421,1.7995914342763,1.79924155504602,1.78634336242386,1.78767769898342,1.75745314881071,1.70452765688451,1.76952825708703,1.77596934266425,1.7730678616666,1.77334828120816,1.77162169645457,1.79784096705392,1.76557278733734,1.76690334271868,1.76609195608705,1.76417977591341,1.76098823826115,1.76370828272445,1.76065831699051,1.76094937846432,1.76111051420125,1.76087214950172,1.76039153342413,1.76155915509164,1.76088132782379,1.76269896759737,1.75958033356158,1.79240051417075,1.75922537628331,1.76112119866936,1.7580612968589,1.68691022561817,1.75534371128018,1.76342620316474,1.76253250704305,1.7649785476557,1.71507124011426,1.68737590566519,1.7066733544384,1.68813677177968,1.71270380392057,1.68891516930889,1.71362576290762,1.68947962959257,1.76820598374543,1.77246891768434,1.76805291355034,1.76490434667245,1.76456367354286,1.76483982212237,1.76439319316017,1.76661024325352,1.76908650430482,1.84335974725888,1.71373104789473,1.68762451070517,1.68774940964598,1.68743333040008,1.68719019668888,1.64345493978103,1.67993342126287,1.70593710588071,1.69240403419576,1.69339775691737,1.64384761798331,1.61062412743173,1.68356037924447,1.68370955945951,1.68000794668684,1.67841868326866,1.67739139945263,1.59978511956359,1.64523239781183,1.67421946963851,1.67380966239483,1.67235631397471,1.67086095373168,1.67071855649688,1.67025714859383,1.67058104952264,1.67048567184012,1.67160698662106,1.66856750860178,1.67030509410317,1.6688101318319,1.69136755622476,1.66781131168862,1.59344927908606,1.66866616993773,1.66937463873517,1.66992662660409,1.67041113798935,1.67030283648824,1.67010836076528,1.67017594835624,1.59374125330161,1.67064736612239,1.67338084085937,1.67273472741375
1.81685822096037,1.77671962910323,1.77697453545568,1.77663012639134,1.70304666741373,1.76471572411595,1.78260964432437,1.73247838525975,1.70997866889267,1.72328308317439,1.71250703465812,1.7766819556588,1.79499514621813,1.79473769528304,1.81339234579266,1.81466894820039,1.89208065682532,1.86118073374428,1.86333117151766,1.84913123248338,1.86951106784108,1.80257198384833,1.78946145727842,1.80677129335836,1.88379887025613,1.8019794543937,1.78885176571985,1.81710189962411,1.86927765283716,1.83019858237533,1.78998035851008,1.81983236068808,1.87659391986135,1.84327000413987,1.8664485958605,1.81396761870427,1.78864219418536,1.79766312834716,1.87887354434416,1.83135927157553,1.86229265248288,1.83259934094194,1.78853953610329,1.85114552418888,1.86934430678326,1.85943339622298,1.87187608554128,1.82401025663689,1.7865650221564,1.79853734946016,1.78638002007921,1.79222577941184,1.78381901662645,1.80873766640031,1.87246123346801,1.79485562836407,1.78306381333313,1.79132617611098,1.86680559355012,1.80398479086006,1.86716509416157,1.79750978094719,1.8568684209652,1.78383789700681,1.77937379572868,1.79160546944219,1.77933860213483,1.78745178215141,1.7777244017925,1.78133119009315,1.85224225115191,1.7787012806944,1.77728376882852,1.77612277886173,1.77656292907486,1.78921364965508,1.87588487998451,1.79813601416889,1.79863103287823,1.77903820069568,1.71029428559722,1.75763883468651,1.77795713006577,1.77036216451047,1.77615716004869,1.77229960519841,1.77208930779674,1.77099106707827,1.77104029706419,1.76572041318468,1.76705034149401,1.76563897137371,1.79834705569422,1.75806214426009,1.68825330692401,1.76440893603306,1.76432729434817,1.76188751133251,1.79468764552593,1.75936961443158,1.76155232027948,1.76109309197826,1.76174708114972,1.76018035255961,1.68730925691416,1.7597772660386,1.76166686838434,1.75794941840834,1.78840046741766,1.75459103745579,1.68818518096434,1.76217407776914,1.76380994116929,1.7621938020456,1.76376026100246,1.75968653145775,1.78385540212886,1.76198640455772,1.76501588204181,1.76363354264803,1.76439419117398,1.76895981285776,1.68826303946332,1.76816738187861,1.77159289827878,1.76608108238446,1.76554034551078,1.7650660604811,1.76583658414675,1.76898904419892,1.68821437758899,1.71839662416188,1.76813774351488,1.68830569261447,1.68728948594971,1.68778773839784,1.85833802451682,1.68028587532477,1.62208221715811,1.69304779730684,1.69577226386629,1.65430837635922,1.60694885220762,1.6839177828582,1.68305810033865,1.67989169629357,1.67767144690358,1.67781096197099,1.67691754539447,1.67439387500878,1.67447906032789,1.67300817581248,1.67522071757356,1.67009056970028,1.67106309838497,1.66987448938179,1.67031827336828,1.66990715571158,1.59358559385904,1.61681224555148,1.5908669299331,1.66919858325523,1.66983499805527,1.66925574873879,1.66986413703768,1.66911265824036,1.5926122863348,1.67054471548464,1.67077688668797,1.67125313155841,1.67360224284485,1.67169385707134,1.67240968077778,1.67079220363993,1.68262768647707,1.6731143763934
1.77566690590944,1.77550548131748,1.77658247067848,1.77649769909842,1.77822723739993,1.77958501662722,1.81506744577164,1.77729089555101,1.78723257055544,1.77701344301733,1.81529129267023,1.79109999906946,1.79407774054028,1.79443446791661,1.81716437555557,1.81817953267366,1.88746739989206,1.86132585055513,1.87467860028491,1.8486820599556,1.88226028075077,1.81565210730577,1.88089789890534,1.80344609529728,1.78842997521626,1.78622149875158,1.78849299050289,1.81576472569718,1.87281985745841,1.8275708742238,1.78984114251049,1.81895009534082,1.87948891464686,1.84336016811972,1.87458144512237,1.8139461396796,1.78910307794126,1.79601617839519,1.78928280383748,1.82881750532639,1.86347352597691,1.85534142009763,1.87289780539914,1.85741579420533,1.86999924474107,1.85712584181703,1.86604595275943,1.84655059099008,1.86590015669969,1.81639494326235,1.86902428080612,1.81010012705848,1.85943779406208,1.8070479771607,1.87232775983126,1.79761429776698,1.78391448618234,1.79409699014651,1.87018212726082,1.80173693910096,1.78186685480628,1.78423290734751,1.78149746827769,1.78362840523114,1.86692206645413,1.83949545906824,1.85464941692699,1.79396971625753,1.77770204110768,1.78026888849155,1.85125602713492,1.7774886778705,1.77740606154568,1.7773325523222,1.78065471245651,1.78574277428282,1.88265065894361,1.79768869340204,1.79867388855391,1.77937862768761,1.71070954459395,1.7575967606421,1.78153946510955,1.73306804843738,1.70067228524585,1.75902182497702,1.77289605715276,1.77042142577184,1.7707517517602,1.74651087528244,1.69066711317643,1.76749325870655,1.76383704430717,1.75986675871091,1.76264021222189,1.76489290073459,1.68836055282105,1.7092497239254,1.68656971579359,1.7589545197627,1.76130039324832,1.76140486387041,1.76412474699129,1.76120645982279,1.76274636464447,1.76037917761103,1.76073851740577,1.75801761172383,1.686598787518,1.75375792124781,1.76193131631534,1.76111121291242,1.76053987751512,1.75990585684978,1.7832811697804,1.75851085515497,1.76275805491662,1.76136280186867,1.76457339096993,1.76261258727984,1.76499351898352,1.76946581746469,1.85008488669048,1.77990123935639,1.84619189714975,1.76968979700353,1.68891511583335,1.73974172159978,1.84432326217021,1.76875777628251,1.76549735439923,1.72465794417018,1.76247286926825,1.68837406076277,1.68828261152405,1.68826108224579,1.63344001414457,1.68065310938082,1.71144564394628,1.70111900286821,1.71004395244358,1.68905611733003,1.68446053854377,1.6834257093506,1.68547752222414,1.67976014368077,1.68281806056233,1.67972577951583,1.70695880980455,1.67505533524744,1.67467641469097,1.6726932959192,1.66946752323553,1.67016625423755,1.59427653936346,1.66909168642898,1.67012701387556,1.66953419908196,1.67060234139386,1.6284707026894,1.59171041100026,1.66962314723072,1.67043591073154,1.66987994312422,1.66981119377194,1.66954643288226,1.68949850385096,1.68171312104256,1.68927463781434,1.67088572812918,1.67123115893158,1.64348506951995,1.5966038150021,1.59793520180351,1.59625472343206,1.61546553397819
1.77282010740968,1.77318938158301,1.77486431316314,1.77465672625916,1.77944458126771,1.77925621803454,1.77931149425399,1.77703513522902,1.77709115397823,1.77710545286041,1.79098922110601,1.79100500964541,1.79112260429326,1.79124865158328,1.82077904414404,1.82401644005425,1.85340386680665,1.85194676497334,1.84918936177095,1.84802472137129,1.84597596978683,1.81294305751212,1.81103351943542,1.80091402344075,1.78579206362882,1.78515918111156,1.78599399041751,1.81353963094325,1.82101794339069,1.82436711619953,1.8159685932522,1.81591941752987,1.81277900797366,1.81101695365154,1.81146849803767,1.81309842135194,1.81307917719185,1.81332333979659,1.81587761201553,1.82643596676409,1.85218558278115,1.85321923665001,1.85257503332724,1.85394482919607,1.85273780513868,1.8541680482239,1.85392512551782,1.84563181552179,1.84356564742924,1.81757551223746,1.80943089263959,1.80845317761732,1.80666470877605,1.80438925629689,1.80207494352258,1.79953097544867,1.79733260014874,1.79570488039499,1.79264018776003,1.79235002458337,1.79275351055034,1.78268750624914,1.7822318972908,1.78395199510276,1.83709313451736,1.83786675582542,1.83705696097937,1.79795163582078,1.79713616096713,1.78015638031374,1.7783432920243,1.77658825943208,1.77525687619422,1.77568729143507,1.77611787995383,1.78281061496798,1.79715889562832,1.79681856247581,1.79658254651078,1.77971757325321,1.77551550825477,1.77590751849731,1.77628020060471,1.72692750855603,1.71815519392838,1.75901940318008,1.77079480421678,1.769513561044,1.76899462723184,1.74638802494752,1.71341131798945,1.76632108738277,1.76076053029341,1.75923546886206,1.76119779513239,1.76488177939676,1.75893828516259,1.75914386923545,1.7593288720431,1.75898564806262,1.76047532828794,1.76109591691194,1.761593955208,1.76068052254385,1.76025713176539,1.75944405216458,1.75946866069526,1.75893841521335,1.75300939410639,1.7530428519022,1.75293179532609,1.76000513122212,1.76052317016513,1.75924882637954,1.75834625459444,1.75833916450593,1.75989560601153,1.76003875340032,1.76085490773449,1.75958722194568,1.76052924316628,1.76459481115052,1.76471131847436,1.76474316772418,1.77328292331477,1.77107578927002,1.73956929532243,1.73949677971607,1.71624300461905,1.71154459615566,1.70650522713471,1.702135641719,1.69894637338483,1.68894549691614,1.68807678895136,1.68982551923966,1.69333059822581,1.69648086273038,1.69633281986143,1.69507954671566,1.69461499007168,1.68875841409926,1.68792960321138,1.68210786265388,1.6820490409119,1.68137213068061,1.68012286729254,1.67990088371141,1.69125726633282,1.67608105375422,1.67573003814083,1.67098091521164,1.67034407459081,1.66928475487284,1.66908208990531,1.6689240336138,1.66907941960531,1.6687869891331,1.66893142060111,1.66862035129049,1.66913020422925,1.66960120305617,1.67011511509673,1.67031100369999,1.67046482461598,1.67067788403211,1.66984241337511,1.67118899996888,1.67044788444929,1.67118806268053,1.67116522416672,1.63267562914006,1.59795285213032,1.59870989214394,1.59802590974854,1.62485910548466
1.89312188606322,1.772920173041,1.77525381051786,1.77534156421006,1.78323014078319,1.78163882367225,1.78201423177717,1.77664591824702,1.7100102781733,1.77721806047545,1.78833242479991,1.79082733062224,1.72067247406839,1.79145786869304,1.81756959715397,1.82456361620081,1.91292637601334,1.853311615068,1.85942718547366,1.84897851323665,1.86934545244323,1.80681062435127,1.79083775396915,1.78765172833516,1.79099795618986,1.78699086514392,1.7884895747057,1.8131800305604,1.87773498717275,1.85441816118096,1.87601242213586,1.81659517589707,1.79004014714594,1.78773706481767,1.79039693226084,1.80159508305442,1.88739919143835,1.81564194277758,1.86147187994565,1.86156927071301,1.86989141014328,1.86157415224027,1.87028964800788,1.8615168331944,1.87526256097959,1.86151364883972,1.87332511946476,1.84669520311949,1.86348650318444,1.8181146829013,1.78520092095346,1.79748430398143,1.7842864136796,1.79455244960629,1.78484412920724,1.80327956207264,1.8639147106221,1.79819409339955,1.78270766946899,1.79293439537475,1.8695595703374,1.78198731351016,1.7786681625698,1.78456905045642,1.85658644335404,1.83851995108514,1.86853279030088,1.80153739867683,1.85025033874596,1.78260998150858,1.77830870323092,1.77840670013652,1.85630393748179,1.77524726405092,1.77695844748248,1.78071096816038,1.798261054348,1.79721070514524,1.79775274722605,1.7823911446637,1.78453155074386,1.78810921360758,1.78456026565857,1.72228824169304,1.70074676129716,1.75885911605861,1.77153437481646,1.7702340342867,1.76848883605111,1.74629183399346,1.69277913345311,1.76741948207518,1.87168124616767,1.76095263220668,1.76449994003044,1.76790463236738,1.76545183931857,1.76611055217469,1.76228378000891,1.76082546696277,1.76221685412042,1.76222507098318,1.76297771903153,1.76155480898483,1.79459032078741,1.76027314354939,1.75988884901658,1.76277718876929,1.76499954699564,1.75312770055941,1.69082268078132,1.76073418137448,1.76223011538118,1.76075613984279,1.76269611991749,1.76009385548218,1.76309573443888,1.76088763427263,1.76184803637672,1.75888903820855,1.77911730886627,1.71756849945331,1.69016775475652,1.71780422883644,1.77378205637956,1.76756913927004,1.76705052847922,1.73911350373192,1.68771695910643,1.68991092691918,1.68962876176875,1.68950114332643,1.68709751950646,1.6878808547821,1.69195103882158,1.68801136612554,1.71116352703369,1.69896102991983,1.62314305680795,1.69423873305931,1.69386034892291,1.68823163699786,1.68887054074059,1.64437757541194,1.60377543441857,1.67615661768531,1.67769313696501,1.67870645295324,1.77209857371586,1.67659372123598,1.67571305912285,1.67091343645777,1.67024510111322,1.67007979796554,1.67062365329501,1.66973452955178,1.66933449627893,1.66882435974112,1.69369376436561,1.66876688677689,1.66969179556839,1.66983245368193,1.69158146373452,1.68409465325038,1.6901074253331,1.67025977324974,1.67603533172592,1.66969289674528,1.67625990058526,1.67071946185969,1.67221245417891,1.62315020451273,1.59634627915968,1.59804268571748,1.59686806575649,1.63614382604143
1.70094483870312,1.72101922961792,1.70273375339548,1.73155059633707,1.78211728497637,1.78211206800523,1.81569032409816,1.77637727837026,1.70940686731926,1.77728353596313,1.79432728997666,1.79196295262932,1.80152732502704,1.79167450236135,1.72677467376314,1.81464365846773,1.910534374971,1.85419369275859,1.86385721215392,1.82849110823442,1.79152514652284,1.8009677092091,1.79133861870264,1.78827867359123,1.79058220043356,1.80339294955082,1.87358881104262,1.81976458428065,1.87525709123031,1.855353229356,1.88552040884694,1.81714194763656,1.86287335733177,1.78687694866226,1.78973954077179,1.78640154717671,1.78783369868816,1.81842121332887,1.88550111474778,1.86148274496026,1.86306728703349,1.86152187467603,1.86209483364239,1.86160357979732,1.85976909376495,1.86169896794935,1.87412857344011,1.84672268477708,1.78529923655279,1.81831444661826,1.87959348912637,1.81036396581672,1.87352068372566,1.79808408937923,1.78475315280042,1.80467530475453,1.86438177070763,1.80042755374151,1.78320727698973,1.79241169778588,1.8757591480907,1.78315160204449,1.77867000234444,1.78531381511411,1.86583176410072,1.83820765868885,1.86964229231998,1.78962800075872,1.77793898797174,1.77681612692774,1.77661718235731,1.77624595347362,1.77744923966917,1.77547546572118,1.7750794500441,1.78040482945326,1.77620502576727,1.79711640351611,1.78990504721585,1.78406287453113,1.78569656995461,1.7890151399296,1.70504216580211,1.71512222101275,1.70022771373023,1.75863364200355,1.77293794947779,1.77102936680338,1.69531097448404,1.74635971436345,1.79870715722673,1.76373714632383,1.76427462124237,1.76276570780798,1.76458499330068,1.76862684261231,1.68796457744284,1.76685467494106,1.76358686574828,1.76220488584564,1.7638763768845,1.76328751214654,1.76457107366602,1.76311990868093,1.76417241244918,1.76265766919829,1.76424350589706,1.7640215416533,1.76413277427997,1.76260022905253,1.78754238706399,1.76135425100953,1.76371984618672,1.7598328423955,1.68969547914719,1.71573886616848,1.86238673363918,1.76053699520428,1.76314276891853,1.75923443398077,1.77869556833269,1.71166450337249,1.68984386825154,1.71192054442285,1.7658723095475,1.7663881644179,1.76744259968498,1.73885152782218,1.68830704634237,1.69015352912392,1.76859488312921,1.68925894014817,1.68809638937651,1.68874160857013,1.6831902377693,1.68870883733006,1.87807527499941,1.71663577947197,1.71460335936115,1.69365269709139,1.69353315397028,1.68764519039623,1.6110262319843,1.63320786799458,1.60416473337264,1.67712823533493,1.67845687211534,1.67849290436314,1.67650137596218,1.67693333787065,1.7712421160169,1.67094876151714,1.67100341044377,1.67096847957021,1.67048541705349,1.67084257709346,1.67309022639568,1.67100733084408,1.5939651002002,1.6187706373841,1.59415001740789,1.67063533061488,1.67231024526849,1.67840263014299,1.69290941248967,1.67275477856996,1.66542361289264,1.67449443199436,1.66650630340359,1.67258438398996,1.59370246355176,1.61451624896898,1.59479981489777,1.62236306724978,1.67345122129314,1.672132646176
1.77926634517491,1.72989504963247,1.70389516711098,1.72357936401574,1.70529515568173,1.78237899897593,1.78353038506289,1.7826897640523,1.78804868831431,1.78720464696761,1.78919811198771,1.79136597070588,1.81779247670427,1.80548292275313,1.81242021288394,1.8146449362497,1.89385182045065,1.83289064499992,1.79226736774575,1.8276977222153,1.86350601668798,1.8052964605925,1.79097204150701,1.80487412648263,1.86987099638738,1.80744628951356,1.79317307198177,1.82017560033595,1.87590096808816,1.85627317987803,1.87269512582441,1.81028248359194,1.78986703281255,1.7868454559991,1.87362774093803,1.78549858410543,1.78831717163775,1.81935372599532,1.8759101103462,1.86148274496026,1.8733938721349,1.86164030762859,1.87360980170488,1.86202497200207,1.87555460085674,1.86237274777538,1.87487392713908,1.84629538539262,1.87542891071656,1.81879792015313,1.87010484253504,1.8108906398591,1.78560147756222,1.80078909665865,1.86080033924988,1.84053531137433,1.86874236696143,1.80132143596409,1.78470112970739,1.78981725580424,1.78177086358104,1.78566479601434,1.78090476305967,1.77915824662816,1.78052683794648,1.77777994713336,1.77841323700075,1.77704923895137,1.77864339778151,1.77644103697735,1.77698490552955,1.77603601633793,1.77649266153151,1.77494777818831,1.77453439257065,1.7836452235998,1.87360989749357,1.79829262475738,1.71490083001909,1.79061156353476,1.80098440313512,1.78734072412546,1.78117472655126,1.77817333376736,1.7998458566674,1.76923016876804,1.76968019164046,1.7705458045217,1.69613499060338,1.74650490527625,1.76984087726052,1.76379190626769,1.76605264333981,1.76360077732451,1.76501407081416,1.76732250358092,1.68828899323789,1.76579475531499,1.76261465149217,1.76189438169644,1.76367623314622,1.76279024436877,1.76194006757926,1.76314849337706,1.76470032620631,1.76399270962141,1.7643503719727,1.76526437987183,1.76477486898966,1.76265420391137,1.78831449665624,1.7609613369788,1.76382999327466,1.75967419954707,1.69009123237433,1.70606822097688,1.68897512647088,1.70857308758267,1.69003463556985,1.71267093816923,1.68943122925047,1.70393831970777,1.68899194599689,1.70412944555671,1.6900541177206,1.76532642535675,1.76774746701411,1.73874479199231,1.76779682027336,1.69066559618323,1.68979139195043,1.69075627514568,1.69063958105853,1.68722163695312,1.69244887674022,1.68655752420395,1.86678601715765,1.71697425706027,1.62334744428995,1.64788603203747,1.61508456845865,1.68776269621426,1.7746971442343,1.68512541552617,1.68464215842627,1.67878214200943,1.67839216823879,1.67849649708246,1.59711923713267,1.59708391974919,1.59682671449499,1.61763312997288,1.593692620335,1.67195182409029,1.70094445738522,1.62546551931499,1.59249227693479,1.67090086656116,1.67025150975418,1.66968445884699,1.6701859825208,1.67028937096055,1.69511449318473,1.67593082958503,1.67098569685373,1.67004447436742,1.67941207094914,1.66982097267637,1.67893926485243,1.67093665499298,1.67223985914946,1.67183592508819,1.68774680654404,1.6715249673024,1.67252599276907,1.67154585750726
1.77969674964082,1.78209542709684,1.78139184323407,1.77755894688133,1.78101221199167,1.78204254425133,1.78361175395762,1.78276037176767,1.78920330277545,1.78670653711973,1.79081689858317,1.79203068039594,1.79763809007669,1.80352750238238,1.72504241613638,1.81385706844192,1.82116615194171,1.82838482304091,1.87515573933277,1.82710185597857,1.88024577344997,1.81388710448782,1.8699585982959,1.81735927336107,1.8636130338369,1.82003372478831,1.87418249194758,1.82069395448796,1.7928134999662,1.81152831912786,1.87324665866118,1.80794128832915,1.78892582225631,1.7869473908692,1.78804192135695,1.78718013900154,1.79038384546399,1.81826013936116,1.87694178598122,1.86156927071301,1.87924344493781,1.86186238535328,1.87353839968466,1.86246918666568,1.86900482228165,1.86302071583868,1.87267969642025,1.84585841018794,1.87176817516494,1.81139461031214,1.78731057953493,1.81126867470177,1.85916528479423,1.81139063254465,1.88060592468978,1.84115045369697,1.88251329969635,1.80069048653812,1.78330950993485,1.79376788539102,1.88873254035605,1.79221520360938,1.78088552557918,1.77886619810817,1.77979460271884,1.7773483203912,1.77852304611503,1.77615780137067,1.77573419197538,1.77540133852137,1.77616086988993,1.77556694529923,1.77672281261816,1.77435303668476,1.77357846732952,1.78505163014352,1.87314922706459,1.80124355356847,1.79038177830701,1.79167254692957,1.71232178413974,1.78726064454555,1.781172650942,1.77824549882202,1.77749234709648,1.76994506741995,1.77265144611484,1.77069248141703,1.76957161577802,1.76938697621856,1.79840545053733,1.76472701204087,1.765498774691,1.76476916483109,1.76434671331136,1.76361908064861,1.76348866202649,1.76216295705487,1.76182066885342,1.76054163556794,1.68754283626104,1.76219732024559,1.76336980641667,1.7460840091983,1.68728280235401,1.6862314627576,1.68745756032598,1.7668236281571,1.76446375662969,1.76298590852739,1.76243983696258,1.75975692187728,1.68836036454002,1.7595082825884,1.76637677767848,1.71431968427787,1.69076297724012,1.71684682520836,1.77895908579833,1.77043627782105,1.77472843286132,1.76874023074049,1.76568835366227,1.74891858316277,1.77209789863127,1.7690445469441,1.7752906363482,1.71848089011803,1.68864910022727,1.69005813457787,1.68955179764661,1.68988781557354,1.68661698532727,1.68775412605371,1.68429103338927,1.68773396134044,1.64442797712141,1.7141221813951,1.71052519042498,1.70946041024404,1.78216195167864,1.68826571893455,1.68837079637671,1.68844188810116,1.70773733906796,1.67896179001911,1.67935509219666,1.67799695239116,1.59783273082623,1.59721131121734,1.59662284641227,1.62962558122736,1.67371649374056,1.67296036185107,1.59291413607169,1.61368787942695,1.5927128743178,1.67085307054556,1.6735999310508,1.67248619492311,1.67282649928798,1.67066280681507,1.59205753532525,1.61862167708617,1.59403322981074,1.67156199384837,1.66785478008712,1.67401278705291,1.66906605760678,1.67273610226838,1.68363950897569,1.67232182012504,1.67351491354378,1.67184320950212,1.59548336612109,1.6710221900152
1.78139602886023,1.78290001995005,1.78280074655874,1.77745903925521,1.76052630447611,1.76163450173207,1.76297476549215,1.76375902569127,1.78696979987604,1.78458131070738,1.78675789419408,1.79159350733226,1.79506199281242,1.80362832952072,1.80810836189431,1.8140186807079,1.82247205639102,1.82694707558917,1.82068744465077,1.82026617296965,1.81787766902063,1.81551264807758,1.81579773754299,1.81697180769524,1.81760240574665,1.82133069232395,1.82194869147265,1.82124687516616,1.79827673153453,1.79857965121901,1.79750903842121,1.79778267946637,1.78627425382841,1.78557208395799,1.78590217557344,1.80411998272071,1.80841942657149,1.81587649822711,1.81634737546071,1.82651739550299,1.83273291560958,1.83445155266975,1.83620983980719,1.84223542607448,1.84500640390421,1.84626447449536,1.84542610784216,1.81364849593412,1.81182561249148,1.81110363210619,1.81118912942213,1.81088776645409,1.80937496337559,1.81283503905134,1.81449287331929,1.80898707895695,1.80718045776891,1.7999143488522,1.79722841653891,1.79583395670944,1.79491814121315,1.79357028073108,1.79325753811065,1.79192013946685,1.77758297448936,1.77621741857382,1.77634987136692,1.77514540024534,1.77508378221581,1.77489853750349,1.77553049780842,1.7749491662902,1.77495545220539,1.77365747834529,1.77320077739313,1.78776649244795,1.80508109278156,1.80392344003283,1.79891523023543,1.79129671255347,1.790442703158,1.78671633002977,1.78550641328137,1.77292891748362,1.7728736901236,1.77282140529954,1.77131263863184,1.7703622787525,1.76972934191491,1.7692842979008,1.76904585973658,1.76871385703879,1.76903670090303,1.76736979001341,1.76391593466063,1.76197933479616,1.76196065708678,1.76115004221995,1.76104643248721,1.76025673444727,1.76082674422639,1.76168142186544,1.76273450508595,1.74583052524913,1.68623558767528,1.68525527208859,1.71484730229936,1.7676272266685,1.76547816303166,1.76273158984223,1.76046544104711,1.76121264326257,1.7670842646676,1.76937759236345,1.76989986457463,1.76512362181651,1.76523785850215,1.76535031903143,1.76721968026507,1.76705087375365,1.76788846513193,1.76823089520903,1.76887174835491,1.74877424927704,1.74870086601625,1.74883129716549,1.74898913604106,1.71325231520083,1.68994541461295,1.68984476838325,1.69016976447628,1.68912871840145,1.68916436440072,1.68708458473716,1.68868760014521,1.68655379736659,1.69863305449224,1.71263703840036,1.71067975802128,1.70944695619206,1.71436089354567,1.68906066877369,1.68830349918827,1.68812636473281,1.68678243772787,1.67988035346104,1.67819835512718,1.67868242786428,1.68155206628747,1.67996685550669,1.67837153495374,1.6762031098256,1.67413652550326,1.6734540720509,1.63472978038019,1.62355795714051,1.61397350946489,1.67094417210971,1.67186976293903,1.67145090064635,1.67102555307342,1.67005561450745,1.66884040215912,1.66807337856299,1.66873306725097,1.66974915712026,1.67172093822638,1.67111730798031,1.67226874101742,1.67214274543653,1.67266885756768,1.67251661420769,1.67260851941246,1.67178041476134,1.67186588579547,1.67200321545158
1.78010225104664,1.78244717331141,1.78202740341524,1.77734367591907,1.70718341347685,1.7215728025319,1.70879674334132,1.7325333879473,1.7873494970022,1.78628096184837,1.78942600969461,1.79135376595209,1.81595298643377,1.80063881239685,1.80499130624569,1.81356037137249,1.89973026394893,1.83050400144083,1.79173588808461,1.8042499147199,1.79189443123885,1.80330995666344,1.79136622756655,1.80560500046174,1.79346293944905,1.82407657377277,1.86671794471425,1.82172852521858,1.79149017687447,1.80031573369688,1.79225382963778,1.79994510386295,1.79122215703727,1.78762820954502,1.78992405207266,1.80728090737757,1.87610974133431,1.81371037415031,1.79048231274317,1.82876642304219,1.87656694804128,1.83389059004423,1.7886910211304,1.84317043247371,1.85924314343359,1.84836409562464,1.87057174414856,1.80264560410217,1.78841852343991,1.80022554489972,1.87254743634048,1.7989782735664,1.78467486552849,1.8155533174079,1.85539881626212,1.80190637559343,1.78348746362213,1.80273185500694,1.8704746323394,1.80136529946593,1.7824778915831,1.79841229576662,1.87681978616241,1.79573011101463,1.77928758135785,1.77660660288119,1.77821214397856,1.77644660290243,1.77771055971596,1.77629568643297,1.77806218028427,1.77611350880068,1.77679590095758,1.77520254603985,1.77625131562706,1.7900082991689,1.8828248595291,1.8049729799856,1.79974998242068,1.79356880496316,1.7966482903645,1.78138614199992,1.78106733454297,1.7438412351895,1.70132746307894,1.72412476383443,1.7718424811137,1.77049364166118,1.76998940580058,1.76942022684322,1.76926039408435,1.7637156002397,1.69040418510383,1.73755394666565,1.76434653527242,1.76433247137767,1.76365094343951,1.76204526454494,1.76297323997023,1.76169779409974,1.76340368859856,1.7632363023095,1.76466398805879,1.74547450148114,1.68743722706534,1.6857440070853,1.76594435542404,1.76719404768938,1.76469057993113,1.76390308338822,1.7882739328577,1.76140168901052,1.7648541048773,1.76517127755091,1.7679415858988,1.76711261024548,1.76683675877353,1.76541526564769,1.76529868297182,1.76687213477426,1.76605854745484,1.77187197394239,1.77665339701594,1.74647446161533,1.69028115917635,1.71405493332414,1.77206949769322,1.70723382063469,1.68974767523797,1.69052231408359,1.68634689644284,1.6910593209112,1.68422448847925,1.69025715392598,1.68332680953639,1.687903455333,1.87602355100883,1.7105008592591,1.7104315302372,1.70905170936551,1.77604022562585,1.69001497812001,1.68891169180481,1.68803510718612,1.68599127526414,1.68083235242335,1.67932925272706,1.67926082839264,1.681259729092,1.67718661305289,1.67654152601606,1.67488279907792,1.67418922135552,1.67315264818832,1.6726450478766,1.6326702253213,1.59314771266983,1.67106345396477,1.67157022636999,1.67113242911103,1.67141559668917,1.67061759103147,1.67046871235316,1.66890481831818,1.66923167042285,1.66964465089799,1.66517281954738,1.67116375864124,1.59534711148716,1.67330544423272,1.67409706609962,1.67373578020492,1.67313977159057,1.67225754622657,1.67272918762473,1.67224923917681
