1.16789, 1.17045, 1.17447, 1.17576, 1.17642, 1.17968, 1.23301, 1.18569, 1.18569, 1.18937, 1.1955, 1.20002, 1.20518, 1.27239, 1.27157, 1.22363, 1.22668, 1.24678, 1.24861, 1.71514, 1.70108, 1.56606, 1.55831, 1.303, 1.36177, 1.40706, 1.45966, 1.42618, 1.40499, 1.35038, 1.35781, 1.44041, 1.36288, 1.36176, 1.39108, 1.36693, 1.36688, 1.36789, 1.37118, 1.37043, 1.36926, 1.37221, 1.3751, 1.3737, 1.37586, 1.38104, 1.37937, 1.38438, 1.39219, 1.39192, 1.5181, 1.41021, 1.46624, 1.50703, 1.42834, 2.48357, 2.34132, 2.45586, 2.4783, 1.46259, 1.47185, 1.47541, 1.48659, 1.49204, 1.4892, 1.49059, 0.00430565, 0.0040261, 1.50611, 1.51354, 1.51288, 1.51771, 1.51949, 1.53799, 1.52368, 1.52833, 1.53033, 1.53832, 1.5367, 1.53702, 1.53798, 1.54044, 1.54364, 1.53849, 1.54074, 1.53297, 1.53643, 1.5379, 1.53531, 1.5288, 1.52881, 1.53321, 1.53332, 1.53511, 1.53373, 1.53314, 1.53104, 1.5308, 1.52488, 1.52387, 1.52086, 1.51417, 1.51334, 1.51064, 1.50663, 1.50365, 1.50265, 1.50999, 1.50917, 1.51066, 1.51814, 1.51625, 1.52111, 1.52196, 1.51985, 1.52242, 1.63079, 1.63191, 1.58604, 1.67163, 1.68498, 1.62251, 1.54495, 1.54811, 1.54857, 1.54875, 1.54705, 1.55167, 1.54981, 1.93745, 1.55715, 1.5519, 1.54956, 1.88548, 1.91384, 2.05702, 1.57989, 1.58581, 1.58321, 1.59017, 1.59643, 1.59958, 1.60199, 1.60982, 1.6098, 1.61323, 1.61275, 1.61361, 1.61719, 1.61723, 1.62617, 1.63113, 1.63824, 1.64337, 1.64372, 1.65145, 1.65163, 1.65175, 1.65365, 1.65318, 1.65868, 1.66012, 1.66187, 1.66245, 1.67567, 1.677, 1.67825, 1.67823, 1.67685, 1.67221, 1.69255, 1.69071, 0.00472546, 1.87914, 1.70447, 1.70839, 1.71403, 1.71249, 1.71037, 1.71033, 1.72729, 1.72174, 1.78297, 1.74766, 1.86203, 1.77995, 1.75956, 1.76577, 1.77109, 1.77016, 1.77023, 1.77919, 1.77903, 1.78264, 1.78016, 1.78064, 1.78044, 1.78532, 1.78554, 1.79063, 1.79363, 1.79017, 1.8007, 1.79862, 1.79509, 1.80511, 1.85038, 0.00386675, 1.8133, 0.00416852, 1.80829, 1.80733, 1.80462, 1.80778, 1.8062, 1.81412, 1.81295, 1.81131, 1.82061, 1.82097, 1.82222, 1.82345, 1.83009, 1.82553, 1.82933, 1.83297, 1.8305, 1.84775, 1.84796, 1.8515, 1.84888, 1.86276, 1.8598, 1.86814, 1.86392, 1.86511, 1.8673, 1.86919, 1.88088, 1.88901, 1.88652, 1.88358, 1.88994, 1.89122, 1.89236, 1.89256, 1.90672, 1.90198, 1.89895, 1.90962, 1.90929, 1.91148, 1.91512, 1.92614, 1.93159, 1.9382, 1.93856, 1.94522, 1.95415, 1.94878, 1.95558, 1.95326, 1.95208, 1.95635, 1.95495, 1.95622, 1.9542, 1.95527, 1.95081, 1.95996, 1.96159, 1.96278, 1.96311, 1.96003, 1.95973, 1.96771, 1.9637, 1.96114, 1.96795, 1.96897, 1.96862, 1.97501, 1.97769, 1.97994, 1.97388, 1.96935, 1.96648, 1.96576, 1.95856, 1.95836, 1.95667, 1.96884, 1.96923
1.16049, 1.22654, 1.22317, 1.20863, 1.20985, 1.20571, 1.43673, 1.42273, 1.18089, 1.27474, 1.18797, 1.19058, 1.22657, 1.2037, 1.20827, 1.21814, 1.22038, 1.2308, 1.23371, 1.66611, 1.63794, 1.70605, 1.652, 1.38156, 1.30149, 1.31327, 1.31905, 1.32214, 1.33313, 1.33467, 1.35423, 1.44744, 1.43356, 1.93238, 1.35723, 1.38505, 1.38479, 1.36481, 1.37232, 1.36727, 1.36839, 1.3701, 1.3705, 1.3709, 1.36996, 1.37199, 1.37778, 1.38162, 1.38164, 1.38849, 1.3895, 1.39338, 2.34866, 2.34816, 1.43627, 1.49605, 1.45903, 1.46098, 0.0045642, 1.52129, 1.46118, 1.45931, 1.46189, 1.47243, 1.47962, 1.48417, 0.00446518, 1.48967, 1.49353, 1.49876, 1.58167, 1.50644, 1.51244, 1.51269, 1.52061, 1.52748, 1.52339, 1.52847, 1.52881, 1.52765, 1.53292, 1.5334, 1.5326, 1.53274, 1.53439, 1.5341, 1.53226, 1.53054, 1.5298, 1.5283, 1.52801, 1.52869, 1.52723, 1.52654, 1.52908, 1.52641, 1.52617, 1.52445, 1.52367, 1.51868, 1.51487, 1.51078, 1.50675, 1.50529, 1.50152, 1.50454, 1.50341, 1.50198, 1.50661, 1.51178, 1.51434, 1.52079, 1.56514, 1.5231, 1.52028, 1.51841, 1.63103, 1.64258, 1.52535, 1.52266, 1.52165, 1.70358, 1.69611, 1.7522, 1.72152, 1.54369, 1.5397, 1.54019, 1.54518, 1.54553, 1.54725, 1.5527, 1.55134, 1.55239, 1.55792, 1.57155, 1.57073, 1.57715, 1.59822, 1.58945, 1.59247, 1.59146, 1.58969, 1.59472, 1.60753, 1.60417, 1.60516, 1.60993, 1.61198, 1.62282, 1.62056, 1.62631, 0.00404528, 1.64043, 1.63823, 1.71647, 1.64304, 1.64404, 1.65198, 1.65439, 1.65825, 1.6572, 1.66491, 1.66747, 1.66942, 1.67341, 1.67016, 1.67964, 1.67804, 1.6794, 1.67789, 1.68413, 1.68322, 0.00431567, 0.00472987, 0.00420925, 0.00676655, 1.71319, 1.70906, 1.70642, 1.72729, 1.84499, 1.73789, 1.73428, 1.80643, 1.76836, 1.80761, 1.77186, 1.76465, 1.76693, 1.77125, 1.77007, 1.76844, 1.76997, 1.77384, 1.77679, 1.78213, 1.78247, 1.78556, 1.78338, 1.78533, 1.7842, 1.787, 1.79501, 1.79331, 1.79931, 1.80329, 1.80317, 1.79977, 1.79889, 1.79825, 1.79895, 1.79412, 1.80227, 1.80537, 1.80406, 1.80379, 1.81776, 1.81657, 1.81454, 1.81536, 1.82395, 1.83027, 1.82863, 1.82382, 1.83455, 1.83227, 1.83024, 1.8413, 1.84462, 1.85382, 1.8533, 1.86222, 1.85938, 1.86608, 1.86683, 1.86597, 1.86799, 1.86848, 1.88639, 1.88692, 1.8873, 1.89188, 1.88731, 1.89436, 1.89232, 1.90106, 1.90132, 1.90033, 1.90683, 1.91332, 1.91419, 1.92087, 1.92524, 1.93218, 1.94583, 1.94139, 1.938, 1.95139, 1.95116, 1.95588, 1.95405, 1.94958, 1.95653, 1.95445, 1.95415, 1.94863, 1.95565, 1.95582, 1.953, 1.95907, 1.95715, 1.96649, 1.96389, 1.96469, 1.96817, 1.9639, 1.96249, 1.96131, 1.97206, 1.97052, 1.96754, 1.9687, 1.96975, 1.97225, 1.96691, 1.96839, 1.96339, 1.96182, 1.96186, 1.95766, 1.96817, 1.96661
1.24979, 1.22903, 1.15223, 1.25648, 1.16441, 1.15747, 1.16061, 1.16732, 1.16813, 1.23897, 1.25169, 1.24996, 1.18301, 1.20641, 1.48588, 1.20898, 1.61212, 1.21197, 1.64802, 1.62885, 1.63417, 1.61709, 1.34402, 1.45445, 1.47274, 1.53267, 1.45386, 1.31935, 1.33192, 1.34028, 1.34647, 1.35358, 1.35436, 1.35134, 1.35133, 1.37741, 1.35908, 1.35957, 1.36082, 1.36402, 1.36578, 1.366, 1.36483, 1.36546, 1.36417, 1.3685, 1.3695, 1.36848, 1.37511, 1.37674, 1.37614, 1.38049, 1.37871, 1.47261, 1.3837, 2.29568, 1.50361, 1.44051, 1.4688, 0.00464508, 1.82909, 1.73653, 1.45299, 1.51181, 0.00421204, 1.4582, 1.75422, 1.4742, 1.46883, 1.4852, 1.49263, 1.49344, 1.49276, 1.50136, 1.65829, 1.51222, 1.51559, 1.51443, 0.00473712, 1.51945, 1.52448, 1.5264, 1.52465, 1.52106, 1.52935, 1.52724, 1.52571, 1.52611, 1.52312, 1.52425, 1.52309, 1.52565, 1.52576, 1.52085, 1.52197, 1.56427, 1.55146, 1.51611, 1.5155, 1.5129, 1.51339, 1.50589, 1.50338, 1.50645, 1.50506, 1.50419, 1.50387, 1.50639, 1.5086, 1.51023, 1.50921, 1.52124, 1.54138, 0.0046809, 1.55741, 1.56831, 1.51788, 1.51556, 1.61288, 1.58208, 1.52025, 1.73429, 1.72342, 1.69577, 1.53471, 1.53742, 1.53816, 1.53861, 1.54284, 1.54471, 1.54388, 1.55003, 1.54868, 1.55637, 1.55906, 1.56488, 1.56905, 1.56959, 1.57429, 1.57509, 1.57298, 0.00496535, 1.58777, 1.58678, 1.58659, 1.59864, 0.0046476, 1.60208, 0.00457494, 1.61065, 1.62761, 1.63669, 1.62665, 1.64834, 1.63164, 1.63417, 1.63864, 1.64425, 1.64346, 1.64827, 1.65012, 1.65344, 1.66162, 0.00442271, 1.68354, 1.6726, 1.69237, 0.00428238, 1.67647, 1.68234, 1.67998, 1.68307, 1.68167, 1.68635, 1.68651, 1.68834, 1.69674, 1.70181, 1.71026, 1.70738, 1.7061, 1.72351, 1.73015, 1.7384, 1.74446, 1.75171, 1.7548, 1.7555, 1.75854, 1.75912, 1.76136, 1.76075, 1.76954, 1.77174, 1.76932, 1.76743, 1.77548, 1.7734, 1.77671, 1.78319, 1.78164, 1.88587, 1.77987, 1.86621, 1.78942, 1.78975, 1.78204, 1.78189, 1.78296, 1.78061, 1.78753, 1.78636, 1.78687, 1.78909, 1.79081, 1.78912, 1.79477, 1.81164, 1.80811, 1.81168, 1.81944, 1.82745, 1.83081, 1.83061, 1.83089, 1.8339, 1.83241, 1.83784, 1.84459, 1.84103, 1.84895, 1.84924, 1.85738, 1.86226, 1.8685, 1.86581, 1.87278, 1.8689, 1.88, 1.87762, 1.88376, 1.88934, 1.89252, 1.88906, 1.88616, 1.90006, 1.89423, 1.91386, 1.9102, 1.90713, 1.90703, 1.91283, 1.9251, 1.92448, 1.93298, 1.94426, 1.94224, 1.94753, 1.9472, 1.94952, 1.95074, 1.9494, 1.95415, 1.96121, 1.95559, 1.95405, 1.94847, 1.95693, 1.95267, 1.95284, 1.95927, 1.95754, 1.96632, 1.96373, 1.96634, 1.96606, 1.96336, 1.96776, 1.96339, 1.95956, 1.96493, 1.96182, 1.9624, 1.95961, 1.96379, 1.96125, 1.96379, 1.95963, 1.95639, 1.9537, 1.96178, 1.96597, 1.9648
1.13908, 1.13935, 1.23014, 1.14252, 1.14258, 1.23195, 2.04934, 1.23821, 1.15851, 1.22187, 1.22918, 1.17164, 1.21893, 1.18347, 1.18792, 1.19786, 1.19887, 1.20249, 1.63058, 1.6339, 1.62151, 1.30567, 1.41646, 1.34005, 1.45323, 1.44812, 1.44756, 1.42706, 1.42231, 1.33912, 1.34242, 1.3374, 1.33708, 1.34982, 1.34972, 1.34875, 1.35196, 1.37077, 1.43387, 1.35522, 1.35492, 1.35377, 1.35392, 1.35402, 1.35716, 1.36049, 1.35716, 1.35846, 1.36113, 1.37527, 1.40598, 2.30875, 1.40665, 1.37073, 1.36914, 1.39309, 1.50926, 1.39939, 2.3998, 1.54083, 1.71982, 1.51935, 1.42494, 1.4348, 1.43426, 1.44773, 1.44576, 1.45126, 1.45622, 1.47063, 1.46741, 1.4773, 1.47845, 1.48939, 0.00462548, 1.54008, 1.50213, 1.50104, 1.57286, 1.55695, 0.00455088, 0.00471275, 0.00430877, 1.67098, 1.51689, 1.51549, 1.51687, 1.51558, 1.51618, 1.51461, 1.51627, 1.50851, 1.51454, 1.51326, 1.51264, 1.51256, 1.50925, 1.5044, 1.50561, 1.50262, 1.50265, 1.49935, 1.50267, 1.50284, 1.50384, 1.50399, 1.50549, 1.50482, 1.5085, 1.50799, 1.50666, 1.50644, 1.50632, 1.50947, 1.50624, 1.63628, 1.68001, 1.60165, 1.50794, 1.55784, 1.56915, 1.71675, 1.64731, 1.61071, 1.53048, 1.53137, 1.7311, 1.53791, 1.53894, 1.54121, 1.54049, 1.54816, 1.86964, 1.55838, 1.55839, 1.56714, 1.56597, 1.56433, 1.57108, 1.57385, 1.57081, 1.57061, 1.57775, 1.57365, 1.57365, 0.00461088, 1.65132, 1.81102, 1.60085, 1.60046, 1.60658, 1.61511, 1.61534, 1.61453, 1.62195, 1.62476, 1.63061, 1.62909, 1.65103, 0.00450275, 1.7828, 1.64888, 1.65761, 1.65968, 1.65871, 1.76197, 2.03694, 1.70319, 1.68596, 1.67194, 1.68208, 1.67765, 1.67806, 1.77181, 1.72051, 1.71637, 1.69351, 1.71932, 1.71968, 0.00500134, 1.73159, 1.72059, 1.7459, 1.74131, 1.74595, 1.73752, 1.74383, 0.00456372, 1.74843, 1.75168, 1.75039, 1.74728, 1.75709, 1.75869, 1.7562, 1.76054, 1.75826, 1.76078, 1.75787, 0.00417926, 1.9313, 1.91158, 0.00531173, 1.77098, 0.00491847, 1.77714, 1.77757, 1.77273, 1.77743, 1.77721, 1.77896, 1.78925, 1.78934, 1.7862, 1.80076, 1.79642, 1.80616, 1.81372, 1.813, 1.81974, 1.81761, 1.82044, 1.82555, 1.83132, 1.83145, 1.83474, 1.84128, 1.84049, 1.84136, 1.85041, 1.84681, 1.85227, 1.85172, 1.8579, 1.86286, 1.86619, 1.87085, 1.87239, 1.87073, 1.87606, 1.87556, 1.882, 1.89092, 1.88648, 1.89299, 1.89817, 1.89939, 1.90969, 1.91202, 1.90962, 1.91948, 1.92158, 1.93403, 1.93079, 1.9359, 1.93449, 1.94235, 1.94161, 1.94336, 1.94492, 1.94374, 1.9425, 1.94065, 1.94261, 1.94777, 1.94573, 1.94783, 1.95523, 1.95642, 1.95315, 1.95276, 1.96085, 1.9636, 1.96095, 1.9592, 1.96487, 1.96356, 1.96169, 1.96696, 1.96048, 1.96294, 1.95943, 1.95587, 1.95428, 1.95605, 1.95577, 1.95515, 1.9546, 1.95224, 1.95853, 1.9532, 1.96944, 1.97328
1.2339, 1.23036, 1.22905, 1.23062, 1.22269, 1.13776, 1.13966, 1.2429, 1.19289, 1.14966, 1.15757, 1.23417, 1.22449, 1.18405, 1.18288, 1.1872, 1.19356, 1.19536, 1.52693, 1.49285, 1.23338, 1.40189, 1.56444, 1.24704, 1.58892, 1.30892, 1.44852, 1.46372, 1.63358, 1.63188, 1.6239, 1.62319, 1.61352, 1.33457, 1.33675, 1.34251, 1.34369, 1.34772, 1.34639, 1.35064, 1.35024, 1.34965, 1.35074, 1.34796, 1.34982, 1.35077, 1.34985, 1.364, 1.36529, 1.34704, 1.39256, 1.34034, 1.38174, 1.36549, 1.34824, 1.36451, 1.36122, 1.36766, 1.38955, 1.5794, 1.59241, 1.56855, 1.58647, 1.42439, 1.43638, 1.42104, 0.00455816, 1.4286, 1.43481, 1.44329, 1.45343, 1.48661, 0.00448084, 0.00441929, 0.00452047, 1.49839, 1.4965, 1.50752, 1.49555, 1.49716, 1.50213, 1.49919, 1.50159, 1.50414, 1.50062, 1.54123, 0.00471978, 1.50429, 1.50823, 1.50726, 1.50936, 1.50753, 1.5071, 1.50733, 1.50458, 1.5059, 1.49895, 1.49826, 1.49902, 1.49513, 1.49579, 1.49613, 1.49643, 1.49802, 1.49826, 1.49834, 1.50028, 1.50036, 1.50328, 1.50521, 1.50492, 1.50619, 1.50623, 1.50083, 1.50033, 1.63439, 1.49151, 1.48889, 1.49116, 1.56, 1.50294, 1.56716, 1.5441, 1.63737, 1.63716, 1.52478, 1.52661, 1.53256, 1.76558, 1.54444, 1.54281, 1.87365, 1.55149, 1.55652, 1.55644, 1.56198, 1.5629, 1.5628, 1.55852, 1.56654, 1.56309, 1.56256, 1.56376, 1.55998, 1.56238, 2.07748, 1.57805, 1.57703, 1.58469, 1.59059, 1.58814, 1.6003, 1.6026, 1.60313, 0.00428728, 1.61451, 1.62992, 1.62595, 1.6253, 1.73825, 1.63765, 1.63519, 1.65478, 1.6547, 1.66083, 1.65826, 2.01058, 1.74205, 1.72023, 1.68974, 1.67032, 1.67004, 1.66963, 1.6649, 1.70683, 1.6654, 1.72101, 1.71858, 1.69393, 1.69292, 0.00393633, 1.73787, 1.71733, 1.7154, 1.71941, 1.72048, 1.72779, 1.73835, 1.73097, 0.00455829, 1.73962, 1.84122, 1.7377, 1.74042, 1.73977, 1.7376, 1.7443, 0.0060735, 1.75097, 1.74215, 1.74537, 1.74825, 1.74819, 0.00478296, 1.76363, 1.76272, 1.77039, 1.77234, 0.00448811, 1.78576, 1.78596, 1.79239, 1.7962, 1.79479, 1.80103, 1.8037, 1.81058, 1.81334, 1.81924, 1.81761, 1.82351, 1.82382, 1.82517, 1.83543, 1.83541, 1.83491, 1.84479, 1.84262, 1.8412, 1.85263, 1.85009, 1.85901, 1.85448, 1.86254, 1.86246, 1.86587, 1.87226, 1.87065, 1.86977, 1.87752, 1.87753, 1.88055, 1.88471, 1.88923, 1.88584, 1.89994, 1.89882, 1.8989, 1.9135, 1.9183, 1.91643, 1.92753, 1.93448, 1.93284, 1.93878, 1.93622, 1.94175, 1.94013, 1.93632, 1.93739, 1.94487, 1.94187, 1.94415, 1.93637, 1.94576, 1.94495, 1.95084, 1.95636, 1.95442, 1.96132, 1.95347, 1.95762, 1.95619, 1.96241, 1.96328, 1.96027, 1.95912, 1.95656, 1.95536, 1.95258, 1.96053, 1.95816, 1.95647, 1.95568, 1.95274, 1.95611, 1.95391, 1.95533, 1.95493, 1.95226, 1.95916, 1.96551, 1.96466
1.1147, 1.23852, 1.11632, 1.12014, 1.12878, 1.2258, 1.21886, 1.14026, 1.14354, 1.15111, 1.15464, 1.16561, 1.16482, 1.18228, 1.18912, 1.18724, 1.18866, 1.19315, 1.20492, 1.20505, 1.41947, 1.25425, 1.60248, 1.23667, 1.28246, 1.27453, 1.26464, 1.2841, 1.32014, 1.29839, 1.35812, 1.31527, 1.31989, 1.32137, 1.32979, 1.33581, 1.33547, 1.34015, 1.34076, 1.34774, 1.34287, 1.34048, 1.34737, 1.34262, 1.34487, 1.34368, 1.34201, 1.34023, 1.34029, 1.33524, 1.33289, 1.33425, 1.32998, 1.33996, 1.34299, 1.34642, 1.34757, 1.34974, 1.40574, 1.61666, 1.6198, 1.43339, 1.40686, 1.38519, 1.40605, 1.40515, 1.43705, 1.40912, 1.43707, 1.42949, 1.46789, 0.00410677, 1.44116, 0.00413688, 1.48078, 1.46296, 0.00479402, 0.00449137, 1.47129, 0.00504073, 1.51534, 1.48916, 1.4895, 1.53638, 1.49284, 1.48877, 0.00509242, 0.00463004, 1.54503, 1.49347, 1.49504, 1.49506, 1.53571, 1.49182, 1.51444, 1.49181, 1.48854, 1.48595, 1.48896, 1.48787, 1.48987, 1.48824, 1.49231, 1.49183, 1.49013, 1.49381, 1.49729, 1.49731, 1.49373, 1.4967, 1.51025, 1.49877, 1.50018, 1.56045, 1.50857, 1.59199, 1.49321, 1.49363, 1.49291, 1.49266, 1.49304, 1.49191, 1.50385, 1.59329, 1.52177, 1.53304, 1.53424, 1.53173, 1.53749, 1.53831, 1.54184, 1.54775, 1.55235, 1.55199, 1.55775, 1.55758, 1.55889, 1.5584, 1.55798, 1.56447, 1.56262, 1.56449, 1.56354, 1.56104, 1.56147, 1.56486, 1.56561, 1.56765, 1.6476, 2.03164, 1.58666, 1.59133, 1.5965, 1.59556, 1.5965, 1.60414, 1.60901, 1.61371, 1.61616, 1.61734, 1.62794, 1.6282, 1.63337, 1.63885, 1.68238, 1.64889, 1.65203, 1.90913, 0.00438953, 1.68833, 1.70277, 1.70682, 1.6669, 1.66485, 1.6618, 1.66506, 1.71683, 1.71439, 1.68346, 1.79182, 1.69713, 0.00472216, 1.70254, 1.70877, 1.70644, 1.70536, 1.71439, 1.71552, 1.71771, 0.00505079, 1.7208, 1.72352, 1.71758, 1.72874, 1.73071, 1.73122, 1.73205, 1.7351, 1.73441, 1.74124, 1.73997, 1.74053, 1.7378, 1.74815, 1.75238, 1.76318, 1.76, 1.77927, 1.77316, 1.78295, 1.79178, 1.79288, 1.80066, 1.80426, 1.80691, 1.81194, 1.81357, 1.81304, 1.81633, 1.81676, 1.82147, 1.82712, 1.82815, 1.8282, 1.83656, 1.83818, 1.83743, 1.84507, 1.8498, 1.84981, 1.85519, 1.85455, 1.854, 1.86496, 1.8605, 1.86268, 1.86246, 1.8723, 1.86908, 1.87518, 1.87875, 1.87397, 1.8853, 1.88263, 1.8926, 1.89664, 1.90584, 0.00438297, 1.91405, 1.91782, 1.92097, 1.92285, 1.93453, 1.93787, 1.93598, 1.93941, 1.93812, 1.94156, 1.94145, 1.94113, 1.93892, 1.93862, 1.94415, 1.94314, 1.93826, 1.95135, 1.94645, 1.95221, 1.95336, 1.95315, 1.95632, 1.95777, 1.96093, 1.95918, 1.95679, 1.95494, 1.96166, 1.95799, 1.95665, 1.95456, 1.95449, 1.95042, 1.94848, 1.94621, 1.95523, 1.95339, 1.95537, 1.95339, 1.95542, 1.95295, 1.96045, 1.96081, 1.96538
1.10799, 1.11422, 1.11505, 1.121, 1.12576, 1.12803, 1.13484, 1.13775, 1.14045, 1.17781, 1.1507, 1.25475, 1.16355, 1.171, 1.17378, 1.17741, 1.18316, 1.18578, 1.49716, 1.19559, 1.19688, 1.58455, 1.26542, 1.3797, 1.59257, 1.30077, 0.00458741, 1.26985, 1.27484, 1.30961, 1.34657, 2.01748, 1.31015, 1.31991, 1.31889, 1.42778, 1.32708, 1.32905, 1.33273, 1.33619, 1.33577, 1.33553, 1.33848, 1.33746, 1.41465, 1.35031, 1.34162, 1.33169, 1.32964, 1.33164, 1.33311, 1.3292, 1.32825, 1.33672, 1.33774, 1.34063, 1.34127, 1.34333, 1.3438, 1.34453, 1.35497, 1.6457, 1.65127, 0.00402014, 1.596, 0.00456855, 1.4855, 1.39107, 1.39349, 1.39882, 1.40712, 1.4067, 1.40761, 1.42252, 1.55968, 1.50287, 1.93513, 1.45789, 1.45434, 1.46734, 1.53508, 1.47203, 1.48263, 1.48137, 0.00438789, 1.49911, 0.00469429, 1.4783, 1.47554, 1.47525, 1.4775, 1.59614, 0.00459793, 1.51764, 1.48327, 0.00455861, 1.48158, 1.47896, 1.48217, 1.54795, 1.4848, 1.48, 1.4784, 1.47998, 1.48856, 1.51806, 1.49096, 1.48864, 1.49247, 1.49336, 1.49216, 1.49349, 1.49331, 1.49149, 1.48559, 1.48484, 1.48264, 1.48581, 1.48727, 1.48639, 1.6077, 1.49709, 1.51882, 1.68567, 1.69294, 1.58864, 1.53009, 1.5296, 1.63524, 1.65663, 1.54158, 1.54185, 1.54671, 1.54907, 1.55136, 1.55801, 1.55132, 1.55469, 1.56002, 1.55977, 1.5599, 1.55842, 1.56414, 1.56375, 1.56265, 1.56295, 1.56158, 1.5598, 1.5678, 1.57718, 1.57853, 1.58683, 1.59205, 1.59379, 1.59793, 1.59922, 1.60077, 1.60898, 1.60826, 1.60966, 1.6218, 1.62235, 1.62463, 1.68205, 1.63278, 1.65932, 1.68537, 1.84974, 1.67554, 1.65436, 1.72446, 1.68969, 0.0047532, 1.66774, 1.66571, 1.66315, 1.67525, 0.00421699, 0.00448836, 0.00464129, 1.73832, 1.68918, 1.68708, 1.68833, 1.72395, 1.73289, 1.71382, 1.70794, 1.72302, 1.73438, 1.73109, 1.71379, 1.71072, 1.71333, 1.71425, 1.71492, 1.71716, 1.71393, 1.72312, 1.73079, 1.73051, 1.74041, 0.0040617, 1.75117, 1.74593, 1.75259, 1.7593, 1.78952, 1.79214, 1.77939, 1.7963, 1.79625, 1.79448, 1.80073, 1.81484, 1.81272, 1.81406, 1.8231, 1.82129, 1.81953, 1.82414, 1.82958, 1.83779, 1.83565, 1.83866, 1.84097, 1.83776, 1.85058, 1.84947, 1.85131, 1.8528, 1.85485, 1.85185, 1.851, 1.86197, 1.86667, 1.86518, 1.86806, 1.87784, 1.87316, 1.87296, 1.88614, 1.88541, 1.88434, 1.88732, 1.88709, 0.00461531, 1.90579, 1.90806, 1.91459, 1.9197, 1.9275, 1.92502, 1.93209, 1.93726, 1.94145, 1.93847, 1.94042, 1.94067, 1.93821, 1.93959, 1.93876, 1.93367, 1.94125, 1.94029, 1.93508, 1.94784, 1.9465, 1.94604, 1.94921, 1.94496, 1.96208, 1.95689, 1.95831, 1.95972, 1.95832, 1.95633, 1.95777, 1.95722, 1.9543, 1.95143, 1.95247, 1.94965, 1.94794, 1.94339, 1.95038, 1.94744, 1.94267, 1.952, 1.95312, 1.95928, 1.96512, 1.96132
1.2893, 1.11188, 1.27369, 1.27488, 1.12484, 1.12881, 1.13123, 1.13337, 1.13713, 1.14355, 1.1495, 1.15352, 1.2791, 1.16566, 1.16756, 1.17162, 1.17757, 1.18006, 1.18109, 1.1817, 1.18442, 1.44131, 1.49778, 1.48864, 1.59007, 1.48613, 1.23908, 1.71427, 1.26016, 1.27355, 1.28397, 1.29014, 1.30214, 1.45548, 0.00437354, 1.41892, 1.31558, 1.3562, 1.32039, 1.38541, 1.32963, 1.32677, 1.32631, 1.32961, 1.33134, 1.32896, 1.32712, 1.32828, 1.3284, 1.32772, 1.32907, 1.32885, 1.33029, 1.33246, 1.33431, 1.33788, 1.3392, 1.33916, 1.3382, 1.54469, 1.33707, 1.33968, 1.34146, 1.35213, 1.34509, 1.41943, 0.00479421, 0.00426963, 1.37163, 1.37921, 1.37968, 1.38329, 1.38489, 1.58218, 1.44781, 1.45503, 1.42133, 0.00406742, 1.4712, 0.00423283, 1.44747, 1.44766, 0.00465662, 0.00407035, 1.44741, 1.45821, 1.46433, 0.00443959, 1.46791, 1.46323, 1.46431, 1.46842, 1.50548, 1.64345, 1.65816, 1.67982, 1.46476, 1.46816, 1.49123, 1.46896, 1.46637, 1.46759, 1.47207, 1.50483, 1.53378, 1.53032, 1.48199, 1.48494, 1.47956, 1.48108, 1.4818, 1.52051, 1.54512, 1.50551, 1.48902, 1.48764, 1.48551, 1.48889, 1.48738, 1.48834, 1.59526, 1.637, 1.60034, 1.71121, 1.51651, 1.51677, 1.52308, 1.52622, 1.6317, 1.53632, 1.53856, 1.54047, 1.94202, 1.61841, 1.55488, 1.5516, 1.55363, 1.55317, 1.55879, 1.55793, 1.55761, 1.5569, 1.56061, 1.56072, 1.5622, 1.56257, 1.56174, 1.56463, 1.564, 1.56886, 1.58079, 1.67245, 1.58623, 1.59439, 1.59221, 1.5967, 1.59913, 1.60515, 1.60574, 1.6098, 1.60908, 1.61955, 1.61768, 1.61935, 1.62757, 1.66754, 1.65543, 1.64293, 1.64276, 1.64399, 1.6722, 0.00454494, 1.65832, 1.65364, 1.66256, 1.66182, 1.66795, 0.00423257, 1.66741, 1.66771, 1.67186, 1.67304, 1.6722, 1.68111, 1.68417, 0.00439411, 1.68618, 1.69078, 1.68852, 1.69861, 1.6769, 1.71311, 1.71351, 1.70999, 1.70624, 1.71054, 1.70335, 1.71507, 1.71519, 1.72081, 1.7187, 1.7315, 1.73072, 0.0042745, 1.75892, 0.00459876, 1.75896, 1.76677, 1.777, 1.77758, 1.80014, 1.7927, 1.80618, 1.80517, 1.80603, 1.81658, 1.81601, 1.83056, 1.82664, 1.82722, 1.8272, 1.83702, 1.83591, 1.83328, 1.83871, 1.84773, 1.84335, 1.85207, 1.85139, 1.85473, 1.85043, 1.8523, 1.86186, 1.85657, 1.85817, 1.86005, 1.86706, 1.86747, 1.86713, 1.8754, 1.87635, 1.87573, 1.8856, 1.88334, 1.88572, 1.88904, 1.88602, 0.00429464, 1.93116, 1.92315, 1.91718, 1.92487, 1.92392, 1.93095, 1.92875, 1.93443, 1.92984, 1.9379, 1.93847, 1.93867, 1.93623, 1.93481, 1.93474, 1.94196, 1.94257, 1.94205, 1.94768, 1.94893, 1.94713, 1.9454, 1.95166, 1.94885, 1.94626, 1.95861, 1.95532, 1.95631, 1.95397, 1.95619, 1.95275, 1.95393, 1.94601, 1.95079, 1.94933, 1.94577, 1.94111, 1.9453, 1.94583, 1.94251, 1.94125, 1.95383, 1.95941, 1.95871, 1.95687
1.21517, 1.11337, 1.11153, 1.11451, 1.11836, 1.22561, 1.12665, 1.13122, 1.1747, 1.13886, 1.23464, 1.20551, 1.15445, 1.15652, 1.16343, 1.1676, 1.1695, 1.17368, 1.17418, 1.17692, 1.17671, 1.17901, 1.18354, 1.69342, 2.01455, 1.81661, 1.64442, 1.31581, 1.24734, 1.25386, 1.26772, 1.34118, 1.30658, 1.28801, 1.30643, 1.3062, 1.3956, 1.33655, 1.33532, 1.31622, 1.31563, 1.31607, 1.31829, 1.66001, 1.32164, 1.32231, 1.32973, 1.32399, 1.32525, 1.32484, 1.32542, 1.3249, 1.32752, 1.32748, 1.3288, 1.32928, 1.33208, 1.33512, 1.3319, 1.3338, 1.32904, 1.32932, 1.32969, 1.3269, 1.33268, 1.40873, 1.49562, 1.44037, 1.54017, 1.3616, 1.36414, 1.36572, 1.38192, 1.37979, 1.40918, 1.40835, 1.89295, 1.39834, 1.40246, 1.45175, 1.51074, 1.40988, 0.00407494, 1.52625, 1.42167, 1.4205, 1.43319, 1.6377, 1.43499, 1.43307, 0.00445223, 1.43993, 1.44083, 1.58922, 1.58316, 1.44885, 1.45375, 1.52799, 1.47567, 1.45919, 1.45454, 1.49683, 1.47977, 1.47935, 1.52799, 1.51087, 1.4715, 1.54635, 1.46444, 1.51662, 1.51364, 1.5088, 1.47736, 1.47636, 1.54665, 1.48082, 1.48475, 1.48444, 1.4838, 1.48894, 1.57097, 1.49763, 1.50052, 1.64116, 1.50947, 1.58894, 1.68602, 1.70975, 1.60387, 1.61296, 1.62296, 1.65304, 1.54804, 1.54083, 1.54465, 1.54153, 1.5836, 1.56192, 1.55514, 1.55255, 1.5586, 1.55752, 1.56177, 1.56036, 1.56693, 1.56441, 1.56484, 1.56405, 1.56485, 1.56629, 1.56844, 1.57881, 1.58509, 1.58703, 0.00476873, 1.58913, 1.59702, 1.59698, 1.59973, 1.60134, 1.60055, 1.60422, 1.60361, 1.60626, 1.65177, 1.61456, 1.61979, 1.79591, 0.00471318, 1.67539, 1.6397, 0.00358307, 1.6485, 1.64828, 1.64937, 1.64853, 0.00467862, 1.65238, 1.65139, 1.6527, 1.65758, 1.65823, 0.00401134, 1.67908, 1.68242, 1.67369, 1.67754, 1.68149, 1.6763, 1.68435, 1.67955, 1.67928, 1.67953, 1.68691, 1.68932, 1.69557, 1.69494, 1.70592, 1.71017, 1.71928, 1.71756, 1.71597, 1.72417, 1.72383, 1.73892, 1.84764, 1.75486, 1.81956, 1.85549, 1.78191, 1.80715, 1.79418, 1.80652, 1.80594, 1.8041, 1.82243, 1.82131, 1.8185, 1.81769, 1.82985, 1.83037, 1.83066, 1.8361, 1.83324, 1.83484, 1.84543, 1.84456, 1.8439, 1.85473, 1.85243, 1.85173, 1.8513, 1.85762, 1.85554, 1.85859, 1.85787, 1.85603, 1.86531, 1.86568, 1.87231, 1.871, 1.87697, 1.87772, 1.87709, 1.88378, 1.88974, 1.89374, 1.90025, 1.90483, 0.00446608, 1.91845, 1.92389, 1.92168, 1.92069, 1.93023, 1.92609, 1.93383, 1.9289, 1.92064, 1.93389, 1.94047, 1.9375, 1.94036, 1.9384, 1.93866, 1.9442, 1.94443, 1.94609, 1.94552, 1.94609, 1.94296, 1.94326, 1.94398, 1.95191, 1.95142, 1.95183, 1.94903, 1.95474, 1.94836, 1.94646, 1.94501, 1.94337, 1.94241, 1.9424, 1.93992, 1.94009, 1.93933, 1.93648, 1.94112, 1.94203, 1.94968, 1.95624, 1.95294
1.13619, 1.10904, 1.10449, 1.10619, 1.10899, 1.1774, 1.12034, 1.12209, 1.12305, 1.12654, 1.13319, 1.135, 1.13941, 1.18216, 1.30997, 1.32674, 1.16387, 1.16801, 1.16991, 1.17289, 1.17497, 1.17474, 1.17946, 1.18276, 1.18632, 1.41727, 1.20479, 1.34377, 1.23672, 0.00429729, 1.26114, 1.30272, 1.27048, 1.28209, 1.28411, 1.28511, 1.29552, 1.2956, 1.29998, 1.30425, 1.30587, 1.30697, 1.31952, 1.30983, 1.31248, 1.31446, 1.31916, 1.31601, 1.31638, 1.31727, 2.21427, 2.21399, 1.31995, 1.31967, 1.31918, 1.31956, 1.31775, 1.32976, 1.32816, 1.32924, 1.32422, 1.32451, 1.32392, 1.32322, 1.32228, 1.33017, 1.41371, 1.41188, 1.4672, 1.34012, 1.46528, 1.3501, 1.35126, 1.36703, 1.43039, 1.37202, 1.38203, 1.75785, 1.39393, 1.39344, 1.43753, 0.00459862, 1.3894, 1.3966, 1.39964, 1.43838, 1.60006, 1.4079, 1.40526, 1.41994, 1.41538, 1.41288, 1.43734, 1.66962, 1.65559, 1.49699, 1.43318, 1.44396, 1.4362, 2.34047, 1.43458, 2.30452, 1.46659, 1.49292, 1.5135, 1.51377, 1.53339, 1.48642, 1.50167, 1.52651, 1.56831, 1.51569, 1.46602, 1.47009, 1.47335, 1.47771, 1.58954, 1.48176, 1.48532, 1.48983, 1.4898, 1.68279, 1.49934, 1.49885, 1.63447, 1.67968, 1.63299, 1.63633, 1.52708, 1.66935, 1.64811, 1.63053, 1.5338, 1.54591, 1.54046, 1.55396, 1.54469, 1.55052, 1.55375, 1.55168, 1.55189, 1.55296, 1.55502, 1.55884, 1.55915, 1.55868, 1.55777, 1.56229, 1.55904, 1.56097, 1.56493, 1.57125, 1.57791, 1.57918, 1.58421, 1.58335, 1.58895, 1.59372, 1.59525, 1.59551, 1.59727, 1.6027, 1.61471, 1.60124, 1.60575, 1.6073, 1.60571, 1.63647, 1.63622, 1.61962, 1.62679, 1.62966, 1.6342, 1.63143, 1.63696, 1.64284, 1.64019, 1.64553, 1.64215, 1.65163, 1.64942, 1.65245, 1.65699, 1.65278, 0.00468066, 1.66927, 1.6718, 1.66856, 1.67809, 1.72481, 1.68401, 1.68147, 1.6842, 1.6891, 1.68644, 1.69271, 1.69711, 1.69909, 1.70679, 1.71023, 1.72399, 1.72188, 1.72877, 1.72792, 1.72842, 1.88778, 1.875, 1.80667, 1.77814, 1.77856, 1.79295, 1.79124, 1.79738, 1.80486, 1.80935, 1.81266, 1.81508, 1.81613, 1.82047, 1.81863, 1.82679, 1.82561, 1.83092, 1.83751, 1.8454, 1.84336, 1.84755, 1.84608, 1.85253, 1.84859, 1.84892, 1.85041, 1.85106, 1.85207, 1.85419, 1.85897, 1.8591, 1.85718, 1.85612, 1.86453, 1.87008, 1.86847, 1.87677, 1.87569, 1.88428, 1.88985, 1.89454, 1.90082, 1.90982, 1.91396, 1.9198, 1.91416, 1.92039, 1.92349, 1.9205, 1.92735, 1.92544, 1.92364, 1.92409, 1.92377, 1.92749, 1.9365, 1.93601, 1.93973, 1.94055, 1.93674, 1.94814, 1.9444, 1.94253, 1.94873, 1.94741, 1.94808, 1.94815, 1.94553, 1.94382, 1.94403, 1.94968, 1.9482, 1.94497, 1.94475, 1.94468, 1.94295, 1.94224, 1.94133, 1.94061, 1.93903, 1.938, 1.93733, 1.9335, 1.93881, 1.94839, 1.94546, 1.9604
1.09262, 1.0949, 1.10046, 1.10584, 1.11161, 1.11349, 1.11536, 1.11607, 1.11835, 1.12103, 1.12234, 1.27781, 1.19842, 1.21281, 1.21507, 1.3266, 1.3153, 1.1603, 1.16355, 1.16353, 1.16903, 1.16868, 1.1741, 1.17515, 1.17862, 1.1957, 1.68655, 1.56804, 1.50318, 1.8988, 1.32915, 1.66601, 1.26189, 1.26031, 0.00431445, 1.38828, 1.40736, 1.51277, 1.29237, 1.47209, 1.29715, 1.29728, 1.31288, 1.30561, 1.30611, 1.30889, 1.31001, 1.32303, 1.32448, 1.31086, 1.31285, 1.31414, 1.31333, 1.31142, 2.05643, 1.30961, 1.30903, 1.3166, 1.3184, 1.31201, 1.31998, 1.31902, 1.31716, 1.31863, 1.31628, 1.31651, 1.31583, 1.32167, 1.32641, 1.33166, 1.33278, 1.3429, 1.35558, 1.35482, 1.47216, 1.3554, 1.77169, 1.70751, 1.36118, 1.38864, 1.37344, 1.36796, 1.5278, 1.56973, 1.38166, 1.40069, 1.39163, 1.39011, 1.39563, 1.41965, 1.39576, 1.4056, 1.39934, 1.40122, 1.40169, 1.40886, 1.39901, 1.40497, 1.47124, 1.43785, 1.4652, 1.46075, 1.47091, 1.47851, 1.42311, 1.42071, 1.51114, 1.51234, 1.51205, 1.44324, 1.54846, 1.5023, 1.45834, 1.46019, 1.46829, 1.55952, 1.47343, 1.48185, 1.48152, 1.48546, 1.53534, 1.56094, 1.6256, 1.64836, 1.49099, 1.49305, 1.49841, 1.58325, 1.56344, 1.50674, 1.54434, 1.56182, 1.68985, 1.53026, 1.63075, 1.6172, 1.58795, 1.57106, 1.60354, 1.5861, 1.54312, 1.58687, 1.55042, 1.55164, 1.54908, 1.58037, 1.55395, 1.55582, 1.5566, 1.55764, 1.56328, 1.56562, 1.5651, 1.56744, 1.57444, 1.57889, 1.58275, 1.57909, 1.58562, 1.59233, 1.58811, 1.59185, 1.59947, 1.60322, 1.60376, 1.60194, 1.59488, 1.59537, 1.60643, 1.64027, 1.61682, 1.61307, 1.6185, 1.61675, 1.62689, 1.62941, 1.63558, 1.63419, 1.64115, 1.63859, 1.639, 1.64932, 1.65154, 1.65075, 1.65565, 1.67448, 0.00406027, 1.66946, 1.66877, 1.67934, 1.67694, 1.68507, 1.68167, 1.68706, 1.68644, 1.69263, 1.69172, 1.6985, 1.70282, 1.71061, 1.72056, 1.72436, 1.72473, 1.72541, 1.74171, 1.76678, 0.00460092, 0.00581586, 0.00442529, 1.77964, 1.78358, 1.79284, 1.7975, 1.79566, 1.8217, 1.80927, 1.81058, 1.8161, 1.81914, 1.82043, 1.82009, 1.8165, 1.83039, 1.83281, 1.83898, 1.83589, 1.84288, 1.84414, 1.84782, 1.84814, 1.84888, 1.84628, 1.84396, 1.85245, 1.85035, 1.85226, 1.854, 1.85659, 1.86273, 1.87141, 1.86731, 1.87055, 1.87898, 1.8805, 0.00382612, 1.89309, 0.00450117, 0.00426954, 1.91028, 1.91102, 1.91098, 1.91745, 1.91466, 1.9157, 1.92094, 1.92334, 1.92536, 1.92606, 1.92303, 1.92166, 1.91942, 1.9321, 1.93491, 1.93293, 1.93835, 1.93562, 1.92919, 1.93731, 1.94442, 1.94265, 1.94073, 1.94132, 1.94207, 1.94351, 1.94275, 1.94227, 1.9404, 1.93959, 1.94461, 1.94211, 1.93898, 1.93734, 1.94124, 1.94148, 1.93913, 1.93816, 1.93731, 1.93661, 1.93565, 1.94491, 1.944, 1.94237, 1.93817
1.09187, 1.21351, 1.2143, 1.10296, 1.10923, 1.1134, 1.11599, 1.1183, 1.1195, 1.11935, 1.12212, 1.12267, 1.13256, 1.13322, 1.13364, 1.14481, 1.14681, 1.15043, 1.19202, 1.18253, 1.16023, 1.16147, 1.1648, 1.1656, 1.17072, 1.17149, 1.19096, 1.26094, 1.19246, 1.20556, 1.20721, 1.80205, 1.29284, 1.24354, 1.25112, 1.29841, 1.26546, 0.00439809, 1.34375, 1.33665, 1.28698, 1.28908, 1.29494, 1.36101, 1.30002, 1.3014, 1.30266, 1.30556, 1.30638, 1.30676, 1.30873, 1.30478, 2.03859, 1.6111, 1.30253, 1.31645, 1.30292, 1.30235, 1.30274, 1.30868, 1.30659, 1.31102, 1.31073, 1.30958, 1.31624, 1.31335, 1.31291, 1.31564, 1.31716, 1.31942, 1.32578, 1.33052, 1.32993, 1.32719, 1.33579, 1.33798, 1.33836, 1.41616, 2.07045, 1.35045, 1.36535, 1.35038, 1.38084, 1.37511, 1.35799, 0.00445674, 1.37928, 1.36523, 1.35855, 1.3622, 1.36178, 1.40629, 1.40629, 1.39367, 1.4218, 1.39491, 1.3944, 1.46958, 1.49869, 1.41012, 1.45879, 1.47132, 1.45724, 1.45862, 1.403, 1.4759, 1.40673, 1.48659, 1.41211, 1.46872, 1.44817, 1.51733, 1.44412, 1.49603, 1.55078, 1.55368, 1.56911, 1.56814, 1.48182, 1.48413, 1.56864, 1.57552, 1.48509, 1.49193, 1.49538, 1.4925, 1.49211, 1.49628, 1.5042, 1.50526, 1.51054, 1.51612, 1.51512, 1.52339, 1.52132, 1.57497, 1.52201, 1.5295, 1.56399, 1.57077, 1.56221, 1.56521, 1.53658, 1.56871, 1.53749, 1.54467, 1.56153, 1.54874, 1.56513, 0.00481694, 1.55738, 1.55783, 1.55944, 1.56002, 1.56199, 1.5625, 1.56985, 1.56886, 1.57182, 1.57248, 1.57316, 1.57147, 1.76553, 1.58566, 1.65427, 1.654, 1.58912, 1.58853, 1.59178, 1.59308, 1.60016, 1.60688, 1.61242, 1.60274, 1.61423, 1.61969, 1.62054, 1.61981, 1.63554, 1.63075, 1.63774, 1.63681, 1.64351, 1.64901, 1.65802, 1.6558, 1.72432, 1.67586, 1.75235, 1.67674, 1.67918, 1.67828, 1.67816, 1.68596, 1.68735, 1.69214, 1.69014, 1.68788, 1.70642, 1.70443, 1.72388, 1.72549, 1.73199, 1.7307, 1.74259, 1.74073, 1.77961, 1.80928, 1.95536, 1.78397, 1.78844, 1.78752, 1.79459, 1.81791, 1.80605, 1.81222, 1.80875, 1.81851, 1.81765, 1.82175, 1.82019, 1.82773, 1.82722, 1.84054, 1.83962, 1.84123, 1.84456, 1.84268, 1.84707, 1.8431, 1.84909, 1.8473, 1.84499, 1.85008, 1.84974, 1.85271, 1.84964, 1.8585, 1.85748, 1.86576, 1.86555, 1.8698, 1.87725, 1.8765, 1.88998, 1.88714, 1.90282, 1.90233, 1.90527, 1.91179, 1.91374, 1.91751, 1.91393, 1.92153, 1.92503, 1.92444, 1.92016, 1.91709, 1.92497, 1.92183, 1.93046, 1.93725, 1.93244, 1.93543, 1.93303, 1.93218, 1.9324, 1.93348, 1.93416, 1.9387, 1.93761, 1.94137, 1.94147, 1.94118, 1.94124, 1.94646, 1.94484, 1.94136, 1.93717, 1.93983, 1.93914, 1.93764, 1.94151, 1.93822, 1.9363, 1.93489, 1.94093, 1.93615, 1.93792, 1.93916, 1.93666, 1.93874, 1.93942
1.09408, 1.09479, 1.09844, 1.10414, 1.10917, 1.2825, 1.11638, 1.11967, 1.12237, 1.12455, 1.12524, 1.12895, 1.12873, 1.13358, 1.13139, 1.13268, 1.52107, 1.20208, 1.51366, 1.18854, 1.26539, 1.50215, 1.156, 1.15831, 1.16049, 1.16425, 1.16865, 1.25676, 1.25102, 1.26833, 1.52907, 1.58768, 1.20377, 1.4283, 1.2286, 1.26077, 1.32591, 1.32311, 1.32395, 1.2697, 1.34145, 1.33028, 1.28865, 1.28924, 1.2918, 1.29234, 1.29822, 1.30039, 1.3011, 1.30172, 1.30176, 1.30177, 1.30205, 1.29823, 1.29727, 1.29772, 1.29752, 1.29906, 1.3008, 1.30129, 1.30312, 1.30367, 1.30769, 1.30878, 1.30792, 1.31001, 1.30922, 1.30865, 1.31135, 1.31179, 1.32012, 1.31929, 1.31626, 1.31594, 1.32394, 1.32993, 1.32892, 1.33078, 1.35045, 1.34342, 1.36642, 1.44452, 1.34347, 1.34351, 1.34313, 1.34339, 1.34675, 1.34665, 1.35083, 1.34943, 1.34858, 1.35097, 1.34858, 1.34857, 1.34915, 1.34882, 1.35376, 1.36181, 1.36446, 1.4108, 1.41062, 1.45569, 1.46369, 1.39832, 1.43002, 1.43935, 1.45784, 1.44371, 1.46154, 1.47428, 1.41731, 1.51043, 1.43656, 1.7343, 1.45158, 1.72841, 1.61981, 1.47442, 1.47152, 1.55867, 1.59743, 1.48009, 1.58291, 1.4854, 1.48738, 1.49136, 1.49093, 1.49289, 1.49844, 1.50223, 1.50222, 1.50075, 1.61379, 1.57416, 1.51253, 1.51295, 1.51765, 1.55681, 1.5444, 1.51963, 1.52312, 1.52061, 1.55012, 1.52787, 1.5305, 1.53308, 1.54485, 1.53679, 1.55457, 1.54482, 1.54407, 1.544, 1.54987, 1.54758, 1.55448, 1.55499, 1.58808, 1.56021, 1.56406, 1.56306, 1.562, 1.56417, 1.56268, 1.56784, 1.63754, 1.75821, 1.58544, 1.58002, 1.57497, 1.58756, 1.58647, 1.59158, 1.59506, 1.59574, 1.59939, 1.60487, 1.62006, 1.60933, 1.62114, 1.62648, 1.6243, 1.64262, 1.64096, 1.65388, 1.65173, 1.76951, 1.67915, 1.66533, 1.67241, 1.67032, 1.67339, 1.67786, 1.68018, 1.68278, 1.68157, 1.6958, 1.69449, 1.6932, 1.70004, 1.71262, 1.71669, 1.72607, 1.72757, 1.7383, 1.74161, 1.74867, 1.76179, 1.77588, 1.77417, 1.7823, 1.78336, 1.78716, 1.80129, 1.79885, 1.80641, 1.80315, 1.81204, 1.81663, 1.82033, 1.81912, 1.82981, 1.8266, 1.83143, 1.83475, 1.84044, 1.84442, 1.8422, 1.84725, 1.84548, 1.84395, 1.84679, 1.84397, 1.84545, 1.85405, 1.85027, 1.85003, 1.8509, 1.85444, 1.85029, 1.86306, 1.85617, 1.86135, 1.87075, 1.87772, 1.88444, 1.89027, 1.89666, 1.90337, 1.91093, 1.91274, 1.91307, 1.92042, 1.91791, 1.91748, 1.92306, 1.91712, 1.9261, 1.92189, 1.92073, 1.92981, 1.92502, 1.93497, 1.93172, 1.93212, 1.93065, 1.92756, 1.93417, 1.93555, 1.93295, 1.9331, 1.93364, 1.93014, 1.92851, 1.93808, 1.93215, 1.93537, 1.93586, 1.932, 1.93246, 1.93449, 1.93197, 1.93467, 1.9395, 1.93989, 1.93771, 1.93734, 1.93495, 1.94372, 1.94143, 1.94031, 1.93501, 1.93561, 1.94729
1.09453, 1.09754, 1.10359, 1.10493, 1.11102, 1.11289, 1.11598, 1.11889, 1.12024, 1.12403, 1.12522, 1.12532, 1.12634, 1.12671, 1.1236, 1.12549, 1.12698, 1.12655, 1.12809, 1.1302, 1.51685, 1.52624, 1.17441, 1.18911, 1.20863, 1.15355, 1.15719, 1.74757, 1.1663, 1.23339, 1.59974, 1.58611, 1.49343, 1.64453, 1.56935, 1.42374, 1.2402, 1.36727, 1.33724, 1.26371, 1.33822, 0.00484306, 1.35362, 1.34821, 1.34748, 1.28786, 1.28798, 1.33652, 1.29561, 1.29546, 1.33808, 1.2965, 1.29612, 1.29629, 1.29575, 1.29462, 1.29531, 1.29521, 1.29469, 1.29578, 1.29809, 1.30198, 1.30024, 1.30307, 1.30594, 1.30533, 1.30729, 1.30686, 1.30872, 1.30891, 1.31558, 1.31628, 1.318, 1.32009, 1.31933, 1.31935, 1.31942, 1.33333, 1.32808, 1.33734, 1.32978, 1.33951, 1.3371, 1.33829, 1.33818, 1.34048, 1.33994, 1.34017, 1.34052, 1.34262, 1.34246, 1.34329, 1.33892, 1.33943, 1.33826, 1.34022, 1.33942, 1.34343, 1.34409, 1.34683, 1.3509, 1.35698, 1.4268, 1.356, 1.41809, 1.37009, 1.44736, 1.38872, 1.42125, 1.46079, 1.47093, 1.83849, 1.83813, 1.79928, 1.58379, 1.60906, 1.45455, 1.4533, 1.62314, 1.46883, 1.4686, 1.47415, 1.47208, 1.48181, 1.48567, 1.48441, 1.48347, 1.48586, 1.48674, 1.49517, 1.49705, 1.49892, 1.49848, 1.49846, 1.49741, 1.50612, 1.50334, 1.5073, 1.51021, 1.51199, 1.52016, 1.51352, 1.51287, 1.53523, 1.53656, 1.52652, 1.52577, 1.52813, 1.52993, 1.52852, 1.52979, 1.53744, 1.53383, 1.54163, 1.54331, 1.54409, 1.54505, 1.54499, 1.54357, 1.55746, 1.5541, 1.55418, 1.56481, 1.54888, 1.55887, 1.75458, 1.5693, 1.57468, 1.57618, 1.58254, 1.58191, 1.58338, 1.58584, 1.58829, 1.59041, 1.60294, 1.59936, 1.59686, 1.63057, 1.6159, 1.62003, 1.64319, 1.64199, 1.69942, 1.67343, 1.66568, 1.66495, 1.66662, 1.67286, 1.66975, 1.67466, 1.6797, 1.68508, 1.68526, 1.69045, 1.69364, 1.6989, 1.75937, 1.70771, 1.7148, 1.72671, 1.72535, 1.73364, 1.73206, 1.74538, 1.75756, 1.76168, 1.782, 1.77671, 1.7889, 1.79246, 1.79478, 1.79551, 1.80532, 1.80374, 1.81146, 1.80845, 1.80721, 1.81251, 1.81629, 1.82668, 1.82451, 1.82849, 1.84271, 1.84039, 1.84259, 1.845, 1.84584, 1.84395, 1.84535, 1.84668, 1.84487, 1.83949, 1.848, 1.85396, 1.85792, 1.85573, 1.85776, 1.85368, 1.85232, 1.86814, 1.87592, 1.87634, 1.88328, 1.88927, 0.00471595, 1.90459, 1.90097, 1.91397, 1.91222, 1.90959, 1.91341, 1.9196, 1.91824, 1.92406, 1.92137, 1.92121, 1.91705, 1.92141, 1.92955, 1.93233, 1.93161, 1.93309, 1.93124, 1.93131, 1.93213, 1.92844, 1.93602, 1.93542, 1.93464, 1.93464, 1.93241, 1.93013, 1.9292, 1.93117, 1.9311, 1.92857, 1.93386, 1.93473, 1.93063, 1.92927, 1.92929, 1.94071, 1.9362, 1.93568, 1.93743, 1.94352, 1.94226, 1.942, 1.94465, 1.94901, 1.94798, 1.94416
1.09448, 1.09583, 1.10016, 1.10265, 1.10597, 1.10959, 1.24844, 1.1178, 1.11837, 1.11942, 1.12138, 1.12177, 1.12308, 1.12403, 1.12311, 1.12506, 1.12532, 1.12534, 1.12889, 1.12808, 1.128, 1.13074, 1.13328, 1.13544, 1.13694, 1.14324, 1.15042, 1.17675, 1.18379, 1.16851, 1.17152, 1.17034, 1.18225, 1.20883, 1.20618, 1.54835, 1.21587, 1.23868, 1.34116, 1.23946, 1.32701, 1.26838, 1.26442, 1.2854, 1.30415, 1.27871, 1.53045, 1.58928, 1.28791, 1.28814, 1.28932, 1.2912, 1.80775, 1.29073, 1.29203, 1.29213, 1.29101, 1.294, 1.29218, 1.29364, 1.29141, 1.29174, 1.29411, 1.29664, 1.29661, 1.30044, 1.30193, 1.30631, 1.30696, 1.30893, 1.31503, 1.31251, 1.31441, 1.31679, 1.31802, 1.3192, 1.31773, 1.3194, 1.3204, 1.32234, 1.32284, 1.3209, 1.33199, 1.33357, 1.33269, 1.33783, 1.33959, 1.33827, 1.3366, 1.33698, 1.33761, 1.3378, 1.33897, 1.33714, 1.33746, 1.33776, 1.33987, 1.34089, 1.34012, 1.33976, 1.3406, 1.47523, 1.45095, 1.34424, 1.44362, 1.35617, 1.35865, 1.41904, 1.39953, 1.44746, 1.4, 1.46358, 1.75617, 1.42133, 1.59468, 1.49449, 1.59657, 1.55382, 1.63458, 1.45711, 1.54022, 1.55046, 1.49726, 1.48337, 1.48082, 1.47835, 1.48034, 1.48765, 1.4888, 1.48848, 1.49053, 1.4957, 1.49626, 1.49608, 1.49736, 1.49758, 1.49939, 1.49941, 1.49643, 1.49821, 1.50243, 1.50244, 1.51363, 1.51598, 1.51246, 1.51403, 1.52331, 1.52306, 0.00450024, 1.51562, 1.51539, 1.52143, 1.52227, 1.52276, 1.53475, 1.53517, 1.54162, 1.5408, 1.54173, 1.54346, 1.54176, 1.54627, 1.55032, 1.54895, 1.54892, 1.55871, 1.55939, 1.5676, 1.56622, 1.57934, 1.57567, 1.57582, 1.57959, 1.58917, 1.58538, 1.59094, 1.59603, 1.60471, 1.60885, 1.61663, 1.61667, 1.63461, 1.63669, 1.63784, 1.67904, 1.70318, 1.66179, 1.66534, 1.67187, 1.67189, 1.67885, 1.68433, 1.68513, 1.69037, 1.6954, 1.69418, 1.70302, 1.70409, 1.7063, 1.71373, 1.72105, 1.73015, 1.73066, 1.73819, 1.7391, 1.75655, 1.75839, 1.76666, 1.77288, 1.77829, 1.79307, 1.87015, 1.88109, 1.80821, 1.80714, 1.8145, 1.81278, 1.80768, 1.80923, 1.81385, 1.94473, 2.02191, 1.83118, 1.84122, 1.84181, 1.84424, 1.84588, 1.84512, 1.84106, 1.84485, 1.84635, 1.84847, 1.84865, 1.84608, 1.85252, 1.85537, 1.85428, 1.86075, 1.86126, 1.86449, 1.87266, 1.86717, 1.87045, 1.87956, 1.88731, 0.00427692, 1.89762, 1.89983, 1.90802, 1.91446, 1.91037, 1.91826, 1.91848, 1.92049, 1.92152, 1.92036, 1.92037, 1.91935, 1.92739, 1.92453, 1.93128, 1.92854, 1.93068, 1.93288, 1.93209, 1.93119, 1.92755, 1.92674, 1.93141, 1.93595, 1.93229, 1.93109, 1.93373, 1.9353, 1.93284, 1.92991, 1.92945, 1.9265, 1.92403, 1.93581, 1.93551, 1.93725, 1.94279, 1.93919, 1.94339, 1.94265, 1.94303, 1.93953, 1.94402, 1.9492, 1.94724, 1.94261, 1.94974
1.0875, 1.09195, 1.09471, 1.2129, 1.10168, 1.10493, 1.10818, 1.21707, 1.11394, 1.18205, 1.11755, 1.11896, 1.11916, 1.11977, 1.12103, 1.12156, 1.12245, 1.12319, 1.12381, 1.1254, 1.12554, 1.12798, 1.12759, 1.12976, 1.13191, 1.13405, 1.13691, 1.17182, 1.17314, 1.17514, 1.28506, 1.15751, 1.16733, 1.16654, 1.32214, 1.24791, 1.20545, 1.23468, 1.30522, 1.27527, 1.23196, 1.3704, 1.32827, 1.36761, 1.33986, 1.41309, 1.47918, 1.47655, 1.53315, 1.62073, 1.28121, 1.32303, 1.28174, 1.28087, 1.28811, 1.8586, 1.30737, 1.28518, 1.28693, 1.28606, 1.28579, 1.2852, 1.28636, 1.28798, 1.29442, 1.29593, 1.29814, 1.39954, 1.30528, 1.30629, 1.30859, 1.3094, 1.31033, 1.31172, 1.31172, 1.31397, 1.31378, 1.31563, 1.3163, 1.31978, 1.31952, 1.32274, 1.32423, 1.33123, 1.33139, 1.33435, 1.33505, 1.33429, 1.33376, 1.33363, 1.33299, 1.33065, 1.33246, 1.33483, 1.33457, 1.33653, 1.33691, 1.33701, 1.33576, 1.33428, 1.33308, 1.33425, 1.33499, 1.33633, 1.34417, 1.37045, 1.35251, 1.35435, 1.36415, 1.43256, 1.40589, 1.72922, 1.79212, 1.5857, 1.58497, 1.63216, 1.605, 1.56123, 1.56999, 1.5815, 1.48463, 1.50794, 1.50644, 0.0043946, 1.54679, 1.47893, 1.47818, 1.4794, 1.47724, 1.48243, 1.48164, 1.48355, 1.4854, 1.48597, 1.48291, 1.48829, 1.48556, 1.48388, 1.48428, 1.48245, 1.49305, 1.48923, 1.48974, 1.49066, 1.49897, 1.49742, 1.51205, 1.50714, 1.50715, 1.50553, 1.51031, 1.50949, 1.51178, 1.52401, 1.53051, 1.52769, 1.53437, 1.54377, 1.54012, 1.54374, 1.54324, 1.54502, 1.55149, 1.55028, 1.55434, 1.55245, 1.56167, 1.55772, 1.56208, 1.56953, 1.57142, 1.57953, 1.58119, 1.58564, 1.58738, 1.59928, 1.6029, 1.60692, 1.60939, 1.61869, 1.76965, 1.70214, 1.63555, 0.00437237, 0.00432949, 1.83448, 1.65951, 1.66424, 1.66912, 1.66873, 0.00740511, 1.68587, 1.68679, 1.69056, 1.68957, 1.70089, 1.70207, 1.70741, 1.70712, 1.71371, 1.71991, 1.72477, 1.73357, 1.73826, 1.73626, 1.7352, 1.75284, 1.86622, 1.77206, 1.78604, 1.78981, 1.87407, 1.81058, 1.81061, 1.80816, 1.80632, 1.81895, 1.81965, 1.92115, 1.95726, 1.95797, 1.8448, 1.83522, 1.84217, 1.84644, 1.84707, 1.84533, 1.84843, 1.84899, 1.84788, 1.84698, 1.84772, 1.84572, 1.84723, 1.84886, 1.85455, 1.85785, 1.85584, 1.86478, 1.866, 1.86217, 1.87342, 1.87406, 1.87951, 1.88738, 1.8856, 1.89649, 1.90068, 1.90757, 1.99494, 1.90864, 1.91656, 1.92246, 1.92165, 1.91927, 1.92589, 1.92394, 1.92212, 1.92464, 1.92351, 1.93198, 1.92906, 1.9305, 1.93001, 1.93403, 1.92982, 1.92763, 1.9242, 1.92314, 1.93364, 1.92872, 1.93268, 1.93168, 1.9339, 1.93132, 1.92954, 1.92808, 1.93077, 1.93335, 1.93566, 1.93671, 1.94163, 1.94155, 1.94254, 1.9416, 1.94199, 1.94724, 1.94536, 1.94576, 1.94782, 1.95115, 1.94625, 1.94817
1.24122, 1.24025, 1.25801, 1.09069, 1.09525, 1.23897, 1.10148, 1.10395, 1.10494, 1.10868, 1.10979, 1.15463, 1.11267, 1.11836, 1.11514, 1.11631, 1.11626, 1.1176, 1.11822, 1.11761, 1.11954, 1.11971, 1.12226, 1.12311, 1.12353, 1.1228, 1.12848, 1.13186, 1.13965, 1.14023, 1.14525, 1.14783, 1.3855, 1.15857, 1.16634, 1.16807, 1.22663, 1.20249, 1.24574, 1.31299, 1.46416, 1.2949, 1.32292, 1.34033, 1.31867, 1.37769, 1.43733, 1.45695, 1.55064, 1.53262, 1.66619, 1.27435, 1.27683, 1.2754, 1.27554, 1.27604, 1.29798, 1.2781, 1.29117, 1.27925, 1.27795, 1.2819, 1.28458, 1.28323, 1.28906, 1.2893, 1.2932, 1.29916, 1.30179, 1.30386, 1.30574, 1.30792, 1.30885, 1.3086, 1.30825, 1.30927, 1.31245, 1.32303, 1.31643, 1.3156, 1.31695, 1.31975, 1.32281, 1.32639, 1.32909, 1.32885, 1.33098, 1.33233, 1.33269, 1.33294, 1.33079, 1.33128, 1.333, 1.3325, 1.33323, 1.33605, 1.33359, 1.33482, 1.33444, 1.33298, 1.33256, 1.33385, 1.33712, 1.33779, 1.34346, 1.34544, 1.35126, 1.3523, 1.35844, 1.41568, 1.4604, 1.50452, 1.48524, 1.59477, 1.5906, 1.59042, 1.58927, 1.55619, 1.55186, 1.55308, 1.51689, 1.53378, 1.48205, 1.46936, 1.52708, 1.5201, 1.52764, 1.5001, 1.5577, 1.47174, 1.60039, 1.59606, 1.48137, 1.47434, 1.47202, 1.4707, 1.46847, 1.46905, 1.47289, 1.47143, 1.56109, 1.48179, 1.48251, 1.48215, 1.48531, 1.49305, 1.49059, 1.49571, 1.49921, 1.50094, 1.50572, 1.51062, 1.52003, 1.51584, 1.51684, 1.52227, 1.52764, 1.54771, 1.52942, 1.54191, 1.5393, 1.54662, 1.54414, 1.55131, 1.55159, 1.55601, 1.5556, 1.55993, 1.5586, 1.57147, 1.57673, 1.57988, 1.58866, 1.58713, 1.59548, 1.60043, 1.60583, 1.60757, 1.61359, 1.6184, 1.62551, 1.63168, 1.63694, 1.72068, 1.67613, 1.70959, 1.67273, 0.00504186, 1.67585, 0.00432534, 1.67901, 1.68011, 1.68453, 1.68614, 1.69628, 1.69857, 1.70317, 1.70803, 1.71702, 1.7143, 1.72004, 1.73407, 1.73084, 1.738, 1.73663, 1.8444, 1.84399, 1.76898, 1.77705, 1.78243, 1.896, 1.89698, 1.80743, 1.80808, 1.82141, 1.81977, 2.00058, 1.98822, 1.83506, 1.837, 1.83998, 1.8414, 1.84241, 1.84389, 1.84964, 1.84995, 1.85063, 1.85087, 1.84905, 1.84646, 1.84464, 1.85205, 1.84918, 1.85046, 1.84848, 1.85231, 1.85347, 1.86248, 1.86175, 1.86244, 1.86528, 1.86535, 1.87555, 1.88432, 1.88268, 1.8821, 1.88187, 1.89828, 1.90638, 1.9055, 1.90739, 1.91394, 1.91855, 1.91415, 1.92284, 1.92023, 1.92549, 1.9225, 1.92095, 1.92369, 1.92134, 1.92587, 1.92563, 1.92788, 1.92816, 1.93382, 1.93083, 1.92757, 1.93132, 1.9281, 1.93561, 1.93331, 1.93205, 1.92819, 1.92945, 1.92791, 1.92661, 1.93489, 1.93086, 1.93655, 1.93269, 1.9445, 1.94181, 1.94149, 1.94012, 1.93875, 1.94807, 1.94519, 1.951, 1.95206, 1.94995, 1.95031, 1.94901
1.07473, 1.075, 1.23896, 1.20532, 1.10262, 1.08858, 1.32688, 1.30842, 1.29437, 1.30725, 1.10103, 1.10294, 1.1059, 1.10757, 1.10809, 1.2019, 1.11626, 1.11203, 1.11201, 1.11503, 1.11398, 1.11575, 1.11825, 1.12072, 1.12089, 1.12178, 1.12569, 1.12981, 1.1341, 1.13906, 1.14068, 1.14483, 1.14992, 1.1526, 1.15944, 1.161, 1.20546, 1.19576, 1.25802, 1.19569, 1.2469, 1.21987, 1.24964, 1.30863, 1.33135, 1.34159, 1.31747, 1.4978, 1.47061, 1.25541, 1.25963, 1.61262, 1.26568, 1.27771, 1.26822, 1.26868, 1.27147, 1.26571, 1.26147, 1.26098, 1.26895, 1.27078, 1.27594, 1.27606, 1.28798, 1.28248, 1.28945, 1.295, 1.29624, 1.35073, 1.30022, 1.30442, 1.30279, 1.30158, 1.30327, 1.30574, 1.30994, 1.31004, 1.30944, 1.31194, 1.31201, 1.31878, 1.31878, 1.32286, 1.3232, 1.32365, 1.32611, 1.32646, 1.32759, 1.3286, 1.32824, 1.32993, 1.33507, 1.33295, 1.33235, 1.33416, 1.33328, 1.33309, 1.33239, 1.33333, 1.33213, 1.33298, 1.33451, 1.4654, 1.34397, 1.34938, 1.35012, 1.35252, 1.35315, 1.3563, 1.35631, 1.35763, 1.52051, 1.53144, 1.53784, 1.55437, 1.58546, 1.58799, 1.44827, 1.41673, 1.43369, 1.4677, 1.50257, 1.51204, 1.49992, 1.56565, 1.4989, 1.49579, 1.51621, 1.52689, 1.51903, 1.46427, 1.51051, 1.4635, 1.45951, 1.45733, 1.46183, 1.46108, 1.45952, 1.4657, 1.46961, 1.47076, 1.47624, 1.48547, 1.48359, 1.48361, 1.4911, 1.49265, 1.49911, 1.50415, 1.50582, 1.51077, 1.51263, 1.51245, 1.5127, 1.5223, 1.52456, 1.5278, 1.53154, 1.53399, 1.53732, 1.54694, 1.54572, 1.54594, 1.55512, 1.55353, 1.56118, 1.56031, 1.56149, 0.00462292, 1.57996, 1.58013, 1.58844, 1.59568, 1.59707, 1.60031, 1.60583, 1.62003, 1.61742, 1.62376, 1.62757, 1.7224, 1.63408, 1.64144, 1.67845, 1.65221, 1.6558, 1.6563, 1.66277, 1.67078, 1.67124, 1.68048, 1.6832, 1.68572, 1.69553, 1.70191, 1.70068, 1.71469, 1.71523, 1.7146, 1.71987, 1.71928, 1.72871, 1.72705, 1.75578, 1.74842, 1.75977, 1.76934, 1.77902, 1.78551, 1.79759, 1.8058, 1.80404, 1.81878, 1.82806, 0.00439406, 1.83236, 1.83886, 1.83552, 1.84187, 1.84528, 1.84869, 1.8481, 1.84904, 1.85311, 1.85308, 1.85234, 1.8506, 1.85094, 1.84955, 1.84844, 1.8473, 1.84471, 1.85115, 1.8502, 1.85599, 1.85355, 1.85105, 1.86373, 1.86278, 1.86189, 0.00398988, 1.87319, 1.87954, 1.88182, 1.88668, 1.8852, 0.0044178, 1.89992, 1.90894, 1.91327, 1.91006, 1.92312, 1.91922, 1.9225, 1.92469, 1.92403, 1.92275, 1.92069, 1.92062, 1.91788, 1.92419, 1.92446, 1.92087, 1.9251, 1.9213, 1.92889, 1.92882, 1.9279, 1.92713, 1.93393, 1.93424, 1.9329, 1.93197, 1.9292, 1.92471, 1.93403, 1.92879, 1.93703, 1.93922, 1.9362, 1.94192, 1.94067, 1.94081, 1.93785, 1.94449, 1.94933, 1.94638, 1.95223, 1.95157, 1.94983, 1.9494, 1.9495
1.07062, 1.7348, 1.06579, 1.06648, 1.08111, 1.07461, 1.07639, 1.3094, 1.08446, 1.32154, 0.00421654, 1.09303, 1.09457, 1.10463, 1.10405, 1.09929, 1.10221, 1.10491, 1.10786, 1.10868, 1.11016, 1.11181, 1.11585, 1.1158, 1.11903, 1.1214, 1.1243, 1.12666, 1.13031, 1.1386, 1.1377, 1.13914, 1.14603, 1.14717, 1.19937, 1.19181, 1.19012, 1.18895, 1.18823, 1.18248, 1.20826, 1.23104, 1.25507, 1.22012, 1.22691, 1.258, 1.25766, 1.23583, 1.47094, 1.48658, 1.54242, 1.28906, 1.25529, 1.64708, 1.26931, 1.2665, 1.26403, 1.26324, 1.262, 1.26182, 1.26111, 1.26438, 1.26492, 1.26736, 1.27455, 1.28476, 1.28777, 1.28856, 1.29409, 1.29458, 1.29563, 1.2979, 1.30175, 1.30125, 1.30155, 1.30258, 1.30554, 1.30454, 1.3076, 1.30616, 1.3089, 1.3096, 1.31297, 1.31739, 1.31951, 1.32046, 1.32212, 1.32113, 1.32178, 1.32269, 1.32209, 1.3245, 1.3297, 1.33087, 1.32827, 1.33216, 1.33105, 1.32782, 1.32302, 1.3273, 1.32645, 1.33299, 1.33752, 1.3402, 1.34402, 1.34523, 1.349, 1.34925, 1.35433, 1.35391, 1.35451, 1.35435, 1.35711, 1.3644, 1.36186, 1.55785, 1.56152, 1.57804, 1.39403, 1.62073, 1.49555, 1.4782, 1.46478, 1.49569, 1.48301, 1.48854, 1.43794, 1.44089, 1.44684, 1.44685, 1.44804, 1.45039, 1.44927, 1.45122, 1.45165, 1.45297, 1.45248, 1.45486, 1.45848, 1.46494, 1.46567, 1.46902, 1.47055, 1.47627, 1.48508, 1.48955, 1.48935, 1.49569, 1.49633, 1.50151, 1.5069, 1.508, 1.50997, 1.51586, 1.51596, 1.52238, 1.52982, 1.53082, 1.53137, 1.57188, 1.53893, 1.54236, 1.54975, 1.54891, 1.55201, 1.5578, 1.56398, 1.56263, 1.57095, 1.58228, 1.58535, 1.59405, 1.59091, 1.60109, 1.60168, 1.60163, 1.61001, 1.60824, 1.61472, 1.62365, 1.62782, 1.63462, 1.63309, 1.64424, 1.67147, 1.66575, 1.65826, 1.6677, 1.66141, 1.66975, 1.67353, 1.67619, 1.68393, 1.6842, 1.69313, 1.74137, 1.69936, 1.70652, 1.71566, 1.71708, 1.72382, 1.72129, 1.7281, 1.73562, 1.77681, 1.75171, 1.75811, 1.8699, 1.82664, 1.98613, 0.00440191, 1.80768, 1.81645, 1.82266, 1.82828, 1.82674, 1.94584, 1.84166, 1.84799, 1.84782, 1.84562, 1.85462, 1.85753, 1.85482, 1.85285, 1.85721, 1.85374, 1.8546, 1.85507, 1.85116, 1.85053, 1.84724, 1.84433, 1.84834, 1.84496, 1.84854, 1.84901, 1.84725, 1.84687, 1.84871, 1.85755, 1.8615, 1.86484, 1.87646, 0.00429938, 0.0105856, 1.89687, 1.89547, 1.90629, 1.90502, 1.90562, 1.91145, 1.91962, 1.9212, 1.91621, 1.9173, 1.9232, 1.91806, 1.9188, 1.91921, 1.91936, 1.91921, 1.91672, 1.91428, 1.92051, 1.92185, 1.92351, 1.92204, 1.92493, 1.92675, 1.93144, 1.92743, 1.92816, 1.93477, 1.93146, 1.93279, 1.93097, 1.9341, 1.93819, 1.94311, 1.94092, 1.94193, 1.94567, 1.94736, 1.94553, 1.94173, 1.94916, 1.95234, 1.94743, 1.95909, 1.95425, 1.95238, 1.95229
1.04512, 1.04946, 1.07831, 1.05276, 1.05393, 1.39235, 1.37954, 1.06217, 1.06593, 1.07165, 1.1023, 1.07292, 1.11958, 1.20258, 1.22074, 1.08543, 1.20483, 1.09505, 1.10072, 1.09879, 1.10054, 1.10367, 1.10525, 1.10837, 1.11225, 1.11478, 1.30589, 1.11998, 1.12387, 1.12486, 1.20555, 1.13289, 1.13342, 1.13867, 1.14326, 1.14476, 1.16517, 1.19293, 1.19278, 0.0042785, 1.22777, 1.1964, 1.22666, 1.22748, 1.27703, 1.27713, 1.31356, 1.35854, 1.32304, 1.41314, 1.44412, 1.52791, 1.52661, 1.51732, 1.25152, 1.27209, 1.27767, 1.26058, 1.26049, 1.26124, 1.26295, 1.26315, 1.26416, 1.27028, 1.27274, 1.279, 1.30959, 1.28611, 1.28759, 1.2877, 1.28734, 1.29272, 1.29245, 1.29349, 1.29781, 1.29976, 1.29881, 1.29935, 1.29945, 1.30106, 1.30288, 1.31288, 1.30934, 1.31338, 1.31547, 1.31634, 1.31493, 1.31434, 1.32044, 1.31997, 1.32192, 1.32399, 1.32465, 1.32829, 1.3265, 1.32764, 1.3294, 1.32896, 1.32148, 1.3219, 1.32619, 1.41699, 1.33626, 1.34262, 1.34396, 1.3437, 1.34962, 1.34991, 1.35081, 1.35299, 1.35417, 1.3596, 1.35919, 1.36414, 1.36393, 1.50122, 1.37866, 1.49641, 1.39258, 1.49378, 1.48317, 1.49208, 1.4856, 1.47282, 1.46204, 1.47915, 1.42989, 1.42976, 1.43079, 1.44004, 1.5348, 1.53551, 1.43891, 1.43845, 1.44256, 1.44015, 1.45756, 1.45136, 1.45751, 1.4552, 1.46205, 1.46863, 1.47338, 1.47265, 1.48224, 1.48926, 1.48932, 1.49825, 1.49609, 1.50364, 1.50393, 1.51009, 1.51134, 1.51686, 1.5207, 1.52267, 1.52516, 1.53425, 1.53494, 0.00411038, 1.54691, 1.54658, 1.55369, 1.55391, 1.55759, 1.55637, 1.56687, 1.56524, 1.56951, 1.57943, 1.58497, 1.5836, 1.59905, 1.59983, 1.5998, 1.60632, 1.60688, 1.61569, 1.61781, 1.62355, 1.62285, 1.62796, 1.62828, 1.67573, 1.64501, 1.64782, 1.6551, 1.6614, 1.66482, 1.67488, 1.67572, 0.00418954, 1.68608, 1.70228, 1.69327, 1.69366, 1.69616, 1.70328, 1.71095, 1.71704, 1.72837, 1.73549, 1.73612, 1.74429, 1.74772, 1.75491, 1.82092, 1.81746, 1.77919, 0.00395812, 2.02737, 1.81828, 1.81472, 1.82972, 1.83465, 1.83599, 1.84638, 1.84592, 1.84569, 1.85383, 1.84954, 1.85642, 1.85547, 0.00427041, 1.86089, 1.85789, 1.85812, 1.85439, 1.85558, 1.85007, 1.84575, 1.84212, 1.84357, 1.84473, 1.84489, 1.84771, 1.85104, 1.85022, 1.85222, 1.84858, 1.84769, 1.85798, 1.85631, 1.87349, 0.00426859, 2.23258, 2.58291, 0.00423129, 1.90061, 1.90118, 1.90771, 1.9085, 1.91244, 1.91913, 1.91662, 1.91732, 1.92354, 1.92074, 1.9215, 1.92051, 1.92018, 1.92109, 1.91813, 1.91755, 1.91493, 1.91379, 1.91738, 1.91672, 1.91582, 1.9145, 1.9163, 1.92003, 1.91618, 1.92188, 1.93252, 1.93062, 1.93707, 1.93568, 1.93729, 1.94051, 1.93845, 1.94176, 1.93965, 1.94517, 1.9474, 1.94806, 1.9455, 1.95195, 1.94369, 1.94443, 1.94636, 1.94742, 1.94649
1.02813, 1.64501, 1.03044, 1.11565, 1.1161, 1.11889, 1.11724, 1.10118, 1.1086, 1.09861, 1.0892, 1.11463, 1.05852, 1.06714, 1.06575, 1.06832, 1.07063, 1.07608, 1.13185, 1.2439, 1.08812, 1.21239, 0.00447824, 1.09765, 1.09647, 1.106, 1.10815, 1.34697, 1.10926, 1.27847, 1.11544, 1.11782, 1.12187, 1.12626, 1.12769, 1.13324, 1.16899, 1.13992, 1.1603, 1.24646, 1.1725, 1.22976, 1.17473, 1.25097, 1.26719, 1.21082, 1.20963, 1.27862, 1.2896, 1.33013, 1.40196, 1.56856, 1.47742, 1.5062, 1.25697, 1.24833, 1.26923, 1.25605, 1.25586, 1.25964, 1.26183, 1.26317, 1.26751, 1.26715, 1.28181, 1.27735, 1.27793, 1.28092, 1.28525, 1.28584, 1.28595, 1.29056, 1.29076, 1.29101, 1.29302, 1.29269, 1.29368, 1.29501, 1.29572, 1.29828, 1.30172, 1.30192, 1.30537, 1.3108, 1.31075, 1.31264, 1.31626, 1.31432, 1.31569, 1.31538, 1.31859, 1.3201, 1.33187, 1.39829, 1.32436, 1.32982, 1.32741, 1.32805, 1.32972, 1.32766, 1.32957, 1.33092, 1.33681, 1.33671, 1.38495, 1.34689, 1.34411, 1.34619, 1.34634, 1.35023, 1.35356, 1.35561, 1.35714, 1.36076, 1.36387, 1.37552, 1.50276, 1.4814, 1.46446, 1.46334, 1.47856, 1.46192, 1.47403, 1.47416, 1.46931, 1.45913, 1.47471, 1.44691, 1.4411, 1.51256, 1.429, 1.52908, 1.48352, 1.43485, 1.43957, 1.44327, 1.44677, 1.45701, 1.45187, 1.45981, 1.46292, 1.46299, 1.47286, 1.47479, 1.48682, 1.48631, 1.48679, 1.49301, 1.49669, 1.50331, 1.50815, 1.50879, 1.51208, 1.51742, 1.52128, 1.52476, 1.53075, 1.54139, 1.53618, 1.54478, 1.54513, 1.54436, 1.55138, 1.55414, 1.55515, 1.5594, 1.56306, 1.57047, 1.57283, 1.57853, 1.57972, 1.58446, 1.5915, 1.59317, 1.60349, 1.6037, 1.61566, 1.61405, 1.6172, 1.6193, 1.62427, 1.62961, 1.62946, 1.63013, 1.78489, 1.65458, 1.6554, 1.66166, 1.66889, 1.66808, 0.00486353, 1.68253, 1.68862, 1.69203, 1.6883, 1.6894, 1.69996, 1.70797, 1.70971, 1.71675, 1.7284, 1.72981, 1.72945, 1.74812, 0.0041922, 1.76742, 1.76492, 1.8041, 1.86563, 1.83897, 0.00451162, 1.96812, 0.00408869, 0.00737224, 0.00404661, 1.8469, 1.85221, 1.84951, 1.85372, 1.86152, 1.85917, 1.86029, 1.86009, 1.86397, 1.86055, 1.86036, 1.85906, 1.85758, 1.85527, 1.85427, 1.84938, 1.84954, 1.84756, 1.84449, 1.84351, 1.84298, 1.83904, 1.83963, 1.85075, 1.84747, 1.85777, 1.85611, 1.86306, 1.87918, 1.87585, 1.88055, 1.88353, 1.89553, 1.89375, 1.90607, 1.90629, 1.91581, 1.91144, 1.907, 1.91414, 1.91832, 1.91685, 1.91983, 1.92103, 1.92001, 1.91637, 1.91713, 1.91712, 1.91853, 1.91546, 1.9171, 1.91395, 1.91464, 1.91409, 1.9127, 1.91295, 1.91011, 1.91417, 1.9138, 0.00440412, 1.93103, 0.00433016, 1.93033, 1.93253, 1.94154, 1.94011, 1.9376, 1.9419, 1.94509, 1.94637, 1.94469, 1.94614, 1.94783, 1.94677, 1.94428, 1.94219, 1.9363, 1.93766
1.01321, 1.0157, 1.09496, 1.0229, 1.01863, 1.28597, 1.02227, 1.02615, 1.07346, 1.03231, 1.0333, 1.06043, 1.16404, 1.04226, 1.19306, 1.09642, 1.08113, 1.10185, 1.0714, 1.48392, 1.07213, 1.07813, 1.37197, 1.07507, 1.07878, 1.08347, 1.37201, 0.0037945, 1.33368, 1.10257, 1.09912, 1.12426, 1.10733, 0.00424112, 1.11669, 1.11504, 1.14054, 1.17259, 1.18763, 1.13644, 1.202, 1.22913, 1.246, 1.20893, 1.19524, 1.19497, 1.19303, 1.19371, 1.2928, 1.31329, 1.30236, 1.45823, 1.27441, 1.47117, 1.25057, 1.25011, 1.54125, 1.24676, 1.25132, 1.25315, 1.29461, 1.2626, 1.27129, 1.26442, 1.26821, 1.2682, 1.57835, 1.2778, 1.28037, 1.28067, 1.29253, 1.28532, 1.28465, 1.28719, 1.28661, 1.28691, 1.29116, 1.29264, 1.29366, 1.29457, 1.2995, 1.29794, 1.30114, 1.30342, 1.30382, 1.30908, 1.31219, 1.31082, 1.31214, 1.31186, 1.31616, 1.31628, 1.32025, 1.32246, 1.32607, 1.32582, 1.32466, 1.32809, 1.32791, 1.32914, 1.32955, 1.33345, 1.33388, 1.33905, 1.34004, 1.34156, 1.34535, 1.34758, 1.3467, 1.34811, 1.34882, 1.35061, 1.35754, 1.35679, 1.35386, 1.4407, 1.45626, 1.44135, 1.45096, 1.45039, 1.46785, 1.45228, 1.46567, 1.46195, 1.43155, 1.43033, 1.47135, 1.41581, 1.44115, 1.41604, 1.43471, 1.43624, 1.42405, 1.43702, 1.43211, 1.44044, 1.44179, 1.44949, 1.45207, 1.45727, 1.46066, 1.47207, 1.47112, 1.47547, 1.48237, 1.48785, 1.48984, 1.49432, 1.49934, 1.49971, 1.50331, 1.50885, 1.51075, 1.54315, 1.52429, 1.52374, 1.52515, 1.52896, 1.52952, 1.53412, 1.54217, 1.5457, 1.54536, 1.54769, 1.55375, 1.55275, 1.56212, 1.62529, 1.57262, 1.57201, 1.57885, 1.62968, 1.59439, 1.59264, 1.59728, 1.60624, 1.60408, 1.61099, 1.62231, 1.6224, 1.62026, 1.6597, 1.63122, 0.00440672, 1.68524, 1.68439, 1.69179, 1.66255, 1.67152, 1.67077, 1.69324, 1.68553, 1.68576, 1.79088, 1.69547, 1.69713, 1.70244, 1.71425, 1.71095, 1.72604, 1.72809, 1.73376, 1.75134, 1.74938, 1.8559, 1.84107, 1.8453, 1.84233, 0.00433706, 0.00459171, 2.00759, 1.99382, 1.83707, 0.00437186, 1.84191, 1.98538, 1.85495, 1.85163, 1.85119, 0.00438641, 1.8593, 1.86407, 1.86149, 1.85598, 1.86207, 1.86428, 1.85951, 1.85675, 1.85562, 1.85484, 1.85394, 1.84847, 1.84612, 1.84505, 1.8408, 1.83851, 1.83705, 1.83801, 1.85732, 1.85123, 1.85358, 1.85455, 1.86227, 0.00375932, 0.00410742, 0.00444958, 1.87927, 1.8932, 1.89276, 1.8931, 1.90387, 1.90207, 1.90715, 1.91422, 1.9111, 1.91029, 1.91461, 1.91158, 1.9138, 1.9199, 1.91575, 1.91524, 1.91683, 1.92011, 1.91616, 1.91446, 1.91394, 1.91513, 1.91221, 1.91178, 1.90988, 1.91093, 1.91315, 1.9053, 1.91296, 1.91583, 1.90748, 0.0044875, 1.93414, 1.93045, 1.93488, 1.93824, 1.94189, 1.94861, 1.94561, 1.94785, 1.94447, 1.9433, 1.94293, 1.93683, 1.93912, 1.93709, 1.93318
1.0011, 1.00373, 1.00562, 1.22662, 1.57284, 1.54848, 1.00859, 1.02721, 1.06702, 1.034, 0.00446907, 1.09815, 1.09527, 1.02984, 1.03372, 1.04277, 1.06394, 1.04364, 1.5452, 1.04739, 1.05011, 1.05216, 1.37544, 1.41304, 1.43757, 1.0616, 1.06826, 1.08075, 1.08034, 1.08069, 1.08217, 1.0857, 1.0892, 1.10288, 1.09534, 1.09814, 1.14355, 1.40701, 1.11547, 1.11649, 1.15355, 1.12456, 1.13327, 1.23723, 1.15522, 1.20863, 1.20835, 1.25087, 1.20636, 1.23884, 1.26916, 1.3191, 1.40202, 1.37984, 1.41321, 1.23189, 1.50284, 1.31289, 1.24381, 1.24696, 1.25031, 1.25679, 1.25824, 1.26442, 1.26017, 1.26117, 1.26867, 1.26904, 1.27216, 1.27704, 1.27495, 1.27422, 1.27933, 1.27955, 1.28271, 1.28573, 1.28481, 1.28782, 1.3311, 1.30742, 1.30871, 1.29266, 1.29374, 1.29863, 1.30229, 1.30262, 1.30669, 1.30713, 1.31157, 1.31038, 1.31094, 1.3111, 1.31609, 1.3193, 1.31881, 1.32478, 1.32265, 1.32386, 1.32456, 1.32819, 1.32746, 1.33125, 1.33171, 1.33713, 1.33704, 1.34022, 1.34141, 1.34062, 1.38116, 1.38451, 1.34294, 1.34458, 1.39623, 1.34085, 1.34065, 1.44317, 1.35065, 1.83819, 1.45195, 1.35513, 1.448, 1.44159, 1.45954, 1.43655, 1.43627, 1.37904, 1.46317, 1.46519, 1.4583, 1.40941, 1.40866, 1.43739, 1.42388, 1.42545, 1.42962, 1.4382, 1.44262, 1.44373, 1.4559, 1.45983, 1.45913, 1.45984, 1.4714, 1.47256, 0.00404973, 1.48211, 1.48589, 1.49188, 1.49853, 1.50216, 1.5018, 1.50641, 1.51139, 1.56403, 1.51998, 1.51845, 1.52661, 1.53032, 1.53077, 1.53667, 1.53837, 1.5402, 1.54893, 1.54495, 1.55161, 1.5495, 1.55565, 1.60597, 1.57202, 1.56974, 1.57538, 1.58183, 1.58578, 1.58569, 1.59098, 1.59837, 1.5996, 1.64767, 1.62143, 1.61994, 1.62587, 1.64374, 0.00373907, 1.70769, 1.70379, 1.65291, 1.66156, 1.66803, 1.66771, 1.73959, 0.00407776, 1.68208, 1.69127, 1.69018, 1.7025, 1.69704, 1.70677, 1.71736, 1.72438, 1.72753, 1.74044, 1.76654, 0.00399508, 1.93141, 0.0043843, 1.77366, 1.85165, 2.0115, 0.00351523, 0.00510014, 0.00413853, 1.97604, 0.00380382, 0.0103119, 0.00411328, 1.96643, 1.95891, 1.85471, 1.85918, 1.85788, 1.86295, 1.86261, 1.8626, 1.86106, 1.86133, 1.86259, 1.85755, 1.85561, 1.85794, 1.85247, 1.8525, 1.8484, 1.84358, 1.83939, 1.84134, 1.83665, 1.8357, 1.83199, 1.84411, 1.84978, 1.84737, 1.84248, 1.83947, 0.0048515, 0.0044239, 0.00413086, 0.00454121, 1.88654, 1.89246, 1.88977, 1.89868, 1.89675, 1.90288, 1.90492, 1.90892, 1.90732, 1.90513, 1.91014, 1.90857, 1.91437, 1.91149, 1.91438, 1.91722, 1.91569, 1.91341, 1.91514, 1.91373, 1.91186, 1.91295, 1.91343, 1.91201, 1.91106, 1.90925, 1.90873, 1.91006, 1.9122, 1.91112, 1.9082, 1.92622, 1.93101, 1.93158, 1.93229, 1.93868, 1.94048, 1.94087, 1.94116, 1.94034, 1.93922, 1.93829, 1.93732, 1.93341, 1.93711, 1.93313
0.990134, 0.992832, 0.99409, 0.9956, 0.995906, 0.998036, 1.14669, 1.11613, 1.1738, 1.06274, 1.05334, 1.0472, 1.05383, 1.02116, 1.0234, 1.02656, 1.03161, 1.03207, 1.03553, 1.03718, 1.03546, 1.03866, 1.37744, 1.4579, 1.05306, 1.04808, 1.04916, 1.05413, 1.36475, 1.10952, 1.07488, 1.07942, 1.08096, 0.00449155, 1.0855, 1.20566, 1.11945, 1.11987, 1.10477, 1.14675, 1.11582, 1.11692, 1.26403, 1.21636, 1.12853, 1.1707, 1.19894, 1.19904, 1.21, 1.22744, 1.18111, 1.20135, 1.32874, 1.30234, 1.39455, 1.43487, 1.26055, 1.23533, 1.23751, 1.25051, 1.24445, 1.24708, 1.24768, 1.25155, 1.25187, 1.26115, 1.26118, 1.26809, 1.26542, 1.26756, 1.26981, 1.26885, 1.26876, 1.27201, 1.27796, 1.27762, 1.28115, 1.28235, 1.2832, 1.33483, 1.28637, 1.29154, 1.28807, 1.28896, 1.29534, 1.32954, 1.31008, 1.40512, 1.32193, 1.30883, 1.30967, 1.31202, 1.31038, 1.31146, 1.3151, 1.31658, 1.32055, 1.32276, 1.32526, 1.32441, 1.33072, 1.32967, 1.32969, 1.3327, 1.33142, 1.33634, 1.33149, 1.33235, 1.32887, 1.34003, 1.35455, 1.4342, 1.41959, 1.33228, 1.33431, 1.63226, 1.43257, 1.433, 1.41291, 1.33697, 1.43982, 1.45577, 1.35849, 1.35809, 1.42371, 1.45653, 1.46207, 1.44106, 1.38681, 1.38827, 1.46911, 1.41003, 1.42098, 1.42442, 1.42993, 1.43577, 1.43408, 1.44632, 1.44585, 1.45094, 1.45704, 1.45868, 1.46411, 1.46749, 1.47195, 1.47862, 1.48179, 1.48896, 1.49275, 1.4976, 1.49933, 1.50493, 1.50994, 1.50961, 1.52154, 1.51939, 1.5265, 1.52654, 1.5306, 1.53324, 1.53497, 1.53999, 1.55111, 1.54196, 1.54815, 1.5499, 1.55115, 1.5618, 1.56093, 1.56816, 1.61334, 1.57884, 1.5819, 1.58669, 1.5885, 1.59245, 1.59699, 1.60367, 1.61606, 1.64885, 1.62657, 1.63265, 1.64063, 1.64216, 1.64715, 1.65758, 1.66312, 1.66431, 1.67343, 1.67476, 1.76852, 1.68959, 1.68898, 1.69076, 1.69494, 1.70387, 1.80058, 1.7924, 1.72752, 0.00405991, 1.73998, 1.74893, 1.75987, 1.76263, 1.95564, 0.00397596, 1.94641, 0.00354617, 2.01163, 0.00427862, 2.01032, 0.0041624, 0.0130209, 0.00369859, 1.96713, 1.96598, 1.8539, 1.97626, 1.85929, 1.85793, 1.85757, 1.85321, 1.86121, 1.86011, 1.8598, 1.85727, 1.85819, 1.86026, 1.84961, 1.85189, 1.8498, 1.84646, 1.84218, 1.84218, 1.83903, 1.83662, 1.8341, 1.83838, 1.83331, 1.8374, 1.84707, 1.84541, 1.84343, 1.83974, 1.85772, 0.00426007, 0.0103414, 0.00387538, 1.88438, 2.28398, 2.28709, 0.00421829, 1.89012, 1.90309, 1.89406, 1.90348, 1.90338, 1.90728, 1.90532, 1.90771, 1.90774, 1.90895, 1.90837, 1.90628, 1.91074, 1.90897, 1.91511, 1.91268, 1.91361, 1.9103, 1.9086, 1.91454, 1.91134, 1.90855, 1.91433, 1.91122, 1.9068, 1.91534, 1.91715, 1.92265, 1.9273, 1.92435, 1.92509, 1.93433, 1.9321, 1.94334, 1.93786, 1.93803, 1.93539, 1.93448, 1.93156, 1.94106, 1.93899
0.981503, 0.985441, 0.986436, 0.986238, 0.98577, 0.98775, 0.986142, 0.984142, 0.986907, 0.988036, 0.992018, 1.00034, 0.00410525, 1.01541, 1.01359, 1.01626, 1.0202, 1.02386, 1.02669, 1.02743, 1.03005, 1.02333, 1.02312, 1.02547, 1.03285, 1.04133, 1.04154, 1.04609, 1.04759, 1.3476, 1.06481, 1.0668, 1.06905, 1.07303, 1.07458, 1.08007, 1.08592, 1.08835, 1.35862, 1.17801, 1.17981, 1.17331, 1.13034, 1.1164, 1.12051, 1.12249, 1.24852, 1.26113, 1.25158, 1.19265, 1.18999, 1.20464, 1.19534, 1.28505, 1.30217, 1.34095, 0.00454053, 1.29136, 1.23049, 1.23613, 1.23672, 1.24248, 1.24341, 1.24568, 1.24817, 1.2494, 1.25574, 1.25943, 1.25891, 1.26477, 1.26453, 1.26502, 1.26316, 1.26372, 1.26824, 1.27284, 1.27488, 1.278, 1.28465, 1.27965, 1.28086, 1.28154, 1.28291, 1.28863, 1.28362, 1.29226, 1.31346, 1.60602, 1.30894, 1.33443, 1.34, 1.30774, 1.30814, 1.30917, 1.33019, 1.34818, 1.31684, 1.31978, 1.31979, 1.32301, 1.32338, 1.32474, 1.32525, 1.32641, 1.32523, 1.32421, 1.3254, 1.32342, 1.32252, 1.32034, 1.31673, 1.31588, 1.43943, 1.31237, 1.33985, 1.41191, 1.33238, 1.31734, 1.48967, 1.31433, 1.45487, 1.36602, 1.33298, 1.33023, 1.34282, 1.40273, 1.43352, 1.35631, 1.3706, 1.38345, 1.384, 1.39763, 1.41392, 1.41525, 1.42957, 1.42842, 1.43102, 1.43833, 1.44703, 1.45413, 1.45192, 1.46066, 1.46201, 1.46765, 1.47088, 1.47717, 1.47545, 1.47805, 1.4876, 1.49309, 1.49675, 1.49834, 1.50839, 1.50553, 1.51498, 1.51788, 1.52354, 1.52295, 1.53203, 1.53294, 1.53888, 1.53764, 1.53773, 1.62348, 1.63795, 1.55389, 1.56094, 1.55996, 1.56494, 1.56767, 1.57507, 1.57678, 1.57836, 1.58245, 1.58915, 1.59234, 1.59275, 1.6083, 1.60762, 1.61902, 1.62483, 1.62936, 1.64154, 1.64022, 1.65585, 1.65465, 1.69043, 1.67088, 1.67686, 1.67603, 1.6797, 1.68507, 1.69869, 1.69404, 1.6959, 1.70912, 1.71969, 1.71579, 1.72748, 1.73149, 1.73829, 1.77201, 1.77193, 1.76828, 1.78634, 1.78428, 0.00444703, 0.00456086, 0.00421163, 0.00394623, 0.00454133, 1.97955, 1.97342, 2.00238, 0.00449295, 0.00370084, 0.00389195, 0.00479077, 1.86108, 1.85843, 1.85853, 1.85446, 1.85524, 1.86206, 1.85978, 1.85969, 1.8557, 1.85353, 1.85073, 1.84742, 1.84426, 1.84079, 1.84, 1.84097, 1.84077, 1.83758, 1.83501, 1.83445, 1.84063, 1.83616, 1.84143, 1.84249, 1.84565, 1.84401, 1.84666, 1.849, 1.85985, 1.86604, 1.87466, 1.89537, 2.16932, 2.24503, 1.89093, 1.88857, 1.89513, 1.89351, 1.89217, 1.89786, 1.89702, 1.91131, 1.90768, 1.90517, 1.90614, 1.91054, 1.90982, 1.90785, 1.90959, 1.90816, 1.90688, 1.90798, 1.905, 1.90207, 1.90695, 1.9112, 1.90971, 1.91681, 1.91747, 1.91482, 1.91852, 1.92387, 1.92211, 1.92544, 1.92424, 1.92073, 1.93002, 1.93496, 1.93712, 1.93668, 1.93814, 1.93689, 1.93285, 1.9423, 1.94126
0.975965, 0.978728, 1.04953, 0.979213, 0.979412, 0.977324, 0.974982, 0.97526, 0.974836, 1.06822, 1.00674, 1.10979, 0.994939, 0.997784, 1.48887, 1.00622, 1.01447, 1.01868, 1.02008, 1.02299, 1.02593, 1.02381, 1.02376, 1.02576, 1.02955, 1.03249, 1.03595, 1.03818, 1.04313, 1.04615, 1.05481, 1.05928, 1.06586, 1.06807, 1.06937, 1.07731, 1.07701, 1.08079, 1.701, 1.7107, 1.70592, 1.1025, 1.10263, 1.15366, 1.10958, 1.11349, 1.12143, 1.12237, 1.30908, 1.26425, 1.23275, 1.19974, 1.23643, 1.25076, 1.2676, 1.26844, 1.22278, 0.00412313, 1.22265, 1.22362, 1.24047, 1.23643, 1.23993, 1.24148, 1.24565, 1.30618, 1.25126, 1.25461, 1.25522, 1.2609, 1.26066, 1.26215, 1.26462, 1.2654, 1.30157, 1.27177, 1.27158, 1.27392, 1.27748, 1.27474, 1.27457, 1.27626, 1.27851, 1.27781, 1.28011, 1.29136, 1.28918, 1.29225, 1.29653, 1.30522, 1.35191, 1.31906, 1.32906, 1.33071, 1.2988, 1.3055, 1.31288, 1.31187, 1.3177, 1.31775, 1.31598, 1.3165, 1.31854, 1.31917, 1.31947, 1.31809, 1.31555, 1.34559, 1.31465, 1.30908, 1.30665, 1.30445, 1.30173, 1.30034, 1.29079, 1.30139, 1.42133, 1.29672, 1.30162, 1.4155, 1.45111, 1.41424, 1.34447, 1.31263, 1.31719, 1.33042, 1.34415, 1.35929, 1.36714, 1.37864, 1.43753, 1.43687, 1.48094, 1.41375, 1.50724, 1.42436, 1.5667, 1.43607, 1.44018, 1.47394, 1.45258, 1.45689, 1.46525, 0.00400166, 1.46887, 1.47301, 1.47829, 1.47834, 1.48821, 1.48825, 1.4945, 1.49294, 1.50798, 1.50908, 1.51291, 1.51633, 1.52384, 1.52921, 1.53153, 1.53541, 1.5347, 1.53981, 1.54036, 1.71002, 1.55393, 1.55729, 1.55982, 1.56971, 1.57056, 1.57173, 1.57815, 1.57682, 1.58297, 1.58594, 1.59228, 1.59271, 1.60081, 1.63797, 1.61296, 1.6267, 1.63374, 1.62809, 1.66605, 1.65155, 1.65145, 1.67836, 1.66502, 1.66926, 1.71127, 1.67968, 1.68664, 1.70008, 1.69632, 1.70358, 1.703, 1.70963, 1.71341, 1.71277, 0.00413803, 0.00387271, 1.77173, 1.75985, 1.77233, 1.77118, 0.0102947, 0.00407106, 0.00375175, 0.00407427, 0.00508945, 0.00416719, 2.01163, 0.00385869, 1.84426, 1.8424, 1.84778, 1.84829, 1.85572, 1.85394, 1.85919, 0.00388447, 2.74689, 1.85795, 1.85676, 1.86175, 1.85785, 1.85604, 1.85616, 0.0039267, 1.85146, 1.84852, 1.84638, 1.84487, 1.84095, 1.84054, 1.83525, 1.83326, 1.83262, 1.83061, 1.82312, 1.83122, 1.83728, 1.83466, 1.84404, 1.84527, 1.84408, 1.85198, 1.85389, 1.85799, 1.85781, 2.2079, 2.19332, 2.18442, 1.89471, 1.89054, 1.8938, 1.89362, 1.89834, 1.89381, 1.90017, 1.90337, 1.90209, 1.90782, 1.90958, 1.91165, 1.9118, 1.91106, 1.90985, 1.91157, 1.90826, 1.90621, 1.90371, 1.90125, 1.90776, 1.91031, 1.91464, 1.91266, 1.92046, 1.91496, 1.91708, 1.91907, 1.92383, 1.92024, 1.92536, 1.92725, 1.93555, 1.93451, 1.93438, 1.92944, 1.93802, 1.93802, 1.93872, 1.94187, 1.94087
0.972424, 0.972925, 0.971959, 0.971923, 0.971579, 1.00124, 1.12546, 0.96429, 0.966179, 0.967642, 0.976269, 1.0076, 0.989229, 0.991788, 1.47637, 1.45251, 1.01258, 1.00625, 1.01884, 1.01604, 1.01795, 1.01999, 1.02445, 1.02523, 1.02755, 1.02902, 1.15784, 1.03436, 1.03951, 1.32763, 1.04762, 1.05309, 1.05882, 1.06106, 1.06291, 1.06359, 1.06728, 1.07096, 0.00452485, 1.08739, 1.96814, 1.96446, 1.10199, 1.09928, 1.10117, 1.13616, 1.10896, 1.11179, 1.14386, 1.33017, 1.19576, 1.31288, 1.27894, 1.1787, 1.18485, 1.37871, 1.19908, 1.38504, 0.00431146, 1.44523, 1.44153, 1.43749, 1.45662, 1.24408, 1.23658, 1.24382, 1.24713, 1.2528, 1.25079, 1.25315, 1.2781, 1.25794, 1.26131, 1.26153, 1.3292, 1.26445, 1.2666, 1.269, 1.26463, 1.26623, 1.26732, 1.26784, 1.33367, 1.27374, 1.2759, 1.27916, 1.28095, 1.28523, 1.28983, 1.29363, 1.29425, 1.29387, 1.29229, 1.29199, 1.29954, 1.30024, 1.30427, 1.30627, 1.30911, 1.30953, 1.30997, 1.3095, 1.33935, 1.30701, 1.30497, 1.30476, 1.30262, 1.30421, 1.29722, 1.29856, 1.29645, 1.34367, 1.43267, 1.29518, 1.29288, 1.2914, 1.29152, 1.28991, 1.29049, 1.29399, 1.29147, 1.36393, 1.4179, 1.43718, 1.37686, 1.41204, 1.36983, 1.39595, 1.39181, 1.42358, 1.37519, 1.38726, 1.39458, 1.41573, 1.40548, 1.41664, 1.42696, 1.43948, 1.43826, 1.5544, 1.557, 1.47162, 1.46127, 1.46271, 1.47107, 1.47256, 1.47237, 1.47188, 1.47526, 1.48641, 1.49266, 1.53311, 1.50437, 1.51371, 1.51281, 1.51965, 1.52108, 1.53049, 1.53681, 1.53612, 1.53964, 1.54287, 1.5468, 1.54853, 1.54779, 1.55461, 1.56167, 1.57104, 1.57108, 1.57819, 1.58398, 1.58354, 1.58648, 1.59544, 1.59368, 1.69934, 1.60258, 1.60827, 1.6767, 1.6524, 1.6237, 1.63346, 1.72281, 1.64774, 0.00420888, 1.71798, 1.66488, 1.67429, 1.67531, 1.68221, 1.69292, 1.69976, 1.69747, 1.70882, 1.70865, 1.70819, 1.72, 1.72699, 0.00407816, 0.0047789, 0.00486187, 0.0033584, 0.00401294, 0.00946597, 0.00390206, 0.0044561, 0.00417558, 0.0102855, 1.8167, 1.82807, 0.00424006, 0.0034157, 0.00403957, 1.84855, 1.84544, 1.84415, 1.84956, 1.84953, 1.85506, 1.85463, 1.85571, 1.85643, 1.8579, 1.85862, 0.00373749, 1.85479, 1.85422, 1.85332, 1.84847, 1.84701, 1.84358, 1.84291, 1.83995, 1.84125, 1.83459, 1.82979, 1.82991, 1.82696, 1.82356, 1.8267, 1.83441, 1.83551, 1.84497, 1.84313, 1.84446, 1.84893, 1.84878, 1.84602, 1.85101, 2.0606, 0.0041578, 1.87826, 0.00406606, 0.00429341, 1.89326, 1.8986, 1.89702, 1.9012, 1.89881, 1.89732, 1.90389, 1.9003, 1.91241, 1.90835, 1.91217, 1.91005, 1.91194, 1.91033, 1.90833, 1.90736, 1.90487, 1.90136, 1.90328, 1.91361, 1.91251, 1.90866, 1.91748, 1.91803, 1.91721, 1.91507, 1.9134, 1.92297, 1.92007, 1.91729, 1.91913, 1.93572, 1.93248, 1.92713, 1.93469, 1.93348, 1.94092, 1.93541, 1.93224
0.96387, 0.967485, 0.96789, 0.961078, 0.960611, 0.9621, 0.962108, 0.961013, 0.964155, 0.969348, 1.04649, 0.994989, 0.986543, 0.987691, 0.991437, 0.994299, 0.997259, 1.09289, 1.00792, 1.01329, 1.01761, 1.01797, 1.01981, 1.02264, 1.02093, 1.02464, 1.02602, 1.02694, 1.03559, 1.03976, 1.57583, 1.56889, 1.05167, 1.05339, 1.0564, 1.05765, 1.05865, 1.06658, 1.06639, 0.00436605, 1.99368, 1.13687, 1.08167, 1.38166, 1.10884, 1.1017, 1.23275, 0.00419597, 1.10528, 1.14103, 1.11635, 1.12566, 1.18952, 1.62055, 1.21294, 0.00397659, 0.00370525, 0.00421853, 0.00446138, 0.00411712, 1.37825, 0.00418184, 1.29629, 1.22376, 1.23112, 1.23736, 1.23578, 1.23712, 1.2413, 1.2448, 1.24875, 1.25013, 1.25174, 1.25463, 1.25764, 1.25935, 1.26149, 1.26206, 1.26195, 1.2638, 1.26325, 1.26518, 1.26564, 1.26943, 1.28215, 1.27424, 1.28454, 1.28415, 1.2852, 1.28822, 1.28865, 1.29345, 1.29629, 1.29704, 1.29851, 1.29891, 1.30169, 1.30123, 1.30551, 1.3021, 1.30154, 1.29846, 1.29515, 1.29579, 1.29605, 1.28808, 1.29074, 1.28659, 1.28802, 1.28805, 1.28845, 1.28648, 1.28759, 1.2882, 1.28656, 1.28754, 1.3826, 1.38288, 1.28681, 1.28647, 1.28596, 1.28786, 1.38137, 1.40608, 1.36127, 1.39577, 1.32301, 1.38981, 1.64712, 0.00408155, 1.67231, 0.00377916, 1.4317, 1.43288, 1.43758, 1.48368, 1.41987, 0.00401682, 1.62722, 1.44325, 1.46522, 1.46573, 1.46654, 1.46342, 1.46982, 1.46945, 1.47427, 1.47433, 1.49272, 1.55505, 1.49325, 1.50376, 1.50575, 1.54716, 1.52176, 1.53632, 1.52741, 1.53363, 1.53797, 1.54756, 1.54688, 1.54817, 1.55028, 1.55584, 1.55798, 1.56528, 1.56549, 1.58088, 1.57311, 1.60315, 1.58065, 1.58764, 1.59922, 1.59173, 1.59804, 1.60371, 1.60307, 1.61361, 1.61276, 1.64482, 1.6259, 1.63636, 1.64094, 1.64066, 1.64858, 1.66018, 1.66692, 1.67291, 1.67994, 1.6831, 1.69087, 1.69308, 1.70316, 1.71184, 1.71062, 1.70739, 1.72414, 0.00387885, 0.00319294, 0.00387034, 0.00415338, 0.00393999, 0.00421288, 0.00476978, 0.00395311, 0.00410584, 0.00401805, 0.00443816, 0.00416373, 0.00393974, 1.82969, 1.84209, 1.83887, 1.83586, 1.84158, 1.84662, 1.84936, 1.84799, 1.8491, 1.85129, 1.85483, 1.85155, 1.85358, 0.0042996, 0.00487132, 0.00456175, 1.84633, 1.84817, 1.8447, 1.84454, 1.84122, 0.00426832, 1.8321, 1.83367, 1.83181, 1.83071, 1.82901, 1.82963, 1.82644, 1.8236, 1.82741, 1.83151, 1.83421, 1.83629, 1.84265, 1.83986, 1.8462, 1.85111, 1.85097, 2.08927, 2.0579, 1.87124, 0.00491724, 0.00428714, 0.00390915, 1.89547, 1.89849, 1.89704, 1.90101, 1.90193, 1.90207, 1.90716, 1.90566, 1.9079, 1.905, 1.90852, 1.90529, 1.90791, 1.91075, 1.90789, 1.90511, 1.90377, 1.90449, 1.91164, 1.91027, 1.91332, 1.91027, 1.91028, 1.91078, 1.91638, 1.90991, 1.90891, 1.90591, 1.90961, 1.90376, 1.91442, 1.92703, 1.92635, 1.93085, 1.92917, 1.93508, 1.93691, 1.93163
0.961374, 0.962315, 0.963351, 0.962385, 0.962935, 0.96151, 0.963216, 0.965047, 0.965442, 0.96754, 0.970751, 0.974633, 0.978323, 1.37955, 1.38242, 0.990744, 0.993059, 1.16515, 1.00305, 1.00719, 1.01228, 1.01216, 1.0149, 1.01738, 1.01943, 1.02147, 1.02226, 1.02388, 1.02663, 1.0319, 1.70341, 1.03694, 1.69765, 1.7021, 1.04974, 1.09506, 1.05361, 1.0572, 1.95247, 1.95276, 1.07419, 1.09872, 1.0674, 1.15808, 1.16011, 1.0842, 1.08826, 1.09171, 0.00384673, 1.09863, 1.10027, 1.11281, 1.2927, 1.41061, 1.40983, 1.83872, 0.00396178, 0.00453993, 0.00428382, 1.34117, 0.00387426, 1.19689, 0.00395648, 1.74727, 1.21698, 1.21761, 0.00378933, 1.2953, 1.67951, 1.23624, 1.24063, 1.27693, 1.24613, 1.24654, 1.24709, 1.33067, 1.2546, 1.31891, 1.25622, 1.25866, 1.25858, 1.26135, 1.26147, 1.26296, 1.27398, 1.27101, 1.27417, 1.27747, 1.27826, 1.28204, 1.29068, 1.2917, 1.29413, 1.43097, 1.29685, 1.29606, 1.29818, 1.29791, 1.29364, 1.29554, 1.29263, 1.29067, 1.28743, 1.28405, 1.27722, 1.27975, 1.28155, 1.28289, 1.28249, 1.28115, 1.28446, 1.28408, 1.28279, 1.2825, 1.28365, 1.28052, 1.27514, 1.27602, 1.30577, 1.43415, 1.28131, 1.28908, 1.2889, 1.28953, 1.29646, 1.36976, 1.35051, 1.3549, 1.37109, 1.38012, 1.41227, 1.36116, 1.38939, 1.39944, 1.41614, 1.44795, 1.42064, 1.49446, 1.43524, 1.4352, 1.55437, 1.54835, 1.54021, 1.46408, 1.50008, 1.47158, 1.47397, 1.4837, 1.48602, 1.49164, 1.5415, 1.52764, 1.51372, 1.5188, 1.52384, 1.53939, 1.53138, 1.53549, 1.54354, 1.5459, 0.00376567, 1.55491, 1.56117, 1.55948, 1.56495, 1.57393, 1.56845, 1.58115, 1.58814, 1.58321, 1.58358, 1.58591, 1.5918, 1.59243, 1.59197, 1.59668, 1.60047, 1.60983, 1.6147, 1.62039, 1.62984, 1.62851, 1.63924, 1.6493, 1.6498, 1.66198, 1.67406, 1.68668, 1.68872, 1.71992, 1.72071, 1.73493, 1.72332, 1.75513, 1.71428, 1.72322, 0.00388575, 1.78238, 1.78148, 1.76147, 0.0039128, 0.00998971, 0.00431444, 0.00372962, 0.00426825, 0.00425373, 0.00429105, 0.00481092, 0.00397796, 1.97991, 0.0038436, 1.97287, 1.83166, 1.83844, 0.00429371, 1.84529, 1.84173, 1.84518, 0.00371365, 1.99298, 0.00423618, 1.8472, 1.84605, 1.85236, 1.84246, 1.84003, 1.84838, 1.84429, 1.84252, 1.84185, 1.8327, 1.83445, 1.83361, 1.83043, 1.83048, 1.82946, 1.82893, 1.82848, 1.82745, 1.82506, 1.8346, 1.8248, 1.8297, 1.83077, 1.82746, 1.84076, 1.84422, 1.84633, 0.0044138, 1.85891, 1.86296, 1.945, 0.00361345, 0.00458302, 0.00405566, 1.90227, 0.00407206, 1.89832, 1.89804, 1.89689, 1.90021, 1.90392, 1.90472, 1.90139, 1.905, 1.90761, 1.90611, 1.904, 1.90803, 1.90536, 1.90626, 1.9081, 1.90856, 1.91312, 1.91044, 1.90804, 1.91309, 1.91252, 1.9084, 1.90714, 1.90569, 1.90512, 1.90654, 1.90339, 1.90148, 1.90313, 1.90988, 1.91124, 1.9247, 1.91744, 1.92436, 1.92485, 1.92956
0.956618, 0.958516, 0.960512, 0.960696, 0.958079, 0.959999, 0.960386, 0.963055, 0.96167, 0.964499, 0.965503, 0.969407, 0.97761, 0.978721, 0.983069, 1.38833, 0.989591, 1.37067, 1.06379, 1.04794, 1.00526, 1.00597, 1.00978, 1.01191, 1.01296, 1.01403, 1.01606, 1.02233, 1.02184, 1.0272, 1.0288, 1.03065, 1.12957, 1.0365, 1.03717, 1.0389, 1.04573, 1.05406, 1.85122, 1.04971, 1.05143, 1.05324, 1.09749, 1.68343, 1.67892, 1.07271, 1.08065, 1.08066, 1.0981, 0.00424112, 1.24256, 1.22885, 1.14823, 1.40212, 1.17748, 0.00418322, 1.14786, 0.00442925, 1.56506, 1.2673, 1.52666, 0.00405324, 1.2234, 0.0037431, 1.22922, 0.00419821, 1.21254, 1.61322, 1.95913, 1.21606, 1.2214, 1.27135, 1.30396, 1.43071, 1.43101, 1.61683, 1.24277, 1.35669, 1.30911, 1.24982, 1.25419, 1.25577, 1.2596, 1.26373, 1.26689, 1.26993, 1.27075, 1.27203, 1.27677, 1.28082, 1.28262, 1.28773, 1.28683, 1.28881, 1.29331, 1.29146, 1.29376, 1.29249, 1.29245, 1.29134, 1.28466, 1.28365, 1.27711, 1.27382, 1.27433, 1.27401, 1.27578, 1.27565, 1.27597, 1.27493, 1.27761, 1.27641, 1.28128, 1.2763, 1.27241, 1.27298, 1.2709, 1.27132, 1.27234, 1.27153, 1.27464, 1.277, 1.2773, 1.41355, 1.36502, 0.00353994, 1.32351, 1.35927, 1.40709, 1.40724, 1.3346, 1.39475, 1.36986, 0.00398356, 1.38596, 1.39573, 1.41094, 1.51799, 1.45516, 1.45595, 1.53886, 1.53098, 1.52084, 1.49254, 1.54007, 1.47528, 1.52855, 1.50905, 1.50014, 1.49941, 1.51298, 1.51565, 1.5177, 1.7004, 1.6274, 1.54672, 1.54005, 1.54334, 1.54709, 1.54709, 1.54678, 1.55687, 1.56505, 0.00422137, 1.56992, 0.00424839, 1.59242, 1.57791, 1.61368, 1.58842, 1.58956, 1.58847, 1.58962, 1.58879, 1.59587, 1.63289, 1.62784, 1.62225, 1.61926, 1.6715, 1.75491, 1.70733, 1.63501, 0.00340089, 1.75166, 1.67755, 1.67962, 1.69338, 1.68855, 0.00407234, 1.74404, 0.00387764, 1.70745, 0.00374517, 1.97456, 0.00454519, 1.95112, 1.73483, 1.7364, 1.73834, 1.76594, 0.00387928, 0.00370856, 0.00361612, 0.00475181, 0.00418401, 0.00431188, 0.00417539, 0.0087886, 0.00388803, 0.0048391, 0.00399224, 0.00486196, 0.00395274, 1.83908, 1.837, 1.84362, 1.84284, 1.84356, 1.84456, 0.00426808, 0.00428033, 1.84445, 0.00398448, 1.84024, 1.83898, 1.83771, 1.83555, 1.84107, 0.00419632, 1.83503, 1.83506, 1.83401, 1.8331, 1.83102, 1.83024, 1.83017, 1.82711, 1.82908, 1.82626, 1.82263, 1.82255, 1.82708, 1.83119, 1.8298, 1.83785, 1.84382, 0.00390027, 1.85762, 1.85491, 1.86115, 0.00410817, 1.8731, 0.00398254, 0.00423212, 1.88734, 1.88898, 1.89297, 1.89457, 1.89719, 1.8967, 1.89586, 1.89991, 1.89861, 1.89633, 1.89992, 1.90532, 1.90195, 1.90122, 1.9013, 1.90697, 1.90686, 1.90505, 1.9034, 1.91108, 1.90405, 1.90502, 1.90282, 1.90841, 1.9018, 1.90588, 1.90093, 1.8995, 1.90148, 1.90482, 1.90707, 1.9097, 1.90776, 1.91722, 1.91663, 1.91684, 1.92789, 1.92342
0.952677, 0.952297, 0.95116, 0.956303, 0.957391, 0.957374, 0.95625, 0.95861, 0.959204, 0.959906, 0.962301, 0.964421, 1.19106, 1.10492, 1.10009, 0.980465, 1.1497, 0.988772, 0.991624, 0.994885, 0.995501, 1.00535, 1.00192, 1.00429, 1.008, 1.008, 1.01149, 1.01431, 1.01629, 1.02073, 1.02327, 1.0259, 1.02969, 1.03076, 1.03599, 1.0324, 1.035, 1.03573, 1.91585, 1.04323, 1.04441, 1.04686, 1.04891, 1.70708, 1.69871, 0.00397627, 0.00440802, 1.07156, 1.07139, 1.10359, 1.09156, 1.10826, 1.11465, 1.15636, 1.15073, 1.50348, 1.13623, 1.139, 1.14333, 1.18152, 0.00452669, 0.0041562, 1.16625, 1.20202, 1.23587, 1.23602, 0.0045316, 1.37424, 1.19341, 1.19815, 1.58143, 1.58192, 1.26837, 1.56741, 1.21068, 1.23492, 1.25438, 1.23559, 1.2493, 1.24659, 1.24977, 1.25172, 1.25237, 1.25793, 1.34439, 1.3433, 1.26806, 1.27198, 1.27215, 1.27593, 1.28009, 1.28198, 1.28283, 1.28493, 1.28725, 1.28573, 1.28497, 1.28746, 1.28509, 1.28461, 1.2771, 1.27275, 1.26924, 1.26569, 1.26621, 1.26654, 1.26526, 1.27067, 1.27123, 1.27246, 1.27399, 1.27402, 1.27371, 1.27343, 1.2682, 1.2633, 1.26343, 1.25991, 1.26365, 1.26408, 1.26544, 1.27012, 1.27045, 1.27821, 1.27947, 1.28471, 1.29553, 1.48132, 1.38038, 1.38406, 1.32384, 1.33094, 1.40556, 1.40202, 1.45098, 1.40074, 0.00410836, 1.44058, 1.52546, 1.42381, 1.48945, 1.44601, 1.4617, 1.46532, 1.46628, 1.47835, 1.49132, 1.48836, 1.49759, 1.50822, 1.52057, 1.52976, 1.5266, 1.56497, 1.60871, 1.54236, 1.54242, 1.54554, 1.55124, 1.55039, 1.55291, 1.64954, 1.66543, 1.57625, 1.58501, 1.57599, 1.58124, 1.69384, 1.58618, 1.5883, 1.59203, 1.59231, 1.59047, 1.59224, 1.60554, 1.69265, 1.61538, 1.67249, 1.6192, 1.62825, 1.63379, 1.64636, 1.72338, 1.73458, 1.7625, 1.67271, 1.68207, 1.68396, 1.68425, 1.71754, 0.00365077, 1.74219, 1.72548, 1.71455, 0.00413472, 1.72341, 1.7312, 1.7705, 1.73946, 1.73858, 0.00421777, 1.78014, 0.00388527, 0.00371604, 0.00423189, 0.00402557, 0.00410045, 0.00378788, 0.00376896, 1.81326, 0.00415963, 1.82429, 0.00434709, 0.00425094, 1.83494, 1.83484, 1.83646, 1.83842, 1.83841, 1.83892, 1.84096, 1.84175, 1.84134, 1.84864, 0.00397885, 1.8436, 1.83933, 1.83994, 0.010999, 1.83783, 1.83477, 1.83316, 1.83621, 1.82996, 1.83226, 1.83396, 1.82787, 1.82686, 1.82996, 1.827, 1.82475, 1.82583, 1.82641, 1.83205, 1.83531, 1.83771, 0.00377791, 1.84156, 1.85733, 1.8613, 1.85924, 1.86569, 1.86652, 1.86594, 1.88261, 1.87845, 0.00389943, 1.8846, 1.88235, 1.88773, 1.89235, 1.89142, 1.89676, 1.89418, 1.8944, 1.89919, 1.89697, 1.94846, 1.92368, 0.00432959, 0.00382919, 0.00350464, 1.90017, 1.8948, 1.9008, 1.89721, 1.90356, 1.90411, 1.90117, 1.89937, 1.89928, 1.89641, 1.90113, 1.90133, 1.90046, 1.90582, 1.90097, 1.89653, 0.00396598, 1.91127, 1.91117, 1.9189, 1.91755
0.945318, 0.947331, 0.949007, 0.948872, 0.951281, 0.952741, 0.953207, 0.953542, 0.95448, 0.955119, 0.956823, 1.18923, 0.964063, 0.968392, 0.970926, 0.975023, 1.0273, 0.983874, 0.984831, 0.997841, 0.99054, 0.993432, 0.994667, 0.999454, 0.998008, 1.00124, 1.00289, 1.01236, 1.01168, 1.59126, 1.01643, 0.00355497, 1.02151, 1.02535, 1.02556, 1.02648, 1.02761, 1.02911, 1.76325, 1.76653, 1.04199, 1.04094, 1.04305, 1.04535, 1.21591, 1.05519, 1.05878, 1.06038, 1.06439, 1.76616, 1.07017, 1.61642, 1.65186, 1.08663, 1.12924, 0.00389753, 1.42738, 0.00414848, 1.49256, 1.4842, 1.48821, 0.00407335, 1.16036, 0.00372767, 0.00397895, 1.20945, 1.39939, 1.3923, 1.48825, 1.3311, 1.19639, 0.00397537, 1.18581, 1.1994, 1.1995, 1.24354, 1.22049, 1.2509, 1.22367, 0.004127, 1.23298, 0.00414001, 1.24484, 1.25036, 1.25082, 0.00405768, 1.26088, 1.26419, 1.26772, 1.27071, 1.27443, 1.27655, 1.27664, 1.27518, 1.28088, 1.2794, 1.28038, 1.27991, 1.27861, 1.27762, 1.27452, 1.27264, 1.27004, 1.2699, 1.26419, 1.26496, 1.26652, 1.2685, 1.26826, 1.26926, 1.27058, 1.27102, 1.26895, 1.26696, 1.26652, 1.2607, 1.25742, 1.2564, 1.25827, 1.26402, 1.26211, 1.26468, 1.26663, 1.2717, 1.27474, 1.28145, 1.28579, 1.46361, 1.29809, 1.34541, 1.3135, 1.3221, 1.37461, 1.74016, 1.41274, 1.41028, 1.49611, 0.00391003, 1.45167, 1.54448, 1.45205, 1.45081, 1.54422, 1.48139, 1.48034, 1.47864, 1.47801, 1.60521, 1.5294, 1.55533, 1.55668, 1.52472, 1.53083, 1.53558, 1.54483, 1.55913, 1.54828, 1.55485, 1.61965, 1.56476, 1.56932, 1.57715, 1.57775, 0.00391889, 1.58891, 0.00401826, 1.59844, 1.59891, 1.59847, 1.59676, 1.64418, 1.59669, 1.6207, 1.62319, 1.67379, 1.72833, 1.74428, 1.70485, 1.63806, 1.71527, 1.9211, 1.77254, 1.74578, 1.74534, 1.68018, 1.67881, 1.68521, 1.77944, 1.78822, 1.78691, 0.00435813, 1.70831, 1.75882, 1.72127, 1.72086, 1.72722, 1.72733, 1.74862, 1.74473, 1.75159, 1.74413, 0.00421654, 0.0164078, 0.00393295, 0.00376506, 0.00361913, 1.7864, 0.00424683, 0.00420544, 1.81469, 1.81371, 1.81323, 1.82135, 0.0044056, 0.00423692, 1.83042, 1.82885, 1.83363, 1.83171, 1.83129, 1.83265, 1.86175, 1.82261, 1.81984, 0.0045353, 0.00373775, 0.00960131, 0.00406063, 1.8318, 1.83777, 1.83239, 2.09655, 2.13819, 1.83367, 1.83057, 1.82868, 1.83276, 1.82866, 1.82515, 1.82762, 1.82546, 1.8249, 1.82704, 1.82548, 1.83509, 1.83702, 1.83156, 1.84162, 1.84791, 1.8522, 1.85485, 1.86035, 1.86835, 1.86861, 1.87584, 0.00430127, 1.88428, 1.88154, 1.88218, 1.88108, 1.88001, 1.88584, 1.88364, 1.88029, 1.88606, 0.00434058, 1.94736, 0.00344002, 1.94222, 0.00390405, 0.00414394, 0.00384469, 1.88987, 0.00414695, 1.89376, 1.89955, 1.89884, 1.90014, 1.89904, 1.8891, 1.89678, 1.89566, 1.89361, 1.88984, 1.89252, 1.89091, 1.88922, 1.89032, 1.88779, 1.89935, 1.92133, 1.91605, 1.91231
