0.00224085760180787,0.00112845762970009,0.00174440487095525,0.00200307464666188,0.00251798404328068,0.00294518099101938,0.00345151642549777,0.00388257884161316,0.00396003970528246,0.00447284412145089,0.00475177338921788,0.00613881462418105,0.0075740325508123,0.00846261002460346,0.00825185811251869,0.00750177895131789,0.00601445229345208,0.00599591791200699,0.00518689304671276,0.00555252053188534,0.00527795382362764,0.00511407994024319,0.00470936498410707,0.00461148968975112,0.00437612530650003,0.00440079694579023,0.0039329601760928,0.00383090678102675,0.00353676298576961,0.00339850018667414,0.00323057109886439,0.00342195465302972,0.00347527059764662,0.00369965358364552,0.00360438528041829,0.00389328128782572,0.00388686987514369,0.00430117414358707,0.00969516549746076,0.0152634180728794,0.0206946880644297,0.0239148428998363,0.0275095514687598,0.0317335964955611,0.0364805170299715,0.0413396500754898,0.0369843840581837,0.0303053436301814,0.0239229480139478,0.0177234669345024,0.0038919551189106,0.00393251311190101,0.00386184454799148,0.00387879552631166,0.00377194705088293,0.0309000274253859,0.0484008785644552,0.0669371593977296,0.103605237664324,0.103188079300815,0.104457249354842,0.105923773920682,0.113384654422288,0.113790451461166,0.114887537822385,0.1164550513087,0.11755668068134,0.117788084403238,0.117765348922074,0.117994252575786,0.117916565138124,0.117580871975686,0.107262780376659,0.0970017048456623,0.0849329537520244,0.0717308469375276,0.0529177533257707,0.00397119153062535,0.00384044042667275,0.00387091619006532,0.00387324768927913,0.00381001479550938,0.00375784439562611,0.00377735883784961,0.00381638618127576,0.00379076289006457,0.00376969629790707,0.0037036915437464,0.00366812712899693,0.00370331624804599,0.00376163683576949,0.00379648826988168,0.00374659529817924,0.00369436188191503,0.00360209516689343,0.0035759636391093,0.0036529726233978,0.00364873379616503,0.00371500217580236,0.00374718102505784,0.00380337898115376,0.00378229339137851,0.00380262357991206,0.00383494951057129,0.00389908361715106,0.00376995333768564,0.00367079703441338,0.00368396580380903,0.00376672459127349,0.00372032532599503,0.00384029598384213,0.00441270244759798,0.00523929294504688,0.00487030271212402,0.109192520796445,0.288447888584215,0.288300969869162,0.288168396169572,0.287737414590532,0.286680748731787,0.285457647410639,0.28494120846209,0.284365880897857,0.284769865423174,0.148135654057963,0.111961012032178,0.00364331444809816,0.00331510921051005,0.00248123677727521,0,0,0.000318444234810084,0.00151996483141527,0,0,0.00074353582729668,0.00246989542810432,0.109182030483801,0.145160719279165,0.597976550069411,0.599077825412435,0.597976516523984,0.597093955292754,0.225962009275938,0.176008941472731,0.139811196810861,0.103613366194683,0.0641421102046884,0.00354030818647129,0.00343442882916613,0.00353264520305475,0.00361261462521401,0.00367000224489725,0.00363248555661322,0.00361463614400998,0.00370267320853207,0.00377396973071281,0.00379999328726705,0.00376972204325211,0.00383576423810644,0.00385491917199936,0.00399331253404243,0.0041569217201077,0.00472735941838255
0.0597974225540599,0.0590902009488593,0.0590308359424445,0.0577213449151964,0.0565922238038792,0.0225959211856371,0.003444112626897,0.00360335389041174,0.00381415585504141,0.00395496700886184,0.00403678295463736,0.00496947387185096,0.0053220039825692,0.0068570559752342,0.00603784066584201,0.00680656102987788,0.00584445778320042,0.0060339541648013,0.00515804014383988,0.00569367723278956,0.00668942718129144,0.00543456002310334,0.00518118719377936,0.0046812622656274,0.00468625835289253,0.004418551723307,0.00417476232954035,0.00399313598431968,0.00418872483098891,0.00373112126378008,0.0038121936262632,0.00370530860775478,0.00398978943977584,0.00377918651508265,0.00386137769251515,0.00392651131210148,0.00406491092996046,0.00490456986557044,0.0585692000027582,0.0379852444716949,0.058126800007458,0.0208865397573889,0.00391111000684458,0.0139309939267976,0.00360614000342873,0.0458762797160765,0.057846437002638,0.0581031517579037,0.057835669525201,0.0285500267179853,0.00380827577384443,0.0038260858188317,0.00360558719358631,0.00374698476142173,0.00364278007354924,0.0455139605077518,0.101235608601849,0.0989257277272921,0.102312487664627,0.101761515361786,0.109477983217276,0.107493104660994,0.113180639608897,0.113423311266568,0.114486701327705,0.115427321739024,0.116393677437602,0.11688326582598,0.116638639757333,0.117074360431797,0.116670607274011,0.117048829198823,0.00378240999911355,0.0132330164857464,0.00350315999918346,0.0577001778612813,0.129682999999609,0.0039960914033903,0.00363797411716147,0.00394259190505704,0.00399961724582503,0.00389454605361249,0.00362253001736939,0.00373563770712172,0.00357590704413667,0.00372946517793647,0.00366763529041882,0.00365009104003495,0.00351180131068644,0.0036207152782474,0.00359264481234816,0.00375979937523017,0.646544000000034,0.00379540241480533,0.00363573975399359,0.00375912381713642,0.00379004656360496,0.00377966330032856,0.00364126953067941,0.00382171583787562,0.00386286005126091,0.00383625401002364,0.0036390886177632,0.00389069683792731,0.0040085100771313,0.00384090111645691,0.00357108837443196,0.00377299075496883,0.00396738628371007,0.00380382575947702,0.00379634859268975,0.00505429435145809,0.00782345266866526,0.00564205004743848,0.287155177454917,0.287958209622806,0.287877190383162,0.287754704317828,0.287163542729968,0.285144479629919,0.282064179047399,0.281872554845768,0.281423155701929,0.282815560982393,0.300251999853027,0.148135654057963,0.00366906791539545,0.00343651758810932,0.00315669390600561,0.00190051779850691,0.00252386908150344,0.00202680958564155,0.00322060780002791,0.108136059878541,0.587947682712376,0.111450790104369,0.00338858371505951,0.0743223832093054,0.00375306000014504,0.595742507813649,0.600789790003163,0.596357481350178,0.595054188919125,0.18999351252671,0.00341599072189176,0.00341648276619357,0.00336545869730436,0.00356720313472707,0.00378555117549382,0.0035829846153065,0.00353070780181491,0.00359436343372646,0.00371779366878611,0.00349559837292064,0.00346777485325986,0.00351389622281113,0.00363784382066896,0.00368207148492342,0.00372137206792611,0.00377391483730106,0.00384370152434968,0.00392017921241762,0.00399974243454685,0.00525631802933253
0.0590221865819973,0.0585744117183564,0.0580548314827099,0.0576466086957462,0.0571662338695098,0.0314354608104788,0.00352467322191784,0.0036246791553758,0.00369030977176524,0.00407734277264741,0.00424535995451536,0.00516507237049927,0.0061114063561678,0.00833568929281432,0.00789803139688031,0.00875394970943252,0.00846669284741523,0.00816956908070691,0.00640261145989678,0.00633195013872738,0.00590238840353993,0.00574881871057845,0.00506697575781316,0.00520314936792687,0.00484762646336397,0.00511792431402232,0.00466440756497522,0.00459106496205454,0.00419839986119256,0.00443341790772834,0.00420034764834346,0.0045183041755454,0.00418669266529528,0.00442890416204884,0.0041166160653762,0.00455789692675889,0.00479740186708938,0.00646615555270064,0.0101672644565877,0.013319020710522,0.0159057920778542,0.0182973382611752,0.0272066439552723,0.0345990197121511,0.0420686449568883,0.0499728553120388,0.0586339349551229,0.0586523511789498,0.0586987714815039,0.0387121841380017,0.0287729104159001,0.0122213787795876,0.0124492974582335,0.0254167717882501,0.0469801507527821,0.0628497010841951,0.0939897052945721,0.0964524480188095,0.0991177534960528,0.100022817043198,0.103585992529763,0.10699460276544,0.109707207737573,0.112252240587741,0.113579355927535,0.114447947838454,0.11651785001958,0.116699724328907,0.116749696797347,0.116892897100327,0.116800743474973,0.116735651916777,0.0130051793508234,0.0150624016320254,0.0202723655064056,0.0196343451135954,0.0198996979447439,0.00403263650919618,0.00393555925040887,0.00397757805934636,0.00398876970490386,0.00386176195750316,0.00376370612930775,0.0036788577502008,0.00364334407827656,0.00361865524159545,0.00361271956530161,0.00352731964036217,0.00349947219436656,0.0035320111057384,0.00361024086419094,0.00369856096534105,0.00375729523570487,0.00382109453007706,0.0038238830960841,0.00384364243872935,0.00386487223261414,0.00386413949823439,0.00381265146871351,0.00381540907103012,0.00384851787589096,0.00377923202182765,0.00375769574272798,0.00379375126582661,0.00383216977891376,0.00375312243997569,0.00367764702776968,0.00369523312885177,0.00375074645534721,0.00371488561391925,0.00386990264570902,0.0043018586292276,0.00494746826339275,0.00440510855450383,0.272414534070597,0.272287823729134,0.272496376277989,0.273018875014487,0.27429470170617,0.276113778712938,0.278217750745746,0.279572502899426,0.280994007696315,0.282638532496821,0.284023117056388,0.288550060655852,0.29211551881373,0.296526051138965,0.299092156743402,0.300840001463718,0.302292991547011,0.302400234096267,0.331812403214333,0.367397492053969,0.582875856614851,0.582331668583354,0.581668289108965,0.57968741166432,0.577513892773664,0.593562894671824,0.593034821482097,0.594117869266148,0.594048449174941,0.154243322620798,0.00346260080428063,0.00345159900178281,0.00350741149959736,0.0035425077855566,0.00360648283951498,0.00357606697360351,0.00357004303947308,0.00347824458171038,0.00336984525925095,0.00318821842171039,0.00324428154265801,0.00329181926381467,0.00345636742785023,0.0035734678638518,0.00363107477096388,0.00371193170407967,0.00371822032270815,0.00388033493425552,0.00406628973252861,0.00465355388249048
0.0579969797720592,0.0581328130406493,0.057288672060856,0.0576396997714922,0.0573792467345443,0.039763830921888,0.00358056025387815,0.00356492134583083,0.00355031877660908,0.00412795792109364,0.00437879628231137,0.00519898990772354,0.0156389413401191,0.0120548044925536,0.0143064029501686,0.0110547358941668,0.0123445905844963,0.0110926177406887,0.0156597067836295,0.00650068860642945,0.00575876337348668,0.00582901608533205,0.00472693764567427,0.00557211013283208,0.00500487366306272,0.00571402457190447,0.00547538015320452,0.00476075275573579,0.0044382904937528,0.00478436937594264,0.00493803636670838,0.00513491063754361,0.00478811837790487,0.00476899598226785,0.00452863295910009,0.0046303797537307,0.00468782505234601,0.00542572102587486,0.00438470557891957,0.00490840773748493,0.00398672037905657,0.0138436501497374,0.0460526207898597,0.0402608699613508,0.0575303470486043,0.0537826150966221,0.0594281997474825,0.0592390157278312,0.0596678322964433,0.049166814657105,0.0592411990677136,0.0108347928020748,0.00347009698059345,0.0383917290138513,0.0906096096106824,0.0887004983315737,0.0919341685479791,0.0940119238051974,0.0978959775374917,0.0957338794681285,0.0936564899468284,0.0926867724726917,0.0932323953359494,0.0924370789649212,0.00352800000014978,0.10596818858834,0.624056000000034,0.207725674866688,0.627084000000034,0.200802802155965,0.627606000000034,0.116239142070214,0.0036071099993642,0.0123804754850949,0.123118999998509,0.0182968677956918,0.0035142893046831,0.0038582713964826,0.00379482806207766,0.00393970049317135,0.0038111273630785,0.00382490149991747,0.00356800454731286,0.00363951431852849,0.00338438023516879,0.00355272441925403,0.0033974630393448,0.0034252580074917,0.00328432357356714,0.00343496353431348,0.00347844624041761,0.00357211111527005,0.0035680041315569,0.00373085337730314,0.0037594477221916,0.00380158133999672,0.00372086295469024,0.00387486124684556,0.00368634066592608,0.00369146953818335,0.00366598016984113,0.00363620067117866,0.00354488773380753,0.0036856217657872,0.00352538417142373,0.00366484570809776,0.00349581560441776,0.00361924322525047,0.00354787468582927,0.00361294701847626,0.00372798417664436,0.00358916302499202,0.00339501037709103,0.00287243988654262,0.27304156474724,0.272568554772873,0.272755255618167,0.270781658530425,0.271354307187102,0.272488718126919,0.275568326049958,0.27726288963282,0.280773902112064,0.282937158910763,0.281244343514503,0.289999442133126,0.300764090455909,0.29910363082563,0.300579935847091,0.301814417221835,0.30431283149095,0.303294030394617,0.578160000000034,0.432881597206928,0.583290708431767,0.583026581174202,0.583881144819097,0.581086382935456,0.576445578535798,0.591774626765374,0.591171126212654,0.592757880555538,0.592738223267228,0.118683125816766,0.00350523747389549,0.00343562689395051,0.00363615634359708,0.00350033458975276,0.00349267665364156,0.00355591298592382,0.00365170431575534,0.00335340742481031,0.00312176561641441,0.00273909601490946,0.00314764759279324,0.00299970706611315,0.00338196345017076,0.00342750667442718,0.00353108759349161,0.0035622687577066,0.00346511751919607,0.00367656532253134,0.00376889202663893,0.00399816880382902
0.0589124657265178,0.0591795460680829,0.0590461744713744,0.0586092394584336,0.0577815445482549,0.0474010117587636,0.0402981015152657,0.0324920429548282,0.0222829696126254,0.0046552375277076,0.00489721937055528,0.00651859549461096,0.010764217649359,0.0103847208491918,0.0110469083418784,0.00942144841555566,0.0088426076243434,0.00876091875159361,0.007634183884767,0.00763331371792755,0.0076133955018237,0.00771763837006279,0.00658390008573795,0.00778718322471214,0.00704024937622292,0.00767285362374662,0.00611661960378906,0.0054262568039537,0.00512216734837438,0.00617679188304333,0.00692877765366696,0.00729066858160528,0.00692465540761132,0.00639197306351768,0.00526048548282462,0.00567464709782934,0.00546158372493838,0.00663212877706977,0.00676938303706207,0.00644437211627272,0.00568692082854285,0.00706769780077242,0.00869548354261308,0.0100863550736837,0.0110043183306988,0.0112976846843678,0.0110435842776164,0.0104614086629249,0.00979829924126133,0.00924149392026232,0.00885406816218416,0.00854698480505013,0.0432303864090274,0.0520729695586334,0.0654292904449457,0.0867897091414814,0.0906724650345189,0.0907290837791321,0.0908106900179392,0.0917026304218793,0.0918520012716845,0.0916225411200404,0.0919021057709691,0.0922398565225134,0.0933014964467751,0.105059464861984,0.109975155755652,0.113367931184628,0.114425962895823,0.114584047290044,0.114941499137681,0.11568518760653,0.0905749170491297,0.0125524400100719,0.0143888765021298,0.0166264034998993,0.0170777227210921,0.0173083797971258,0.00387992631942528,0.00390475740169006,0.0038385323434024,0.00374197568841891,0.00366348160467469,0.00358512343120733,0.00356228529376166,0.0035023288642474,0.00346805870947106,0.00331802240513639,0.00333883381721222,0.00340702944434924,0.00344012026033399,0.00337632987360628,0.00350265603912325,0.00359510629928504,0.00368766895763882,0.00367415596043253,0.00386481783189953,0.00390044247339189,0.00361662699905574,0.00332989154475482,0.00352217026126241,0.0032826744700996,0.00350833020674431,0.00361869911028749,0.00367255058644891,0.00368196390160393,0.0036543946238035,0.00360320341124064,0.00354794762356351,0.00345393693761602,0.00338251695658412,0.0030497758745312,0.00254579377003491,0.00111325186704035,0.26376618035693,0.264352107540017,0.265522013173063,0.267540671321097,0.268933473843101,0.270530748907036,0.273153788982925,0.273466537418129,0.283999838304069,0.287282381332099,0.290677541922603,0.291499518250087,0.298487245305907,0.298858456570063,0.300326961677083,0.301975700046128,0.303798439731238,0.303769468766043,0.362026757120541,0.396983766436059,0.432527620841418,0.468391932591461,0.584193450306408,0.585204539402608,0.587655372744097,0.590458486156389,0.59102306958159,0.158513872886892,0.119551282631854,0.0832687799561143,0.00324787857885114,0.00313020213765255,0.00331343228679214,0.00328330083081861,0.00337508463113245,0.00343029556993397,0.00347410919986942,0.00314704550942499,0.0026030160006562,0.00178327892779832,0.00187154583144897,0.00248378180898987,0.00295042489263787,0.00327847411687854,0.00348326298849067,0.00347552712437305,0.00351187244248988,0.00360717094569248,0.003678608975329,0.00377501628107141
0.0583760519211257,0.0605774727815772,0.0617655407045716,0.0598948279584875,0.0576344033950489,0.0576290900051374,0.0556284186194769,0.0459472554435137,0.0548325293402334,0.00465142098141348,0.00417426807698773,0.0052492707830061,0.901769000000034,0.00790315737904488,0.00469246143752467,0.00644717593638735,0.00574983700944663,0.00658533801702843,0.00598773953835919,0.00768035613695056,0.01012163690994,0.0102003811462598,0.0151728983423286,0.0113901117545649,0.013874909926253,0.0111769345510469,0.015788089683266,0.0051507033494965,0.00531142331701125,0.00708419349352406,0.0115613975769103,0.009322763575341,0.0106888942109224,0.00743882044438759,0.00567326825195302,0.00615730047050659,0.00591054535251062,0.00797165225604383,0.0102949508787792,0.00803732208468607,0.00522956444153716,0.0066724453512156,0.00503280480410569,0.00526546749604627,0.00390246550361549,0.00410857024016177,0.00376114106341179,0.00367609461100982,0.00339129097396977,0.00356584653586405,0.00365036135296295,0.00582268682105485,0.0868099000087728,0.064490403686141,0.00341981999874656,0.0848292194624893,0.0897709526447772,0.0878639402990969,0.0864165499143882,0.0888559661960578,0.0910858164558588,0.0904052686847633,0.091140589217077,0.0918835473470685,0.0950631639911812,0.0788924423200566,0.00349365000006057,0.0759713791574955,0.114382531966683,0.1145072510309,0.114638724763562,0.115906386613596,0.117429242067214,0.0121588575080698,0.00373048999945192,0.0736363636524634,0.120648999999004,0.0532432345155849,0.00379150065496089,0.00389957112933593,0.00360970862927649,0.00371149448213739,0.00342379795191567,0.00358069374767761,0.00343855463474926,0.00350204409270246,0.00343981293454911,0.00311689389129524,0.185790000000034,0.113386447949553,0.187318000000034,0.00291402862970083,0.00332690394272751,0.0034098870481213,0.00360413422574124,0.0032276068728388,0.621077000000034,0.0741312499721381,0.00328541073037891,0.00224920709115847,0.617620000000034,0.00225909264808749,0.00333132006622761,0.00348607460287086,0.00364163850104448,0.00368961205652711,0.0036842353673656,0.00362089304507574,0.00351002238442375,0.00342011568553117,0.00334569159451922,0.00296612720188521,0.002875444145954,0.00099702270363108,0.263611966946952,0.264250686924096,0.265086370186099,0.266121835945114,0.266412609673862,0.267494266057831,0.266849110943051,0.270196680934878,0.293031638678163,0.291472535280922,0.293110106989927,0.293631241115439,0.295901224166017,0.297664294270403,0.300132153315495,0.302303055883118,0.305511652410551,0.304684023605739,0.306196474098012,0.305785922342247,0.306938864223029,0.407332190027101,0.596555771881135,0.588482775118802,0.592294680172552,0.591362875180849,0.591318848571207,0.12227431597871,0.00354148061020328,0.00300715774284135,0.00316200237625937,0.00264152982602369,0.00320683607574748,0.00300550291129232,0.00321927494596609,0.0032585791438879,0.00359892095976099,0.0936091402339914,0.742799955206232,0.74276550930317,0.742629982575823,0.742758035234993,0.742815711467498,0.0934930977487721,0.0035290139203299,0.00280534128728274,0.00328753376287456,0.00340766983861472,0.00354102484166856,0.00358334771344936
0.0635550794712165,0.0635429168071738,0.0632547645680655,0.0621574511580776,0.0607702396290964,0.0598490198805098,0.0576593291554487,0.0389863795013826,0.0304359026800361,0.00477121075639619,0.00476586675148959,0.00503898682001274,0.00525834608598412,0.00647714073121033,0.00652567845236475,0.00639378483070452,0.00566459981339421,0.0067319966246214,0.00714060703506064,0.0078285269697577,0.00803264501374345,0.00888250360170466,0.00894414393738726,0.00914364948613438,0.00819683954093207,0.00789692619657301,0.00577185868971316,0.00540270595761653,0.00542730074163026,0.00698013585336917,0.00848692391768741,0.00849634172366283,0.00804874818583296,0.00835157859169005,0.008021812768579,0.00876165463052561,0.00881227884910052,0.0103154108345555,0.0109930648905915,0.0107703127385598,0.0102682481880587,0.00941983074182259,0.00825787017834888,0.00691660304619295,0.00514019531165485,0.00469451673014296,0.00409720788637949,0.0038988475352297,0.00359453046048727,0.00364233411938471,0.00362801217253017,0.00357365338630043,0.0747266715936082,0.0750672505300908,0.0754416388253179,0.0827310610198658,0.0833255758871888,0.084897861145529,0.085392948255479,0.0868132542454363,0.0880531151023602,0.0884608193829031,0.0889021860390606,0.0895676267964248,0.089167342069252,0.0604866033058035,0.0168287659501594,0.0174098961505299,0.0165033972745693,0.0151597734548683,0.0138788470445808,0.0129460084300236,0.0124788439102928,0.0124685225895782,0.075648129503497,0.0878229427379379,0.100348627683361,0.0739135649381729,0.0528129454240439,0.00402573909713769,0.00385668466278501,0.00375948889734901,0.00369060002380348,0.0035543436638674,0.00347336761806669,0.00335212089748498,0.00318109800469321,0.00249829690330231,0.00163883213201821,0,0.000368191474231356,0.00198319676553205,0.00283271986612915,0.00306536437774158,0.00306747658099115,0.00269475278795389,0.135587429575507,0.107073271781925,0.0860551856976539,0,0,0,0.00220485405211204,0.00311981949851717,0.00346444833376709,0.0035893379357512,0.00360979877647236,0.00356658552967883,0.00348731560613567,0.0033324934800767,0.00318108957471295,0.00274494545822285,0.0022970640263619,0.00106518411440543,0.263300829737433,0.264159665242726,0.264951834410466,0.265590631272672,0.265667320912705,0.266162102574289,0.266299761385442,0.26738924969367,0.292525141453002,0.292443028183204,0.293165872701976,0.293928127783488,0.295030242651599,0.295889146472309,0.300876668926988,0.301854852473603,0.303249444364921,0.303527510006933,0.304120017423023,0.304397402934482,0.305309877392968,0.370328912622989,0.406356334091217,0.442432734368931,0.478568531040991,0.158543200205987,0.122335910059281,0.0860445737733292,0.00298273372173742,0.00238300701556515,0.00218907670349685,0.00125936738990827,0.00217073234065892,0.00226749265029746,0.00272765561029636,0.00274262059974732,0.0936296452623779,0.129896571855899,0.742784002352384,0.742690085893671,0.742508712598371,0.742651910117286,0.742714015406756,0.130256449525746,0.0940238236263,0,0.00235508030098454,0.00291088745172723,0.00326073428851976,0.00336015376776776
0.070105193104052,0.0667028916833178,0.066244592243966,0.0646086875755697,0.0643744354015868,0.0634196320975335,0.0645838473664631,0.0322344133854366,0.00383042923136547,0.00438791443884788,0.0458248000117223,0.00459531338016838,0.00437868647007506,0.00609491330651782,0.00884080966764531,0.00618058883259948,0.00481533648094852,0.00637828285540481,0.00912152844118918,0.00721624765631752,0.00630520346620913,0.00723629209097657,0.00752148309069099,0.00708310575487412,0.00547045953800466,0.00581907060952839,0.00457654014266526,0.00474963212416082,0.00507893156830058,0.00615106790354803,0.00767814222363446,0.00714241247037422,0.00613207608283573,0.00839846617415651,0.010945623824978,0.0104422198937572,0.0121032005288454,0.0119322409170272,0.0141845682136461,0.0127633998801629,0.013961605894142,0.011988617052836,0.0124860037184468,0.00854725161752651,0.00526370641579371,0.00499228536122866,0.0042701800629839,0.0039105557012072,0.00360728607763022,0.00356784067992568,0.00351653030501904,0.00246320270614462,0.0748047747039398,0.0754269258757975,0.0763003118712413,0.0797876236311955,0.0824126169518807,0.0827895077731639,0.084033516384854,0.0848031640438942,0.0866611271210024,0.0863767104202149,0.0869661711661373,0.0883892362129538,0.0888916481568058,0.0457752740740407,0.00361111400547788,0.00355829761563319,0.00340209975004184,0.00352675620663366,0.00359157572311448,0.00339421714537401,0.00347618364346658,0.0130840773408991,0.117338999999551,0.100541191878807,0.118713357855367,0.119297381167008,0.119875929952527,0.00408512249516622,0.00369780905336149,0.00381175805340224,0.00371475293748513,0.00358918252615501,0.00325305541584127,0.00331144570179522,0.00322518634014072,0.00220974149876971,0.00238708640144031,0.00113655488832706,0.00214179549487329,0.0017761882280707,0.00301201531411813,0.00306641790223952,0.0032166225098384,0.00285212711050742,0.197139999999128,0.132402919658644,0.196870999999568,0,0.00177064413226052,0,0.230879999999795,0.0939949838186588,0.0033386687728278,0.00350014024606128,0.00347861193417627,0.00355197273920661,0.00343159521682171,0.00338837090657315,0.00333878175299466,0.00287381825665746,0.00280573517998118,0.00157813627609396,0.262121230794535,0.160718390654138,0.0034362799997805,0.120129640840194,0.2645145983485,0.265185082145126,0.264939791785593,0.266032432206117,0.292097978152325,0.292573166520749,0.293179035295341,0.293857803279257,0.294481951179033,0.295096861746515,0.569816000000034,0.301205304271606,0.302292949384716,0.302245828228025,0.302531125508203,0.302591683421486,0.302653603164781,0.300944994155903,0.300078930804007,0.361339404669666,0.593331000000034,0.12225819070491,0.00345145792066038,0.00311755496138393,0.00306356821096223,0.00169532418843297,0.359154000000005,0.395300759529511,0.739252000000034,0.00148625443476993,0.00268123696109378,0.00230065160531465,0.742451000000034,0.166155389180071,0.742696256465755,0.742475316892975,0.741863104066675,0.742400078109426,0.742508718640717,0.166487161183659,0.750161000000034,0,0.00227723110031697,0.00194281595454986,0.00289124091957882,0.00271168960660811
0.0681944902033208,0.0674337534695633,0.0668361109767881,0.0661758306994872,0.0656743279358599,0.065073408449642,0.0651626545181622,0.025846336101153,0.00396559673677637,0.00421077510006173,0.00421325669680282,0.00441588813853225,0.00440469159666957,0.00529684023228172,0.00581009140820705,0.00561549229505475,0.00502516141470479,0.00605412703070202,0.00662479358228069,0.00686656355839423,0.00644139700896129,0.00723861028091558,0.00693849056075405,0.00678978952301754,0.00593327327104475,0.0059048015577056,0.00498676381372196,0.00508148186604282,0.00493449434599065,0.00603751618368545,0.00649643943748046,0.00781329994190626,0.00825119032283097,0.00995389169634155,0.0108403728110335,0.011854409946114,0.0122037308552639,0.0131495670186813,0.0133539621878566,0.0137306494224056,0.0134258774079954,0.0130434331025596,0.0121597885245867,0.0103235147753662,0.00823168217267308,0.00614814034877851,0.00466790063989371,0.00423788744084316,0.00373084590483769,0.00362250780824778,0.00321314421192745,0.00233335149288273,0.0756561477880668,0.0759562065280578,0.0765855674386188,0.078123697893491,0.0791002335713062,0.0805702578740377,0.0815051627725287,0.0826655551725525,0.0833884593025429,0.0842142914829764,0.084507998751628,0.0833580763013692,0.0508164936852831,0.0323802712467105,0.0035840513331067,0.00360847705834347,0.00358519879979169,0.00353449014211914,0.00344004384006968,0.0031975128393658,0.00317038341936531,0.0135415467249148,0.0569814404321885,0.0760205979131255,0.119014631196286,0.119220844167825,0.119373876324335,0.00408234069273789,0.00389237619888162,0.00377109949729564,0.00370047406643238,0.00356907284180362,0.00344700454670991,0.00318893885035311,0.0023807329347812,0.000718118005053118,5.88668149963919e-05,0,0,0,0.00200625562051412,0.00291555839991034,0.00322146925026869,0.00304131062930492,0.00294005985072834,0.00275267403991246,0.00246201481821705,0.00166669214347833,0.00158289970745552,0,0.162549090964486,0.131813536739911,0.106573727511505,0.0812688752477417,0.0558847595121671,0.00360303361175977,0.00353555951580443,0.00336395467916454,0.00321220689307726,0.00277858463247663,0.00249425698196341,0.00182173539434705,0.160718390748159,0.124013679175636,0.0591216755052236,0.0774671178954028,0.0960152942218306,0.114280167371475,0.132039356680217,0.150912061646732,0.170396410417155,0.190503271565769,0.211187207053642,0.232349145097381,0.253838348918319,0.276474515205711,0.298536055176537,0.299606280224202,0.300354036337121,0.300741995472624,0.300986356116058,0.300871606365399,0.300560105396328,0.300120844744233,0.300080492035848,0.201337135711028,0.122528508739735,0.086047933087438,0.00321592870286061,0.00281202268386437,0.00207635189327713,0,0.395300759529511,0.431476605997074,0.467659941121418,0,0.00164872119004117,0.00173151090546952,0.00556932018221084,0.00454203987055436,0.00273410646898169,0.001018047284537,0,0,0,0,0,0,0,0,0.000415868764369174,0.000542348352119969
0.0677351132913332,0.0678164103023737,0.0681028071920373,0.0674444153502681,0.0674109481752426,0.0660762599732864,0.065947271895146,0.020016829491806,0.00371292027804827,0.0039649692385044,0.00399087828664967,0.00402571123191225,0.00404092893614375,0.00427537775688491,0.004357290193341,0.00455087592454207,0.00472915560212212,0.00511894417118697,0.00565263706524076,0.00605078228591192,0.00650341093909644,0.00725155043007815,0.00713008621092297,0.00647608997045868,0.00611562368778607,0.00608108289074846,0.00514116657343754,0.00475373372891692,0.00461304265084386,0.00528985560393487,0.00587279635449888,0.00781415932108455,0.0108720213899498,0.0105839302854447,0.0125977323655845,0.0120546082788654,0.0138584776049273,0.0130848575514348,0.0145839861810634,0.0136029684732462,0.014696903484596,0.0133050520609932,0.0139929184291174,0.0114469128776884,0.0117721438971903,0.00593675158860447,0.00448464377568626,0.00404507829705779,0.00382289670141391,0.00356184404361746,0.00354001284725376,0.00269212368947358,0.0764143571995674,0.0761757287857224,0.0765005764066211,0.0766768797835822,0.0761133097642483,0.0783571125353278,0.0798275880603681,0.0804689700750726,0.0810510638476716,0.0823525386917816,0.0842073918333403,0.0827096095368945,0.00341521419659516,0.00348279555405021,0.00347662452577407,0.00362765819692373,0.00371656809599138,0.00353295247563707,0.00346225363206768,0.00294590158915935,0.00299918546501644,0.00295687339465886,0.00346288239816404,0.0544718029677625,0.119027679846591,0.119091126353616,0.118942875122194,0.00394932854061206,0.00362739405237291,0.00369390953120093,0.0034741906516927,0.00361190881738181,0.00355909192228122,0.00356010686744713,0.168250349997562,0.168766527119282,0.169140135608961,0.169954053826139,0.171030470433124,0.114937333296339,0.171511999999105,0.00344805952138563,0.00364637115808702,0.0033447787013201,0.00320438794401382,0.00304568290502485,0.00314308633739783,0.00269027112206969,0.00289978652068695,0.00190480136288799,0.231629999999712,0.162483948107343,0.230651999999785,0.125549712569978,0.231119000000034,0.0036845274324093,0.00355740181765679,0.0034976039109669,0.00331724784535691,0.00306551532512998,0.00298462967172605,0.00237869531473537,0.594180000000034,0.0873155529318136,0.00371251399368099,0.00373074978078667,0.00363134766482826,0.00347353851778921,0.00348271228914286,0.00345226275798007,0.00351317777323304,0.00353196084393615,0.00351359385919914,0.00359829130651605,0.00358214835597107,0.279135448515334,0.297474287474598,0.298378486903052,0.298820006120658,0.299419644468874,0.299834363489636,0.29940354833395,0.298605256159352,0.298946654922922,0.558876000000034,0.165023115298384,0.00358863071169208,0.00346778214484126,0.00333782112181198,0.00280664130608668,0.00242164899648301,0,0.727863000000034,0.467659941121418,0.735704000000034,0,0.00238485228037147,0.00213197222821213,0.00310741869530054,0.00328290002790427,0.00334163402039121,0.0030139718207734,0.00289400865997973,0.00174144740376148,0.00231669384921592,0.000993030427996988,0.00192333720037796,0,0.447633331689099,0.445966081216866,0.450203835593021,0.449259068880466
0.0687764748723081,0.0684115043380465,0.0685033411599619,0.0685119643147051,0.0686825173608511,0.0540506498690552,0.0363660480006911,0.0147131209332401,0.0038397394263382,0.00399071989554219,0.00395341037663275,0.00406253884220254,0.00388148215498001,0.00417446331811618,0.00400467743275011,0.00446319046740632,0.00443000197411523,0.00510323878664729,0.00531032795056336,0.00627739979170409,0.00668471964668699,0.00908297548016453,0.0074403707487238,0.00678213066288744,0.0066098674083179,0.00773909797422786,0.0056423519410633,0.00513776914812338,0.00494478486868116,0.0058859048878898,0.00615152154628851,0.00831640845655772,0.00970000607470512,0.0108746646333943,0.011300455688036,0.0121233707902177,0.0123455105052334,0.0130638380526274,0.0130546016065379,0.0136770806123925,0.01336764659648,0.0134013575100118,0.0122758644485554,0.0108207069806775,0.00811931744417573,0.0059431372063845,0.00447656391580184,0.00413613452067995,0.00371231861577822,0.00363183529923494,0.00337313137505246,0.00304286236232432,0.0760630875783211,0.076219321751162,0.0764185135245861,0.0767476129964251,0.0769586057969145,0.0780155173252188,0.0786956460834004,0.0795164250335173,0.0798488699715817,0.0808102723104903,0.0812916990881177,0.0811547308636791,0.00350209479480406,0.00351495245636655,0.00352499822740323,0.003614582108237,0.00361005477004336,0.00339064919288745,0.00301130469349457,0.00247662930637956,0.00254348856195352,0.00276396688881485,0.00330092821423594,0.00354903143285601,0.00367501297880921,0.00371607563567638,0.003733869456719,0.00379243610203188,0.00371838697631631,0.00368649873034488,0.00366477780968435,0.00364660953578241,0.00367147362646563,0.00372105330586187,0.168382468468129,0.168746134294365,0.169081464229819,0.169527959101766,0.169815350841283,0.0960011845142819,0.0667137485424111,0.00359405634989172,0.00359803851634021,0.00345387141329799,0.00336094263408326,0.00322214000754821,0.0032006843388095,0.00303542619325918,0.00301181504154471,0.00281021011216233,0.00308635753792759,0.00319444082309361,0.00333652228336194,0.00350099839962516,0.00364671518333159,0.00366677087584919,0.0036658882828532,0.00351216028187743,0.00343311555942751,0.00318481591997738,0.00313723925444262,0.00293373474771093,0.00329111870515122,0.0035188359704912,0.00366760620042622,0.00363138490985131,0.00356511166841302,0.00313442524915801,0.00325054691618116,0.00328097493091025,0.00346680485675132,0.00350704564238329,0.00354606174114295,0.00360206601911373,0.00360253646478236,0.281253712792089,0.297187486983716,0.29760919988287,0.297879307810642,0.298282425552334,0.298397834055753,0.298309952657237,0.297981562775092,0.298138731055621,0.368776389842708,0.128794603953823,0.00356101734560989,0.00344076899826742,0.00320818957194546,0.00256821089464529,0.00109601533748097,0,0.115333267830285,0.151578157154565,0.187802748555825,0,0.00149428939588933,0.0015528729381055,0.0026335578294865,0.00325077489275437,0.0034786461672147,0.00349163327486761,0.00331670953188866,0.00284904839773673,0.00269595383545261,0.00192650824192951,0.00136672902832437,0,0.442792754698753,0.444704624744371,0.447841352600348,0.448782357734203
0.00345469999827997,0.0640619340652249,0.0692323108783775,0.0693226172260979,0.0702874159245468,0.04321182767664,0.00362269948366255,0.00961719723781387,0.00377839234082699,0.00392292022500388,0.00407984795915442,0.00385778963478272,0.00387767715555287,0.00377871416854006,0.00385973674422687,0.00400452669890848,0.00431623742419777,0.00470430973344586,0.00511530382393721,0.00641606084296465,0.00543960316882813,0.0144517104072752,0.0175053012454404,0.0200336753040801,0.0220397566519008,0.0127301618390984,0.00505809301733143,0.00492952772868797,0.00494236884210815,0.00636824379892103,0.00597623873390405,0.00810609244464534,0.0105611042658599,0.0101679469315963,0.0116781653184854,0.0108807155719253,0.012494494599628,0.0117665745658469,0.0131427100216147,0.0127835796765601,0.0136440115103647,0.0131746560363064,0.012246680585581,0.0108310219989993,0.00436510762724083,0.00468836196785769,0.00389530222067187,0.00375043641512283,0.00376793301195808,0.0035728216548044,0.00365040646342735,0.00336532333519857,0.0756665088484279,0.076137293117574,0.076726680361962,0.0766048529670258,0.0778790521340769,0.0775409272662067,0.0785921301795521,0.0785244119535002,0.0790869051913017,0.0794373025199729,0.0798401815563011,0.0796729179086873,0.0035448783079528,0.00350490922999341,0.00341704793649408,0.00359167433864179,0.00365521151739849,0.0527882123340465,0.0985370431818019,0.099137184047204,0.0996324866595025,0.0540668316573039,0.00362010590684276,0.00372091697871768,0.00376694985606222,0.00371747228374958,0.00363624385043247,0.00370603653116545,0.00360818002855307,0.00369957076056703,0.00369461857301206,0.00368389427447076,0.00356688820590636,0.0037542819118522,0.167998037248926,0.168544653567376,0.168726827719365,0.169050768927421,0.168733921010165,0.0724724179343661,0.00355470886567951,0.00361960821684566,0.00354117011583005,0.00355846972978939,0.00349203796853415,0.00341043011816721,0.00336496794008773,0.003292518824575,0.00326306100761022,0.00321446150719656,0.00336675606435507,0.00330659328598608,0.00333461751842313,0.00353414712737062,0.00350335462008172,0.0037046352059506,0.00350759215083419,0.00364903395542151,0.00340685343264304,0.00347285191962237,0.00343970240122703,0.00335284362654334,0.00344720192129625,0.00355722673220281,0.00358782569278186,0.00339595515854037,0.587865000000034,0.00207465217774284,0.00294955626338118,0.00294655446632989,0.00346307381417417,0.00344721835007047,0.00343420053526478,0.0035525067613214,0.00351637212257186,0.283489877276341,0.29644748656109,0.296956087681918,0.296777281159192,0.297411740071435,0.297149782282917,0.297450224118872,0.296884352652305,0.297504924769034,0.559549000000034,0.0925802721627333,0.0036247022219419,0.00352929903698016,0.00336186763161108,0.00319732001739609,0.611911000000034,0.00211145116489071,0.00315331761824867,0.0978075077529552,0.349417000000034,0,0.00215573157913871,0.000769081255014741,0.727753000000034,0.00341763327391887,0.00356159180707441,0.00365678540009593,0.00360447637283622,0.00350103523048254,0.00357067755581954,0.00290523126510561,0.00262731495160218,0.000434345156846141,0.440706386249712,0.442523837678724,0.448048688816392,0.44912019712404
0.0657031402764642,0.0595230219196528,0.0537638591006112,0.0464124382932616,0.038002540475895,0.029235544813975,0.0210937063711806,0.0142426301701878,0.00899170834478096,0.0039888692956292,0.00384235435905228,0.00393115255952797,0.00374035982637545,0.00392570580776982,0.00377330428783439,0.00415305123903174,0.00423459258419434,0.00499173076259861,0.00576109164627467,0.00921124400683531,0.0130760854979471,0.0164606785662037,0.0188211449564536,0.0202484937356816,0.0202819090107958,0.0176232645344463,0.0164527631494217,0.0151550341665456,0.0124650925127872,0.00962564886777847,0.00830164383702399,0.00921656358027058,0.00953520163620251,0.00946619183584943,0.00854301417712997,0.00915421766672177,0.00903651719049904,0.0103959571591148,0.0111607811970875,0.0125813352177291,0.0149525415683322,0.0147570936581811,0.0121583024815821,0.0100119484392205,0.00726118717644206,0.00487131619610861,0.00385313860822724,0.00373880427821823,0.00358662470680671,0.00365711515304236,0.00357842482086055,0.00360006235999335,0.0360836976165879,0.0506566587948576,0.0753530434327047,0.0756805009527174,0.0760250238282958,0.076627279102265,0.0770981161839742,0.0779710329312255,0.0784559797456092,0.0788469436296273,0.0788102631348635,0.0784713793244813,0.0775307023142486,0.0770228284570682,0.0768721482724822,0.0767607533932894,0.091744090956884,0.0915926880536053,0.0990470929884604,0.0993050030099797,0.0996015566742857,0.0691580527571157,0.0499170428731966,0.00389421008306431,0.00379744516210137,0.00374520308452262,0.00367131853022472,0.0037210450333964,0.00373376521511783,0.00371993146712751,0.00368946736578181,0.00371327635982297,0.00372828232812501,0.00378524131625532,0.06699439177887,0.0958764315519359,0.117971451338861,0.0982006784228765,0.0735692895082976,0.0488888739474685,0.00363843446554334,0.00363328923045735,0.00361720353797917,0.00359050571576634,0.00359067941765501,0.00348266244570078,0.00343952764483086,0.00338750759678791,0.00339460194686349,0.00333365923526986,0.00338901425565163,0.00334210192355988,0.00345385125707663,0.00349332926330817,0.00363643706961645,0.00367677979066902,0.00380598251322136,0.00364755930165661,0.00362302447643045,0.00348425410998628,0.0035352642823736,0.00344734761412917,0.00353845790564256,0.00345832854534902,0.00331206169714233,0.00266320917611051,0.00167898774467297,0,0.00165091231805928,0.00198728751304902,0.00292653854692463,0.00325944025218337,0.00343220597772915,0.0035146354902512,0.00350151153436272,0.285205896908558,0.288555601072519,0.288677957006693,0.213955919435353,0.190775084824781,0.167755232665571,0.144901887392364,0.122199724236805,0.0996141171708499,0.07708846112351,0.0545709354116383,0.00363754419806525,0.00359187248412251,0.00354693071262563,0.00347243175553741,0.00343510459566317,0.00307058058903207,0.003184183206045,0.00289937274080558,0.00203029143505305,0,0.000812051604868114,0.000380589815358276,0.0022311109485229,0.00318838113629383,0.00358800258126622,0.00367694170385749,0.00370146620332023,0.00367025912108537,0.00363608405546885,0.00317034444196488,0.00234510433276461,0.000548603108575754,0.434846043870874,0.436150765810881,0.436674453890357,0.436732072119075
0.0777758174483859,0.0399238594744089,0.00361393308634823,0.00374398326738677,0.00368205141449499,0.0229561792131332,0.0574352000050308,0.0363176610919171,0.0541769000187107,0.00390103958572452,0.00373361448376592,0.00371626065933147,0.00387804169307933,0.00371010180438196,0.00385960448415642,0.00391036561720506,0.00409586540751308,0.00486663037120746,0.00409892398376728,0.0113690358625519,0.0210380287212308,0.0201889915599418,0.0210659497149789,0.0210241803566595,0.0216055966194085,0.0203316497925824,0.0212265368271967,0.0200708664575273,0.0195431234659049,0.0108558668084809,0.00984652233532508,0.00964693677323573,0.0106584216184557,0.0079676608174624,0.00585054366587148,0.00654468835107348,0.00601941106476671,0.00819666436691743,0.0102278507780131,0.0104581753163261,0.0199013286981509,0.0181797775036367,0.0230094733868693,0.0242154853534562,0.0245107550519962,0.00366500890016577,0.00339794641656396,0.00342079871667272,0.0036886818377869,0.00355515214941645,0.00362149547844984,0.00371721459395383,0.00379410442830502,0.036993257546292,0.0738721703920901,0.0746153446977827,0.0744439573876338,0.0755842678252718,0.0760308273042536,0.0774684356973474,0.0787828653126918,0.0784684117999566,0.0786997146137673,0.0780012229202278,0.0775962652980432,0.0772802232616123,0.07762394918773,0.0776363080838343,0.0967273563164918,0.0915856230948921,0.0993656293474646,0.0995034516850374,0.0998963498644349,0.0997216239813811,0.100046383191395,0.00395529368104549,0.00370901000502227,0.00371243226328196,0.00361982755500811,0.00371854859957448,0.00388852725466457,0.00373003640988524,0.003577902350721,0.0036975895208992,0.00374416576734941,0.00372275525538566,0.00349914146116075,0.066818431705322,0.166597999998536,0.0683041382433987,0.00354457467466469,0.00368122762590261,0.00363859355343124,0.00365020832409007,0.00352733922496372,0.00364602981752822,0.00364904516590296,0.00357726002001725,0.00339896424616114,0.00348017779776557,0.00343323443192028,0.00345393990518207,0.0033434377604793,0.00345698313457502,0.00337650970136247,0.00358169513971907,0.00340196264722816,0.00379595915705039,0.00377368657709516,0.00378842542023208,0.00334539514239558,0.00358544285010467,0.00332845694437993,0.00356209127555326,0.00348977473964136,0.00342475411756922,0.003289852469244,0.00227771547225855,0.00227953962562934,0,0.271895000000034,0.000609058643952569,0.00292461074655288,0.00320974025642459,0.00339513870008587,0.00345915753149747,0.00336947967637246,0.284679307193693,0.29352199999844,0.287578543020332,0.00348219433943916,0.00319618597890476,0.00340055684747316,0.00334806752974153,0.00338598000599625,0.00354920868049438,0.00373275114412347,0.00368519488346185,0.0035982508434832,0.00365631014367058,0.00353208586768597,0.00361295643152524,0.00348353184573831,0.00343707254439815,0.00334290527705734,0.00324385417869865,0.00295408138631721,0.00204885101580948,0.727088000000034,0.00216378929833298,0.0030155648536663,0.00340098556874186,0.0036227609136923,0.00370611265179923,0.00359928969114454,0.00375204766141469,0.00380256597996214,0.00348494554300261,0.00299867289302745,0.000626248045209865,0.43309769692215,0.432547939609,0.00337266000003914,0.43698186104394
0.0520818739160498,0.0258188623368585,0.00367453298624241,0.00381810639238981,0.0039256031473128,0.00416258579965438,0.00413866900022979,0.00422167577279668,0.00405596523784482,0.00400838915274003,0.00375219056517241,0.00384821015062199,0.00364463893344023,0.00384219572708595,0.00375449314954487,0.00409110990097313,0.00443181933375595,0.00724351930705044,0.0102673370787121,0.0136317322932953,0.0194741345793541,0.0209320325909981,0.0214663711744108,0.0219445746857376,0.0217190225568715,0.0216584390736535,0.021422241091653,0.0204057994151795,0.0179170430573808,0.0139053797915754,0.011730465907217,0.0103997357735366,0.00855360068506124,0.00752427732836016,0.00578843631649572,0.00648764056751164,0.00639690007879672,0.00737714588068407,0.00774603310034084,0.00928727965041858,0.0122648695413988,0.0148942648749361,0.0237024219153303,0.0246760086559638,0.0250569555188513,0.00318212942837378,0.00319196169671459,0.00332062148626808,0.00339442067537723,0.00356470026682853,0.00368672678112834,0.00386150528740323,0.00387274600725061,0.0195220488538367,0.030801677182544,0.0418089307820549,0.0523433570124596,0.0618146163165724,0.0772437900024093,0.0777187338109005,0.07809990964553,0.0781455452096743,0.0779965865297535,0.0776844212229933,0.0773605977431946,0.0773391186170499,0.0779261896057021,0.0792371475036348,0.0835337799277981,0.0866840191673776,0.0993856821781865,0.0994781202479125,0.0995163230703365,0.0989260538021387,0.0556676603639061,0.00401965627585651,0.00381445036067241,0.00379383416471117,0.00368244527719544,0.00373148982797785,0.00370821356057981,0.00376132607961234,0.00371520773740916,0.00373076589987714,0.00367639041670388,0.00375042413799823,0.00377879591807908,0.00396376558210628,0.00401013548871506,0.00396025207006,0.00378286729200223,0.00372908881076713,0.00366917082833797,0.00363856813780479,0.00361778126678864,0.00363667792745868,0.00367263447228208,0.0036169218850158,0.00355246909445296,0.00352436857871166,0.00351931399941901,0.0034782218731085,0.00350751007772856,0.00347418817929366,0.00358677090466315,0.00356185949197759,0.00370175716762653,0.00368128054183419,0.00383389966944862,0.00366816762060203,0.00367739068433345,0.00355531984610048,0.0036021102168813,0.00354139976212438,0.00353230708074864,0.00318091058355838,0.00243470659778289,0.000846232524376278,0.000332507671403686,0,0,0,0.0958680170618637,0.116903769579351,0.138060992961123,0.159380087804298,0.180875387904193,0.282854572962272,0.284544648593434,0.285060107284983,0.102848440358326,0.00269849149764391,0.0031224795965722,0.00325093014759422,0.00339669444960922,0.00350342892724607,0.00361388965267909,0.00363796246007123,0.00369008400542519,0.00366749443885473,0.00370251830860223,0.00364093929536176,0.0036242894842731,0.00354610250090788,0.00354423139913692,0.00342163043203666,0.00329815889690978,0.00302241012164567,0.00322673680830001,0.00301995046260609,0.00329912827838479,0.00344661498975763,0.00360516502201285,0.00362667430555951,0.00368885387274313,0.00370603787842033,0.00374482454124058,0.00354577276734353,0.00290049498583608,0.000753355398553047,0.110117848601553,0.433008581361334,0.434312737520655,0.435053919218789
0.00383611999488747,0.0144108824321957,0.00348379695384818,0.00374645052218523,0.00380019766521775,0.0039458465783567,0.00358435769908117,0.00391164167875522,0.00372886130521387,0.00381027021369695,0.00382257385141371,0.00366056093278085,0.00364694866729025,0.00363813048320346,0.00380011489184216,0.0039248642248717,0.00415104841275092,0.0130125767963323,0.0230253827548724,0.0226046952901371,0.022559273103853,0.0221866426408682,0.0223452850372506,0.0227789286140612,0.0228336323259752,0.0224705228624117,0.0230089556769299,0.0217040226855476,0.00391594757277616,0.0147950468021587,0.014075331349769,0.0108288062056922,0.00662553587470823,0.00648202398012076,0.00496121901424901,0.00585241994694957,0.0069443042079959,0.00612090609119757,0.00530685476258015,0.00616540246144147,0.0045770435273204,0.0113717736908921,0.0252456600579609,0.0252598859495328,0.0255317942069353,0.00293296716298615,0.00331379670982184,0.00319174843923101,0.00338725167614773,0.00342060231897061,0.0357947000346485,0.00391719701791442,0.00386370704494794,0.00391449961588817,0.00381223550742903,0.00372615490648753,0.0034961783376394,0.0388966494893086,0.0782592210890815,0.0780004428276185,0.0781718505471087,0.0779843859358632,0.0778126088540082,0.0774782914752605,0.0771166509795246,0.0770944225162655,0.621251000000034,0.0802271758005345,0.00386014000000493,0.0853803656768775,0.608605000000034,0.167748532559195,0.620461000000034,0.0968796540967338,0.00369363190359504,0.00392799041623842,0.00367426263940527,0.00373223012235333,0.00371463893044547,0.00363303022894265,0.00358481488167478,0.00370150395380366,0.00386368473240508,0.00366856767257025,0.00345384881726478,0.00362681408304945,0.00372756171313907,0.00375607557714685,0.00372843842323438,0.00376275149145735,0.00367327357283563,0.00368050010424134,0.00349416029043645,0.00362141204311081,0.00349361580296036,0.00363631991915419,0.00362932517126515,0.00366251536202759,0.203971000000034,0.00357220626598518,0.00343355115587589,0.00355777379704696,0.00342352544488245,0.00359920624672844,0.00346533178535659,0.00369355723832284,0.00351247759915388,0.0037628887347519,0.00345710327572786,0.00373501032730678,0.00339995851682177,0.00365494782263719,0.0033962914358811,0.0036212890180487,0.00354474352100385,0.00328412591965014,0.517671000000034,0.110625669306974,0.520432000000034,0.000525170667520307,0.00186462693792348,0,0.271880789796797,0.27223872935307,0.27173796089549,0.273884246553015,0.275496874807656,0.27841959170207,0.00302705000003936,0.281870023661737,0.560476000000034,0.001927712846193,0.00306685154748358,0.00322751212323157,0.0033540633472056,0.00353138950968625,0.00345023091224406,0.00366409945606712,0.00361363800498339,0.00374059804718761,0.00363098456856522,0.00370935791580379,0.00348577811353743,0.0036437643791315,0.00351551577193171,0.0036070964500162,0.00345127368466643,0.00344756283650762,0.00335084931014169,0.00341404164289785,0.00334805829848105,0.0035268290784259,0.00333306836326191,0.00360874639907727,0.00354593438771383,0.00369613906498161,0.00365599938670123,0.00366804360010615,0.003380180405557,0.00135687396091826,0.0031926494869021,0.433501761854061,0.436888424853836,0.434770729504836
0.0747038278604574,0.063660537262048,0.0528405652681241,0.0411893975332506,0.0298867422829814,0.0192460844920874,0.00386410282157406,0.00399031561581886,0.00382758808495809,0.00396229981197796,0.00378549819806182,0.00389283631581165,0.00365887968988453,0.00385035884740575,0.00376847377823609,0.00396673283982898,0.0118722049568585,0.0167550743590142,0.0225969713444504,0.0225541691702756,0.0226739426504516,0.0230449724927331,0.0237661115493393,0.0243755836275409,0.0234458055097898,0.0236411144163121,0.023235604454641,0.0222072849003897,0.0202233423918332,0.0171135365540576,0.0145918603269309,0.0120069221960304,0.00892909912768693,0.00788120494489826,0.0061733024246747,0.00659838415413284,0.00613613713821159,0.00615939230880705,0.00539505593244223,0.00617212664358683,0.00649118913830433,0.00732591850101536,0.00503491238546273,0.00346799796652513,0.00292303940128956,0.0028030982232551,0.00299150649348849,0.00308401503267327,0.00325073070911081,0.00343714587096596,0.0036530556437609,0.00386924671938564,0.00390828474409018,0.00401823516797582,0.00388647981363112,0.00386174167125528,0.00371508192223225,0.00906098704078146,0.0162836890832351,0.025033499015888,0.0343789860714637,0.0434651945200715,0.0520193189828151,0.0601212352420828,0.0677785419698941,0.0747185305252797,0.0811666530688974,0.0814842203363683,0.0828828274403433,0.0842956117999697,0.085187013119936,0.0875702258421294,0.0911992236879173,0.0935984032049079,0.0478816409583702,0.00413744325142929,0.00387168701628604,0.00383759511418132,0.00365491740853478,0.00372119878074168,0.00363721649510698,0.00378240795060218,0.00374313956267148,0.00372627901904388,0.00355620734987121,0.0035599862626202,0.00350302233910405,0.00347076181969518,0.00350494467141932,0.00350874836713515,0.00359146705707681,0.00365071182821555,0.0036925652774574,0.00368707054405614,0.00365285712417198,0.00363966046949275,0.00361184701144754,0.00363459607882786,0.00361855504595819,0.003633513724472,0.00365073199165989,0.00361834516664755,0.00364479784834,0.00359064856371457,0.00366550750465141,0.00361223276730903,0.00373209289311895,0.00364537881861467,0.00374647374947569,0.00363275176158633,0.00371129881278877,0.00359532888566047,0.00363877253514966,0.00351116763268238,0.00338158099511703,0.00285817383247441,0.00190879187149385,0,0.000289151331839889,0.000813650737001748,0.00119674818296729,0,0.272677368157066,0.273023871861526,0.273442564230778,0.274375798288776,0.275409401151153,0.276556264904334,0.276744482053194,0.277875506790065,0.276510157554365,0.000120418445460522,0.00237618795383531,0.00311165154118884,0.00346916489957266,0.00361757644633878,0.0037004535116752,0.00368535424215857,0.0037129086159906,0.00370076366886847,0.00376781908678154,0.00369367360591345,0.00368084069386121,0.00366689017403993,0.00369985230626798,0.00364851903527039,0.00367676935425919,0.00357636494067409,0.00360591266317874,0.00351547416103981,0.00356687302457692,0.00351965636520604,0.00357128379705723,0.00355617583784368,0.0036292335325186,0.00361860412987006,0.00366088346051698,0.00372996036820356,0.0869806478920844,0.126151407938317,0.162375156974109,0.431666245178096,0.431617193983835,0.432578586091092
0.0784301360537199,0.0777851216241697,0.0781589933972387,0.0778456352809832,0.0783376375087782,0.033733766997451,0.00385528482278542,0.00391034626286357,0.0038097784358681,0.00383147771845877,0.0039713390646367,0.00379262739770198,0.00386389780777875,0.00378967717181435,0.0039183028128117,0.00400018905368145,0.0366838447531257,0.0363564530210883,0.0361747053807788,0.0357084984358112,0.0352080901066872,0.0347576677903027,0.0346503652445581,0.0332760913672895,0.0342227752085664,0.0247950039797962,0.0254941598253976,0.0230205725268017,0.022444574305939,0.0180832683015358,0.0164483987335338,0.0125786366128454,0.0102435067060251,0.00864628345596112,0.006705178755116,0.00688559499831756,0.00630973825570943,0.00581051068343487,0.00508806555934413,0.00611791366330201,0.00828938032704016,0.00641715397857599,0.00405318003670218,0.00326267128443294,0.00313232659054254,0.00264604108051166,0.00302229495260003,0.00279285995822813,0.00322565954867613,0.00327740008000965,0.00359246174948993,0.00377658956491933,0.00388806880099165,0.00407501160731973,0.00395626636887289,0.00392353193388235,0.00386229537156979,0.00383975335441234,0.00382249157856402,0.0036885455550729,0.00357346598145433,0.00350792630312711,0.00342931937581042,0.00354933466085421,0.00365130676508044,0.0506352457847243,0.0809217997448756,0.0817467100885866,0.0828708755471302,0.0836808914854823,0.0833745268211838,0.0856158028187317,0.00350932999965293,0.0913284358009947,0.594027000000034,0.00412927761304068,0.00378882298253478,0.00372175822445023,0.00358861086778737,0.00361792531865613,0.00375924854519414,0.00371328606414306,0.00383270237235424,0.00366172599861904,0.00360930236071944,0.00341627378378412,0.00330707013613141,0.00314108317110031,0.0033368187801686,0.00322926732417469,0.00346853732668055,0.0036219113124818,0.00379314243711147,0.00374087282259354,0.00365421946613794,0.00361483584223158,0.00345288847682237,0.00356794362870722,0.00351791777144018,0.00366110539851565,0.00374540483279539,0.00371413371094041,0.00359772801786333,0.00367364874540183,0.00344808149035394,0.00368476569759254,0.00344921639935544,0.00372969701597681,0.00347153060034847,0.00373447132644038,0.00349833171137194,0.00368943028604867,0.00349576541599716,0.00349608475015938,0.0032716035936239,0.00273598085195526,0.0027544238938714,0.00121524848791949,0.00210266888145568,0.00141979347816343,0.00221566593839322,0,0.273054387105753,0.273647306413105,0.274571147339499,0.274696228777342,0.275149491776749,0.275655504847614,0.275696951475861,0.27623870217481,0.275073831950857,0.0020862547237196,0.00313159751911488,0.00341483305241198,0.00356594841594293,0.003831521459857,0.00376385865161712,0.00379664929434265,0.00350290999078427,0.00374439510338934,0.00366318695501153,0.00375995667597317,0.00351433104718774,0.00377253271191455,0.0035968723379667,0.003766762450064,0.00363335983724415,0.00371831811175887,0.00353079347802694,0.00363772390049501,0.00339453769720733,0.00359308546938659,0.00341902846918256,0.00360273639184945,0.00345967251467035,0.00358503137935382,0.00338939891953064,0.0036637239320506,0.428963927685509,0.429320947711431,0.429999570549691,0.430664836441481,0.43123281416493,0.431631329957079
0.0770736717289337,0.0771169242432891,0.077413609334015,0.0772762159951342,0.0773410983057344,0.0458352155095612,0.0320520160148328,0.00401632610841428,0.00383054093164924,0.00398558273154495,0.00383852447677968,0.00401452645494989,0.00383013782797093,0.0040389174986967,0.00397641436310338,0.00424046011110255,0.0364464095809826,0.0362651916998301,0.0360600336372282,0.0357052385138994,0.0352735970796888,0.0348252486535038,0.0344867405325808,0.0335356402667594,0.0320822244210568,0.026373677353888,0.0243467476776286,0.023066421218838,0.0215193923387111,0.0188098103593505,0.0160563423019305,0.0143135660966103,0.0120745895744601,0.0112081738739882,0.00947808256608982,0.00925179988291475,0.00801524110317085,0.00705216825141025,0.00553198340896584,0.00580167390353454,0.00605658256104304,0.00638460844935772,0.00437182086737142,0.00292800399384541,0.00197779864880534,0.00138670361614675,0.00131763140267403,0.00148633682944914,0.00201998897101823,0.00262368865660943,0.00323370614632467,0.00373600749820429,0.00399791835746711,0.00453554292993241,0.0042784589385061,0.00425123516407805,0.00394644526443734,0.00396862162199704,0.00382507748703885,0.00373507346914622,0.0035346573154978,0.00356528348605656,0.00352939413789857,0.00357642539786219,0.00356596755359654,0.0336577073381146,0.0463506815629875,0.0589263466313487,0.0834555988854362,0.0841085027609862,0.0847495664374761,0.0855040243443978,0.0860465598626224,0.0878456340700253,0.0871620861875854,0.00414675322041839,0.00385994842198429,0.00384761243043813,0.00365562018204424,0.00376269122451222,0.00365522282245881,0.00382225421232579,0.00373824213575604,0.00372569005559408,0.00349307103840569,0.00336006425833995,0.00301543789149025,0.00280229454086797,0.00278012727123543,0.00289110478916296,0.00318410596089245,0.00350930676522441,0.00365142839954468,0.00370517921829449,0.00366477058517149,0.00363894900206546,0.00355128600162583,0.00362979751938319,0.00364172410654714,0.00366964480011454,0.00365971938254666,0.00367052020622734,0.00370103090614558,0.00363185236640855,0.00365248573048011,0.00361431879244697,0.00372405274897083,0.00362606234686243,0.00370831148409772,0.00362392610965787,0.00372174882184313,0.00357365843594755,0.0035229023437011,0.0032934966830754,0.00288388292864882,0.00187913185614237,0.00167618746505375,0,0,0.000723829089325091,0.00123678628425739,0,0.27347806896635,0.273854951668383,0.274344384835608,0.274646536131166,0.274941878443477,0.275187621514946,0.275240107468515,0.141251577577062,0.103257326578785,0.00291351422757537,0.0033113488868569,0.0036185043741256,0.00384762422969522,0.00402335511796469,0.00397351976319179,0.00387495113099187,0.00378858936725603,0.00373618100278319,0.00376830040735744,0.00380181240916524,0.00383897499260766,0.00390149257972137,0.00383419239796849,0.00377910693898068,0.0037746280976045,0.00367956814934456,0.00371572347429711,0.00360666273882157,0.0036354747692165,0.00353594049674106,0.00358482038509209,0.00357529408509631,0.00369574331834945,0.0035827786175512,0.00355549478413725,0.00363112306705229,0.428636464866335,0.428980250890974,0.429411667407,0.430089177907609,0.430715464015485,0.431222451082663
0.0773166747896199,0.0767590438173677,0.0774871597458757,0.0768699639098446,0.0766561392362144,0.0613658005606178,0.0761198999917616,0.00392528175963151,0.00376515708707793,0.00381784519641282,0.00391782718122201,0.00386971796936056,0.0039739704847881,0.00395938175559922,0.0040454013520994,0.00445184426136062,0.0364861101973853,0.0362520776319793,0.0360838392651053,0.0357773375384451,0.0354861695924103,0.0350294536379545,0.0350121008389935,0.0343864984601842,0.0344791365387582,0.0238110672060143,0.0244457625555831,0.0226015404012585,0.0228398013161299,0.0181570672809072,0.0162448822612201,0.0147024231786699,0.014647407857566,0.012833264193329,0.0134274630317586,0.0111078421733691,0.0110609631104266,0.00762024797303207,0.00534709796296648,0.00498401780305872,0.00425399135217021,0.00883579134787745,0.0275142170630288,0.0272901447956453,0.0278338136479338,0.0286249996231908,0.0304029268953684,0.0278314149026342,0.0264226057971778,0.0255621764459346,0.0251079159662581,0.0122642639333847,0.00378616076482273,0.00537025895113401,0.00453109594807574,0.00444319057825035,0.00403934045394599,0.00396557387571357,0.00403554366194783,0.00367763910924252,0.00347505792364757,0.00353037840486671,0.00366636550224058,0.00355306535442674,0.0034661051419312,0.00321104527015817,0.00325266885909664,0.0449814579083579,0.083344681212604,0.0844598251383153,0.0858656461112026,0.0853147274142256,0.084404549184775,0.0862053495899923,0.0860346260719747,0.00394850858935052,0.00369917413730728,0.00369777172619911,0.00377936013450623,0.00364675310285447,0.00370174404511035,0.00371394167027148,0.00392788873371782,0.00366245447506171,0.00352930594832652,0.00349376467947347,0.147469999999104,0.0943205804191503,0.147683999997711,0.10596171402164,0.14776699999902,0.00360809988461366,0.0035126425941093,0.00364787785628592,0.00358978898860947,0.00359549058111921,0.00348798576201304,0.00362367161585307,0.00376606743599442,0.00362863047039773,0.00347049313394421,0.00362951088755583,0.00363570712031638,0.00365714699472058,0.00344163678751025,0.00367646259895532,0.00357867171736901,0.00370288739275891,0.00344880411740764,0.0037050839483112,0.0035981771005946,0.00361295217208551,0.00329794719839846,0.00329804014428043,0.515176000000034,0.000160456702281512,0.00202868676540843,0,0.516368000000034,0.000943731878952053,0.00213806779156128,0,0.27346304060067,0.273869599924697,0.27423363773664,0.274561037986781,0.274760854776699,0.274933655887477,0.274855691530056,0.105047438496288,0.00357779398768878,0.00334016582868424,0.00333771563274534,0.00372493061718939,0.660623000000034,0.00424651836615194,0.00385870007136193,0.003945970935444,0.00367532260561504,0.00375889869415717,0.00353363688812029,0.00383343012834653,0.717575000000034,0.00406654780601021,0.00366705685820081,0.00381219816940762,0.00359166905168928,0.00372215440162866,0.00358735447796176,0.00367857185655785,0.0035118389016464,0.00358129695549345,0.00336451900159849,0.00365766271982487,0.00383125458669049,0.0036394807048914,0.00338387536857896,0.00353889547456245,0.427924433626919,0.42851375008538,0.428600414347175,0.429700287281904,0.430454665675214,0.431145686694704
0.0755119324375489,0.0758207971631911,0.0763208631787834,0.0764758918765755,0.0765043913608809,0.0518981177623528,0.0322993842202608,0.00395677561197132,0.00382225859541639,0.00402939706831427,0.00392748364244999,0.00413807733027526,0.00398216364384181,0.00422674370945048,0.00425034476521493,0.00504825954150467,0.00674136338534494,0.00814843504337895,0.00944523271805307,0.0110017614976234,0.0132015117416334,0.0162896690295223,0.0194796136284635,0.0200957248240143,0.0207390354472344,0.021831319177577,0.0213199868128592,0.0218726785131649,0.0212596694882079,0.0191242495591924,0.0164852349491688,0.0158128212572178,0.0142755040371292,0.0142209484609838,0.0131895905788326,0.0124687150870152,0.0107142151490124,0.00848999151935773,0.00584863829576148,0.00525733084752726,0.00453520878046793,0.0113174896821895,0.026165724319166,0.0265487406391311,0.0271010223000784,0.0276965589251934,0.0279036992541181,0.0271215399245921,0.0260312823013978,0.0255329469143065,0.0250900475818364,0.0176883697768386,0.0134585536332268,0.00846428723781474,0.0056855825840249,0.0051781460776652,0.00441329502903577,0.00423845745956695,0.00391597197605927,0.00384254746969994,0.00361661507485784,0.00367940887327154,0.00360062470395728,0.00356588584906196,0.00332698568462233,0.00286283527052602,0.00270503061272065,0.00211571397928062,0.00179287296692623,0.000823360009219794,0.0020145048363235,0.00262285677080186,0.00312775616272511,0.00347729661913564,0.00365794994216482,0.00382904904411418,0.00367176951756533,0.00376478521570031,0.00363748862311354,0.00379544404787671,0.00367942001799759,0.00383839480895035,0.00370393394571312,0.00378265628088749,0.00364220791331011,0.00368203842137913,0.0542326951389115,0.0741336760930169,0.101280750556493,0.0855273726573886,0.0594879014984365,0.00364590673040247,0.00366187164391866,0.00370730602269073,0.00366123991597222,0.00368430050521629,0.00363435391291338,0.00367842321041833,0.003635464099997,0.00363322144830816,0.00355816544929217,0.00362646579485936,0.0036596832171221,0.0036115274718329,0.00359237621962399,0.00358690045767923,0.0036854531556167,0.00358864551086809,0.00362918029262795,0.00360378307478527,0.00365752883260485,0.00354284606810165,0.00341987263579519,0.0030378986121271,0.00216784634358649,0,0,0,0.000730637508360745,0.0010269629611402,0.00143050027320545,0.000167863142298843,2.89760978150635e-05,0.000145776862463798,0.000516325185834458,0,0,0,0.00140178905333911,0.00238244404691158,0.00314954114532968,0.00340334777119429,0.00363884574675245,0.00394114926041719,0.0042345000006096,0.00431177787780695,0.00423604401939216,0.00403158546167774,0.0038830545723742,0.00378506844690938,0.00375486927934532,0.00388847056186856,0.00403718053420584,0.00410501796114915,0.0040381795521547,0.00384291295887182,0.00372037269787404,0.00363924365828296,0.00365304900227484,0.00357210679348657,0.00361205043492507,0.00347752691557531,0.00352748880564658,0.00350996364467367,0.0036211965851885,0.00352449474752172,0.00350565847890212,0.00343138337368317,0.00328277241797382,0.00293512482328289,0.00240903293817573,0.00113961784225053,0.00200713211169833,0.00259650602078829
0.00391239738304054,0.00402962728641298,0.00372482220174844,0.0768034805580416,0.0767603196611324,0.0409602982458129,0.00351270739095922,0.00376713433311786,0.00384449517823259,0.00391514907360267,0.00417949794540884,0.00401676438195443,0.00413546714092695,0.00402610653380749,0.0039661045901984,0.00426686331782751,0.00386736037336042,0.00382278063876751,0.00348060066570965,0.00364524904814277,0.00361948975924348,0.0171493651766943,0.0228361221677997,0.0206463029665059,0.0212197327020918,0.0206610109789486,0.0199063981424376,0.0207834716830596,0.0228276109302204,0.0183491500404658,0.0166403178481434,0.0155584644413729,0.0151124853843013,0.0144003607302576,0.0148230772746854,0.0131905083687919,0.0125440179980806,0.00873734264078534,0.00515914000942772,0.00540039619977399,0.00432743736922362,0.0134807589573535,0.024503220531234,0.0253510861605541,0.0268743676345743,0.0264675255267512,0.0271005307761775,0.0260922011310097,0.0258697829437232,0.0253614501434071,0.0253930989065781,0.0248278605416625,0.031402430692617,0.0134373881783149,0.00438696589110908,0.00561775048284989,0.00445232703436519,0.00420751251546162,0.00394563051637205,0.00378096024681546,0.00379923047568551,0.00365386589075599,0.00362662888304041,0.00352018426291236,0.0562200999974474,0.0021224599777901,0.00258852572672578,0.00199250425983246,0.00268917278168005,0.00215784470349103,0.00305510213498287,0.00301790108872218,0.0034591473299322,0.00350410889464238,0.00358359861290294,0.00363735164530697,0.00361719741457361,0.00358921192783286,0.00366061722061925,0.00365933760050768,0.00386395617731958,0.00369237021530631,0.00368951828713441,0.00368054539376983,0.00380510358543308,0.00370082454895112,0.00372916863730224,0.055605232266074,0.148506999998766,0.0667248624826957,0.00330970055273522,0.003381752135153,0.00362457605168765,0.00363482062828372,0.00366309817326968,0.00365848869414037,0.00377703716287174,0.00363204901899879,0.00356426593974678,0.00355931029473355,0.00351342696022249,0.00360379576886415,0.00361496666260957,0.00360872136849423,0.00341029138532185,0.00359492430002072,0.00353485263316717,0.0036263407368262,0.00338642856309811,0.00365354310455126,0.00345868339814241,0.00363391344733824,0.00347376254676803,0.00334528932214309,0.00339202799404879,0.121534461139328,0.538268000000034,0.12176942274625,0.00274506908670698,0.00192339262962736,0.00259231344914781,0.00192025862283576,0.00270891149399176,0.00199541571500045,0.00259679884256052,0.00173773952219282,0.00228195063676407,0.00126393822440837,0.00277841748267966,0.00280451565239478,0.00334356435851173,0.00350661675544414,0.00371045131236758,0.00390599932118812,0.0039682598070536,0.0042318731908492,0.732903000000034,0.00393182956375737,0.00374956528077108,0.00373895911497275,0.00351883900857444,0.00376089618484408,0.0036382103688795,0.00402212236860095,0.715315000000034,0.00374393610197338,0.00348910896430897,0.00362238835570948,0.00347701143132681,0.00358728641084525,0.00351798740598225,0.0034754447688196,0.00342103096224554,0.00348998963953871,0.00338139577273884,0.00351821851796306,0.00350884870878108,0.00346842258388599,0.0033706749202416,0.00327297081189181,0.00332482831942185,0.00262265285873455,0.00309355279387742,0.00304576769678356
0.00402042850195363,0.00420883993646182,0.0364195086152765,0.0776341327182762,0.0773806510656323,0.0296161053131608,0.00371590349292487,0.00389343100136587,0.00384249506584724,0.00408470061952059,0.00398334232431821,0.00418312057057768,0.00400873101528708,0.00421394633472876,0.00406581791471007,0.00426917532821968,0.00403643080947226,0.00401504647336485,0.00378312177982213,0.0038151891655804,0.00375967094658415,0.00826288264663227,0.0130712681030803,0.01935136842562,0.0217738248168802,0.0214674670870086,0.0200240575385278,0.0206517575470878,0.0199230142561553,0.019218979112988,0.0172643887834798,0.0172161885503292,0.0158707845351331,0.0160790504355491,0.0149725263297991,0.0148943160300343,0.0132955136576461,0.00921252857379722,0.00650983962485293,0.00726289285175703,0.0117033827395054,0.014992153720096,0.0240643887451791,0.0241644122986357,0.0246179335548056,0.0253545801237167,0.025421976036921,0.0255317799101869,0.025270126044166,0.0256102524758074,0.0258364285187609,0.0240279015173833,0.0210120744237699,0.0172607154817222,0.0133059277031656,0.00832487163339064,0.00528438031381793,0.00445266011196541,0.00395155761473404,0.00386514418714994,0.00371752078016156,0.00371796709791486,0.00354525023801855,0.00329780410279723,0.00251547100315115,0.00109050735287488,0.00106485773857004,0.000740016075072621,0.00184437992518107,0.00229127484329776,0.00295780691104246,0.00319142192280475,0.00340774144401128,0.00357369245543551,0.0036071624858509,0.00371333303684444,0.00362883059949737,0.00373190956701473,0.00363737804200305,0.00381030460924117,0.0037157358952519,0.00385396255762821,0.00370042821354402,0.00381654531539633,0.00369313987158025,0.00370018528848371,0.00348204174338093,0.00287967906448448,0.00192502133949851,0,0.0020759028138706,0.00280125995265954,0.00330742939962303,0.00347663759814558,0.00354326617958309,0.00359424406368919,0.00361616838323746,0.0036396571844289,0.00358716507645506,0.00361746585534376,0.00357029242739262,0.00363513176878312,0.00364888590211162,0.00363095622445294,0.00357301983239571,0.00354896133907753,0.00358893083774448,0.00360208614838582,0.00369616240850375,0.00376124111217961,0.0037605477703478,0.00372724589882438,0.00363250033579241,0.0762412415192155,0.114300981593775,0.157916028048411,0.194227149657242,0.158010304774747,0.104757343784691,0.00163674624591595,0.00227856360774886,0.00235067244007391,0.00268577135786486,0.00256383213566953,0.00260183112762948,0.0020114160777656,0.000828977539288334,0,0.00186192567722321,0.00282443903478611,0.00333378003503774,0.00351311317375011,0.00365902071628552,0.00382143612259344,0.00389872179490835,0.00397888991711717,0.00382062878846665,0.00382831158212534,0.003765125900984,0.00372458181083311,0.00367779485469493,0.00377398369196949,0.00381135578146558,0.00388852454908877,0.00378717881097908,0.00373672106253754,0.00368477839517807,0.00364628797089453,0.00361176903911043,0.00349381865031836,0.00347324485307292,0.00324270360459093,0.00340629965457487,0.00339814244563659,0.00349669012561688,0.00348394208392847,0.00349297548251517,0.0034237860871136,0.00340611538724301,0.00334025190468133,0.00335087806385441,0.00308153219533913,0.00319587723991105,0.0032321067114038
0.00371446905622713,0.00415708808944523,0.0797990666941968,0.0790722124697104,0.0800002124313888,0.0188469035049772,0.00372934413433262,0.003871451729524,0.0039487778554902,0.00393560265409139,0.00405937817711271,0.0039654180144414,0.00402266356127335,0.00406361990004026,0.00407044283857848,0.00417762732139233,0.00397279950615827,0.0040500082114071,0.00384528762476849,0.00388503965097038,0.00387483957927148,0.00379488383745213,0.0034506773282427,0.0168203002739217,0.0260562651875338,0.0223487791091605,0.0203149723527813,0.0198244302024089,0.0193969402008774,0.0187114108755433,0.0185033344209123,0.0176464764140707,0.0178889029714867,0.0168013413112093,0.0163103215630956,0.0167147946868128,0.0175116526571528,0.00778462893724287,0.00476547945298552,0.00630541490068123,0.0217335307269114,0.0190035632577906,0.0239033187288782,0.0223620296076651,0.0232206676967665,0.0238499643839981,0.0250712196844622,0.0243132095766538,0.0251636711285551,0.0253791711366524,0.0286029427496245,0.0239647864237038,0.00334359277028,0.020305307071304,0.0238140390336315,0.0132532771591266,0.00382502200021002,0.00401355709786011,0.0036840154590317,0.00372766822024216,0.0036278929478168,0.00368949347223023,0.00358978830108841,0.00340457479388234,0.00326559262775722,0.0313583542353774,0.0558489896418134,0.0560535843337458,0.0569333916065586,0.0202717200489112,0.00336800019327013,0.00337649997844642,0.00351297092298891,0.00358314287645768,0.00371457600121564,0.00366660456109742,0.00377669201525743,0.00366145840515471,0.00382171603495051,0.00367789049839538,0.00383663956710875,0.00372645350962195,0.00390438028140014,0.00372019828549753,0.00375173210193231,0.00362849111274647,0.00362023377678292,0.00307443537171917,0.00281466041926871,0.000154952603030295,0.566596000000034,0.00217931270427776,0.00323158080806323,0.00317354255749893,0.0034487417657711,0.00337677678353699,0.00355630318252765,0.00354671239594437,0.00364169385956699,0.00359703018327547,0.00355784713951767,0.00362820652875729,0.00363869279021019,0.00367709338373736,0.549007000000034,0.00354792767809447,0.00336729510363772,0.00363890664746006,0.00365924510980522,0.00386739823639622,0.543134000000034,0.0953213809886346,0.0034977558891676,0.10579749902686,0.541095000000034,0.23845717589549,0.540077000000034,0.194212725797521,0.539901000000034,0.00102465202049071,0.00280277239455879,0.00273416555626813,0.00318684695293303,0.00304923579697146,0.00315563433810947,0.00292222597131617,0.605724000000034,0.127830164504217,0.605791000000034,0.00336636519958567,0.00362184539700162,0.00356177766496397,0.00352054874163485,0.00368157107686974,0.00371592100735899,0.00374166801736726,0.00355768201128165,0.0036719456878911,0.00369239426455334,0.00366360649085755,0.00358957721937907,0.0037264078100225,0.00382059333482199,0.00377714249564222,0.00365488256950713,0.00372144511208097,0.00372157237335381,0.0037216187699669,0.00360898883980108,0.00349436632978882,0.0034904242743535,0.00293734463636797,0.00342919451928063,0.00340886271511779,0.00353354744825626,0.00353907642063097,0.00342256213830077,0.00345562909648978,0.00339291652791262,0.00348415918461826,0.003599545203853,0.00339887801834855,0.00334472033742684,0.00342423783632596
0.0039671417787032,0.00420034129498047,0.00423606856621922,0.00440831803607353,0.004387777443467,0.00434326278693012,0.00405502943458992,0.00414174261106472,0.00402591383465115,0.00416793734486476,0.00396493738456625,0.00414421218230214,0.00398751015324768,0.00427544369981583,0.00430608815537879,0.00444320408264843,0.00434843356247064,0.00437376825791439,0.00409597287106303,0.00413157330519487,0.00400383320916415,0.00410717017699076,0.00394784152103947,0.0147745304529531,0.024475040095846,0.0229482515545228,0.0217371983136105,0.0215565951059051,0.02033154775354,0.0206175414253085,0.0195895088039303,0.0199219943375206,0.0191752529620278,0.0193831647913693,0.0187877124847191,0.0192909324710427,0.0194637280833145,0.0063486139576328,0.00568076800791651,0.00702680181750014,0.0105953602795476,0.013697905026967,0.0163442445776946,0.0189618120382899,0.0214973907581377,0.0228437522823688,0.0230589106729463,0.0226127212045613,0.0233025863522599,0.0226887771794791,0.0235917314105792,0.0238058010277712,0.0235203565038254,0.0224326909601607,0.0225028896888245,0.0197213408360056,0.0146398069860918,0.0104779288667323,0.00742926987116994,0.00547291479358026,0.00440568298029896,0.00388329285544792,0.00368261895424322,0.022311118837724,0.0321570585577831,0.0420644592893047,0.0552093456746474,0.0554242683556199,0.0556957624830794,0.0294614013372931,0.00347023823114208,0.00350644136897762,0.00356438875274173,0.00363928200772512,0.00359879595785785,0.00367904660252086,0.00368105304645204,0.0037013015231557,0.00363996782547511,0.00373750304687331,0.0036321681230357,0.00380149511352452,0.00370814034422216,0.00381931742619618,0.00369033284922119,0.00365235342196486,0.00339383985738652,0.00295888163974976,0.0019400564820285,0,0.000515241449809799,0.000508709824295032,0.00206463158454032,0.00249305866731252,0.00287537267331523,0.00295169619946073,0.00325055597904906,0.00343045964298864,0.00354307120535465,0.00362583015990749,0.00362099189396368,0.00365720864984866,0.00366145395719158,0.00367910767806213,0.00368932774212283,0.00359271099350897,0.00358185155083842,0.00362718573532327,0.0037555815942322,0.00381976103955461,0.238356038066615,0.202918714357319,0.168979678485334,0.135687076140709,0.169026464685475,0.203005774392386,0.23845717589549,0.155559062065195,0.119090635729444,0,0.00180988596101104,0.00266114068748263,0.00313292723183574,0.00323429597962368,0.00332964595610368,0.00340350557685397,0.00364096097736947,0.00377370820361552,0.00371933720256605,0.0035703422974676,0.003548157192308,0.00355872151484552,0.0035600011170843,0.00363524497273742,0.00363563653699711,0.00369157283415117,0.00361020868848892,0.00364584855612953,0.00357693453742411,0.00366946839398059,0.00367891922386064,0.00371483099485319,0.00369120178331803,0.0037038260538067,0.00366488187466769,0.00370883526838766,0.00372479559622415,0.00373544607658258,0.00358955890031332,0.00324312895910177,0.00274678500703085,0.00175028249323005,0.00269127122878589,0.00314615258204513,0.00346250927726357,0.00355180341988356,0.00354387375912583,0.00348477971682901,0.00347480058425328,0.00348549053847122,0.00358218917134816,0.0034671025938742,0.00348091657014114,0.00345779473821906
0.00385838297905293,0.00396305041554832,0.00383741614247041,0.00412257763632159,0.00421478978105908,0.00415784998476118,0.00413432796372172,0.00407441797490149,0.004319658407987,0.00402729972676342,0.00405844713163659,0.00392851624570319,0.00390954208314719,0.0041515010680041,0.0582759999972211,0.0354709034291051,0.058387099996997,0.00448518019204111,0.00404300985270665,0.00419331052311249,0.00404501674571121,0.00452073784737434,0.00428582700522285,0.0127511590897137,0.024699972345159,0.022349449712004,0.0240227661562082,0.022404354486143,0.0225213348124534,0.0214624882051128,0.0221940993586404,0.0210448745694012,0.0220647638818078,0.0210735793220648,0.0224044568306018,0.0212682221424024,0.0217668047871629,0.00555666493635537,0.00464875915961083,0.00537827891610077,0.00453944525250158,0.00482356577214652,0.00447745073184258,0.0136375862361629,0.0215285298304969,0.0222695745106358,0.0224072861872615,0.0192343782865333,0.0138095399831239,0.0181002483623559,0.0240694939558914,0.0240281435572719,0.0242034624154695,0.0231227570468348,0.0240784941172306,0.0225840881945159,0.0350430997117571,0.0332558453981187,0.0344167843634266,0.0346492343694812,0.0351270140028237,0.0236042559487057,0.00362051661205386,0.0330042375835777,0.0540858008832668,0.0541563862703813,0.0544493006435783,0.054762150639742,0.0547888127594904,0.0370481060982754,0.00353442563624519,0.00356285437799175,0.00363945450265001,0.00362492347942837,0.00345314470506524,0.00357739716081311,0.577890000000034,0.00358777608400296,0.00371471877605276,0.00357422602759838,0.00365525031335707,0.00362532699055735,0.0037719008375913,0.00371376633104635,0.00387009306003363,0.00358253503578486,0.00344248162590338,0.00324144730263192,0.140099000000034,0.00169174529448198,0.00244948106966457,0.00165156068409813,0.566427000000034,0.00171674682497777,0.00259295778591824,0.00216211176149713,0.00310215223742103,0.00325895362424397,0.00350801798029203,0.00361632543812494,0.00360720737856595,0.00366698292882556,0.00354360494681873,0.00368859620261043,0.00364734960107432,0.00364857015374086,0.00342704404745651,0.00363378183746407,0.003518771207516,0.00364518742905027,0.542811000000034,0.238356038066615,0.544780000000034,0.0939999241649013,0.00314264124483587,0.105833307450381,0.542289000000034,0.11931701181841,0.00253162745960866,0.000645782807629507,0.562953000000034,0.00303761760816522,0.00336741150586457,0.00340435678634401,0.00337118177448067,0.0034863253734949,0.00342319344149954,0.00364693955024528,0.00354653605948084,0.00352722907659871,0.00335134249183912,0.00349693114874364,0.00352535762153364,0.00355434935247627,0.00357688620582042,0.00358873924555851,0.00368260340634873,0.00352893120295703,0.00344146770524877,0.0035850767385432,0.00387182348663885,0.00364992597396796,0.00362721979007485,0.00358922059542815,0.00361347020517218,0.00362077571466348,0.00361235812360123,0.0964442318145193,0.371676219885188,0.37248178252068,0.373195316125825,0.373539715109672,0.373718186658705,0.374944142744876,0.376346995048187,0.096400430756057,0.00361742368052148,0.00353036083514503,0.00346824150349099,0.00355151899904771,0.00365551065553178,0.0035803872602318,0.00349969690517029,0.00352490129440975
0.00385345392191243,0.0039775984688177,0.00388431330624709,0.00407484927969322,0.00399107598435296,0.00413517546608797,0.00400131618847466,0.00412859750506071,0.00396258415253958,0.004122227421317,0.00393745719074702,0.00408136448977653,0.00390077941205888,0.0042366964899996,0.00433676391588363,0.00463014509165116,0.0046564916891391,0.00471350656971313,0.00454550566162805,0.00459584886574035,0.00466464526265417,0.00569668860106723,0.00726891930466527,0.0103644389661093,0.0149581818431114,0.0185904371328399,0.022882899031347,0.0235554998336694,0.0229476924810778,0.0230944469618795,0.0224398991805153,0.0224382222412574,0.0220578015884732,0.0220497701991227,0.0219058608870732,0.021976594499982,0.021986623750713,0.0049490933454404,0.00472864100229445,0.00554051123622748,0.00602846049667393,0.00582410186683126,0.00576914181507332,0.00757054669647154,0.00796941711528905,0.00835631662626249,0.00957190306991444,0.0108809796533058,0.0124807443692193,0.0121586664350192,0.0123858147737577,0.0139171477236656,0.0180031499013934,0.0215627647057048,0.0230526001387139,0.0242520109424946,0.0271803616049697,0.0302194414935284,0.0335990543194726,0.0340627803406527,0.0399126555984259,0.0441348647421118,0.0474582583149655,0.0499698424286366,0.0538054353904461,0.0540054484678152,0.0542762565559065,0.0545335197859315,0.0546940976920579,0.0448804335180729,0.0368256228306242,0.0285533776694354,0.0183779044258227,0.00372368391004126,0.00359602911793616,0.00356624516404513,0.00351473777944222,0.00353740154977393,0.00355783440391307,0.00363650119773406,0.00358792589826315,0.00374679109864597,0.00370201441723684,0.00379303109669055,0.00367221864212854,0.00359606906000825,0.00337220397774151,0.00328948347972899,0.00310824255507522,0.00262886818187877,0.00260102467192486,0.00217007158882992,0.00170154903957243,0,0,0,0.00203260173347052,0.00292003559280882,0.00340768740572141,0.0036491860987767,0.00371010124187404,0.00371064535540201,0.00369828819958708,0.00364278653581842,0.00363852679830987,0.00361257082716768,0.00368580707672514,0.00361151814300114,0.00357862859542972,0.00330106768403544,0.0026969897705492,0.00173888684787783,0.00153604237740881,0.00173641170640613,0.00225711275875886,0.00155625518207284,0.000454525414283284,0,0.00065945483159136,0,0.00201572089845605,0.00296794009568126,0.00339321470433784,0.0034952622501116,0.00352962056875183,0.00357798488207267,0.00358962355611856,0.0036168764120287,0.00355547849531615,0.00355072457389069,0.0034962160203577,0.00354830475189045,0.00353990959526023,0.00357734350586513,0.00350722927568415,0.00360014114469541,0.00352936171824506,0.003584545972526,0.00346061105101651,0.00359980022138942,0.00357783628271433,0.00361488856222195,0.00353323092676571,0.00354042257775214,0.00348052297654621,0.0034996992403822,0.0959707747637293,0.138804313081002,0.371916387300334,0.372547496245156,0.373189235959996,0.373694242892091,0.374127561416046,0.374749656915239,0.375268716089243,0.147763327647049,0.109091069627044,0.0705436087993011,0.0035213748287764,0.0035293563522085,0.00359987235613097,0.00355911001965178,0.00359811104003541,0.00354030014723573
0.00377596443059937,0.0038201912723896,0.00379794052978322,0.00385390370632674,0.00376998112680139,0.00387184728741312,0.00400165524239254,0.00382841390091878,0.00381543442224498,0.00382759768822708,0.00405213747302718,0.0038307192635635,0.00374994376597075,0.0039217884786983,0.00390977666537707,0.00425954551157264,0.00421190323472978,0.00456226781499058,0.0613317999953698,0.00456783009596654,0.00435103632164413,0.00600440058452833,0.00863731526498457,0.00725924682915346,0.00446686212725738,0.0140398204304062,0.0260107804679535,0.0248720902160252,0.0244349557510924,0.0240728855455143,0.0240093108948084,0.0228540914496644,0.0229800086610694,0.0221672989264765,0.0216039269159182,0.0219327995083884,0.0219303787557296,0.00477802977443857,0.00407207826633515,0.00604324262690422,0.00891940245936786,0.00661499572574815,0.0057541448939119,0.00606992168625279,0.00538582889037959,0.00736568609137243,0.00935696580816271,0.00877950810654021,0.00656925104845443,0.00954629267414457,0.0104803820891138,0.0105969664401702,0.00958162389064644,0.00763420640628054,0.00533775706583748,0.00550158567367721,0.00441145085472715,0.0223008606423943,0.0319160035353619,0.0333160253537419,0.0514550705236433,0.048059276177062,0.0526411132344398,0.0521325852487271,0.0534244454952504,0.0537077813949037,0.0543664650370805,0.0543545245671828,0.0549156600133327,0.0543008923264559,0.0543129111597483,0.0538770999918006,0.0541035560556906,0.00370589629458448,0.00359738606978232,0.00344042988853158,0.00350294747453582,0.00339834036000474,0.0037034005044802,0.00356281069483591,0.00376615887877348,0.00370009615971916,0.00391629111676609,0.00371520802067092,0.00374323966821498,0.00346188441200351,0.00330315623850846,0.00323426003256205,0.0033513969788956,0.00299549767830888,0.00318422920811747,0.00286598578205687,0.00298821813682263,0.00191681615259777,0.148624999998311,0.109476577658621,0.562059000000034,0.160738429776125,0.562168000000034,0.00377804216603172,0.0036979492488486,0.00377457807140589,0.00361821397110325,0.0036486914646781,0.0032772249188216,0.00366219138812485,0.00366019321648735,0.00371582573901848,0.00352661131429089,0.0034238378143163,0.00319735447001612,0.00261851514129875,0.00277657667025509,0.00245239477898322,0.00291303154949588,0.00224687064857472,0.00238957381091236,0.00064624595414351,0.568647000000034,0.00196612167585217,0.0029481845490489,0.0032778702423002,0.00358271878640708,0.00359911378297622,0.00353286018794063,0.00361314529324731,0.00363855333593841,0.0035732322780727,0.00346861087871768,0.00351753137431428,0.00354549673001532,0.00355560389653592,0.00357838635630954,0.00352288362149465,0.00349576885402501,0.00348535067329068,0.00356520467215215,0.00347381808074899,0.00356073251301766,0.00346527812245953,0.00356571436083485,0.00347775136715802,0.00361551417827322,0.00338946168653767,0.00332559323569336,0.00323155120768092,0.370463658369546,0.371081308631401,0.371543229367762,0.372405482670465,0.373442729159532,0.373683357229798,0.374479421757214,0.374468466079226,0.374741419027352,0.374249568527102,0.374109208733412,0.106751445662113,0.003567691992899,0.00356490921460166,0.00355344524683938,0.00358606312538959,0.00361792669267446,0.00358078896021812
0.00379165772684817,0.00393001954243882,0.00387744544382152,0.00400545100499341,0.0038590937772346,0.0039563055886119,0.00378260690231562,0.00387189976482577,0.00368440996179085,0.00388529446184222,0.00375253638512179,0.00396748049062505,0.00383416133745556,0.00408060844726791,0.00398020534880726,0.00425624940135399,0.00419272055383306,0.0044484056046974,0.0044258895147698,0.00459725283194562,0.00459439688654537,0.00533058785446821,0.00593449281725811,0.00561810399119474,0.00471218527690547,0.00978281211782744,0.0210536941720266,0.0260162316258568,0.0254300092369916,0.0259060975968918,0.0241424292709869,0.0226923346922172,0.0202226442996211,0.0167195763175622,0.0123338792116886,0.0077380288518027,0.00594429159804031,0.0049756701817693,0.00486626537906986,0.00631470267877806,0.00767963898184027,0.00689227317835335,0.00588732702426501,0.00606571831252727,0.00602529911944035,0.00672647824047334,0.00732193113712259,0.00828810402986318,0.00956265548777854,0.00891463766405256,0.00844154815933332,0.00907828923933581,0.00906515176509764,0.00847304827513343,0.00759972549847829,0.00723716412278522,0.00689415889915316,0.0157368776928106,0.0230077587394307,0.0289371618217877,0.0318377323528047,0.0350325348624411,0.0525471669562383,0.0525752783493962,0.0530181105914216,0.0533200722113681,0.053704129969408,0.0539221538746289,0.0540797933727528,0.0538966652514226,0.0537903052253902,0.0534525592959546,0.0284748497362108,0.00358981927069312,0.00341941517257694,0.0031751418975443,0.00314672198838968,0.00314277467217958,0.00335146388413242,0.00350716334186825,0.00358429369568286,0.00373774503993239,0.0037146027738245,0.00373152477187303,0.00356941879574674,0.00342679487037009,0.00321904730694201,0.00308242019892803,0.00306240636211624,0.00280497696818493,0.00306575204893017,0.00307166996297832,0.00308661870237593,0.0027363159794629,0.0688892323410606,0.0850753851515029,0.160738429760537,0.124457744263676,0.0870935473427432,0.00380533719577942,0.00383543168663543,0.00378853128732924,0.00377364736225852,0.0036418849268119,0.00361081948521997,0.00360752245128794,0.00372734536916212,0.0035948485485365,0.00355994331522723,0.0033607062619082,0.0032386610607615,0.0028868361638598,0.00282039129940759,0.00260721771990755,0.00265969991595389,0.00228679976653755,0.00241620220150755,0.00215180442846121,0.00279905899094129,0.0028475391381937,0.00322044857187103,0.00343261794384453,0.00360060868423854,0.00364361625743763,0.00363356566348334,0.00363078628526491,0.00357478363514372,0.00355887696391239,0.00346818092256535,0.00355592917393814,0.003563798474807,0.00361993598495694,0.00359979846775869,0.00362778906110804,0.00355685300401155,0.00362538581770936,0.00349501365936311,0.00359286603131571,0.00343686231413771,0.00356275251173994,0.00344967936409469,0.00351964716473497,0.00341409058342863,0.00331873652812851,0.00314149238302982,0.00285017680459144,0.370852576534782,0.371250196911728,0.371760252059995,0.37227863711155,0.372691603666527,0.373389643432723,0.373864059518978,0.374112872563227,0.374022794848046,0.373927928300902,0.373674226610165,0.142949764000975,0.00358579960107583,0.00357028175039243,0.00356601114760498,0.0034445674237037,0.00351951430749508,0.00350074922006288
0.00378040771865146,0.00391095475357406,0.00394122452160003,0.00404067026107934,0.00394767076280471,0.00385852119381835,0.00370014736611528,0.0036513348638335,0.00368547663175374,0.00361774139876875,0.00366376370148754,0.00374210817045106,0.00402725849047243,0.00388892928443667,0.0039578814654962,0.0039563736266445,0.00392076282518032,0.00410697161090308,0.0040495195604398,0.00447476867076835,0.00404260710051986,0.00456290578569039,0.00422970933492299,0.00463556006103813,0.00421863771993082,0.00587503266312988,0.00384608153140038,0.0269030971681041,0.0335471825345505,0.0292371124602358,0.00347645958909244,0.00347970356906674,0.00373165930488003,0.00407829744471083,0.00456566689596485,0.00537989734812711,0.0045426766722279,0.00456655588627814,0.00476244120709978,0.00630325366549226,0.00959637772567508,0.00672998766651506,0.00574686225557277,0.00561037776415139,0.00656565142881478,0.00573676064555692,0.00546367171933108,0.00677374589897139,0.0148429953292336,0.00750199609960806,0.00585068512798657,0.00779606178459043,0.0100778719286313,0.00929239006357266,0.0104148154871586,0.00890264504916285,0.00968855681536491,0.00785383634908325,0.00572105553592187,0.00662460362135653,0.00394139071274648,0.0294658360092485,0.0525267939572764,0.052652420480447,0.0529933806762837,0.0527776500873363,0.0535610941106143,0.053483914111772,0.0538930394037526,0.0535267088184927,0.0538013508781034,0.0530550969668374,0.00347167010035954,0.00341623218782939,0.00330090748009514,0.00271315858495057,0.00299929036175533,0.0027356759746045,0.00336577268691645,0.00338285511447997,0.00359875562291213,0.00366569324959549,0.00373749867238563,0.00361996259520872,0.0035834367021778,0.00321820702242739,0.00321260793085241,0.00273564332866366,0.00305498475408194,0.00195879939765084,0.105999999998566,0.0032077058441783,0.0034476563443095,0.00320308365367923,0.00333152314071343,0.0682153797194297,0.560768000000034,0.0880987890078396,0.00341898100429151,0.00372689492528515,0.00379848410995422,0.00383943256522789,0.00363997047433857,0.00370479281545808,0.00338972589290925,0.00366558502055773,0.00348617610569084,0.00361686239820306,0.00329624110474091,0.0034323295177579,0.00328388899655695,0.0031233737383504,0.00300240333810358,0.00276299008924027,0.00287044835842714,0.0020066011022894,0.00285825033310452,0.00284914128492654,0.00332473354252372,0.0033143854594835,0.00348844486761433,0.00356317110850839,0.00357943664220148,0.0036694478083123,0.638458000000034,0.00360087640049898,0.00351108816604353,0.00347687780968763,0.00340939879473412,0.00351961467775426,0.00365250225350238,0.00362526295078609,0.707531000000034,0.00363372692359337,0.00379626216089143,0.00357688240983144,0.00364932536887542,0.00347825312095857,0.00351679167239012,0.00345469508099014,0.00363945251310156,0.00343670492170656,0.00359480638244995,0.00321401373454679,0.00326725376450589,0.00227456176598147,0.370809927266021,0.371108479986097,0.372146420768358,0.371895331576867,0.372005916528047,0.372891947330973,0.373841370718186,0.373730662694568,0.373518819307012,0.373566666537543,0.372965894435569,0.179146658699218,0.0036329308491864,0.00360351158618962,0.00360322127512902,0.00312599555803578,0.00332220322235098,0.00334432521313172
