1.72141945417896,1.70779233590159,1.6947986114248,1.74524873853816,1.74574475006919,1.74712567666917,1.70371254997752,1.71743485180511,1.72876005635873,1.75707396481622,1.75817640349548,1.76890417942027,1.77077517871399,1.76572131202294,1.76361460004164,1.76004830659342,1.7543896908952,1.78152579770175,1.79584717534578,1.83108460996409,1.83167149774559,1.83020917514912,1.82983583333126,1.82888211945785,1.82709130721598,1.7647565668235,1.77050970493724,1.77848361392546,1.78827141449274,1.7974475479853,1.80434268648256,1.80860663651195,1.83047422331667,1.83141696802142,1.83490354989179,1.82960430129307,1.82685137176177,1.81957060964907,1.81614791259394,1.81633269327321,1.79709770716684,1.78452111982201,1.77238761976366,1.78857572918131,1.80472631802018,1.78671102119957,1.79886072369171,1.75182764174923,1.75140874101866,1.78988967715871,1.83134799571584,1.82907443139182,1.82342443933912,1.8210210815779,1.82480869685213,1.82453363025875,1.79278969977575,1.77316954020473,1.78618628555169,1.81733632501569,1.81593825214115,1.8138909974661,1.81407840026612,1.77764787791783,1.74540250288793,1.74571365398185,1.73263986078988,1.72170282641355,1.70979012059166,1.75939863578297,1.75873087393509,1.75799100480687,1.75821519014238,1.7587966688564,1.76144388121796,1.72546833839916,1.68298969545791,1.68420690087928,1.68416401730756,1.68278177408862,1.72049950571377,1.75565713661783,1.75523663607815,1.75374149818545,1.75626846329534,1.75859555083191,1.75761640860764,1.75707178369857,1.75691487594595,1.75711282275137,1.75790478349616,1.75914321165047,1.75944068974784,1.75601443563493,1.75518461552718,1.75563509156336,1.72445830691999,1.75588860256394,1.75545271053385,1.7039002848551,1.71518040311866,1.7256701417299,1.73540910029809,1.76068463115062,1.75838444433452,1.756296814784,1.75446066262628,1.7546154051749,1.75592825086981,1.75646435633304,1.68204759731831,1.68261937947294,1.68295786541347,1.68250736869216,1.68203581450713,1.68126295878501,1.67955767450505,1.73428560770459,1.72939608426764,1.72216104392535,1.71263139904619,1.7032529879248,1.69577276593568,1.69089416949614,1.67577864001724,1.67634694727684,1.67457336477962,1.67634216505249,1.67440543689586,1.67564978440569,1.67398821227418,1.67434491483087,1.67155676557493,1.69647431016328,1.64854178307023,1.66109964985445,1.68296564962352,1.68114850616989,1.678742395384,1.67525565834033,1.67227297086021,1.67206373950563,1.63968425341828,1.66726863378007,1.66724872752742,1.66737547867699,1.66742766433345,1.66361700113828,1.66391667843134,1.66229293621698,1.66118166684312,1.66145733158337,1.66286683365354,1.625781157443,1.5872214995023,1.58719060207417,1.62238294167641,1.63493172154369,1.60979454286349,1.61679364036181,1.62628961355636,1.63608285169628,1.64471438170948,1.65152704513477,1.63599854560112,1.6213704092489,1.66846267069366,1.66791451558666,1.66678818212361,1.66610050706653,1.66585039135439,1.66598265016635,1.67234370787437,1.66892282605303,1.6665964750511,1.66710462579352
1.74231077621953,1.74238907621985,1.66930033730314,1.74478470267092,1.67017359994477,1.74902023610713,1.67344701647244,1.75305590709878,1.67793910588229,1.77045758433393,1.75871083384902,1.68388902897054,1.84583537007704,1.70359470067176,1.74161674752603,1.74835843516379,1.74779821336167,1.83420981486254,1.84643304382145,1.83957164632737,1.83126724305413,1.74923540666326,1.84453641594692,1.82863927009083,1.84762626266961,1.74961003006789,1.74937359312264,1.8386165143269,1.83024819377839,1.75181318847494,1.75128100097449,1.7507798144474,1.84572908654105,1.84262528862006,1.83903988302981,1.83468022478004,1.85011708464852,1.75217695308908,1.75197207764201,1.82072259969599,1.82344618512004,1.83056943149223,1.75189454745583,1.752954695904,1.83501067878877,1.75056606191712,1.83360346598962,1.75196412276833,1.75203921090916,1.83307075756787,1.83216633897294,1.84453591932421,1.749672275751,1.75004695895797,1.83226500186374,1.8476459874656,1.74770021604877,1.74798811126701,1.81834566535562,1.81917464456995,1.81793498247395,1.74564198711803,1.83515716006587,1.74457046156911,1.74437538136247,1.74449751496186,1.70040626004505,1.76683677373932,1.68649611071424,1.76124625707119,1.76002443488957,1.76758367802525,1.75883191034962,1.7583824241154,1.76666417886007,1.76651607447422,1.68112382291082,1.68139132690989,1.6815666117828,1.68106719930667,1.75548526384259,1.7559489246183,1.68095928053726,1.68073893091443,1.83318257571267,1.76269329304392,1.68060801183831,1.75585589823025,1.68103151791745,1.75837824055272,1.75764031003838,1.75781312809266,1.7621588446708,1.757707941764,1.75680622244708,1.75619997515555,1.68151515434397,1.85351650114204,1.85478888526138,1.68172110326598,1.75888860585599,1.68228163798262,1.68054704885575,1.75895794173155,1.68215279907203,1.68216628834165,1.68157159050505,1.68073703076903,1.75618552742405,1.83995463027675,1.68126536527828,1.67848371714989,1.68189904247973,1.67970582654662,1.68013629551475,1.67815032275407,1.67838514341642,1.75077328146494,1.82992969442756,1.84977351555922,1.82668228533363,1.8257053862485,1.6741682228797,1.84727891246623,1.67524267777349,1.6727795734604,1.67651247935563,1.67144571212817,1.67653554179798,1.67058705931661,1.67522316240717,1.67408359111159,1.63096276760883,1.85701555744034,1.61095699056033,1.69130607900015,1.69363410202959,1.68062087920668,1.67867877341691,1.67678003064962,1.59727480966325,1.67313246946848,1.59359372291113,1.66902968926405,1.66893041194549,1.67029138250319,1.69241423404315,1.58898170707837,1.66548666315128,1.66569755353045,1.58941836429946,1.66629565778021,1.66613783236872,1.66660480514823,1.58664349883223,1.58635304864289,1.66582503170433,1.66409312264447,1.58822026873755,1.66606796623718,1.58956885509335,1.58983734919731,1.5893436406581,1.6653712911316,1.66661187703283,1.59065111381671,1.66821694277241,1.66830025503114,1.67400945659445,1.66838458128894,1.66797768294529,1.66811113516361,1.75358429202382,1.66789675632394,1.59215620854155,1.5905156726764
1.74085087364821,1.74099787780576,1.71840175821416,1.70652288525757,1.69365802607655,1.70626791747358,1.71995825214634,1.75313639383816,1.75283346673892,1.75294542477654,1.75500302007327,1.72457336324909,1.77604794201936,1.76809437879215,1.74961400372732,1.74897901951865,1.74878460561287,1.78635700867165,1.83775997122109,1.83757995021267,1.83653519153756,1.83364763277427,1.83141555350519,1.83363496277196,1.7862109286368,1.74988414407176,1.75050187739799,1.7527963719892,1.75428547789643,1.75420986910866,1.75265348265682,1.78334012832079,1.79763841447487,1.83398197251804,1.83482444672415,1.83281649882008,1.8330095009269,1.83267853440748,1.83269483408219,1.82274223748909,1.82337427485192,1.78719451000846,1.75197331003463,1.75229626019226,1.83044874921248,1.83182102045154,1.83367775897704,1.75226864456956,1.75288850735659,1.75425348754786,1.75471903879454,1.75350457504261,1.751335833673,1.7892799073234,1.82055880528181,1.82347842076257,1.76695089129929,1.77900047249351,1.79058787429576,1.79914751395437,1.81756477264365,1.81656816811684,1.81593186208639,1.74429894622897,1.74448265536272,1.74459257734943,1.70268665945839,1.69192604221924,1.688146312152,1.70292122706432,1.7126489132888,1.72257051599483,1.73100379032278,1.73626298972215,1.74359780574296,1.71861724272661,1.68152497672118,1.68161636497554,1.6817821899118,1.71623733381255,1.75358910270211,1.75294362481408,1.68159381210638,1.68015964109302,1.6786371499573,1.67780194450357,1.67860332357602,1.70016427267613,1.70648257583954,1.71463112619068,1.72341775601605,1.73126169918852,1.73765415915582,1.74219966668392,1.72517796854641,1.71296466488377,1.70019541036271,1.70873499370423,1.71794212282137,1.72676477423844,1.73715348515706,1.718472184428,1.68028644405675,1.68046305505683,1.6808802589082,1.68101108968223,1.68065184473112,1.68077045444993,1.68031193899632,1.68041675741834,1.67947709896233,1.68012739723355,1.67927284584316,1.68038113684822,1.67877390876674,1.67908458987549,1.67790659436687,1.69992627816805,1.71452128688673,1.72634488380673,1.74456491634565,1.71875888031118,1.67425590815213,1.6745186167603,1.67381772405772,1.67534173831209,1.67289500284958,1.67527983665066,1.67194406153755,1.67399073810791,1.67210094383362,1.67352905348619,1.69338419320447,1.71171166005092,1.65549238231203,1.69083230020776,1.69057287493018,1.68199503714087,1.67670304679595,1.67626449307589,1.67095402832339,1.67125700334997,1.67022994644137,1.66909979632206,1.66773094546325,1.66604837145004,1.66424877619281,1.66412720829686,1.66466980783111,1.66520749172,1.66505589612048,1.66512365449079,1.66556457959348,1.66613652685802,1.61159286903814,1.62604712207554,1.63857207475227,1.66416335831224,1.66415320338287,1.66475121116304,1.61130651093552,1.62322347539865,1.63326861891244,1.64515905059781,1.66611912595007,1.66576115278473,1.66828875124169,1.66948653935193,1.67173095928167,1.67017412205272,1.66951359831358,1.66839908697509,1.66745728781821,1.66818026842652,1.66656113423918,1.66504381099448
1.74006743208813,1.76733381807999,1.74252480593714,1.66769169903102,1.66818268078778,1.67223513748797,1.74713762410121,1.75401567259822,1.75290124671827,1.681071901893,1.7574191367084,1.68739901835045,1.86054239459386,1.86365164629467,1.74770250532921,1.74772916245038,1.74855545897914,1.74970189622726,1.83788414343647,1.83748039590153,1.83817172695874,1.85132398001975,1.83534497260585,1.83114613014204,1.74859738483661,1.74971729987239,1.74924404985145,1.75011907475107,1.75024944372182,1.82869693728181,1.74938934044532,1.83159371026416,1.74849489991945,1.83493300516211,1.75053894074656,1.75121781097074,1.83509861463094,1.83385780840474,1.83396699086477,1.75186317668424,1.83239377411675,1.75157274155855,1.75180486696425,1.75196112058945,1.84432888765178,1.83478638316013,1.83609617576307,1.75168615385207,1.751479838956,1.75107253944369,1.75132173688051,1.75054116200888,1.7487817069987,1.81843571920469,1.82087424345881,1.82722116221583,1.74830858292746,1.81652470103912,1.74634431939717,1.74716063543259,1.81928848409578,1.81795513572403,1.81751106880857,1.74418496284637,1.74470594155545,1.74457337737177,1.69975877775273,1.68754101546414,1.68662268859853,1.68504331978133,1.68550868679189,1.68396916507269,1.68319957842825,1.68289526669618,1.83635061840574,1.68019129724324,1.68232012010315,1.6815270519761,1.68228653172725,1.75395441386998,1.76319360893577,1.76265402531725,1.68166414307038,1.76437510163622,1.68049417489913,1.68044404515321,1.68212611862232,1.68132845929268,1.8580425070595,1.68339757221591,1.68192002294903,1.68126418316701,1.6819161581149,1.75439667983379,1.68122157374012,1.6806989415006,1.68118005714647,1.68157861811318,1.68123269463406,1.76061668646673,1.75962410527843,1.7550290470689,1.68012756593753,1.68004715850604,1.68036182423957,1.67886973120132,1.68063681079544,1.67900976024617,1.68211364392194,1.67856536850202,1.68065138509627,1.67669215534257,1.68057713401901,1.67674095729901,1.6800698352838,1.67746764464501,1.67763543060697,1.67666519536176,1.67530134478169,1.67584127521405,1.83721286855767,1.67497873765716,1.67533939759574,1.6737831514557,1.6756588295004,1.6719542381215,1.67637311512216,1.6697175798533,1.67563079915368,1.66880000650558,1.67299525105485,1.6716015795403,1.82719535954816,1.86269275113805,1.61275852982242,1.69061254908075,1.68968777189847,1.68233705902789,1.67637620277725,1.67552255294285,1.67324392091833,1.67224660984479,1.67074693959522,1.6692151709855,1.66743311407244,1.663831963518,1.66404413651714,1.66515107546629,1.69080882760775,1.58637625447654,1.66417490660153,1.66344944363721,1.6639163263141,1.66461324665822,1.58686468296954,1.66526869176045,1.5887596441413,1.66560847212519,1.66512399119013,1.66539871212053,1.58926616357991,1.66405837483582,1.665701181174,1.58786761691719,1.66618110338558,1.66480125934231,1.67831576723329,1.67116896156536,1.6731021089815,1.67248762276696,1.67298884146958,1.59047481569752,1.66612926530563,1.67216463634687,1.6733076313402,1.66502325943546
1.73917720976968,1.74162161526331,1.74220431921796,1.69851507971423,1.71257860532499,1.72422550088105,1.74766168971056,1.74819925716883,1.72396655165852,1.71015887992259,1.73257537020955,1.71604731549316,1.78639235743471,1.79600152738073,1.748513238973,1.74892149143903,1.74846243658562,1.77075695915656,1.78438238935098,1.7974500155101,1.80542294218325,1.79476768212908,1.78230926000518,1.76874041303745,1.7495004305427,1.74980819133472,1.74953308877296,1.74368792026694,1.74516155627569,1.74493836726585,1.7457439497054,1.74475280841312,1.745249007323,1.82931415219591,1.83250461664022,1.83342615700219,1.83406082925148,1.83244907794577,1.83185685327763,1.83328583601467,1.83317008213908,1.78842969148298,1.75225195380247,1.75232390746695,1.83673748649293,1.83670165447298,1.83571002284519,1.75119982969828,1.75193412304447,1.75184047218757,1.75105889120042,1.75078913825148,1.7497344395155,1.81752425190617,1.81657161411226,1.81398047881846,1.81071886057947,1.81295605946463,1.7783819103249,1.79178963414355,1.81831205533374,1.81795691638975,1.78611557450157,1.77099452804686,1.74426500375056,1.74387529381285,1.69827055397113,1.68952568708059,1.68493555207096,1.68468259287315,1.68370659016667,1.68317142254782,1.68212789462737,1.68193836789649,1.68110055176576,1.68097876863797,1.68163604722446,1.68237373598818,1.68299892277245,1.68475883306884,1.68525818789367,1.68510957675297,1.68373944479659,1.72632339601811,1.68314740646167,1.68384379171786,1.68425809376801,1.68341942881961,1.73174010882789,1.71896686400943,1.68020222504162,1.68035033476982,1.68165777437747,1.68326634820635,1.68242481557846,1.68167569279743,1.68150746342864,1.68163064619796,1.68130725877954,1.70669879412114,1.71993944723484,1.73126661553073,1.68023168861152,1.68081776446261,1.68055594795946,1.68055360740321,1.67994735305645,1.68057682267229,1.67929487072548,1.67978985868725,1.67785132775547,1.67901466882603,1.67742852069323,1.6789643401996,1.6770929952087,1.6779451444013,1.67674221720665,1.67605347977867,1.67568593586253,1.7166174076541,1.74165283432443,1.72163518598228,1.70503584438739,1.67427507762174,1.67298983903691,1.67485669134327,1.67161378385674,1.67406207691624,1.67038316319059,1.67265699613591,1.67039363330281,1.67205764520687,1.70225863881575,1.72226756580835,1.65522217776729,1.68618811113719,1.68430563372733,1.68057931092495,1.67397978682513,1.67437006277926,1.67276834160633,1.67150639472142,1.67049694550174,1.66795409005336,1.66780619456599,1.66425905577924,1.66459118503931,1.66466889294382,1.66243223701832,1.66124043819763,1.66094856251541,1.66151299051672,1.66304509279595,1.66375337353234,1.62470152461296,1.66358429272614,1.6630802361282,1.66332100994901,1.66296946034277,1.66296482502457,1.66265057073344,1.66397685719763,1.66432394127714,1.66222137014134,1.66324109001463,1.66570893002762,1.6707669131998,1.67294822137775,1.67254953892449,1.67167534685906,1.66962386384708,1.63342937592953,1.66322363403467,1.66370272031931,1.64389834757972,1.63214026803094
1.73778975037427,1.74232940915512,1.74200518141796,1.66705218704192,1.74539121360705,1.74577459760134,1.76766787815406,1.75029584534631,1.67657552595452,1.678645416985,1.75674678431451,1.68419083037612,1.77100469044248,1.86870921961323,1.74750447693041,1.82212182729471,1.74593505233886,1.84446933331947,1.74637373279207,1.74372808567707,1.83717258047062,1.74718873065977,1.74721470736194,1.74710947122492,1.74810721139544,1.74965750551492,1.74867968461902,1.83820413973754,1.83314847752061,1.74800959559385,1.83743569724862,1.74904772901159,1.74884223855514,1.82501055089959,1.84900879711612,1.83084492827098,1.74743734283059,1.84879943153901,1.75079829689876,1.83609844962617,1.83480381231546,1.831137908948,1.75221171685499,1.75222133688067,1.83907938411688,1.83872323469502,1.83239963213797,1.7491224543708,1.84892552481396,1.86179222437409,1.7492420890235,1.75169221135512,1.75034348129101,1.8180697448226,1.74996333486627,1.81763628522139,1.82844470643273,1.81470063305285,1.74784393395186,1.8177243180485,1.81787162717485,1.81783550289509,1.74421124293139,1.81410419341427,1.74417603601114,1.74163049806957,1.69934966681512,1.69023364132179,1.68433603052023,1.68262749366182,1.68235428824647,1.68147072078391,1.68145128090176,1.68065619317667,1.68094193159332,1.85348905120096,1.68181802221843,1.68115092772265,1.68283595859943,1.68105299806662,1.68310004860261,1.68289816040322,1.68301218801919,1.86402981710328,1.68190741343096,1.75976536620643,1.84477935584601,1.68207385189103,1.75970072323,1.75759857658588,1.68126695496827,1.8502144382644,1.75519253393998,1.68481609101295,1.86747881771103,1.68301453149397,1.68169111121095,1.84305485554214,1.6802546922123,1.67967420807059,1.67992803930893,1.84867401383566,1.67992225697261,1.68173214654328,1.8544578715964,1.68034872573214,1.68067358707825,1.67873215264226,1.67979762864149,1.6760925243268,1.67904429279978,1.67528096718093,1.67864386657035,1.67672298175754,1.67672714755678,1.6768970435474,1.83339571619966,1.67470084484962,1.67610315581095,1.82538556031796,1.84360348821634,1.84257246632893,1.83184518892435,1.67345146137788,1.67436297483463,1.671145358666,1.67550172499199,1.66764349122888,1.67409376498953,1.66732836773379,1.67261634640853,1.67044086923702,1.67066114144668,1.85203582060781,1.61077251559023,1.69423055288254,1.68070153113061,1.68011450816618,1.59995995281812,1.67661235984765,1.59620239752393,1.69147639014227,1.67011104246117,1.59256634254152,1.66789868641771,1.58980935077422,1.58998817462807,1.6654551488271,1.58713164766657,1.66265578666331,1.58592743923366,1.58575385291731,1.66278368996585,1.66260687678484,1.58664156542426,1.66162692622791,1.66197773940156,1.66221807988401,1.66293205802316,1.67412353574162,1.66228898132468,1.67829011066648,1.66511428539891,1.66157402812051,1.58903044765921,1.58830756672972,1.58642902042457,1.590611962637,1.67293692137245,1.67003717861403,1.6684411998504,1.58999999556414,1.67239169041302,1.66405502369115,1.59156144419023,1.59062360819211
1.73794813122642,1.7400417002021,1.74119751077914,1.74183107321626,1.74302531458781,1.74791218453023,1.7646804384092,1.76557653140235,1.76112805203263,1.75788004792882,1.75870618500202,1.76065099521392,1.76447555001141,1.79134134336237,1.7766703939122,1.81979032799504,1.81809020352863,1.8268317840015,1.74625288627773,1.74714229822589,1.74652132779136,1.74517831017371,1.74411665510469,1.74421313296596,1.74482749701944,1.745466860066,1.74818583158765,1.82170600368348,1.82106498710673,1.76673899251016,1.77460363206671,1.78593813567935,1.79650495362596,1.80418486825485,1.81036657028973,1.79312301147208,1.7785763162298,1.80304756570345,1.7890549985633,1.83374721381068,1.83148287919954,1.78786214140554,1.75271366355483,1.75389995911398,1.76927480166976,1.78068313245499,1.79124463825536,1.80171861862056,1.82749579202963,1.82729900193406,1.76692273495488,1.77617186999403,1.78788930497491,1.79796641352276,1.80458662808582,1.82175039222601,1.82353858894647,1.81022500539858,1.81032896274343,1.81467854839594,1.81642696468973,1.81659443329683,1.76992477029205,1.78888451641318,1.74262321372624,1.74161941657289,1.69835158686494,1.69160851433251,1.6836470513537,1.68237716298804,1.6814642157389,1.68173669929671,1.68087040121931,1.68132288885373,1.68067719692361,1.6812733463721,1.68087125899135,1.68216866597354,1.68151621829435,1.68238468391484,1.68175589071554,1.68293269432188,1.68216261781383,1.68237471884814,1.68273865196292,1.68329100227576,1.68369380322655,1.68337157225136,1.68360749085197,1.68332223419548,1.68270813592264,1.6834792545935,1.68304999597771,1.68285404113145,1.68225807910795,1.68257629057226,1.68246250089516,1.68204081142311,1.68112236136311,1.68123164260746,1.68054957700619,1.68057104419627,1.67978330701692,1.68065120137565,1.6804715745911,1.68108904109493,1.67996716398838,1.6803336992775,1.67893245557356,1.67853823204944,1.67712143555301,1.67736410658278,1.67620880697891,1.67644228472944,1.67517940513157,1.70924655644186,1.72996645834921,1.67582908218364,1.67619656280571,1.69956632725635,1.71419102292076,1.72573232122225,1.74194607958105,1.70917496241991,1.67245865560446,1.67339051702626,1.67053252197922,1.67240665544767,1.66915293218473,1.67168103585025,1.66951028698582,1.67106927536321,1.66980190379509,1.70629619877492,1.65108736351263,1.66640870606829,1.65879809236293,1.65081251105121,1.6412402876446,1.63195213559646,1.62115604383948,1.66849745360972,1.66826124340036,1.6667509952923,1.66624767192061,1.63455675167316,1.61216895658707,1.62332035735608,1.63302670687466,1.6442944774044,1.5846624824565,1.58462888449365,1.63931859219639,1.62597315208142,1.61219268029463,1.6605855215212,1.6605452725285,1.66021300721243,1.65960154142144,1.65843971664378,1.66091815413827,1.66350683445977,1.66442426617302,1.66329402177936,1.61347609802213,1.62708759384273,1.63831051851007,1.64939956222817,1.66450665370943,1.66690331826227,1.66763106576752,1.6452664964977,1.63263693919782,1.62145064961972,1.61030191873884,1.62368300590429
1.73895856448752,1.73827682824446,1.74109718023829,1.74164279578441,1.66836688531337,1.74773370911925,1.76681367084445,1.7681772110926,1.77015178374064,1.75573836787191,1.67998387262247,1.75785904143723,1.68869425087965,1.85194862677222,1.74373590375543,1.82005261399596,1.82059869852541,1.82971445738643,1.74594698732457,1.74755728141227,1.74907553992352,1.83490347180605,1.84651623954722,1.82991534642735,1.83143966351719,1.83789329212696,1.74636998644029,1.82525067528841,1.82331073331776,1.74652320612607,1.74626846747171,1.83693056211006,1.82746558754442,1.74794913194988,1.8372884698165,1.74701577696943,1.74684116581023,1.83747294643717,1.74728238302354,1.83618933112944,1.8284589706856,1.75008817511227,1.75007294533349,1.7478030480706,1.74942003415137,1.74729547156065,1.74988858780618,1.83122479821336,1.83150940052551,1.83108527415275,1.74870466568388,1.81725193837356,1.8191064544147,1.74723165063956,1.84146758593166,1.83348502190315,1.83384253820706,1.74665979804151,1.83114504557623,1.81700098337614,1.8168275855214,1.81616508675894,1.74409461313367,1.81339901823173,1.74180361685167,1.74036691474731,1.69935621900336,1.69032310402878,1.68415185220563,1.68063512582823,1.681762743423,1.67970060839994,1.68216647237286,1.67962647148535,1.68170011670923,1.67951459037903,1.68176252244246,1.68001733947169,1.6836485919922,1.67971951658841,1.68234136314561,1.68128143068823,1.68197294704002,1.68074327302444,1.68301992245051,1.6822311406888,1.68335740480398,1.68165382677582,1.68109510702228,1.68009565868324,1.68079643452887,1.6816418416358,1.68119489186692,1.68042392868959,1.68080053834373,1.68123845066692,1.85062134283048,1.68089073940893,1.68146291383669,1.68148680011523,1.68172779498056,1.67970338095248,1.67947967268013,1.67842945651643,1.6807561276526,1.68055494888422,1.68064809781763,1.67937336435555,1.68023380173925,1.84116565577104,1.67703969900245,1.75308050543884,1.67624333720672,1.67383328041548,1.67433331275203,1.83449200521741,1.83744386354142,1.67630580386222,1.67634592470098,1.67438303563874,1.67334369995265,1.67304309106713,1.82267894795538,1.82224620817875,1.67385231354772,1.67027814091755,1.67361086872113,1.66691572266799,1.67248312091645,1.66694942448882,1.67245937687864,1.66871838226406,1.66987873425235,1.76687650784917,1.61123863540388,1.68758192205922,1.60561238774208,1.60045837670583,1.67625623135527,1.59627385319627,1.59587525787851,1.66947985748722,1.66860701310376,1.66745522748806,1.69030354376273,1.66378553619539,1.59039977369239,1.58911780946313,1.68871607506232,1.68742537287615,1.58573097739862,1.58573358211358,1.65982428700337,1.58645563037749,1.58575712580448,1.68441906752702,1.7581280596784,1.58655691792748,1.58527210855401,1.58422190307471,1.58728521698799,1.66531275426068,1.66481115495989,1.66322955337152,1.58742910824974,1.66726361949306,1.67461352286308,1.67333976247104,1.66590587910719,1.66490007104989,1.67422075637664,1.66270284676101,1.58961530392964,1.59221938213208,1.5930350828276,1.74593061089989
1.73778861719392,1.73876944362214,1.73958326161074,1.73995685799315,1.73997770388104,1.73991254880992,1.72754681821652,1.72006373815514,1.71076341862771,1.70076837256948,1.69138660475252,1.71657252819852,1.73113300034824,1.73967590913056,1.743095430743,1.77609293367779,1.79305075203346,1.78083187327189,1.76551533051492,1.77514060183435,1.78479558530584,1.79600924517784,1.82424989460701,1.8244076675299,1.8241529013858,1.8236974963273,1.82384413280976,1.82463120828299,1.82530254005892,1.77050349348098,1.78494635099538,1.79696770513289,1.80633473960322,1.79532712563258,1.78369573222175,1.77117030648921,1.7856274098953,1.79984751433273,1.78603241387066,1.81919092038989,1.81913101562899,1.74932726414187,1.74928764518883,1.74865275355377,1.74845098584192,1.74795213141068,1.78531006526878,1.8307006372525,1.83092770307829,1.82991153487663,1.82737126825882,1.82485407466747,1.8250346157532,1.8275126071765,1.82954161821583,1.8326161563464,1.83344506776,1.7917295478447,1.8222922083891,1.8198861903243,1.81811484840411,1.81376713916609,1.8099001664918,1.81020676042638,1.74217548756954,1.74192130807136,1.69698609837451,1.69186493375142,1.68322564077176,1.68246164122493,1.68090398994218,1.68150898942426,1.68055046854873,1.68087507537712,1.68029220742491,1.68120850971971,1.6801196053934,1.68152532875387,1.6807800850844,1.68214778758678,1.68114516896441,1.68242784794321,1.68173590413616,1.6819299086721,1.68246504460922,1.68305361483404,1.68298338726987,1.68266708738497,1.68210361286537,1.68177911533129,1.68178257840156,1.68230425996002,1.68195462199124,1.68143233541052,1.68130671024412,1.68179242927259,1.6812736281889,1.68133512937447,1.68073030730749,1.68111837689297,1.68022805215981,1.68054847889134,1.67965384619092,1.6798947512931,1.67982412752185,1.68056052315504,1.67919761858973,1.679336883643,1.67885675766208,1.67905235878181,1.6775871536677,1.67698487292383,1.67609274934113,1.67520212439671,1.675035809617,1.72883612699404,1.70806206680266,1.67884311827268,1.67915034507716,1.69898238762899,1.71354045428069,1.72519591994527,1.74214802686758,1.71104847678198,1.67185497984384,1.6719789499696,1.66999531348041,1.67140007078502,1.66886480793837,1.67078289640161,1.66862333804751,1.66964242192657,1.66883723256273,1.70456105026577,1.64800842619489,1.66138852211755,1.64768751192436,1.63539568930986,1.67452039735411,1.6716233194755,1.66982236849377,1.66915684370776,1.66764555143126,1.66602618591064,1.66336783013098,1.66329626746294,1.66267850591345,1.66190780692877,1.66086473807086,1.65996486087512,1.6114945671,1.62541637703904,1.63802791812304,1.61621016558603,1.63052243267044,1.64526366641178,1.66580825490334,1.58661074331462,1.58734016204952,1.58745627555261,1.58839251372321,1.58938658844338,1.58982033707139,1.58967974906671,1.58915779560464,1.63168147357432,1.66675674500029,1.6650219268623,1.66371347006891,1.66192976265882,1.65979593594168,1.66126982573616,1.62731507688816,1.59365757891488,1.59380694336989,1.66461169048945
1.66155604290333,1.74009925843527,1.76683162241017,1.66343839912536,1.74243276373069,1.74305409431327,1.6711160056799,1.67157854189662,1.67246930227755,1.6790185722114,1.67926580241245,1.68017023916096,1.86999775073916,1.70042855075882,1.74341659990218,1.74372929816665,1.82020492861482,1.74717423150505,1.74704036574402,1.83215298231686,1.83792222563454,1.7441616373207,1.82687219717052,1.74706785681271,1.74725366783937,1.74619193514484,1.82450851500708,1.74694324238464,1.83454705000823,1.74758616838471,1.84333581345682,1.74818035627384,1.83517854332701,1.82918192553188,1.74574181327491,1.74702950172597,1.844699180278,1.82033483544372,1.74816308579174,1.82082267615402,1.82044703582523,1.74634045069598,1.83082643717625,1.74858524735832,1.74764645411266,1.74760879502684,1.83149672217739,1.82920106827181,1.7495836165519,1.84108664414708,1.8276389270709,1.84371252892097,1.84398698630916,1.82758179594117,1.74615370159251,1.8349060131075,1.83331990555337,1.7460683917311,1.8255004071879,1.83184068245884,1.8284881867391,1.743627297939,1.83630938767183,1.83502470871132,1.74262777280575,1.7430345160088,1.69655017506266,1.6910134144135,1.68386286049286,1.68217626243377,1.68204255102876,1.68080122232181,1.68043705621469,1.85809094807927,1.68044204621309,1.68015566488398,1.68149689564557,1.67784977440592,1.68248805067282,1.67990879204761,1.68255435207681,1.68200904835895,1.85505854024157,1.68131701282618,1.68194019420528,1.84655229716966,1.68241583076174,1.68245533479085,1.68241497417488,1.84046810508633,1.68165242827866,1.85681888667618,1.83766143268439,1.68079941131519,1.68170628199115,1.68103813919936,1.68106562444106,1.67997415733664,1.68093213662027,1.67890589861514,1.67906162388671,1.84270608019978,1.68006372411001,1.67916155713093,1.67956299802412,1.84379115904267,1.67775000384163,1.67747352782162,1.67780374208187,1.67941516419536,1.67774236171271,1.6761865311289,1.67666510216075,1.67465681386308,1.67595338120119,1.85333403993769,1.67244075082476,1.67055744124861,1.66971917486254,1.75257070113508,1.75259880340353,1.83739855916334,1.83911014186194,1.67258597240085,1.6722162780181,1.6700160221642,1.67236328975051,1.66845015099419,1.67099185334494,1.66798540335944,1.66947265993183,1.66664664041324,1.6692727746079,1.84936187631641,1.61062703767054,1.68050227028751,1.68207102219327,1.60058130003203,1.67574092119203,1.68997115517014,1.6896977797662,1.67014551380614,1.59211428469242,1.66706200950387,1.58722824169988,1.66490193929833,1.66432820352296,1.66368938447616,1.66240917742102,1.66089847004739,1.5837820328103,1.66026554685044,1.65985429927084,1.58851094348538,1.6604931221576,1.58327535494917,1.75678139932875,1.58397988323745,1.66268751144832,1.66228930927711,1.58686571072413,1.58666085565769,1.58721302513505,1.58709236336857,1.58805864866027,1.58882878549433,1.66981769938363,1.66416712040954,1.66451671927036,1.58635776245785,1.58502994876801,1.6631771998041,1.66242766346213,1.58833214666311,1.58704808197099,1.66569189367061
1.73683700026901,1.73789384979248,1.73958904141497,1.69519525469211,1.7090031542777,1.72016294093551,1.70635995956456,1.67023788567585,1.67047217050443,1.68005251166852,1.67877939514158,1.72292887685016,1.75867720564482,1.74069214209567,1.76189604703419,1.77743399717233,1.79220302272977,1.77395214012291,1.78766224660317,1.80061616043865,1.78491844994474,1.76244358148479,1.76952818516968,1.77908952684093,1.7893563909914,1.79796010155728,1.80281391981001,1.7819404282421,1.79556030109493,1.74846109255441,1.7489051406895,1.74869086951048,1.83440188816619,1.83454361245495,1.83529856684019,1.83288678608466,1.82799232931651,1.82097998430305,1.81770237912526,1.81833402611727,1.81884242798317,1.78057005173768,1.80268043915987,1.79928521454255,1.79318810414605,1.78527476952515,1.77614792755972,1.76753926935688,1.76005360348452,1.78925522797619,1.82612741540169,1.82814597486947,1.82932610082882,1.83060613982579,1.83227041925632,1.8328281888209,1.83014317678173,1.82573197212206,1.8276810987638,1.82899655931458,1.82863201138133,1.83250754163565,1.83601178543755,1.83455962071181,1.74122706191933,1.74111644212936,1.69532897554441,1.69106987919524,1.68241221959535,1.68306729329421,1.6815237957557,1.68224790552689,1.68024560206208,1.68020637956593,1.67981373724195,1.68085045149605,1.68034780218338,1.68118432633803,1.68073454341032,1.6822071042592,1.68148149676519,1.68263563971513,1.68175857826016,1.68172301043929,1.68150133241515,1.72188963700165,1.68190908371,1.68210724683111,1.68181240263704,1.6824209284331,1.68128749047399,1.68140897629314,1.68093668408473,1.68175506366363,1.68092293864938,1.68119178186489,1.68059909463796,1.68037982808545,1.6796600149037,1.67957467406111,1.67926005157698,1.67961609959142,1.67956628027479,1.6796775746261,1.67941213067111,1.67893486119034,1.67846244455611,1.67930776247565,1.67856204451227,1.67823376016535,1.67701711675147,1.67624339010177,1.67618846358124,1.6754315716733,1.67493212319742,1.67400205015135,1.67289770531149,1.67169737869705,1.70764147663541,1.73441677992029,1.72712058342836,1.71819108286558,1.70763358561011,1.69828990562239,1.6900396618177,1.66987234448239,1.66882809557697,1.67004831992784,1.66818812563462,1.67060891287572,1.6677749145343,1.66841738980072,1.66812087824574,1.70744746006072,1.68474149537941,1.68294998821126,1.68230749365714,1.67886553632954,1.68343091667529,1.68484402415395,1.68183564301006,1.67039497176448,1.61512198473111,1.62993205230213,1.64346695862038,1.66362110667085,1.66307554129884,1.66234648955746,1.66150766705391,1.66033705571807,1.65920762102483,1.6588621516552,1.6591534889727,1.65940441157987,1.65848204418185,1.65665407633413,1.65683196844365,1.65873360847033,1.66099284845565,1.66177667351903,1.60323449354883,1.60873239032915,1.6163713025276,1.62437675120027,1.63241234931126,1.63970550060359,1.64554503302266,1.65145422178215,1.63014569381295,1.6167192191387,1.63192772070552,1.66183280257464,1.6614199090164,1.586755770852,1.58671341931256,1.63589674043277
1.73749107933289,1.73627636401573,1.74126056813137,1.6644611573873,1.66501206136043,1.7433439207973,1.74371335810607,1.67033599570186,1.67124189704948,1.75100371424284,1.67628476012311,1.76599488134907,1.86090052722603,1.69994312388821,1.82916138329728,1.82923950627224,1.82795545466496,1.74376790100084,1.83539099327164,1.82365773553191,1.7446662757909,1.7442259540717,1.74568191597099,1.83088070729426,1.82971578185345,1.82818825808044,1.82874067961031,1.74580923694384,1.83009979583992,1.74680141565779,1.74691711053627,1.74696613549303,1.82769939970291,1.74650512364284,1.84232234015101,1.83307185518435,1.74708540101679,1.81833539170314,1.83402414064665,1.74779872025577,1.82625444724125,1.74710466819059,1.8242927512333,1.82741426618196,1.83247970324608,1.83174836712799,1.74737204318806,1.74722285503675,1.74652654875445,1.74715931342088,1.84421708859568,1.83188391306071,1.83136695373022,1.83110411377539,1.83305781504417,1.833693588984,1.84286835563063,1.84412509543292,1.82478218023165,1.82246829710944,1.74120553013995,1.83361201561311,1.74059444925842,1.83139643429822,1.73983186341018,1.73903928737486,1.6963346611077,1.68774361082263,1.68311769544371,1.68244954873016,1.68364713459317,1.68109598086794,1.68099079992278,1.67849360136087,1.67866882051071,1.85474851771503,1.68076167467689,1.68008802063563,1.68193394090097,1.6805808371371,1.6821630583906,1.68203686429789,1.68130186879062,1.68131092698888,1.68092708677812,1.84399461132571,1.68183518674479,1.680286310202,1.682449519633,1.68104435823738,1.68211827652375,1.67873507321293,1.68169214717989,1.68040634921927,1.68182764097794,1.67939619298154,1.83669939374809,1.67904820843885,1.67958801855144,1.67800081466497,1.67947042105476,1.67876945966531,1.67893355403822,1.67926600977257,1.67931948132334,1.67822088093918,1.67737570745963,1.68234125318829,1.84207634694275,1.67665294944781,1.67595909230188,1.67433666353681,1.75353585100405,1.67506464113169,1.67437243539873,1.67385090395314,1.67325915862173,1.67150676264685,1.84050685793202,1.84050685793202,1.67164167516545,1.67234572220263,1.67306601270788,1.83809933924937,1.83807996284146,1.66808765647218,1.66873606934367,1.66640111164774,1.66945798303256,1.66899703421432,1.6689855174466,1.66714909795331,1.66786742334735,1.84746298834136,1.68756095193882,1.68980180789071,1.68217563704678,1.67662332057758,1.68892071336288,1.68820739370662,1.59290542968002,1.66918922838183,1.59072241803168,1.59004467542011,1.66306898198292,1.66364300487442,1.58682123758704,1.66208071202777,1.66197335533032,1.66082648071052,1.65961995372234,1.65767620911651,1.58375261878065,1.66141332176138,1.6586442359449,1.65732219859132,1.65777951037598,1.66012430982421,1.66143825758444,1.67940757598019,1.58475214638262,1.67953534328935,1.66049973788033,1.67524749131361,1.67671729886101,1.66406159045808,1.58535831879582,1.6635756864802,1.58647345651427,1.58706518723606,1.66651847425087,1.667971934193,1.66017026155662,1.58838083392352,1.58822875665794,1.66118557629958
1.73651645686067,1.73622285810446,1.70719657382423,1.68802255101915,1.70003139493932,1.71149792807414,1.72258946079828,1.69740514055328,1.71101763952901,1.72222941597692,1.70886926061946,1.73048947176375,1.84552605386184,1.84578214100878,1.8251588516914,1.82620323301244,1.78945841325006,1.77522942649365,1.82584202287932,1.82393467788155,1.82212303996175,1.82177555938236,1.82402095195772,1.82895064772137,1.83020382733867,1.82902865371075,1.82905184912743,1.83089283618263,1.82948291682071,1.78677352219083,1.77473888097222,1.78676701251044,1.82412262005743,1.82589801049017,1.82696841194268,1.83054293436745,1.8310855138105,1.81672831832844,1.78422868505805,1.74949182507741,1.75002217405878,1.74901338918656,1.7871167037909,1.82925396883979,1.83146088991188,1.83150844325898,1.79338071330351,1.77821037128505,1.74613596191532,1.74605736941969,1.78698389814004,1.8309320118587,1.83218174173375,1.83064359379448,1.79650921664747,1.7935917373069,1.78796526503853,1.77953116955969,1.76897984272296,1.7595129730029,1.75209238094655,1.82724171161384,1.80616450090328,1.80693915866413,1.73862284986587,1.73822140584532,1.7211194397559,1.68493607807715,1.68257073792974,1.68279997308101,1.68190568196088,1.68275485392161,1.68089554135514,1.68127184205369,1.68078870566151,1.68106772117426,1.68140487719759,1.68124689133148,1.68066939898308,1.68197352893923,1.68142215957717,1.68227045101169,1.6812453731633,1.68153019614743,1.68095085580301,1.72511368868454,1.68084231273283,1.68130141034868,1.68100484677624,1.68239835772466,1.68052337819644,1.68214620425985,1.67999691616069,1.68184656378161,1.67989448777063,1.68011682511955,1.67902213650184,1.67933201120554,1.67860225924135,1.67908228338739,1.67910750367504,1.67886501494967,1.67916477598933,1.67926281485621,1.67961741686866,1.67935940430042,1.67897150290559,1.67884041625301,1.67774061176379,1.67623119462477,1.67561779480225,1.67457145539065,1.67433260630432,1.67445744320842,1.67403763256624,1.67357780308269,1.67323673540305,1.67287915296125,1.67278576505929,1.67258749010911,1.67321653397333,1.70670448384373,1.72081941720636,1.73919519511867,1.70703438405467,1.66871418343571,1.6681719009076,1.66875816485488,1.6675544456619,1.66878324084939,1.6672022194494,1.66698334372043,1.66663678754008,1.71220594234789,1.68775604574749,1.68789301611845,1.68143148766173,1.67238171886193,1.67089146749588,1.66927268798948,1.6665180278564,1.66734948316805,1.63608111410196,1.6237004646957,1.6634381567097,1.66289624111869,1.66157996869905,1.66075439418079,1.65976367293023,1.65904306043952,1.6577056286467,1.65637877711351,1.6183580711214,1.63171670717439,1.65766556420442,1.65720822570892,1.65740920939848,1.65823965182503,1.65813272106575,1.65752569530241,1.62572853666917,1.65733555071912,1.65871143616621,1.66827439088863,1.66846429111259,1.66762343675964,1.65996610351088,1.66197491422483,1.66370949324056,1.6638189872666,1.66456149406355,1.66455174457812,1.66208851413923,1.66136938298174,1.66033629797657,1.66030570533162
1.73724937996953,1.7366068283737,1.66369515534951,1.6638008045864,1.73837968438789,1.66634298187242,1.76363770012446,1.66900975342481,1.74817125305869,1.75023578844716,1.67814215724406,1.68022988727658,1.84897248587188,1.86013900185363,1.82562513052576,1.82665115712091,1.74326287184772,1.74398971573138,1.82691517793522,1.82495592588746,1.83215103811522,1.82549813411303,1.82770003967279,1.83008512893866,1.83155418321877,1.74356509387383,1.7442203192678,1.8355754560004,1.82993097169052,1.83256866619939,1.74570364378507,1.81897165819551,1.83490283797725,1.82797280285024,1.74558657645584,1.83294823028959,1.83263909777396,1.81556840000372,1.74721137502362,1.74829874053195,1.74812760185935,1.74684375915078,1.74600156950698,1.82917478045984,1.8303906385242,1.84012066098375,1.84085976671385,1.83212961974439,1.74615470445331,1.74522815975227,1.74493278014679,1.81898376627376,1.83419824602174,1.837442226782,1.7444213224901,1.74467627855352,1.74430879603412,1.74353348377231,1.74290591007177,1.74248622196048,1.74360145513234,1.82982690949064,1.81015487959973,1.81262046038595,1.73830612806359,1.73756425799038,1.83136119336925,1.68334903064038,1.6822957095668,1.68038074957141,1.68214178574467,1.68130505333327,1.68158350954877,1.68094071180118,1.84657167357757,1.67879044384908,1.85037913773162,1.67960180634403,1.67859912273136,1.84803459237467,1.68049883228437,1.68185458659342,1.68043471274077,1.83459705349,1.68026096800072,1.83909238012482,1.68045036506699,1.67979934073203,1.68208948574533,1.68012147192705,1.68242594978974,1.67938479197752,1.68229452345796,1.67864549268802,1.68159085401377,1.67745051373735,1.67999923072152,1.67792789163822,1.67829035543659,1.67874041904108,1.8479861513549,1.67732867020687,1.83877266939432,1.6778348111779,1.84268670379187,1.67978974335258,1.83049894321732,1.67757845073493,1.67623635929828,1.6753654779956,1.6745420271462,1.67469470493081,1.67386773948808,1.67449519428407,1.83647656505714,1.6726726328112,1.67243147344518,1.6724739821689,1.67081526499213,1.67050705413027,1.67281963047321,1.74747009553727,1.8231872762329,1.82856806368904,1.66982144091507,1.66847793908062,1.67023226948799,1.66686721644531,1.66944686323419,1.66591642597089,1.66391290482102,1.74298539689777,1.66585923922502,1.8603773642125,1.61065421932361,1.68588143012091,1.68105878295455,1.67344619475673,1.67257385997746,1.67029840389178,1.68718222498005,1.66578599544938,1.66579852835452,1.58717328855386,1.66408134092393,1.66305444681694,1.66143653602155,1.66029288617346,1.6580940311157,1.58330441955963,1.68307635366763,1.6630637701561,1.58271603515054,1.58272306826482,1.65805265397746,1.67994760396038,1.58019499478163,1.65791928088876,1.58322691382681,1.6590998970881,1.58298587342533,1.65843542482041,1.65849473443686,1.58335286058111,1.67418964324048,1.67365458253678,1.66217148166601,1.66995362107466,1.66364339135208,1.6632453443167,1.66402901082421,1.66479021826182,1.66733210542479,1.66350237579656,1.6594276227809,1.66052948871146
1.73595785516506,1.73574632612281,1.69625706267038,1.71041530304804,1.73897801045175,1.73888203617155,1.73897804782138,1.72517545866613,1.71470166341301,1.70407677067288,1.69235620494656,1.72569972000783,1.84367254856106,1.84444708942869,1.82868128665855,1.78264731364267,1.74368947345593,1.74322056624201,1.82772448944027,1.82542860522483,1.82998982395303,1.82814469411948,1.82932943267573,1.83160893057347,1.83284087277877,1.8354449571717,1.83549142333978,1.83829471206785,1.83535935546032,1.83017663440592,1.82542928909871,1.82478159361641,1.82635017118837,1.82713954873768,1.76785497421635,1.78296557110976,1.79347063206116,1.80172811612744,1.78362774716115,1.74769779442502,1.74783216145855,1.74666338476876,1.74641985655939,1.82864455506686,1.82838416954611,1.82677691064108,1.82797950174807,1.83279060695565,1.8333236810391,1.83024751647526,1.82497239386184,1.81891625728155,1.7822085241183,1.76860743923662,1.74475324937935,1.74514345961233,1.74495172589633,1.74408469281745,1.74374458344955,1.76407365451965,1.77693873620901,1.79017707567065,1.81110502823234,1.81152316838574,1.73739018672346,1.73687073286979,1.72102302307805,1.68566115011682,1.68062465154667,1.68103285651221,1.68050597654917,1.68135680250191,1.68071326658651,1.68133161582868,1.68069182529275,1.67977380106197,1.67998561925877,1.68017092643863,1.67945219189225,1.68023700450276,1.68052757923938,1.68106895666884,1.68024203986692,1.72650621951101,1.68066124857254,1.68056245965342,1.68031123627382,1.68050222100146,1.6807805001045,1.68121326387351,1.67993660121863,1.68178725671734,1.68023494581239,1.68222605278783,1.68013015098547,1.68060749393041,1.67898307214824,1.67954921879097,1.67884486827969,1.67929448535975,1.67877263189917,1.67838070217818,1.67858345544271,1.67871799322627,1.67969560080904,1.68056637777436,1.67958886885531,1.67833362140257,1.67782915980512,1.6760329582414,1.6754754785471,1.67540593500057,1.67658114300935,1.67720702228655,1.67662483187924,1.67522825290343,1.67324812922543,1.67215914728863,1.67039516695629,1.67027293132622,1.7036860095048,1.71884363594716,1.74189163161421,1.72034206863882,1.70241228448002,1.66828128010543,1.6677927169338,1.66826740954685,1.66747159557096,1.66726766986584,1.66568162459387,1.69453607045879,1.71002942810314,1.72911161827884,1.69130348936856,1.68600996537277,1.68285498154615,1.66974920724731,1.6698115931006,1.67057228721723,1.68338596394892,1.66435858195114,1.66455902275378,1.6280926362822,1.66263700192032,1.66149281739937,1.66026931140907,1.65853879324222,1.65589003594388,1.65356403972195,1.65658575342996,1.65908798803521,1.63321632252198,1.61796646280929,1.65817806522125,1.65999970928212,1.65893900929221,1.65839265168763,1.65886398080624,1.65912242588682,1.65853521349301,1.6575897327633,1.65686611751041,1.65493861742747,1.65742984621799,1.65944696646115,1.66290549166465,1.66208632109316,1.6634013583016,1.66254238698831,1.66346465682082,1.66488132529043,1.66464481701712,1.66334736525039,1.66233056922591,1.66117468156374
1.73587959847367,1.84761799960463,1.66135501297935,1.74267163166993,1.74007475302651,1.74063831132765,1.7421941913696,1.74449437837558,1.67346685725212,1.67451824980998,1.67618230337011,1.76295905699543,1.85803919291808,1.84491857993892,1.83167523090283,1.7400088280286,1.74059157798743,1.74255488685042,1.82997863283888,1.74294980291084,1.83625638185872,1.82818535236561,1.83896600539345,1.73964486486532,1.83018850116485,1.83505932037932,1.82942812816869,1.74503668317455,1.74497169589548,1.83330752300839,1.83378643143493,1.74503046087334,1.82574647654986,1.82782126555931,1.74423916862392,1.74468691655061,1.74611408206361,1.83045929918322,1.83070839865057,1.74610100962578,1.85082479511352,1.74505089095685,1.74641831755266,1.8278156958743,1.74711348810693,1.82850018052738,1.83036867772388,1.74628237671898,1.83147615574959,1.8297665331462,1.82842923751103,1.81493763969911,1.74346547854645,1.74359865588937,1.7441549260968,1.74565105097132,1.74589368355382,1.74396590075177,1.74401794741173,1.81917445573478,1.8113347710326,1.73802860965697,1.81090598598305,1.81235995739385,1.7374445625764,1.73613258783705,1.69632547686721,1.68697813067717,1.68041905560023,1.68048204501938,1.6790970392272,1.67936059001709,1.67993962468133,1.82885194854508,1.6803199069974,1.67797489317007,1.67952433971365,1.67901730966094,1.67932189471811,1.67880107101344,1.68044060311332,1.83847233507174,1.67929356069453,1.83453892426628,1.68107427820928,1.68018665357809,1.68021671020257,1.6788620947202,1.83787166642657,1.67923710228225,1.68056943876228,1.67843437492725,1.68328371322329,1.68076982182004,1.68306313104145,1.67890385923828,1.68060635122605,1.67814375870075,1.68038686924387,1.6787476865021,1.67813224578086,1.67739146927352,1.67698181490472,1.6769268735395,1.67735860603699,1.83109961186249,1.6771915135707,1.67735733212678,1.6778675829068,1.67633108674168,1.67357170251163,1.67470403045804,1.82427969035658,1.83855895488911,1.67280213935734,1.83137088157321,1.67236345211164,1.83763914953166,1.66859438409518,1.67020990759591,1.82213802320472,1.66707114779327,1.81722610379987,1.66571267498281,1.83824950638079,1.66691037708636,1.66835574525776,1.66550244972964,1.66950967606412,1.66577472307629,1.66652843065898,1.66447940095189,1.83657488409901,1.86044973435887,1.84870677704995,1.60242893416563,1.6878287263085,1.59893187951363,1.59394568764802,1.67197124369509,1.6899883753455,1.59163303264611,1.66449801029024,1.58800487908346,1.66230879352098,1.66072194759684,1.65989314979015,1.65922798652367,1.58170586590878,1.68015340307201,1.65940018439689,1.67953148905651,1.65702133598811,1.58208626569705,1.65706315973963,1.58287819952334,1.65773021571524,1.58349919137036,1.65989012262401,1.65964903099781,1.65909204557234,1.65735604691731,1.65830807993563,1.67302974403954,1.66085479478208,1.66073146849665,1.66789562435956,1.66204152445102,1.66397767657775,1.66033654363565,1.5835381001604,1.66632394016778,1.66352669175685,1.74151278989671,1.66705336595976,1.83004359763146
1.73466687509587,1.73476685253993,1.73549468760396,1.73676632190918,1.73885000352358,1.74138264801694,1.74227854162977,1.70957697175206,1.67306269076651,1.67325299282643,1.71786914150592,1.76352236179661,1.83534926709202,1.8308347870742,1.8228623223806,1.75684040644554,1.76057481524625,1.76472210393227,1.77021437118579,1.77596053959955,1.78256881038301,1.78836258096413,1.79369428982698,1.79789256029381,1.80060839115906,1.78417720124077,1.77095957854573,1.74491752171792,1.74501179394342,1.7828725423728,1.82969627068638,1.827489390436,1.82697360226228,1.82769385924113,1.76976089716684,1.7857818943068,1.79714191358719,1.81613937361133,1.82014600305327,1.80175394807159,1.78994610656583,1.78030467373469,1.76627046233581,1.8101876812303,1.80974063480739,1.82719919568048,1.78593076364526,1.76845197500631,1.77977581497878,1.79095563778412,1.79908119186722,1.77958073648262,1.74342537958774,1.74380216813801,1.74454658318716,1.74478809555484,1.74591540987649,1.77007397655034,1.78267940604524,1.80531555259217,1.80745986878918,1.77482602004327,1.78827631390072,1.76859801895243,1.73692045704817,1.73563320969821,1.69390727954214,1.68886222086378,1.68063997193375,1.68027362284048,1.6793827128135,1.67910742917091,1.67896590752212,1.67877659746836,1.67923582585339,1.67925788630381,1.67925133452619,1.67947260445747,1.67867674960496,1.67928869702107,1.67913309296897,1.6793666535734,1.679416485101,1.68046267446361,1.68071258612409,1.68053767677291,1.68054932392925,1.67996141043143,1.67987115635243,1.67944439690962,1.67938789841608,1.67973748682527,1.67951941430943,1.68113083650388,1.67961067437341,1.67989793793791,1.67839348054291,1.67883397727464,1.67869271966994,1.67862347947238,1.67785080418764,1.67785786691363,1.67731405907556,1.67761865128661,1.71221378517881,1.732711348588,1.67688405090831,1.67661944318644,1.6765011185987,1.67571355689519,1.67443684904594,1.67428878867708,1.72984145060917,1.70973634319655,1.67385171676239,1.6748204556881,1.67486012421275,1.67320740092651,1.67076167939838,1.67004429174796,1.66876553649526,1.66771020028792,1.73465561715465,1.71499281534552,1.69859273249576,1.66680973072767,1.6661070089559,1.66705995608227,1.66628706612594,1.66674838006363,1.66483657546193,1.66444645638514,1.83455996687232,1.84206270452427,1.68626548004704,1.67739500430337,1.67511747896097,1.6411161354775,1.5958736352533,1.59648964724354,1.59602054631181,1.59441354525202,1.66368961016145,1.66268207795943,1.66204093662744,1.66048833741024,1.65847897051631,1.65758770195807,1.656560970134,1.65638127570063,1.65812456672051,1.67366240754761,1.66945750880462,1.66605905519183,1.65644762770016,1.65641688394895,1.65751543516332,1.6582436252099,1.65850567703351,1.65852453911565,1.65854868352079,1.65792121545722,1.65868317664424,1.65917173659099,1.65902655861504,1.65869592133413,1.65862146347895,1.6589235688758,1.65765686501752,1.65849965002225,1.62608210417764,1.6610729906436,1.66218867341776,1.66289788934909,1.64349144699612,1.6268870470586
1.73502032083394,1.73619237392389,1.73554134487795,1.66117847751455,1.7383451636187,1.74313576677666,1.74481349690504,1.66723797601373,1.67310331238862,1.67301711793893,1.76284000876428,1.7632696984256,1.85143515196264,1.69628980301315,1.81155783935153,1.73775836635221,1.82274997629329,1.82953122329278,1.74159335914536,1.83654279471535,1.74277963124978,1.7418484876142,1.74030706555319,1.8073732535333,1.80651280509532,1.74328246985092,1.74374183636787,1.74386972163822,1.74425732481327,1.74346036410255,1.84093615087623,1.83530864277772,1.82614378587615,1.827163931078,1.74504430161746,1.83211193387992,1.82585931360738,1.81770004041789,1.82417788222079,1.82095897414029,1.74318158506352,1.82211435684366,1.74362937766117,1.8154453723457,1.81494357235847,1.83243072052613,1.74394918415228,1.74316267539096,1.74327265183902,1.74267992046725,1.83349121415172,1.74257191742887,1.74257391749576,1.74296748525719,1.82651709139208,1.74284220386104,1.74051240605678,1.82818363503282,1.83804321494067,1.8074279432546,1.84293551194704,1.73749500526834,1.81877635327744,1.73721895831351,1.73741599931969,1.73416670545062,1.69034396671786,1.75900968623978,1.68072261439008,1.68015301931834,1.67810165105743,1.6785431942685,1.67691072414714,1.67829398587648,1.67796169331881,1.84394617030594,1.67929303517644,1.67780149192318,1.67832240974139,1.67723435183601,1.67836404526189,1.67779860005492,1.6786621007774,1.67979815222954,1.68035021188783,1.67944816558428,1.83709661011022,1.67948657001048,1.67993836140909,1.67793423758832,1.84594194032053,1.67776766967476,1.67853530682617,1.67855265522344,1.67982236789103,1.6779860186629,1.6772102580316,1.85087323613329,1.67864440511332,1.83468424732559,1.67692423775867,1.67817419736117,1.67663009764894,1.67779537257159,1.83039721710567,1.83134666109319,1.67561010698414,1.67548032664004,1.67415130563193,1.82322310204761,1.67315432980945,1.67375281655605,1.83058613705291,1.67015837599856,1.6705666487051,1.67163657995426,1.83692222243904,1.67018330443743,1.67009646014004,1.6702851777585,1.66886069346542,1.66758445669554,1.832249667572,1.81462281755695,1.66673302230344,1.66553083210716,1.66602504193572,1.66413245443512,1.66724999793784,1.66454316668813,1.66506797852202,1.66323032759149,1.81996831410228,1.8527133855399,1.60597636623762,1.68234096977098,1.67451213349835,1.67541899430211,1.59411478780975,1.59464788829886,1.59285348984364,1.59085454031973,1.6635287396975,1.66249747390224,1.66201708306445,1.66065486955724,1.65736736993465,1.65845728866009,1.65741705581909,1.65756255335098,1.5768617639315,1.68013744229184,1.67861986545231,1.67777647601837,1.65626608073137,1.65639592592948,1.67947235713603,1.65881429217978,1.6576802856446,1.65788751092501,1.65908728431536,1.58142490799395,1.65944417934083,1.65982094010623,1.65879213407214,1.58305516762147,1.65939986930506,1.65809973088059,1.65789069299794,1.65630653067963,1.58276513567147,1.66095722075563,1.66233299584521,1.66475507183572,1.58559934602606,1.58526116128845
1.73428986968058,1.7348987632583,1.73447769769958,1.73485928228404,1.7345802241393,1.74264103747362,1.74166332151877,1.69025366515493,1.70365006652398,1.71590753442575,1.72614092578271,1.73788072485756,1.76049628643156,1.74019757365477,1.81861487183821,1.82151413048231,1.82464587123408,1.82676281737688,1.80830122323219,1.80872995656212,1.78479463823576,1.77145477041475,1.78325722969708,1.80597509980331,1.80561056166087,1.78592911947447,1.77233400199023,1.74478772190301,1.7453157446033,1.74511238630842,1.7812550243503,1.83228259201483,1.82191679522985,1.82169645240392,1.82030203884015,1.82054570064725,1.82333310104713,1.82081743984606,1.8182627211475,1.81841634284058,1.81729585201707,1.81764418968376,1.81638812814222,1.81526148945316,1.8159051488095,1.81861654376462,1.78736133425921,1.73772980174477,1.73900791328418,1.73950406668325,1.73923923798668,1.73829018726757,1.73728426540822,1.74339504148117,1.74373090941265,1.74295489206769,1.77261189395703,1.78554263688055,1.80572125048391,1.8054100895142,1.82980094655658,1.82652609414008,1.81674353478011,1.77162483267998,1.7358193116496,1.7342728638192,1.72232492819745,1.71015783567508,1.6805237748084,1.67934128116438,1.67883371698454,1.67780487026632,1.6784672741997,1.67759699023113,1.67839313930948,1.67978349123656,1.67949808861858,1.67871818991961,1.6779198692229,1.67817129626874,1.67826508315547,1.67860040210848,1.67834549829569,1.67926082460627,1.6801076824566,1.67999458764301,1.67991037680314,1.67957183905237,1.67899012756257,1.67831565670636,1.67809736959728,1.67843351829201,1.67753525720286,1.67826764861297,1.67711697914286,1.67713660942436,1.67651456117985,1.67615817295082,1.67639886925632,1.67570493333469,1.67629411476965,1.67666479947151,1.67582827851488,1.71441150228312,1.73778525676927,1.71498074667201,1.67582169332464,1.67572743333516,1.67474106937696,1.67452331295304,1.67409869995919,1.67305423462568,1.6719079838221,1.67099348653553,1.67069159141302,1.67091057258036,1.67023562741755,1.669913609073,1.6694608447802,1.66921990958159,1.66917753658493,1.66868875912077,1.70838640491785,1.72889947410755,1.66517738259363,1.66512894200072,1.66445334555705,1.66530864462963,1.66457986972178,1.66535748220976,1.66404119299312,1.66427126076681,1.68577867241828,1.70438841594648,1.64674231959801,1.67525694391314,1.67443191318728,1.67421867980331,1.66751180606614,1.66502591870822,1.66329482309436,1.66114140366127,1.66059839916153,1.65992861093881,1.65966347568193,1.65884312500456,1.65700765013516,1.65683724343636,1.65688390092137,1.65630547777298,1.65532531599083,1.65331925811109,1.65286271671272,1.65401844372681,1.65486412017702,1.65545180719766,1.65610970909173,1.65717987027571,1.65718953798363,1.65750432125827,1.65791387167716,1.65770353813577,1.65789132466605,1.65822210090108,1.65829460198468,1.61860977436995,1.63104568905985,1.65673947824198,1.65585181488521,1.65552197232977,1.60989355762545,1.62302083074406,1.63288274076676,1.64194256137357,1.62445817696221,1.57951800853648
1.73503974497975,1.73624577638983,1.66137196701249,1.7377371712134,1.66252486329485,1.74122979682755,1.74150647314617,1.66727637260556,1.74516311643524,1.74631886562362,1.67539271315838,1.67592505995058,1.85862379929676,1.6959118826431,1.82088973921633,1.82290836624062,1.82725750294107,1.83666503885826,1.81168207183263,1.81313744048301,1.83481665266637,1.74083023061547,1.82463773480311,1.82571227614605,1.81358456556312,1.81364534361418,1.83417621894986,1.7431159603861,1.82826096810386,1.74102396026894,1.74308644315581,1.83374274126425,1.74291502541136,1.81128576317213,1.82095587289702,1.74325000098212,1.83392835640469,1.83335882027894,1.81391301974799,1.81376828320146,1.81522152516065,1.81520703112444,1.83585089593935,1.83741089876012,1.83044688028454,1.82296692654673,1.82489990946568,1.74274409147835,1.82943411498242,1.81787291671736,1.7423693446389,1.83319880046162,1.82725654661132,1.74222350325576,1.74218192816623,1.74076029344157,1.82431482910205,1.7387728931592,1.80811846571445,1.73955051723737,1.83193249432113,1.82774690764015,1.81843472454854,1.80442994965712,1.73627107081152,1.73411382501734,1.82696274877398,1.68045547834247,1.68035010308588,1.68041110757803,1.67601944883,1.67904899726437,1.67686465009502,1.67813251849525,1.67531821923885,1.67457848354929,1.84254138073256,1.67843392784327,1.67727729337309,1.67731628360137,1.83541086262217,1.67839176076202,1.67704406138151,1.67746403700146,1.83957679032253,1.6794218900253,1.67928246534744,1.67885179417739,1.67830912119872,1.67680135782034,1.67839202749347,1.67745444648385,1.67803796661059,1.6762308124566,1.67704039025025,1.67621025368999,1.84377178263476,1.67675753969322,1.83675752297182,1.6760074381562,1.84935218811246,1.67115627496179,1.67598310532037,1.83971403990842,1.8411543528963,1.67475879517427,1.67493099861504,1.84091376246823,1.67315408531236,1.67315230754103,1.83506208727981,1.67142203906856,1.67075197144753,1.67075605860103,1.66983068911509,1.67061508583717,1.66960614971248,1.6690968335674,1.66801017917295,1.66752763642483,1.81670294078634,1.66879612686616,1.66707320464631,1.81668356437843,1.66512056011092,1.82031664086131,1.66442639776402,1.66325116742002,1.66459278450299,1.66296558926214,1.66447465724391,1.66411777910667,1.62385134463577,1.84522501322791,1.60268361430442,1.67775882140841,1.67603630438496,1.67200912401027,1.67043270239284,1.66799332453549,1.66713578470377,1.66129389574501,1.68218633679771,1.58425871108733,1.58262285750762,1.58268495684663,1.65681930162231,1.65653576964694,1.65707072452479,1.65695437152538,1.65686608206984,1.57931772360406,1.57821326835314,1.6542645823166,1.65453723878785,1.65497212479141,1.65622467047006,1.65659002877308,1.6567709580508,1.65766741646197,1.65820423091312,1.65823539796244,1.65670598225964,1.6573564591451,1.65838380038527,1.58120229665803,1.58158536920718,1.65907060654287,1.66573902262071,1.66734343315386,1.58490713403111,1.58402915374441,1.58446779027894,1.65795121240111,1.65807384695802,1.5819550747904
1.73413822002927,1.73544924448481,1.73547510363482,1.73664416482935,1.73580411572107,1.7373335962958,1.72570775726799,1.71904875584706,1.70774456963647,1.6958651272779,1.68814494992863,1.72348434058184,1.84963914935668,1.83789290126336,1.8150797786873,1.82024403745519,1.8237988465655,1.82717813350008,1.81295758438274,1.81338536833624,1.8129261325527,1.81224157021757,1.81306539328536,1.81488261664709,1.81553010352083,1.82325743486024,1.82590147662716,1.742302707746,1.74212838048224,1.74212910577203,1.74250434728741,1.7436007120096,1.74305998573794,1.77680570884218,1.7939840841157,1.78120509961303,1.82867201848698,1.83091755621242,1.82504773875921,1.80995817117479,1.8103853423315,1.81049094714187,1.82711209853385,1.82884432414047,1.83074339101765,1.8216408921025,1.82097871313339,1.81707950524342,1.81474491499732,1.81616239014549,1.79761832542301,1.78855669269096,1.7780933838405,1.76822809338883,1.76003971928606,1.77852205066822,1.81299190134367,1.81205131988456,1.80755729773783,1.77046856953744,1.78416117516467,1.80826087799223,1.80779440821602,1.76935363537358,1.73603848710455,1.73284055122734,1.71579857826629,1.67962872281958,1.67976394017684,1.67810550681024,1.67796528886625,1.67647006317377,1.67759342424729,1.67570310830358,1.67586526839379,1.67447290900283,1.67609309618134,1.67681824515829,1.6771356664249,1.6768331605067,1.67771712432807,1.67802772525231,1.67768034166823,1.67766587297813,1.67789732537926,1.67853195150231,1.67927950988736,1.67920706156991,1.6783105215136,1.6783971880001,1.6781204984117,1.67841796236288,1.67697382793202,1.6774977235613,1.67655680783614,1.67727758438943,1.67632592414973,1.67601847620783,1.67524728268427,1.67477115134764,1.67415198401223,1.67277672786494,1.67336435360459,1.67197261199968,1.67122664754641,1.67367697947355,1.67411225914311,1.67412150464068,1.67372231775967,1.67308129108906,1.67234446123908,1.67171215751502,1.67136654283672,1.6708296136911,1.67020049375288,1.66977266649325,1.66944795773571,1.66903889298138,1.66841798214767,1.66843738669205,1.7659594216339,1.76514105448594,1.76425786584046,1.76421207353478,1.7650129790025,1.76577248802779,1.66338051159671,1.66343338647363,1.66303032055112,1.66403308999341,1.66349596782255,1.66522234854988,1.68405617375665,1.70295140134802,1.63770719105169,1.65098755750858,1.67233896212859,1.67182969486165,1.67127666884773,1.66666110878004,1.66489420679243,1.66369432082807,1.66357081784386,1.60603715941505,1.61921190813307,1.62969789277143,1.64102573384849,1.65628097073768,1.65643554794294,1.65589971874671,1.65579523158318,1.65418754593451,1.65424562068799,1.65270931741524,1.65365711487256,1.65474949065429,1.65603367307634,1.65653325536686,1.65652450422822,1.65677861766972,1.65695153833555,1.65706711716246,1.65666123724725,1.65663538197227,1.65734547057798,1.57964142432739,1.57956344449959,1.65637429592642,1.65488360673284,1.65429273358631,1.62491586662342,1.58361130411801,1.58334591390337,1.65742858864068,1.6570009846734,1.62662554051145
1.73332497643188,1.75515741065349,1.73393915342656,1.73845071058657,1.75770491010363,1.75716437446379,1.66623560061709,1.74117580162559,1.66910975787325,1.67166408169707,1.67299313855536,1.76040309924481,1.85178064751757,1.83988909053237,1.82013622710867,1.8344886302873,1.82489401861948,1.82945981152851,1.81093155885522,1.81220962188744,1.81128231881993,1.8113123397061,1.74110782962587,1.74055790386312,1.74065834809301,1.8305392082525,1.82980691551498,1.74121303346435,1.74120145172662,1.74064179733132,1.74062353392767,1.73924669340636,1.74252492951245,1.74178426283166,1.8250341106977,1.73913169156042,1.82783330656742,1.84058405479326,1.82870265296569,1.74000606839476,1.74096918752703,1.7400916620732,1.82936298550305,1.82796219368596,1.83081809078701,1.74117585282621,1.81641955882089,1.83419710392202,1.81244958277816,1.83407338082438,1.83859319993021,1.73919710597754,1.74132556251038,1.8244341275419,1.73980227021778,1.8244164977046,1.81678657077131,1.82171552292469,1.81209345467471,1.73723916629574,1.73717870637267,1.80910680686693,1.80785954743323,1.73570754016905,1.73525548620107,1.73252416169924,1.68979157613213,1.6795081926163,1.67828521594046,1.67870603310323,1.67527211881167,1.6763356812967,1.67515357103993,1.67591428660163,1.67298002958612,1.67486155549997,1.67489065599767,1.67722568924445,1.67552061744186,1.67625120459645,1.67673009116239,1.67887241114793,1.67662611253464,1.67753827962075,1.67637080877722,1.676872284719,1.8404008355338,1.85464139965612,1.67779968298449,1.67741758143567,1.67998180114743,1.67646953452839,1.67768627354782,1.6754700227485,1.67768037799583,1.67711659156541,1.6768576056779,1.67435780176518,1.67670257228884,1.67491344885791,1.67445369513131,1.84533160073971,1.85878848155543,1.67359059377521,1.67327037913797,1.67427251384373,1.67326922717195,1.67251430319245,1.6726871986542,1.67195521788288,1.67094298739264,1.67094251414371,1.81875684002466,1.67056710386574,1.66988449901301,1.66870131498383,1.66899128108923,1.84034215843492,1.66817726469447,1.66956117342459,1.83163240371153,1.81632395268176,1.81397610081658,1.66598393779794,1.81407598115942,1.8080625192741,1.66349059769855,1.66147567748823,1.6600813295324,1.66656938128758,1.66033479046771,1.65873080949089,1.83174872152743,1.7631659257944,1.60221724011961,1.60039414857733,1.68285683909041,1.67178387007035,1.68143874517328,1.59097775547264,1.66298929160511,1.66417791285912,1.66376015772312,1.58238704417988,1.67939839244076,1.65650026071886,1.58143459619043,1.65588497678357,1.67698496429818,1.65443845310593,1.67912176718654,1.6607271272378,1.65437972114872,1.65149700074672,1.57898558770346,1.57790860784,1.65696272758255,1.6738227970935,1.65597848678856,1.65668748864402,1.58125165653487,1.6704234533654,1.65589021359462,1.65638655544742,1.66826954677963,1.5808338149528,1.58014157158511,1.65836043123086,1.65624798437345,1.6559864915152,1.65673003236122,1.58531528490084,1.5838272135512,1.65763080208514,1.6561250720189,1.66334496713659
1.73124938206156,1.73080634745013,1.73288420009835,1.73585901584029,1.73742033167771,1.73805236876294,1.7383530304736,1.73960095574577,1.74126137788271,1.74539945255582,1.75043501090938,1.753651789689,1.84146582431012,1.84103843766943,1.81872907608844,1.81814264710575,1.82081743211415,1.8198616386858,1.81727527849016,1.81773557127259,1.81871331646937,1.81847506205372,1.81508147950867,1.81379017308022,1.81625170191608,1.81585438182925,1.81216692883428,1.78280751385355,1.76876936999795,1.74122890105177,1.74117522082353,1.7402650040529,1.74064347785914,1.74075043170268,1.82575833173489,1.82732179780561,1.82723188610427,1.82871850457765,1.79751025795688,1.78780800602977,1.77591849252786,1.76111254616583,1.82877596894369,1.82797051761989,1.82213268487443,1.81895843632382,1.81571697572327,1.81472539377329,1.8156356142607,1.82957553132422,1.79800614859675,1.78933977340062,1.77977698965625,1.76915237895143,1.75824539627183,1.81749298157499,1.81801771923553,1.8204231831414,1.81788065049244,1.82028146829174,1.81756540645542,1.81170248669506,1.80883407700133,1.73412551498159,1.73387967829747,1.7318154518071,1.68776940798181,1.6783830395461,1.67835515022628,1.67705763571922,1.67694794475877,1.67551969875414,1.67574342057343,1.673981402717,1.67437812367873,1.67393698029397,1.67547024857477,1.67541393833121,1.67611351452149,1.67545373585571,1.67628258978801,1.67661087557215,1.67721535844578,1.67697549560849,1.67658912792269,1.67682899565002,1.67685231805037,1.6773708941334,1.67755511549528,1.67818886280837,1.67736826859946,1.6774371004833,1.67616973417704,1.67692071851736,1.67674080812541,1.67720445637636,1.67586660415282,1.67562199990562,1.67470441797695,1.67490143000773,1.67420664158677,1.72894641848864,1.70803402295753,1.67274340270183,1.67287832422062,1.6736088332403,1.67338877765455,1.67339541534988,1.67304788627317,1.67166593382567,1.67084567222011,1.670574063629,1.73219599870012,1.71357599309441,1.69877252424802,1.66868623305172,1.66810665873491,1.72949765544498,1.71011964749019,1.69582692355121,1.71665116278188,1.81507094783165,1.81377156588604,1.72865259655463,1.70953476014682,1.69485402621947,1.66214408026281,1.66223499063728,1.66187247104218,1.66260250836534,1.66122811792039,1.66035532172385,1.6920109433594,1.71496839566044,1.69286437512879,1.68171433506297,1.6777294485229,1.66918851300858,1.66856951011034,1.66008971863872,1.66075332620776,1.66195833126664,1.66094139027847,1.6590972602567,1.65901727104073,1.65641268879752,1.65485034409326,1.6535254427749,1.65077311751489,1.65190375875751,1.65313227505629,1.65339150323103,1.65446975701052,1.63137496680397,1.61796591968831,1.60366849539922,1.65431276638422,1.65432938789843,1.65474854119028,1.65531486906814,1.62416994283653,1.65604658065577,1.65502543207917,1.6523752892682,1.651578300878,1.65187546010788,1.65513029097535,1.65650030397431,1.65611076362503,1.65569471675409,1.65645701921204,1.61398756055474,1.62754085951072,1.65806693495388,1.6566130051836,1.6555861827314
1.65750426283244,1.65730532096913,1.65932159568043,1.65972115530739,1.73744480821265,1.73769040876849,1.73912420489668,1.66426968414128,1.74157978875232,1.74552006442666,1.7577950729264,1.67782253731086,1.84471147771536,1.84223427270697,1.73420475738537,1.73353296923761,1.82562871506437,1.73619615155177,1.82647428392808,1.8252684994976,1.82710038239069,1.82501057094283,1.8268281070475,1.81078506792054,1.82575788846317,1.73823378274581,1.80755116502661,1.80765637581491,1.82654507103793,1.74083703196372,1.81516187861317,1.73776986068695,1.73828132261373,1.73913206166858,1.82315446345945,1.8277883452209,1.82496919094615,1.83045769491865,1.7395417831029,1.82658986756649,1.82424496689733,1.73972718938059,1.82757281505335,1.81802957528535,1.74010945707685,1.82353700817677,1.73965608109385,1.73843954797774,1.81522788748477,1.83278598223463,1.74141419299127,1.82297605287664,1.82167783354676,1.74037566336215,1.73815047943785,1.81789056523179,1.81734816470045,1.83268778126951,1.73477982092842,1.83140261783616,1.83091987687308,1.73388234561793,1.82314421877141,1.73318784428545,1.73241075888851,1.73085034971073,1.68840849838057,1.67674050024554,1.67653135718895,1.67713149716321,1.67568918786287,1.67592713326438,1.84427556924039,1.67310408193103,1.67190597458961,1.67393086013366,1.67426696332511,1.67490083840685,1.751956673787,1.67450294250083,1.67433396420113,1.67478775485434,1.84061342814565,1.67650910081882,1.67547094345792,1.67620373308259,1.67636509737589,1.6761859219995,1.67833149731733,1.67683535677277,1.67708394793166,1.67516444705164,1.67598183543824,1.67595288546677,1.84469216201042,1.67614302099974,1.67591888624979,1.67417760916384,1.67343354618117,1.67374816738814,1.67392460294565,1.83959616673044,1.67371978382921,1.67243247999512,1.67188003335902,1.83491676422049,1.67192584429655,1.83031055114466,1.83009088341002,1.67010962288636,1.66960196713915,1.66960159329425,1.83046627361773,1.82333451095196,1.81685671849595,1.67056099610747,1.66589647360931,1.81537404217381,1.81695644881968,1.66515550292163,1.66350956695452,1.82078993004508,1.82470701912139,1.81366984550143,1.66360673645512,1.66621548715327,1.66206201670448,1.66249369193842,1.66189416683238,1.6616020153971,1.66155533685952,1.66060872607264,1.65483300453454,1.83500339318745,1.83515672389962,1.68622279387723,1.67300657854335,1.66998925152896,1.59254057158663,1.66571089899018,1.58718938934302,1.66187175660076,1.65937247319332,1.6816316964869,1.66228071191793,1.65650168402545,1.65452516615346,1.65413058205613,1.57782789102367,1.57651863907675,1.65515493902828,1.57951755506279,1.65452783513266,1.57777287036539,1.65704112741299,1.57637042659719,1.65347110886853,1.65351292296319,1.65343905813192,1.65457106885656,1.57863530088921,1.6557086340532,1.65554783723741,1.66818065764406,1.65602378371393,1.66920061046278,1.65741288991235,1.65672226545675,1.58388879425471,1.66152802787471,1.66680838538472,1.57783446667303,1.65584909028215,1.65885075519912,1.65749362536845,1.65732628693081
1.73120594551492,1.7332812277773,1.73496856946789,1.73616234849912,1.73664168825181,1.73659894607431,1.73633060482286,1.73460048200551,1.73680421989835,1.75175928244462,1.75507349566701,1.75901834521899,1.84231922878493,1.84034238965707,1.79864644277846,1.79973946649378,1.79993655965036,1.75157301327015,1.76128684782844,1.77319590513945,1.78338214062937,1.788625558865,1.80645387626091,1.80805868372174,1.78213944221243,1.76979387350687,1.80480337533597,1.80549770753572,1.82470750341721,1.82447378688802,1.80934754437104,1.77270483176813,1.73817017130582,1.73871876090826,1.76560600218775,1.77879568962528,1.79551572089513,1.77829037525891,1.76537914036338,1.77723992735311,1.78721681848135,1.77513383701994,1.81856975990499,1.81727777644082,1.81734641822258,1.81692760556714,1.77891837909657,1.73318990064477,1.73301984286414,1.73525699387507,1.73725001102713,1.73406855703193,1.7333920215739,1.73880899286369,1.73959389264354,1.81698178751084,1.81625145711884,1.81511818126841,1.8175400271395,1.81820426713976,1.819037572651,1.77024983498223,1.78344755897294,1.76193531339885,1.73062194028263,1.7300633494711,1.68743645195972,1.67696136594909,1.67658775938148,1.67604104968688,1.67594438047955,1.67502282809841,1.67362863622864,1.67262228630046,1.6725892657782,1.67319888583827,1.67375384714164,1.67409823378733,1.67480486957232,1.67465408419099,1.67494531918427,1.67503204467126,1.67542745182018,1.6760483929825,1.67613219546308,1.6760529919888,1.67573501401568,1.67629777796104,1.67630783502907,1.67644440362279,1.67595181552938,1.67543344044045,1.67496909273636,1.67532953062344,1.67514440928223,1.675739959906,1.67486947184053,1.67477554855434,1.67390460366077,1.67435683162687,1.67330310828877,1.67271227278362,1.67250397503146,1.67227063270842,1.67203291303298,1.73028735661386,1.70938261444197,1.83093215278122,1.8302338301334,1.66887309494923,1.66863686307319,1.66850282573223,1.70734936715515,1.75962018923481,1.76700846134313,1.71300637224595,1.66855786425416,1.67002823190618,1.66985923103798,1.66792979428517,1.69438873160962,1.71003515510133,1.72122207970344,1.74175334481734,1.72067327448358,1.70804623232815,1.69525130524421,1.68133710430404,1.66103963737066,1.66149287599133,1.66064891481652,1.66012019172358,1.65853155823933,1.83453447615141,1.83461126984452,1.68221346948969,1.67120522459703,1.66917604242593,1.61643582831161,1.63200224706839,1.64400626948966,1.66229685541893,1.66948154899049,1.67703473740596,1.6577925274159,1.65549218119676,1.65508112836593,1.65500818221168,1.57625975528449,1.57591066974359,1.60971589926531,1.62304698419456,1.65110369104131,1.65013766434562,1.65165449549921,1.6513788100406,1.65127938269958,1.65192633333845,1.65184701344807,1.65269549091737,1.65187195718433,1.65355197918274,1.65456445633502,1.65370872875608,1.65407439828105,1.65568434281988,1.6566846576288,1.62944095609525,1.61678854555303,1.66026749868345,1.65934656302971,1.61222203068942,1.6262565246437,1.65511013075952,1.65653786633701,1.61623182071808
1.73270012299901,1.73389974623236,1.73372495626681,1.73399358060736,1.75623159253345,1.73664739516947,1.73724807650502,1.75457046638644,1.66794400343881,1.75506438310663,1.67103183929736,1.8325642578407,1.85593335256842,1.83867738950725,1.79916119729425,1.80547563081871,1.80406122459631,1.73323443183484,1.73433498611512,1.73500970861408,1.7369141569731,1.73647962123976,1.80664273829758,1.8308817364845,1.7337462417,1.73513612903972,1.81624449808183,1.73764800345173,1.83293806377818,1.83211421679608,1.80792141516528,1.82848356757119,1.73700096697745,1.73829124438259,1.73786810649904,1.73840263305424,1.83030389212187,1.73754125628753,1.73762389823406,1.73757386442518,1.81185412967985,1.73768022286836,1.82091919011572,1.73750494570134,1.83185447033454,1.81603683109162,1.81684453276301,1.73710618046894,1.73706973819914,1.73724585391986,1.81726473026603,1.73721403241896,1.73690831098681,1.73713319082571,1.73578653926755,1.80208603826081,1.81780647939477,1.7342853884092,1.82145662828931,1.82027213440154,1.80569099424577,1.7333702349152,1.80600492840515,1.80424180674223,1.72914292552365,1.72832405099622,1.68797713429415,1.67619825777398,1.6749160319927,1.67520739743907,1.6757072683647,1.82300027335666,1.6729502804704,1.6716504380532,1.67108069547148,1.84327768423309,1.6718779420352,1.67324566714195,1.67444017867627,1.67428814659153,1.67416502491679,1.67464999738429,1.67394926744897,1.67531065823195,1.82208958218495,1.67474192080809,1.67454695991068,1.67477034858644,1.67548001680882,1.67436439979861,1.83832701201242,1.67360218057352,1.67440977927829,1.67430871797318,1.67429182403157,1.83855952890733,1.67380207923951,1.6733169337749,1.67345323576779,1.67349538690466,1.67264456795989,1.67091320184741,1.67198506878811,1.67132513665242,1.67227185113575,1.84337456627263,1.67021812480605,1.83233755156419,1.82762363301342,1.66749888157694,1.66735448813315,1.66708098429968,1.6666978175503,1.74576554043737,1.82798292123047,1.83474915377173,1.6673055133272,1.66833416998036,1.66675556476692,1.66415853407795,1.8273405887282,1.66340583418741,1.66419523624364,1.81449233647306,1.80872474982223,1.81580084980306,1.81522822669745,1.74315009642474,1.66109186625207,1.65980634318706,1.6615275871881,1.65909496992994,1.65898581955435,1.85349389533281,1.85254445134529,1.59553306105359,1.67264237335552,1.68228477596644,1.59398330536713,1.58913913982912,1.66280311333557,1.66241396273944,1.68151213731156,1.68157864170333,1.58034951734957,1.65552191094688,1.65458480155078,1.65606566075131,1.5767420004612,1.57657244661357,1.57726218305217,1.65366392257812,1.65311660721668,1.65330205260014,1.57731781285797,1.65352685022271,1.64807404253862,1.57709105139486,1.57727189786905,1.67115229692194,1.74746134712468,1.65365686134654,1.65542449190639,1.5783149945248,1.66504415515515,1.65305399072527,1.65659043506344,1.57772687763904,1.57878850873454,1.66255502585298,1.66122014908128,1.58001241316429,1.58004939718755,1.6549466320496,1.65653005792047,1.58073978540616
1.7303416571565,1.73232160609965,1.73213208812673,1.73270227715887,1.73414554219305,1.73562654865932,1.73616373006032,1.7367684227117,1.69607408808398,1.70920105771292,1.72279691370873,1.73842421538363,1.8479839153763,1.84522774874059,1.80557362998225,1.80466055153279,1.80428436835226,1.77807596464043,1.7654995117519,1.73437166510679,1.73496025953879,1.77232335608326,1.78876543942571,1.77176628343592,1.73481220013124,1.73547113860066,1.73610144205421,1.73710804378614,1.77812990331434,1.81529743556642,1.81642395417042,1.82424442674523,1.77740316226767,1.73833125176148,1.73874764027392,1.738708284481,1.73902907563694,1.73898455700625,1.76001437398461,1.76994017896916,1.77994290063822,1.78902938111907,1.79817040523268,1.77701345341532,1.82181934347113,1.81358848001639,1.81424663730515,1.7741945159668,1.7374824152198,1.73797873449396,1.73909154186397,1.73916617460849,1.7382580873538,1.73646593855959,1.73541901947847,1.81691415923293,1.81692949453507,1.81797395159683,1.81766888723754,1.81596250036404,1.81597381093761,1.76478277937682,1.77966162647953,1.75614304380468,1.72907628035883,1.71025259333082,1.68664068077975,1.67557313836784,1.67485927803894,1.67467750130489,1.67449525579451,1.67412152237964,1.67337012881789,1.67275267824405,1.67223925814772,1.67246362811033,1.67266978021095,1.67338645670687,1.67421973437671,1.67463872330112,1.67498107693688,1.67476780942995,1.67490785850928,1.67470812512677,1.67471102442091,1.67506502684651,1.67449755406157,1.67446790176993,1.67422849508546,1.67379561577573,1.71205111946136,1.67360553304113,1.67385279308709,1.67389532194992,1.67388197021554,1.71338240688338,1.67317077311506,1.67339604937842,1.67417784414742,1.67462582612434,1.67351200417933,1.67223746775328,1.67140447007565,1.67151286321668,1.67091733483049,1.67091407259067,1.67024756096377,1.67004077009115,1.66942539243704,1.66844388637344,1.66781712214374,1.6676352254977,1.66700696294815,1.6973348984612,1.71218657418071,1.73095604215931,1.66719011856617,1.66685834277579,1.66569133120857,1.66438984961482,1.66331158166143,1.66321094642564,1.66297100018118,1.66286207777393,1.66304184402637,1.66293138621906,1.66170117500471,1.66116746170408,1.6600521553298,1.66072024248134,1.65915489850754,1.65888296487725,1.65774676914613,1.6945661778623,1.65699790488208,1.63388822557486,1.64815729064318,1.63442399474415,1.6210550595619,1.6358899508133,1.66124606805859,1.660540249304,1.65785673111867,1.65531728277872,1.65576829529725,1.65534859904496,1.6547132247292,1.65470630971974,1.62796363273792,1.61616387045691,1.60334738314692,1.61958404554686,1.6534379471237,1.65376182020433,1.65378913085333,1.65171727312787,1.64988848535191,1.64989139097623,1.64962528149825,1.65296552699803,1.65162103694924,1.65234317306655,1.65524513889009,1.65931556955999,1.66302847567044,1.65870064422888,1.65386298817381,1.62795269584846,1.61525996235254,1.65634128614241,1.656108777238,1.63484427908304,1.62436917275011,1.61328554075289,1.60247866945022,1.58141416666075
1.73057987071476,1.75347777483794,1.75435746582427,1.75553142826058,1.73471034946839,1.73591056282294,1.66369746900435,1.73978518903874,1.66932579293253,1.67003022154444,1.74713673184566,1.67261997186893,1.85415007193825,1.8486401585834,1.80771369072932,1.80560349075284,1.81679808851777,1.81604786582129,1.82163709522604,1.73347448952899,1.73396476621559,1.82389186782328,1.83177741061862,1.73595189710092,1.73464407667628,1.73531661034514,1.73538687402497,1.73486477890547,1.73619827012363,1.80540044275187,1.81946376418942,1.82670856809395,1.8235280722475,1.73692269081218,1.8313515051653,1.73742876459869,1.73991271729486,1.73304322471314,1.82154541499058,1.80631609898164,1.73647315227022,1.82628332536858,1.82747683225965,1.7342537440562,1.82503069610038,1.73668502426991,1.83039902293651,1.81367267011865,1.73668343281633,1.73701628756125,1.737693227598,1.80332580183512,1.82011091792828,1.73435155084623,1.73452475533049,1.82980966637428,1.82802010611424,1.81976524708846,1.81891282702154,1.72963505178355,1.81959074883803,1.73380586306311,1.80882383734964,1.72942151563212,1.72930011543232,1.68960704894577,1.68184285955405,1.67368844067784,1.67350621794432,1.67347827374091,1.67364132525379,1.67365416790386,1.67343042816818,1.67265318292885,1.67179873934074,1.67129469935629,1.67204698819075,1.67313921772382,1.6733728317959,1.74747910888695,1.74518623390257,1.673916774904,1.84198915310716,1.67304402507817,1.67329344821953,1.83950897289485,1.67353275559716,1.67322750639355,1.67334075493269,1.67234864408383,1.84046810508633,1.67348964796587,1.67338227207666,1.67367923266254,1.67344808467764,1.83791041924239,1.67162852493029,1.67108216604789,1.75052281963399,1.85388346765346,1.83410575505771,1.67081355871659,1.67086050518148,1.66964274316977,1.67037990864887,1.66927042795132,1.67054830964382,1.66831661026045,1.66913332570278,1.667448890243,1.66705843064719,1.83100272982294,1.66610272581171,1.66596712615084,1.66497106901882,1.8274471589717,1.66313396259362,1.83410295508833,1.66430263896191,1.66344337392199,1.66266122088955,1.66280466068556,1.66173257735427,1.66031211502354,1.66144612779763,1.65981741656643,1.66138054416511,1.65936185380393,1.66180719384284,1.65859760062174,1.66042979029976,1.65638727296084,1.6567370744303,1.85343092197724,1.60048308271766,1.59881849565273,1.67834952400842,1.59251569613618,1.59073034631648,1.67846003585873,1.66029512783156,1.66106302662897,1.65951381802828,1.58034214371235,1.65826709217204,1.65609391852131,1.65451069946391,1.65383036820693,1.6534487696125,1.65264465096231,1.57606296996307,1.57687884051733,1.6535687259943,1.65433723955991,1.65451672908213,1.65100744811009,1.65035140971766,1.65183945741926,1.65221834849702,1.65361308623986,1.57671644086892,1.66392593263157,1.6522734805901,1.6636106970972,1.66619110497457,1.6638745534692,1.65343138784901,1.65380590271182,1.57944129401422,1.65667304695609,1.6574292436931,1.65640864440863,1.65280459056243,1.57948795243783,1.57963510582926,1.5805537200931
1.73988564152242,1.74509745679697,1.75229934268802,1.7529182301431,1.73556472279641,1.73600767119951,1.71531147177969,1.70269055028554,1.68920382007061,1.70956169465449,1.74803073735426,1.74954137994599,1.75767573167727,1.76068395341308,1.80948243535884,1.81222510593644,1.81515657768632,1.81833359843266,1.8194851272534,1.75841248479697,1.77360261903557,1.78563518617389,1.7963324568057,1.78261330992558,1.77142166516641,1.75781989685945,1.73524619500291,1.73514132508983,1.77381395505048,1.81398654224387,1.81691576842433,1.81983741412673,1.82015944102978,1.74912857332031,1.75595192664216,1.76409046103713,1.77341586639978,1.78219942356827,1.78903732899574,1.79350322812316,1.73181807007163,1.73193313945629,1.73114662172217,1.73023838154362,1.7305421411001,1.73540281496586,1.73665008073549,1.73616255901162,1.73574238550674,1.73603608334128,1.73697369470175,1.73772119778565,1.73807788733903,1.73767512830114,1.73621169131405,1.80991534066356,1.8110792503514,1.80969501326627,1.80791854547558,1.79775155203279,1.80038821334516,1.77480289639155,1.75798079588449,1.72860746304469,1.72831877046748,1.70670207262505,1.68070732181332,1.67387717076035,1.67320346686858,1.67291916749633,1.67301107821789,1.6736227889786,1.67294703238967,1.67376917266112,1.67354125080263,1.67299973466877,1.6719736868763,1.67216359376398,1.67298410129381,1.67452345385985,1.67547922551093,1.67583028832241,1.67458148163202,1.67339502807975,1.67260939750787,1.67219845196014,1.67252560010818,1.6731940939791,1.67309588010566,1.67235853051635,1.67251818256014,1.67269019679021,1.67302974856302,1.67331250447639,1.67415363069983,1.67324554868343,1.67140996632754,1.67106957449852,1.70006806798691,1.71572156484138,1.73490741162811,1.70592291686005,1.66988781492694,1.67014588151622,1.66901194706114,1.66999928665252,1.66924270813227,1.66926897037006,1.66851940879247,1.66815920248148,1.66728669877737,1.71106957402351,1.66579866155004,1.66566081058713,1.66491998447477,1.66474561448659,1.66433658280523,1.66451983970883,1.66449498906153,1.66358113693142,1.66266604291961,1.66261139790627,1.6614133870357,1.6604338926185,1.65978527077416,1.66030736818176,1.65894940749785,1.66001768807773,1.65872983094353,1.65965875051626,1.65785819541059,1.65778832797691,1.65549447134432,1.69343167868545,1.59819334358694,1.59761664987552,1.67529529160021,1.66348052678381,1.66217335870375,1.66059168871653,1.66071172080773,1.66104748310764,1.63185003274493,1.61729333420378,1.65725035710891,1.6561750654054,1.65510696024998,1.65388077775743,1.65273362096531,1.65131062524525,1.65007166274323,1.64955505035278,1.65255186876756,1.65246712916698,1.65182034091096,1.65028420519867,1.64994173034093,1.65065459847573,1.65125057328905,1.65144070738878,1.65053670913981,1.66197753621277,1.66105160508803,1.65614227350405,1.6534235581257,1.65221214864734,1.6530257734756,1.65382516610806,1.65505392451581,1.65728835800926,1.65813218875874,1.65679225143202,1.61659517311575,1.58007962019125,1.57974555074698,1.57964506626642
1.72775939621044,1.72786862440953,1.75306273540091,1.75384594234974,1.73531489181298,1.73575043529494,1.73636305462821,1.66403643576067,1.66616294203387,1.73985334213727,1.74883438282115,1.75287609343055,1.67766679182797,1.69001103206243,1.81536943477376,1.82755107814892,1.73136036515155,1.81847667698788,1.83003700012765,1.73171396102655,1.82691308611948,1.73353204562835,1.8204451765517,1.81978218985524,1.82341686666626,1.82326139826785,1.73416544245682,1.73381294134469,1.81980718146032,1.82470768012346,1.73489676627506,1.81822209536191,1.82734515015821,1.73374494637422,1.73217206175066,1.82151381736301,1.82152894573941,1.80483516811919,1.7355483192735,1.8182123523007,1.73477258507661,1.73591527196696,1.73432243647701,1.81776671091201,1.73340408249064,1.73454177032744,1.73614222511051,1.73482680754023,1.73415574637022,1.73389292077852,1.73557095625667,1.73569448559336,1.73447312700128,1.80360364252737,1.73324915791207,1.81035255634577,1.81673934627713,1.81207880843212,1.81200220910038,1.79925690293154,1.80614883207503,1.80589134171269,1.72831295644448,1.72818855134458,1.72674184929466,1.72408317678605,1.68113412136207,1.67349811948598,1.67290999367769,1.67148692415822,1.67216945752334,1.74763359619817,1.67021158807636,1.74824019616759,1.74334459755623,1.74329595865293,1.66950428406742,1.66915189135019,1.66989676540447,1.67082663256815,1.6714271161891,1.75056157239006,1.67223589283478,1.67188699319526,1.67042038769405,1.67024425805876,1.67038848577821,1.82096575052625,1.67272510963661,1.67171069325206,1.6709641875062,1.67246775177247,1.6711354171052,1.6735237353658,1.67490522972282,1.668693014929,1.66957324016202,1.67017826999975,1.67123349292341,1.67014726097688,1.8245111722406,1.83726177057012,1.66971867838837,1.66905525699222,1.66827230701256,1.66816050885455,1.66914657363968,1.66772512205774,1.66790005842281,1.82479259108821,1.66640196716358,1.82117889101324,1.66578548110671,1.6653752004436,1.66460035526717,1.66411610767174,1.66403467399337,1.66357403230113,1.73921373062177,1.66266677588565,1.66164778612545,1.66259068335354,1.66164392876227,1.73442102465278,1.65966729775452,1.6599885532154,1.66014262741545,1.6575962265703,1.66099963083473,1.65646127964702,1.65790092260036,1.65813707898379,1.65328784159076,1.84156287213317,1.59808274977682,1.59745019096974,1.67903758039693,1.66691722813338,1.66335761855444,1.58734804980581,1.66114284015574,1.67768278984141,1.58062356288993,1.57996355513305,1.65703202627872,1.6756664180819,1.65600945860544,1.65467495626195,1.65360676838857,1.57642991170067,1.65025167926024,1.65064696509764,1.65209060407848,1.669454626255,1.65053513905366,1.64951067007435,1.57603503716356,1.57551833295284,1.6519478957075,1.65228626931119,1.6521096530113,1.66290901472379,1.66114312749288,1.65402751738415,1.58004595356075,1.5794129909903,1.65374511481934,1.65401014144551,1.65369061023118,1.66017147844595,1.65989375821889,1.65483878258619,1.57938831796606,1.58099098585712,1.57915602735475,1.5786361082375
1.72723411364033,1.72816409103701,1.72797248536321,1.7284061117622,1.7320559215091,1.73418650864208,1.73535281369682,1.69954581504196,1.71599482795593,1.74772459875949,1.74837225726547,1.75312686150318,1.76239023642562,1.76691738908198,1.76912312453765,1.77357365860478,1.78383843819864,1.80603115455712,1.80377364273446,1.77196855235491,1.8235658152671,1.82394919721915,1.82549952968562,1.82379440820808,1.82503557511906,1.8230559197665,1.82256207736857,1.82151888387791,1.81761726528499,1.81652062495663,1.80980103858419,1.80962801918717,1.77423911691284,1.75370024744049,1.76351523224526,1.77310777495929,1.78308402125767,1.79276556116107,1.77823493553049,1.76608035362414,1.75427343160756,1.76452692221333,1.77626538772024,1.78736923377628,1.73433248999102,1.73516405049923,1.73489526555614,1.73259194642962,1.73320651998076,1.7336612470498,1.73319869196556,1.73274707308026,1.73338494874625,1.73362443734297,1.7332491962056,1.77465876393768,1.8118082880412,1.80985297595334,1.80803267813777,1.79894997214207,1.80280704260433,1.80443010388385,1.72697523247602,1.72667447451931,1.72627710462973,1.70420158595085,1.68145549915421,1.67308808687778,1.67224386125563,1.67133119975492,1.67149639314884,1.71298484143439,1.69860139986493,1.72526800710936,1.71565956591996,1.70293531819633,1.69091365580097,1.66899900440619,1.66957964348553,1.67016511360916,1.6705874571837,1.67058330292803,1.67099067439909,1.6708096253463,1.67036453463944,1.67109245002036,1.67153045413736,1.67262457336757,1.67293520710465,1.67200082943167,1.67223248705223,1.67210307519949,1.67281469566761,1.67393433417675,1.67594492959725,1.66864867567505,1.66943742101468,1.67054757589181,1.67085666265442,1.67086512911135,1.72323845231881,1.701591629881,1.66919176742487,1.66914518132379,1.66779862837451,1.66877980727988,1.66834696926851,1.66845097782254,1.66713999391509,1.66666869116745,1.66623923506239,1.66618540466647,1.6655689875641,1.6655363201908,1.66497425146242,1.66535394575208,1.66492413708448,1.69402525501444,1.70612809241796,1.66137711704232,1.66104023502814,1.66179598302097,1.66134516179825,1.6612640660403,1.66014176227065,1.66055215882913,1.65924425243326,1.65933742016006,1.65782531900078,1.65782264026945,1.65692748573559,1.68299995308383,1.69663720587123,1.71512509173602,1.59670202767053,1.59613437642242,1.67584313289762,1.66732562283681,1.66379557319997,1.61008666723356,1.62321703094509,1.63559492358544,1.5797075459025,1.57917612201138,1.62650507027292,1.66776016270172,1.65490827421391,1.65392212912487,1.62275659748776,1.60435131519002,1.61779440591722,1.62898451543519,1.64898165064018,1.64810763646849,1.64864991005274,1.64894591245497,1.64991462813024,1.65069571517019,1.65141573045595,1.65212123953528,1.65337088789867,1.65436083727502,1.65399372535052,1.65432100737327,1.6563778721955,1.65695464378532,1.65411355355427,1.65388463041282,1.65385709409511,1.63040124508264,1.61790381591703,1.60553788745651,1.57950395543496,1.57966306957492,1.57945656128988,1.57882165169694
1.73114315882698,1.73021086700347,1.73018384835875,1.65650229275632,1.65728997526745,1.73415094682256,1.73579068852562,1.66117075120111,1.75313307247151,1.75288255788655,1.74808064926461,1.75077072935414,1.82482737605824,1.84652051773484,1.73682074639975,1.72829204334996,1.83517378446597,1.81256055252972,1.80085748900232,1.7291056789186,1.81574073808821,1.81920887997327,1.72986038791567,1.73013331268151,1.73070503849976,1.82664090997322,1.83124748180985,1.83753953479024,1.81436449884955,1.73141296713258,1.81469129536896,1.80527879136564,1.73382598903691,1.73594193564427,1.81006558555199,1.73204528240833,1.73272104397101,1.80366939089051,1.82295986205711,1.73266631444,1.73325819067503,1.81994156235299,1.81760897107884,1.81560870007949,1.73378389372828,1.83083803035572,1.73346440259388,1.8223102760508,1.81466174439628,1.8314601448034,1.82054589084868,1.81670888466411,1.73309406131026,1.73152693063605,1.73154925163436,1.73280825399621,1.82569088507625,1.80884577303946,1.72950850104768,1.7284170191606,1.80396894545224,1.8176703800152,1.72666383011887,1.72563787264327,1.72516456028743,1.6858092117395,1.68053984716699,1.67248498949647,1.67212623057147,1.67075286788748,1.67188464970573,1.7475152710464,1.66622072502027,1.84180507723203,1.66775303951661,1.66704431275096,1.74448581881328,1.66833584224721,1.66938211294799,1.66906279307669,1.66979577510361,1.66962246573083,1.67000560317463,1.66909689961819,1.66834193320745,1.81933813226192,1.6710125008581,1.67224281826649,1.83977055440162,1.67123461437879,1.67112961842649,1.67195340866223,1.67200752817276,1.67338529734707,1.82752466460333,1.66815091503229,1.66874344936952,1.8343645365951,1.67066192652234,1.67268226752456,1.8319231091986,1.66780249449211,1.66935681983919,1.66795669898924,1.66682479919797,1.66732812842358,1.66781812512561,1.82100450334206,1.66538657666577,1.66545759901586,1.66613597498791,1.66546832249665,1.66540892629316,1.66428103922018,1.66477909945091,1.6657574251943,1.66512646795189,1.81012465033121,1.8096596165414,1.66050838277534,1.65950163570903,1.80902019505055,1.66018512928591,1.66111543252583,1.65898665647083,1.74030176440381,1.65951733246576,1.65687766192757,1.65825478932941,1.65518231611075,1.65684501997196,1.81689171434243,1.80535170151234,1.8484318087368,1.59749772753978,1.59586337466043,1.67912986058693,1.66763341146278,1.66343240020298,1.58491268946107,1.58549673744227,1.65505169887198,1.58190100520072,1.57762160445724,1.57657610778506,1.67228613580316,1.65325557375882,1.65216478623249,1.57477773154479,1.57433300613304,1.57463122661461,1.5750196014482,1.74504898434004,1.64850710370008,1.57340307511975,1.67009647386199,1.65117819514938,1.65206225469226,1.65206381418287,1.65196538122251,1.66564083474553,1.65287438457026,1.57559763618918,1.57579479301123,1.65848843334334,1.66007152002729,1.57651298858899,1.6594266561401,1.66251907238042,1.57741374986875,1.57896706326553,1.57902464109607,1.57679285615091,1.57839254319902,1.57878852790719,1.57726574029348
