1.23678005429091,1.18661352053779,1.18649281494397,1.24073717926031,1.24397588250376,1.46247,1.57422680373694,1.56768623828843,1.45711684408452,1.32059877202521,1.27988324643064,1.33546398549941,1.3442700627,1.43131973352055,1.46769993943948,1.33880391668925,1.28900980219051,1.3397039951454,1.33947295980524,1.3424478139221,1.37566366851425,1.4256446602215,1.48785254292723,1.46697907710367,1.38409405090695,1.3695257173744,1.40125841685859,1.40481175019242,1.35066004880048,1.33863979407597,1.34558423882824,1.41681530206669,1.48354183152976,1.50212220556975,1.58022330862641,1.40548024009679,1.39627851515906,1.41598096524666,1.41145605279335,1.40696054463117,1.47453952277392,1.50884668901786,1.634351135221,1.63568683053463,1.65225434741241,1.45903839028237,1.40025051866326,1.44538542824778,1.44826346336208,1.48356309470005,1.54034058590003,1.54044535921914,1.6671434516575,1.51569733476453,1.44807246372884,1.40510603212385,1.40579304107831,1.61856332916698,1.62736651523493,1.78634998003135,1.73909340048433,1.73600715233342,1.72442290144485,1.72301109808909,1.7256940899167,1.70893990923025,1.32408008722798,1.2924545506854,1.33157636976691,1.36189170874918,1.32912876222868,1.34182958724527,1.34269511882209,1.34131848101338,1.38089109993667,1.43533992500026,1.46822420040431,1.40918415506266,1.39775188258141,1.39673797213381,1.44254465695801,1.43757842742841,1.49930980456768,1.56726337468595,1.60249971341856,1.79051138571455,1.76696297110644,1.76434364119692,1.75911425333416,1.75455624911632,1.45053234905794,1.39285631955071,1.41035994960462,1.45510573570737,1.48162610703968,1.41136591849954,1.3952975973269,1.37673112859444,1.4197179453987,1.432729790494,1.43809073087946,1.48555183036743,1.50662294020335,1.50048961486194,1.50567398383334,1.46413176922644,1.51643248582207,1.55252648476689,1.56715810377277,1.55798629468341,1.55155128626509,1.55699456918394,1.53622132223393,1.58173121983403,1.55639019442246,1.58188228450689,1.54699198317337,1.55592228269094,1.56899976404806,1.60570988094997,1.60239899010519,1.64135002997898,1.81943178250706,1.80483100963289,1.80615840056889,1.50726418662254,1.49002520442737,1.4693523302574,1.46724034062825,1.48161982908294,1.57953,1.73303695994005,1.74131951799188,1.7356314951858,1.73573245308609,1.72793487801987,1.44744284582918,1.42503860498064,1.45530174398572,1.4519764000684,1.61308284612382,1.71011077675557,1.78617589167116,1.69408150379901,1.54393692067453,1.52306663320153,1.56968005064588,1.57924938045497,1.604491714812,1.65453359040227,1.72822989077421,1.53428356265273,1.52297137683933,1.54742637362246,1.55026656044616,1.6041400546129,1.8072406113923,1.80898676759591,1.80852423902601,1.80824246726916,1.67805258815743,1.63751136562733,1.63825241426552,1.67568555053794,1.70640978095667,1.81296194695115,1.84258003267574,1.90497528900417,1.89053490504355,1.88969709647571,1.86692790738392,1.65865593748547,1.61745798951914,1.63082116801865,1.64888852659058,1.69243571592663,1.74806129434342
1.43298614041995,1.18391404788128,1.20194255612215,1.23845141387939,1.28316013380971,1.32795974945359,1.40521995604514,1.44813919214404,1.44820180962625,1.44919517926042,1.26787238277377,1.2745648921254,1.40878426387177,1.42342852986751,1.49586001776819,1.32799681161549,1.29881167244304,1.33816748801121,1.33919554163119,1.37006105316003,1.41303499719285,1.42927395342412,1.4708203398133,1.46956133712627,1.50007997728197,1.65989946311417,1.42587005580527,1.3496037176191,1.34747765756032,1.32830907383613,1.34645335671776,1.39945154972356,1.52594774271821,1.51107529333601,1.54205822960687,1.38971718563281,1.39139583660873,1.38361082141668,1.39928113275591,1.43326159923754,1.47850592316527,1.56774995664337,1.61664010028348,1.62954449956381,1.67492213795274,1.42698200112029,1.44494901978641,1.44318557903622,1.44507556086235,1.44612067912846,1.50213590471808,1.54730959906875,1.69367616559399,1.51795751736474,1.44785080779407,1.42245971422762,1.42168095760321,1.43664665590401,1.56305471510347,1.71966307337595,1.73219984988614,1.739291381787,1.7227778523613,1.71960878318067,1.71438234270392,1.32662254861604,1.28362712052842,1.28263483596084,1.32315795270877,1.31323779260677,1.34021096620396,1.30196836690462,1.31780744866502,1.34129454970422,1.35525369529705,1.38605377571478,1.45912402444548,1.43460821913406,1.42027966633504,1.38454919015051,1.40274661766423,1.43740828282258,1.49498920939761,1.56086833605526,1.55711139633199,1.75199531343752,1.76804345723316,1.76030387310285,1.7572439346616,1.79572978973331,1.42577332709361,1.39337594031197,1.45432743276338,1.450602297768,1.40819674692193,1.4317215018339,1.4207988602707,1.37203430062464,1.41688758802616,1.43103870921223,1.43202739413161,1.48973790129023,1.46750525027377,1.45943399343317,1.41725926143791,1.4261524157649,1.46850894651562,1.61488174976163,1.58698299111123,1.67212989077421,1.525984900242,1.75549220180422,1.77699999510392,1.6015613793853,1.56069009194849,1.53499880592835,1.51358396744006,1.55775437427249,1.57176351973913,1.58358387372397,1.60225978403933,1.69238881715036,1.8026051736094,1.80309574838844,1.81747954993474,1.50178591163875,1.4504411658779,1.45235612551461,1.46458542564583,1.47642086346217,1.6409099453871,1.73521055283043,1.73582922800061,1.73746651403061,1.73437270256078,1.74081515641961,1.46643188611906,1.42561938318252,1.46267954134595,1.46804165927801,1.59058883547614,1.72337629445037,1.75291828708316,1.69209239220746,1.54336434868966,1.50630109077715,1.52245609159532,1.57283671648239,1.60544100512201,1.67873323804476,1.54649297471658,1.48950902165321,1.50863076006328,1.54079368337432,1.53248600353749,1.66890003872847,1.75320000001113,1.8106190171081,1.81108023209168,1.83051941859634,1.64426998180052,1.59517718193797,1.61031547327249,1.6548603466237,1.73020021904336,1.77924800722202,1.88689797778141,1.90430850272519,1.89573112423616,1.90268154382908,1.89917819218696,1.67933383159606,1.61992226531242,1.62326349244793,1.6176978522518,1.71356359738745,1.78754950419912
1.25088005271425,1.19778524624734,1.21905641951119,1.23639032753631,1.23084158756046,1.3536603051593,1.45524998973994,1.39264226530635,1.39306288862407,1.35366000001248,1.26457970039324,1.31293753573719,1.41220665493625,1.41660589554705,1.59538989077421,1.32018277060238,1.28313616995865,1.3428799625611,1.33925013268074,1.36716118313567,1.39723402569292,1.40897501500352,1.39765045194858,1.47000593046835,1.53297091892281,1.65787551468697,1.65611941699403,1.39281008758319,1.34510142208264,1.32882885029638,1.3615628018599,1.45254627680525,1.50243730740163,1.50249291732378,1.53877909553294,1.4025827566677,1.34134786278032,1.3817934187157,1.38540625987035,1.36563899944041,1.40605507070722,1.4058750707069,1.45913005467543,1.5162933314575,1.46410005347821,1.44445744625547,1.38546989420296,1.41760127475426,1.43473520950912,1.46255206938973,1.5171557257225,1.52939635184621,1.52998677872978,1.52235716168066,1.4968300187967,1.47517318911715,1.40978007814262,1.43724674268159,1.55722571744705,1.77583164191932,1.73343172393886,1.73382886116352,1.71361258017193,1.71503470737637,1.73105434671056,1.31346971484952,1.2762422485572,1.30248756300818,1.32871717491677,1.33122653245761,1.39929994220545,1.3136736025162,1.31522042778576,1.34061906625942,1.36815523620305,1.39867626660977,1.47294619074284,1.44192295719351,1.42923014475142,1.38496632172509,1.40495903641641,1.42708392588252,1.47325907964739,1.55929139806634,1.61255467687826,1.59866540107891,1.83725991492895,1.75560350392028,1.75540194657578,1.80379932504038,1.43396538803405,1.38843131909138,1.42790437410927,1.44562859379066,1.48145850199584,1.43584207581249,1.46981176889149,1.37051796566092,1.40281050909683,1.40612180157088,1.40289148450502,1.46374412995465,1.43004090417688,1.4558704583942,1.45053318427759,1.42353621773572,1.44760147961358,1.52847625976584,1.53144083015578,1.50848999013338,1.74083897073349,1.7395350207924,1.8251099337097,1.62460886796458,1.54201226347407,1.50564101057306,1.54315265062008,1.55995823118897,1.57489657728759,1.59618654964855,1.64414915792211,1.70316110352707,1.50165009575737,1.56860584021207,1.49499006107433,1.4754105046668,1.43662963119344,1.45028182032544,1.46322607491307,1.46199930516202,1.56228670109493,1.56387336776104,1.73968370580097,1.74285148377433,1.83732989077421,1.49915005328776,1.47835775375117,1.45740697429281,1.48154301953566,1.49909730908752,1.59094897087226,1.7001052352458,1.78674158700118,1.69158635173318,1.54256892129198,1.53061045818114,1.51791294426385,1.57509951945978,1.60573939459205,1.62695128352331,1.54474615280207,1.49529553401751,1.53168235294314,1.55281178279436,1.56872507780479,1.64239994384421,1.59680499602374,1.60210506508247,1.66611896256941,1.61524001708426,1.59220669479316,1.55315777038449,1.60098740146012,1.64276473427065,1.66832688876083,1.82003025816201,1.8186035457944,1.88875183549753,1.88288177268855,1.88998141126434,1.84152434516785,1.83953376209401,1.66577340528773,1.64148045756236,1.62353647890986,1.6621676419442,1.80617040568443
1.47239989077421,1.19316793505402,1.25195070937346,1.24028282808335,1.29808994778102,1.49952188276168,1.45717813697019,1.57129989077421,1.39255964541465,1.27978523607048,1.2641247378095,1.29967548103709,1.37520995853655,1.41005842798794,1.43615602531102,1.35996001312556,1.29122299906258,1.32642985554517,1.33575974637937,1.35370513076373,1.35560017641632,1.41316323072461,1.46830373654886,1.4693303445728,1.49888908174782,1.64360038830587,1.64372540422306,1.30652001161065,1.3433201660316,1.34135143380525,1.39522159498921,1.46345369046527,1.49776162779724,1.49949813089481,1.54086318961107,1.59749991784716,1.33925439602881,1.39526924534176,1.38967073114177,1.46577665118686,1.46596331785324,1.57042933306696,1.58865083384727,1.58893003064746,1.5889587475293,1.44934686190742,1.41718287847254,1.43346994132117,1.4330230066694,1.42156874921118,1.55924752968966,1.5602076417057,1.71945991329405,1.69761799196049,1.70131125254847,1.48158676093739,1.44094595074991,1.44901330252232,1.5452834892304,1.77839830858618,1.72620967271584,1.72091164188866,1.70180888942758,1.70329186023859,1.68963202908548,1.31030365505926,1.3105645819791,1.30240145276859,1.33431911822211,1.34970899843743,1.45798988783197,1.35010016623504,1.31841392913831,1.33924747325302,1.38509347068432,1.44115712773675,1.47821076356398,1.73047658474732,1.4581372826917,1.42736939911806,1.40330697909997,1.45608868713471,1.5548522652667,1.55654391219668,1.55605361067733,1.78413102316192,1.78181709747636,1.75650902461344,1.75880517721749,1.80554317251508,1.40075962947335,1.40717728810801,1.42922719459863,1.44260467324983,1.49644210170838,1.50955990911911,1.44889551221524,1.36884732559167,1.40302691099802,1.4050526340861,1.41828718106337,1.41644847834664,1.47578906647394,1.48863921136689,1.50167504166768,1.46382644970774,1.45926639104036,1.53503548688332,1.53339019569363,1.59877903875072,1.73804122981495,1.73935230406638,1.76622832832452,1.76300394638,1.76551722089514,1.55814008453015,1.54239803855134,1.57906769944779,1.57779433075396,1.61683537385035,1.65445072167261,1.72162352239625,1.80559989077421,1.77368376626221,1.81138989077421,1.47867043710799,1.44136046862401,1.44926397126309,1.46374446306359,1.4666501026027,1.60202665384544,1.77473056368639,1.75715481190866,1.74697537596491,1.55763023759783,1.55435981547803,1.48785744195701,1.50609944224092,1.511055220957,1.5340864506564,1.57160108555082,1.73486442744764,1.73439944880333,1.69288256720098,1.60059997172534,1.49943017107026,1.53429647726291,1.6039319226516,1.60546614859794,1.62503786933664,1.55910092238287,1.50376396470239,1.50848726612916,1.56411610715302,1.59356002343985,1.67978096211244,1.80261020421093,1.8189486614389,1.83737237341575,1.88590584665926,1.59251336145992,1.55126902248301,1.55021597373005,1.63330966037541,1.68729492173631,1.73458004847036,1.8508762065818,1.87814372936134,1.87063817871459,1.87023597085764,1.84909088801539,1.84474712457912,1.74636997681486,1.65125286446925,1.6239126578765,1.6467595511046,1.75684992171023
1.23020768545687,1.22238271893376,1.19836787699824,1.2301812300101,1.33257999703798,1.44923188858537,1.52563007628087,1.43202998803807,1.39186892106856,1.39179775004279,1.31518211299007,1.3105569916361,1.30882952337189,1.40217169760628,1.41782115970993,1.52231989077421,1.28879938733232,1.33462747368756,1.33335427509336,1.34791866374677,1.34985282065036,1.3872566265743,1.41061489605253,1.44511891599901,1.54794998972179,1.64167370167841,1.63803578332011,1.37471860942993,1.35830458830223,1.35621470338207,1.3946180400856,1.41693925442401,1.46362276445628,1.49716947345605,1.54050076982773,1.37099653303548,1.35815561627464,1.37442560381485,1.37653613540439,1.41600765967684,1.50844465816836,1.62100981988211,1.63659995941128,1.63443215131259,1.69597989077421,1.43812034206876,1.41382997028784,1.42433602903832,1.43090638553418,1.48227593762345,1.47795018808682,1.53486711341365,1.66800488738426,1.69657130924895,1.69835158024268,1.52007919899407,1.42731902885951,1.51777265537553,1.53183502883453,1.62229,1.70785340392781,1.70852877290678,1.70331406159359,1.70091038527708,1.70243638424049,1.32948004920893,1.30518173515474,1.30982024427026,1.33766243990056,1.37956611862409,1.35052547284043,1.31038552452652,1.33584209136803,1.33751600881188,1.36494224243733,1.42048536752254,1.42094541226785,1.73266325141399,1.48650107603753,1.45534792684838,1.41580566533936,1.45107196563752,1.51336404059665,1.55574813671019,1.61410532535622,1.74665577575346,1.77888131050119,1.76410140196732,1.76621701697376,1.53503000089393,1.43267419912365,1.38116533364214,1.42885461098547,1.44126016733191,1.47812728479665,1.58937992071143,1.47473636421802,1.42541430505074,1.40320452771752,1.3707116551497,1.3937082832046,1.46541059353438,1.55842296680294,1.51939203239272,1.50915325199408,1.44317691055406,1.50676946651246,1.53295748237857,1.53056846886317,1.58283813907531,1.76891802024529,1.77956086190488,1.80289401538548,1.78223980144923,1.77241585709286,1.60332002886104,1.53040153894312,1.54839755399777,1.57883324685639,1.61911547718269,1.65204457508185,1.71771673341699,1.73177066557097,1.7279862253561,1.72011408873978,1.50207132604246,1.42340409030452,1.46275958070884,1.46319209888583,1.50267005659219,1.59897332051199,1.74868634586619,1.77104148452273,1.76462076753663,1.78124772272631,1.78371866150035,1.51706352276747,1.46432824241862,1.51249976088398,1.51510381078007,1.55841699974326,1.72103515461613,1.74712898185869,1.69443542163701,1.74024989077421,1.4964035502841,1.54099709778517,1.57112070035956,1.60521459552861,1.63620510642754,1.73231989077421,1.5199024044988,1.561499953925,1.57224972998643,1.62191401427904,1.65431905567619,1.79427270035211,1.83318586710775,1.83491568566467,1.8718088679844,1.65388412542115,1.58619735366568,1.55126722582864,1.62258618831927,1.68830818337359,1.7159599576589,1.81704993899956,1.862552000273,1.86512785154226,1.90628831000937,1.90480164334282,1.86405920628931,1.70276469292325,1.65500186993564,1.64050220045518,1.64067099127118,1.79605004190629
1.23186464734385,1.22569123813624,1.21521735289029,1.22327116891717,1.28376104854586,1.47788101560637,1.48674995361052,1.46501410847865,1.37104468939375,1.34308692929583,1.31495405781853,1.31277974136319,1.34895752182296,1.39089284225414,1.40183371571276,1.39136986803651,1.30973108174688,1.32908906951338,1.33003439888509,1.34039571601416,1.3484810118463,1.39762598872282,1.39963116540995,1.41311204002431,1.41334054102928,1.40314389852754,1.40079982301951,1.36790650481183,1.36060297858772,1.36138921335453,1.39001296980986,1.40322981927979,1.46987064290555,1.4928453285343,1.50233822200548,1.42684935667924,1.3627196354401,1.36715550704865,1.37121877092621,1.39837510742735,1.48595644227694,1.57736893073512,1.63071574006537,1.63247807482113,1.65702404590895,1.49344585181758,1.44655161071044,1.42798445279637,1.42862415825077,1.4604924673813,1.47651661916839,1.55427399097344,1.69928165382782,1.6964437388035,1.69591586486105,1.53072790509383,1.48853637037284,1.51462897540979,1.52691641478816,1.56757462962175,1.70575194707601,1.70299232748295,1.70036058453175,1.69797841577395,1.63895662353913,1.33108910987282,1.32177796224544,1.31866523903132,1.33829623639584,1.3667477227771,1.36480241112349,1.32305125438023,1.33764484381958,1.33668324084119,1.3707989129344,1.41435721554822,1.43378501248513,1.53282663729461,1.50505447361042,1.4629513553876,1.43886380431657,1.45144756466157,1.5016819239716,1.55472104243151,1.60697271404617,1.73913130860473,1.76601291560171,1.77016223569129,1.77410039446525,1.57938922506907,1.42311506531246,1.4156141529162,1.42468857705399,1.4403511984261,1.50232917775088,1.52689336886757,1.4710179285992,1.42028850706107,1.40399940305845,1.39392546279261,1.40220010174148,1.45674288930268,1.53509632914376,1.52636946298591,1.51781653918036,1.4921151567965,1.49811114803727,1.52076801025099,1.5238390045185,1.58352672307745,1.6600263610265,1.72034638251981,1.79111133062975,1.78131674107919,1.7769799977382,1.56784181574835,1.53501128794091,1.53938577993861,1.57866030511376,1.600135288939,1.63169381703665,1.72316801607242,1.72835027632412,1.72713933319462,1.72719355402309,1.49484049256431,1.43304235417393,1.44148994217902,1.46462689631417,1.53070774597829,1.63153564025189,1.7523179258667,1.76596028703289,1.7636406631775,1.77531428023404,1.77506921944778,1.52459933979924,1.52204013691283,1.51935652578413,1.51703488295531,1.5777264677655,1.73728269183127,1.73988371255412,1.62341622569781,1.58150336754995,1.53791985232963,1.56368848946936,1.5806110606526,1.60573721740187,1.63476547315424,1.64664408226102,1.59318392399871,1.57522305825288,1.57417362011373,1.60210218320189,1.62993144387452,1.79059918461526,1.83447305144301,1.83663995870303,1.85887995216861,1.65250598326573,1.59148604405338,1.59060361356656,1.608915815834,1.61487229108466,1.62754131680459,1.64114035832382,1.65697755782102,1.67179645815049,1.68900878770228,1.83448069140299,1.82292169695703,1.74100617993443,1.6576626664809,1.6435223993501,1.65037577942966,1.75425011677231
1.23338173367319,1.2494526265926,1.18920618702749,1.2184404687009,1.21253470854983,1.49881153076585,1.53652991510243,1.57129994407593,1.35065146727305,1.29171612831506,1.29167497450682,1.28905102089173,1.3789751056454,1.38761558117946,1.52623989077421,1.37935109626712,1.29059208755934,1.3250080456534,1.32560766757169,1.32478073293682,1.34759250652256,1.40907843566186,1.38940023728441,1.4132615841952,1.41364267787225,1.37142184404749,1.36108804171056,1.33863007908219,1.36061014884154,1.36055117148368,1.38701806227254,1.39580037715333,1.47722938185346,1.48635085543762,1.57639658474732,1.57622325141399,1.34673552939487,1.35421689685895,1.36873720550468,1.39192883277294,1.46039253187418,1.54659322401074,1.62299520522013,1.63249895068663,1.69663993765658,1.72649996791831,1.46698234585217,1.42773333430405,1.42823479444533,1.4477260555494,1.47770486029571,1.57028869299216,1.714275111474,1.71483599671091,1.71328670103179,1.54002636518192,1.45572508672374,1.51277938197881,1.52121235553752,1.53144004364961,1.70419626920211,1.70100415640954,1.70164066019748,1.6954374242118,1.60411518812957,1.33424960939113,1.32295191686605,1.31431004980995,1.33831967784977,1.37050648223708,1.36844964996868,1.30223598321837,1.33777826151014,1.33553755287526,1.37565940194943,1.40998844244081,1.44966284467787,1.7251464692479,1.53258783422347,1.46921751281055,1.41144811947931,1.45392051701846,1.4861216516955,1.55325856711695,1.59876351686491,1.71984779946685,1.76723078525651,1.77071892128695,1.78133622101327,1.81071989077421,1.40739723931667,1.40798635398941,1.42145459147159,1.43966541932798,1.52726007879998,1.62980767300909,1.46778435561466,1.41746706847002,1.40475733263235,1.38108648450305,1.42344037840975,1.44498699976064,1.54205109667093,1.55922441587714,1.61916996526889,1.4855530755287,1.47519893603556,1.51707519273774,1.51918004284643,1.58439986257332,1.63574662155034,1.68783836714285,1.86122100531945,1.78368090982355,1.78242963098276,1.49906864999102,1.52604439029262,1.53192089713732,1.57690590108608,1.58911714637193,1.61653605963827,1.72790299147998,1.8104460566201,1.82527678227024,1.82998924474577,1.48605358070196,1.4218211017021,1.43734786205606,1.46831792922505,1.55801262204637,1.66849997269355,1.75478589495981,1.76539528003717,1.76445905620294,1.81976607335599,1.79963564184436,1.52719690235641,1.54633997507629,1.51942665476154,1.5166620598605,1.58635674840557,1.75421989995981,1.83743992055411,1.62046212102375,1.54763003181508,1.48149162561125,1.58657190975476,1.58973303005426,1.60721918736632,1.63621039401855,1.65971939652219,1.60180112067934,1.57691347121434,1.57520879048515,1.5690947346392,1.57609536432716,1.79475828324339,1.83707622467521,1.83917299142387,1.86559330984069,1.65029212754418,1.59295165755938,1.58818726325586,1.59806555190817,1.5977503089619,1.59341558370503,1.60510018963543,1.60529379153285,1.64707111479795,1.59325001472663,1.90282189102483,1.79376390703053,1.78337992280555,1.6624371107718,1.63104534149578,1.6646901231421,1.72020505222579
1.48710241748996,1.21107319541506,1.17540379413229,1.2347974005507,1.24357419776958,1.4821385684954,1.42778993001086,1.50173,1.32978381977029,1.2515851042639,1.29299138293903,1.31311291270619,1.33166060992721,1.36173808333705,1.33261475143565,1.35752076598112,1.35040425180477,1.31983193669425,1.32746456743905,1.32648651500902,1.36759553220592,1.38387847497004,1.53610095753231,1.53298449500681,1.53177902218658,1.63978991808066,1.64062991808066,1.38211998007817,1.37842755583687,1.37912638276432,1.39800996902969,1.46314016024135,1.36850010929778,1.44120963149283,1.38836561986948,1.38823825804025,1.33148193685387,1.34139006426981,1.36709531680809,1.39598091621993,1.50528001561195,1.57160672406311,1.6369487008006,1.63400354633398,1.66832194062081,1.4985900546129,1.44140118075112,1.40546644836098,1.43106050455345,1.46474750535948,1.44276106287218,1.57540914076628,1.70063727755263,1.71514881832345,1.73537182198785,1.47711506874603,1.45731852867746,1.454833620588,1.47074386765828,1.48531108879901,1.70348497465868,1.7022290266701,1.57280011005434,1.69341748991188,1.69412841214248,1.32863626822769,1.31200555185436,1.31142620654888,1.33946867734199,1.37168493545206,1.34701272887956,1.30501391300939,1.32399212191474,1.33441255971595,1.38901638170956,1.39780265289621,1.50991994499228,1.72658051585541,1.72826913440606,1.72718840015437,1.42443183373618,1.46310554067974,1.50811184593831,1.55121600237446,1.55101004310681,1.71006162731599,1.82370200744454,1.7856281142466,1.72413441197134,1.69808284177133,1.37268850807882,1.39650648654273,1.44235775896158,1.44020518787911,1.49158130855194,1.6254610714948,1.66769212656887,1.46541916519622,1.4056326015381,1.39650110585101,1.38549918087174,1.46172327522133,1.62413996614396,1.57672947470078,1.62204996526857,1.4889029143839,1.46041407743802,1.51738745668048,1.51609145264324,1.53897528524097,1.63705328821719,1.74569788361922,1.85101883084187,1.78747819874263,1.7910343400319,1.51477080129171,1.48032818447395,1.53292816955217,1.57408463596684,1.58236612802234,1.61418671202974,1.71401581879527,1.7639573421633,1.82541920074878,1.83041198155149,1.7562399453871,1.46329848516787,1.46864630555978,1.47314905362986,1.58121738486955,1.66525997269355,1.73494141107983,1.74681966029309,1.76274656947144,1.76793254731744,1.82673389178184,1.51926359402832,1.48461997308805,1.52197637725303,1.52600937933929,1.61311705430429,1.78322503452827,1.78169171772305,1.623682509736,1.51233271150845,1.51045263653728,1.54821001088371,1.61184443189008,1.6089072133994,1.64504665630233,1.65581836599456,1.64659807347248,1.60915174725989,1.61994512015065,1.63372422172207,1.74730002245039,1.8246373888117,1.80402817566361,1.83952045164502,1.85214638059961,1.85023056424524,1.61166878475933,1.59357739204933,1.59661314111037,1.59852251334949,1.66779999953867,1.78816037266137,1.87312989077421,1.78977004322141,1.79452782129591,1.90889638534207,1.82269002169573,1.67426821431324,1.66840023136564,1.66829559959013,1.61500010886307,1.59348668123686
1.49910986054669,1.1985036902847,1.24904417896356,1.25543826402289,1.27208674628481,1.27083341295102,1.572184927982,1.57148492798206,1.30935679735632,1.25376566983368,1.31404694066978,1.31565331581513,1.34444941133318,1.37845403330981,1.5026275769226,1.52056239044111,1.35746847306823,1.33878797396127,1.33266942380187,1.34389721474711,1.36932974883074,1.39964569259227,1.53292749091635,1.53219546813642,1.62182991763412,1.560350002936,1.4161599999999,1.37424905832052,1.37616746954831,1.37629273668888,1.37702507747648,1.42004981050908,1.47814997410426,1.50561004766618,1.5917999453871,1.37603621791221,1.28662684789225,1.36133898723705,1.36439933163127,1.42155295011603,1.45904698075173,1.52267926403435,1.63472644778759,1.63348916414991,1.66710680783661,1.67924203035403,1.42365801950492,1.44128094386838,1.43650284219831,1.45169517567854,1.55737947830844,1.54857807571623,1.66951282501418,1.71426877524008,1.72330676305881,1.47513506874597,1.46011822377519,1.44732842886705,1.46389661491394,1.48144239568748,1.73716003328273,1.53180010922579,1.70238852149367,1.69627954118986,1.6950194405878,1.69380755552089,1.29926526407669,1.3754338072702,1.34277130617767,1.35021313040319,1.36194451599623,1.30624949243755,1.30845285854206,1.33453285806704,1.3886319360113,1.42415059271742,1.44015005327547,1.72729562915845,1.72827490741018,1.72647534290342,1.46242610944363,1.45961848564903,1.50965885383101,1.5487234434321,1.62790994476081,1.74879833226344,1.82079099648658,1.64572988816607,1.70502408299318,1.71693511953563,1.38468031425138,1.35172377999318,1.3927999381376,1.43030257405295,1.50304862959316,1.59694116363309,1.67025387131759,1.45106087943843,1.406948345637,1.40859844949388,1.38594797894876,1.43666949904781,1.45797049299112,1.56078910790437,1.59026227266066,1.51910004161337,1.46278234134397,1.46309039029263,1.51422111756564,1.55003771675025,1.57960999318484,1.74597106971759,1.75208099519761,1.7885313648537,1.80126685430474,1.51398152846967,1.50685251579559,1.51332880199688,1.57147420664457,1.58285803471282,1.61440746733258,1.70777913975199,1.83112191380912,1.82845124570957,1.83297794722499,1.50926845804061,1.44369718365445,1.47868611126622,1.47927307659687,1.53927999199506,1.56758005050205,1.73556148743413,1.74827330214737,1.762942029345,1.75471930998064,1.7535776232051,1.55391003546765,1.48665997308787,1.5225905003202,1.52266884428704,1.62302434453672,1.68992944487612,1.80348315417029,1.62676348726367,1.54827332320231,1.48569115454413,1.53074999396673,1.60271351432342,1.6072405217064,1.6387000958312,1.85950839005769,1.85939986969115,1.6550221612172,1.65527078335029,1.68756495703515,1.71148499788353,1.77841823402108,1.80833390085572,1.83579542245743,1.84835730782698,1.84745348110783,1.58469768095132,1.55894554279181,1.57265735335543,1.57254776018715,1.7312099453871,1.78908024024445,1.7916720633556,1.78674354246594,1.90214431385155,1.91716207822414,1.91682839667695,1.72363936648756,1.6719637306495,1.64592660353676,1.6962400322745,1.74855990191924
1.50859006947257,1.2012413027619,1.20266299895658,1.26448361623827,1.34986183699763,1.42737958470241,1.53560992558436,1.27905829237242,1.28270379735308,1.25452908108378,1.29153361163374,1.31071487873245,1.39923146748991,1.40030679974015,1.46822986792415,1.49539994626056,1.4582299453871,1.3088758830209,1.32080947189051,1.30806048060015,1.36725728165873,1.412030124419,1.44017279899784,1.51499225304205,1.52272853406951,1.52552186320716,1.34635513294335,1.32965586932018,1.3481519971981,1.35552155717516,1.39871028360462,1.48894999851932,1.53337817378821,1.53506555467542,1.64429515899445,1.66222775445706,1.29927431933958,1.33788530882219,1.35217508165581,1.35703055689636,1.44430300148774,1.51739685354665,1.60961687451765,1.6317399001692,1.67124108480793,1.43421307746086,1.43856407576163,1.42715504391653,1.43751466381178,1.43717753009844,1.48452004952751,1.56685257115062,1.71706800699069,1.71505647640786,1.71591504499224,1.60215,1.44099001962076,1.40244352737607,1.43052214351478,1.43866448902731,1.43086746888305,1.70036281974759,1.72414830036986,1.69762835013904,1.69635001321622,1.71623911334762,1.29697866875939,1.30685398337285,1.3397482284579,1.33700371620555,1.38280459039322,1.30342620747545,1.30626081042251,1.33458356612134,1.38765499295911,1.41178847518936,1.55075415566252,1.60916993481287,1.6333970794103,1.75480000519694,1.49242579329048,1.49307272045313,1.51856414678938,1.54594459567754,1.56961675695893,1.75363164853139,1.81730256881507,1.70698500941818,1.69885523813941,1.61266785937538,1.38080150731715,1.38625772024467,1.3974622958715,1.41431204904651,1.43363671292385,1.657489651165,1.67361060392429,1.41220086631483,1.39446189868452,1.36333594856235,1.4260952735209,1.42229332902747,1.46596184964047,1.54962339902908,1.56166219713943,1.61294996229631,1.45108234792867,1.47924167331988,1.51441912929808,1.5116133047672,1.62390008028111,1.73876298353988,1.6094314937566,1.64822596751386,1.60473997946313,1.46241563072268,1.45943198820344,1.52806637042296,1.57010141945737,1.56994475695902,1.60324813377148,1.68389882274535,1.68042552896629,1.82672412983638,1.83162105374949,1.48255678594449,1.50273509564427,1.49039934805465,1.4852295350798,1.46705460223153,1.63064002888406,1.75555093772613,1.7686628426273,1.76799203022799,1.81126995017215,1.74471839548257,1.73182993609936,1.55490319075326,1.52560374585189,1.51517058659895,1.6213649677067,1.67035640886356,1.73205834492632,1.62851018305466,1.54023003380119,1.470585167383,1.49312092003905,1.60244466256459,1.60513232652706,1.67253302709097,1.86267818427792,1.86213400360118,1.65768753292709,1.65499424966714,1.69854513154742,1.71014499788329,1.78092729537187,1.81717469537875,1.83077949667617,1.83606417532231,1.87964224819511,1.59589066214168,1.54524299136429,1.57273417808227,1.57430844318443,1.66923187354394,1.71335766836505,1.78437881146339,1.78284646479717,1.90300793341613,1.90958907234464,1.7885900546129,1.7443961239961,1.67624187137679,1.63820821540712,1.66174189259261,1.63245029924853
1.52399085131146,1.19822815145534,1.25829983583045,1.27471421035181,1.35118850366354,1.4511203060718,1.31269488853065,1.29081644974822,1.28794427074294,1.29117588816611,1.29001337766754,1.33541913787964,1.4016185412652,1.40109862955055,1.33739997599673,1.36626672880258,1.37542345135093,1.34533402930533,1.3361546716287,1.336809048971,1.35035053164858,1.43480277780528,1.44514025513261,1.50315046997475,1.55302003783138,1.638147531867,1.31569923389953,1.34317128151136,1.34338841615498,1.35852290992771,1.40533320609782,1.44594666740695,1.52427660688292,1.53656968460289,1.65649477770694,1.53416001498374,1.31224186363455,1.31446829551475,1.34551078722971,1.3421351970157,1.37871332063398,1.53751059580641,1.62713309351651,1.62973167182179,1.66120802716637,1.57421,1.43974207696638,1.42166262015744,1.43538464023016,1.43230240055719,1.45785901667359,1.59924003492465,1.65150079885231,1.65204417415991,1.6505429384017,1.70581000600736,1.41624980398841,1.39837172418714,1.42309954342884,1.4355712137843,1.43080068992457,1.70876245546456,1.7143370334195,1.70087188470362,1.69529069731033,1.36356624061791,1.40273387960111,1.33710440523516,1.35821688924206,1.37301634613138,1.41517668865992,1.35379108635911,1.3264617542035,1.33398975130092,1.3914370702937,1.41948833688798,1.56812444652899,1.58212182963554,1.55436702412322,1.5405099866789,1.47514946565347,1.51007385904215,1.54062837475889,1.54286025997774,1.55513273070449,1.70598,1.83239418012047,1.70308500941781,1.69405011693733,1.63771212236142,1.38547920554657,1.38527352396169,1.3583715937993,1.39882431044508,1.40921688471618,1.63649351120991,1.41396005461268,1.37298376072469,1.37851497717608,1.37112451428418,1.41542732972672,1.4252947065184,1.4811674550754,1.5363019214125,1.59376717514264,1.52954932919174,1.45243078958812,1.45372982695923,1.51807127553787,1.5913369587738,1.5798930752247,1.72988081242837,1.75667077447206,1.66621041397575,1.53465005464718,1.46335434421934,1.46315116158392,1.53910594481591,1.56970657136619,1.59512270219132,1.61419164776602,1.71146234293998,1.84933837827053,1.82765787659993,1.83531186496787,1.83410649696848,1.4379425353021,1.43838866153051,1.48862959497217,1.49688943423625,1.59611823682443,1.8102499337019,1.75588152067012,1.76138564008762,1.76156742639009,1.76040702611249,1.55448016474777,1.53625411190286,1.53657081519937,1.53385909953105,1.6051348118493,1.68681412914435,1.71999750746691,1.62900818508423,1.55664673703289,1.4722484734028,1.51292262366723,1.58759728069171,1.60389053140081,1.64679319788587,1.85745354004574,1.86081954692303,1.63141115024811,1.65232967837658,1.65081280100216,1.76164998127546,1.77914424522313,1.77586020252568,1.82579277858154,1.87092327328989,1.86806061353681,1.53970345017485,1.53805699198364,1.57128835676528,1.63367997105812,1.67689937927088,1.72058135188501,1.74202836928754,1.78388083115992,1.79183574914218,1.91037924944046,1.87081625591221,1.7416684989926,1.68718699320761,1.68680577223584,1.66473755354732,1.66528723465549
1.27823005461267,1.20704265620163,1.23740041530662,1.28914202957356,1.33610497138563,1.2971156910663,1.33457438797712,1.25637078378328,1.25701087204647,1.25549938662066,1.2994010425629,1.34742106060002,1.41912312351853,1.4249271341646,1.52101428960194,1.53757340243688,1.53468733437491,1.30748086616821,1.33633683482076,1.33492301041963,1.36742703214276,1.4087520505875,1.44429369876447,1.49281478459772,1.60564993135206,1.63839428712297,1.32041549839933,1.3159274584039,1.33983265744415,1.35999502038852,1.41167518514576,1.44357333407344,1.49818166782774,1.53799430965197,1.65527063990535,1.58974998501626,1.33740646685688,1.33904624506908,1.35042486132112,1.35128493875289,1.40019766605553,1.52760337008401,1.55499998623957,1.59826933151283,1.55857991820329,1.67495989077421,1.41340850950499,1.41363832509935,1.4356160268886,1.44774990096487,1.45440288797104,1.55121834010063,1.64097670298171,1.64341095210756,1.6700631481665,1.59274726501817,1.43602665586922,1.39853817243286,1.41703336492882,1.46793006349261,1.49778330072729,1.71536825313788,1.70486006749076,1.70374469572478,1.69412222370736,1.3892366246832,1.35696876987549,1.38910027994004,1.38232213137899,1.37487053288814,1.41276335532624,1.30751630454398,1.30777794762453,1.33330935668379,1.34092785496761,1.38622605603659,1.44063441464813,1.54633810302446,1.53508427995992,1.5034950513757,1.47357178949867,1.49937405289527,1.54046494361866,1.54169235742723,1.54412902161391,1.64902062138997,1.6998000546129,1.84530989077421,1.68867235521879,1.67715735641905,1.39948936343452,1.3475603980077,1.34910748515854,1.39103788971164,1.40199974951881,1.68016330118019,1.6845766345138,1.38448958555341,1.3822771569175,1.35860354232412,1.38514991331457,1.47793149796128,1.4982877196033,1.52085373289232,1.57572046817364,1.51762422579989,1.49910306093791,1.4569375484895,1.52161030885669,1.56308993264173,1.6457399392452,1.79100992854944,1.72211579125835,1.7247193431946,1.72202779597865,1.47899681273694,1.48049730386586,1.56404322640666,1.56923064986194,1.59334935586406,1.59918753577008,1.69698676428836,1.81778787131901,1.82541077423726,1.77032072347822,1.74875970709919,1.43902811844868,1.49897002787396,1.49512718322978,1.5310900217125,1.60898174402877,1.72974156956019,1.52966010921221,1.60451251803566,1.54130297064711,1.55336817470464,1.7334299453871,1.59875004789059,1.54440420678944,1.5158750983159,1.58795265936599,1.61955836063978,1.71732403297404,1.62800313007599,1.52767806871448,1.47364815985689,1.49857963030193,1.59163744647607,1.60324358415927,1.63542389176686,1.83491445232107,1.83635966663708,1.64607128245052,1.66098173558754,1.68696456274588,1.71220961118137,1.78717475514586,1.80062840350456,1.82162585607095,1.87228644275638,1.87587731860052,1.58633584179462,1.54402587752786,1.569840201119,1.5683253642458,1.66811882202817,1.72740098601031,1.78566760521,1.8231946077141,1.929325396262,1.89273017845729,1.85073368949593,1.72904601693442,1.68842236663137,1.68768393380145,1.64653173760203,1.68593123299541
1.51916991055609,1.20803471031876,1.25786560424143,1.3047254709903,1.31256981984229,1.41333403104927,1.50713989077421,1.25918845083789,1.25986012049201,1.2606584333334,1.34936182178933,1.3489375369897,1.43336266296812,1.43837070618536,1.49168679228144,1.52344966645002,1.48490901411854,1.38539002581449,1.33827176132293,1.32264233725996,1.34642784529372,1.4201344897109,1.42319087086313,1.48639247247704,1.46726610723776,1.62097798479898,1.28969813343282,1.31960281475796,1.3373326483973,1.35802007289625,1.4078368979983,1.50489995883492,1.5368426196481,1.5392483207176,1.66034313966393,1.52681,1.33365052735585,1.33607162862926,1.35451629551336,1.37048020177657,1.38875908001339,1.50193341927097,1.60052182127481,1.61237582513252,1.66781443065845,1.39065604232734,1.3910626257238,1.43716702843601,1.43456567203699,1.4429996623507,1.44256934627498,1.55425167343425,1.63048939623778,1.64234563673385,1.66997730696084,1.61525010697438,1.38997939770371,1.36359936435031,1.40494208080988,1.40835779558703,1.49331663406039,1.70804153486864,1.71366487886316,1.70336819875826,1.70629821278168,1.33679995597491,1.41280268124037,1.42613657009774,1.42516033665391,1.42715957076266,1.47340731401949,1.33122332970129,1.30864397459445,1.33326100265217,1.32776563116634,1.4164254148496,1.4514156253025,1.66976989077421,1.52694479783204,1.52375450439335,1.46971211444179,1.49461412020199,1.51070191757688,1.53027550697757,1.54135722223869,1.6251627060509,1.7892232780484,1.7473866673387,1.69029804972777,1.62888360438958,1.37601807411538,1.36400628005241,1.36929429673246,1.37431017690004,1.35672225552142,1.80765989077421,1.62460000969311,1.43852998638708,1.40357449013191,1.37690269185263,1.43278023225044,1.47166588832348,1.48848358859453,1.50708441782177,1.56251375680687,1.51946015622862,1.50693475244736,1.47451852801023,1.52438615074861,1.52507284801681,1.67787999257172,1.69322002627955,1.76551293613228,1.7692683085558,1.77125698187605,1.46750302313714,1.51753004851607,1.5629282942473,1.56783341395128,1.56598868055022,1.67561995775239,1.71618272535872,1.86994325444277,1.84681687136631,1.84790999138907,1.81345851653337,1.43790391461202,1.43687693735956,1.49508193488913,1.57494971138062,1.57450856008532,1.73912239752367,1.75721183854431,1.75993862516056,1.76066871964257,1.55224907309883,1.81153999793648,1.56563283581683,1.55370916139462,1.56417929466694,1.57936624116026,1.62059169397311,1.76946991329712,1.62543601533093,1.52293442077839,1.50055269151222,1.52048076483074,1.57074921008863,1.6034026746346,1.59977224535249,1.83633401826993,1.84051447982059,1.65200488799074,1.66401576883414,1.70950191635342,1.68904572839976,1.78762728085966,1.81756511242271,1.81900012637458,1.83008365801579,1.91358998356733,1.60079844853666,1.57283674737955,1.5906709810745,1.61367731439781,1.64248959005165,1.77136996111477,1.82089690818927,1.84992864612138,1.90542459376779,1.83529974010877,1.77573858154094,1.7752793968949,1.69115024545415,1.63259744487979,1.68605197598126,1.71791823803104
1.28822666798423,1.20890107130652,1.27416415188789,1.30899234547141,1.38176865146658,1.40293594334594,1.31117005446595,1.25831343653138,1.26872132096669,1.28889803669415,1.31519202650863,1.35791375748037,1.44137544601474,1.44204158352766,1.52229830719509,1.57402993511449,1.47324788255293,1.38315002581438,1.33711165144516,1.33615772375733,1.36207644492503,1.41952743657186,1.45853000696186,1.49411316911384,1.5483935510152,1.548152823639,1.29593859863356,1.30949041731882,1.33506808344806,1.33673125286079,1.42648353717134,1.45582002249509,1.50687731988576,1.54068458200666,1.66037814688262,1.3770800546129,1.30262123079975,1.33932899630559,1.35532718159451,1.35221023945076,1.4820699453871,1.51122650510253,1.6081487333259,1.6290688520239,1.65941999019932,1.54481,1.42304641971984,1.42170674103121,1.43128817155552,1.43795122391292,1.43390872170863,1.51910819231134,1.59951526006701,1.60990850724523,1.61795659068965,1.62033431907312,1.35995284132414,1.39292359597718,1.40355306628185,1.45361018668706,1.52621008258377,1.72139358525319,1.71078822275792,1.70616028547624,1.70431485862395,1.36818457621563,1.38745603147168,1.43886345457468,1.43805439267769,1.44119084404379,1.44662895331958,1.33744841351652,1.30869834164434,1.33913507932821,1.34098094220166,1.40518987910047,1.41279194318102,1.44585793818509,1.50724069176858,1.51215245740849,1.49318573421856,1.49248854844621,1.49877778695588,1.52249635838404,1.56692586603405,1.64694696085919,1.65822002403385,1.84788989077421,1.69117481868821,1.61884429511649,1.38570405691506,1.36216729042665,1.37208882348962,1.38696013718589,1.46426215492102,1.46384731690765,1.74031989077421,1.45793003170347,1.41679503001844,1.41467340960425,1.39545081718949,1.46707735803635,1.46736457795482,1.49657191814744,1.56181390699095,1.52216621839383,1.48744391516664,1.51620498203036,1.52530439721686,1.524749020197,1.61940939671693,1.64663004190354,1.82296989077421,1.79985562357619,1.79921488431885,1.51745999551985,1.56220893018914,1.57559061273534,1.57602796649934,1.58384563663914,1.70706747484805,1.7058541425521,1.87247658777613,1.83386814482709,1.79319389507835,1.80588395397631,1.49640158119504,1.48977072812234,1.49358049268682,1.52396006160913,1.57242170001674,1.68072995920439,1.74994226138114,1.76128576440838,1.76241809007806,1.76213790481689,1.78011783392297,1.52619842879768,1.54605952407051,1.54040962895117,1.63915969191349,1.68746375317005,1.69965316501749,1.62219125992389,1.54232749238128,1.50780277833688,1.50403167541017,1.58016091680826,1.60762686403585,1.60915783060142,1.85057341145147,1.7517800546129,1.66544598988585,1.66614724844695,1.69673265024357,1.75622998149453,1.77652502437833,1.80012568551435,1.79810517066612,1.79862945787458,1.83177000331451,1.61331621246776,1.55194770830094,1.6029793075798,1.62357837087237,1.65488827910589,1.81001998427315,1.8885740343326,1.87736796524657,1.88417140627627,1.84800092705433,1.84579536182254,1.76089199699814,1.69539898000111,1.6561700690161,1.64702594516966,1.70592695225314
1.30769018442195,1.21094248104235,1.30568484060254,1.31053338161606,1.35393125889267,1.48992991776604,1.53231991839527,1.26381571224514,1.27587953691764,1.28567764064029,1.33683661412723,1.35497929980023,1.36710917472179,1.4448882808526,1.47457656608135,1.48699344878071,1.48688471149706,1.32947262974457,1.33330916734632,1.33089018070278,1.37140907283112,1.40716391831228,1.5121681266412,1.51164804252039,1.51673023333913,1.5482599900933,1.3092789529191,1.31373102777119,1.33187546754612,1.32682039410345,1.41473354031214,1.41579620781585,1.54509536393157,1.54379309561868,1.54708455828447,1.64670992950414,1.29346308299192,1.36054881154626,1.35691259232141,1.35715488777757,1.41275999440713,1.5426099935789,1.66886606600369,1.65726776476246,1.65267628239198,1.67510677500765,1.3805835557992,1.41387345524924,1.42845108808561,1.46450760134662,1.47969833769773,1.52294802391466,1.44613251089035,1.47204726933279,1.43668172115728,1.42733322090362,1.35949279995133,1.38928098490426,1.40349037284179,1.43263541801257,1.49655363494438,1.71399433454168,1.71274577220852,1.70579794605999,1.70600853875654,1.38140772925396,1.40048033091546,1.43881198305714,1.436367874638,1.43300927751722,1.63317640034255,1.63269639073006,1.31664647129855,1.34439569379581,1.34289023563211,1.40321967578013,1.40567763688741,1.4618074787233,1.50417485507998,1.50345452365285,1.47133927958556,1.46726048857232,1.49647024707218,1.5169122348916,1.51985433749195,1.63420654295673,1.71994829937934,1.71930163271238,1.69025622562381,1.6202502528809,1.41557034034937,1.36402154521792,1.37299491207996,1.39923758395273,1.4261322841736,1.45889040168909,1.47422493277171,1.5052524905995,1.41778195722462,1.37444976205632,1.41595665789663,1.42691877206915,1.45726838955442,1.48283709204532,1.48122550539014,1.55362641471405,1.49362891211106,1.5316114150084,1.53479821951083,1.54871853409058,1.61852802616391,1.73024780869784,1.73547259464727,1.79735228948786,1.81610759829321,1.82318129615199,1.54028895027625,1.55486548454961,1.57638671861118,1.58740427398404,1.72361689197921,1.72253137284578,1.77294998475058,1.80287244539072,1.80466220692715,1.80203846424338,1.48893135316086,1.44723846843818,1.48150057121605,1.48872892301679,1.61641328570002,1.72469398525717,1.7622490830666,1.76462510916262,1.77639271081694,1.58084009512965,1.76953982437595,1.58350995262509,1.56625622012775,1.56638840556557,1.61325662608637,1.65753010029318,1.70273311854485,1.61999550237528,1.56604999435057,1.49456466384848,1.49314467311637,1.58025834630127,1.61165177192873,1.7210099453871,1.74828,1.83871989077421,1.67325610315563,1.66825412308993,1.69690482482905,1.72873256252937,1.72648043636701,1.79559250901972,1.7943028007717,1.775327536997,1.77944739585555,1.57984467841631,1.59197378819629,1.61492450047913,1.62558940292246,1.64374191611224,1.74060796319376,1.87293941044972,1.86547695268535,1.86643970965931,1.86400761735332,1.85402842997041,1.79429846400485,1.69999489592052,1.68786724776516,1.64856460416036,1.72089481222582
1.30168543014476,1.28991383161108,1.31024378899675,1.31273572233606,1.38137766606807,1.41385378545817,1.39676225026073,1.29326725868226,1.29401172038472,1.29815140580862,1.33192417471984,1.3399030784892,1.36892842556177,1.44618865862534,1.47832592384858,1.48281908655206,1.48600288615901,1.33677450335327,1.33464181402044,1.33433004778544,1.36831643828712,1.38861336979089,1.43214048333319,1.51184593733529,1.53015131753435,1.53925917598997,1.31026669741426,1.31167823617534,1.33490001733407,1.33432331315706,1.41173832360701,1.4416776739045,1.523481054596,1.55503341717695,1.57950568990596,1.59857430247153,1.31479644887634,1.33553295315025,1.3527957922956,1.35618949789377,1.44871213505744,1.57334056624156,1.64439861053386,1.66111144837479,1.6628990101127,1.66545578508342,1.39002479119395,1.3999240104154,1.42564911342134,1.45723237197904,1.48216975821793,1.50690580021982,1.49527759256056,1.48467264620369,1.45708228184431,1.43264983073935,1.37032510160637,1.3896629647679,1.4032244194139,1.41441587084333,1.48962865838879,1.70177512411918,1.70243983383702,1.45025441071153,1.41727847214407,1.39133002931878,1.40309351843435,1.40774386045112,1.41484250626137,1.42066056055339,1.62733394172857,1.62717389293188,1.35055457357147,1.34915562122667,1.34764078561276,1.40405642778444,1.41101092200239,1.48000979306134,1.50200414427354,1.50274943584886,1.47184399236445,1.47283829509635,1.50188476740245,1.51292125820516,1.52152454927761,1.62562781738024,1.68073539219441,1.68453339554522,1.68739332568076,1.6495491775712,1.42329530008796,1.39352070260447,1.3825431830042,1.4127940682737,1.42775388019353,1.46430507177017,1.46843069936285,1.45916070399049,1.41846983769593,1.4126263207152,1.42464348678958,1.44357072096197,1.47124894333076,1.48329897210685,1.48259188380569,1.54085606742297,1.53076849905622,1.53202146801146,1.53671252446081,1.55980386877948,1.62440068885431,1.66591588571099,1.73495888961795,1.79410620108905,1.80360072815288,1.62271090021416,1.57883924741794,1.57848292500229,1.57725472006855,1.58043540098097,1.70183755540821,1.72689333679822,1.80667187976237,1.80441719365846,1.80282441481969,1.8011097643677,1.48978325230652,1.46393712142293,1.47898705798216,1.48032114868763,1.61605909486998,1.72489191592104,1.76256305092134,1.76691554095214,1.77297533911824,1.65428585150353,1.623796404984,1.57210368646381,1.56549069561803,1.56557663117026,1.6115845444602,1.65581464824768,1.67142354190858,1.62917904165294,1.59534554217312,1.55353624278665,1.54417915461695,1.58876970343269,1.61459359349213,1.66166839071224,1.72928239386212,1.7423886972612,1.66849268038323,1.66688515301801,1.68877567590128,1.72886949645896,1.7280194935273,1.79237329031712,1.7909225757416,1.78834509948401,1.78811347495583,1.62785963270348,1.62792757135808,1.62765328832999,1.62728010938946,1.66044648583058,1.73858097044913,1.86118404614482,1.85866287426027,1.85905698259374,1.85967684293419,1.86188330414174,1.79838546240391,1.70415173905891,1.68695742209551,1.67566357026972,1.69097577961756
1.2964091760718,1.25568630643554,1.32287146057994,1.31842302856858,1.40775192737866,1.45427014249108,1.36696997724213,1.29224798035302,1.29387834920251,1.3099021194241,1.32370334130125,1.33048939028143,1.37158628300865,1.44695709225289,1.48492006681799,1.46175646391162,1.52202005541967,1.34778037780847,1.33275637905154,1.31577412810734,1.3648721171993,1.3781263258825,1.36041387849706,1.51216900772304,1.61057492055951,1.61487492055978,1.29115523594917,1.31017453245587,1.33715379372502,1.34888261054011,1.40968490278168,1.45901046874187,1.49613067896668,1.56082350347947,1.637106085181,1.65779089394887,1.28488000468397,1.28496000468404,1.34576368850511,1.33908820648223,1.47954779976624,1.62165466149727,1.62381126399283,1.66228156567147,1.69405674448684,1.67552354824217,1.3797168854591,1.37991699124421,1.42318574506624,1.44742494192933,1.48548398230634,1.57205824998252,1.5706115833158,1.51010685569679,1.47282865627663,1.43986180390811,1.36000500507043,1.38989691421349,1.40221021682869,1.40147665423738,1.48242213534464,1.7036966816347,1.70330621036413,1.41961831786714,1.32512684191456,1.30657251160862,1.40401891413175,1.36833369734844,1.37966041072662,1.38461393177033,1.70612397802176,1.71285552229176,1.34837024710906,1.35004319905339,1.32107884226229,1.40565957643637,1.41548518290406,1.49439161375957,1.49833231500483,1.50269192521643,1.45513751158248,1.47525472270382,1.50665441631706,1.51128244446897,1.52424154682526,1.61213117527472,1.67641141074622,1.62206748978517,1.68636696976839,1.69630504074108,1.42957146337067,1.40741227570963,1.36377505441667,1.42307543401299,1.42925180580033,1.73748434699862,1.71673555003923,1.42969743752932,1.42007461101293,1.37883988950104,1.44086353820451,1.46128164573465,1.48395322283393,1.48376606829349,1.48269999898244,1.60702994328129,1.5325445442533,1.50010326943564,1.54131040298502,1.56442681852568,1.63026290580727,1.63154034213016,1.72805399440817,1.78809714559868,1.81371992519283,1.56990608450125,1.57840080857792,1.5781069265267,1.57562897701133,1.57116930431857,1.66580849963038,1.73439287301138,1.8165368644952,1.81541251069722,1.81834633931705,1.82516379244904,1.49243404772229,1.44164468620129,1.47649714423635,1.47489503399137,1.61582128242783,1.71947797729371,1.78022539245479,1.77368428371298,1.78220912768085,1.81820007632555,1.59580203825287,1.5618137036793,1.56370923832908,1.56459070134676,1.61022838780266,1.65253385759271,1.77344990407879,1.72428787135456,1.72930118554877,1.56478238732236,1.52522204952387,1.59941287232094,1.61645534669712,1.62466068297838,1.70026493281557,1.84308481751343,1.62156254237106,1.66691180243518,1.66576820623115,1.72443107165131,1.72444454426692,1.79359090737883,1.80023949244683,1.83067364745718,1.86664217507935,1.6271881570191,1.62824595985725,1.62715084372085,1.62882645308193,1.67473441169296,1.71224699416662,1.86571565242052,1.86082844042191,1.86460907399717,1.88355157849013,1.87341814923633,1.79929045999813,1.70894444736964,1.60258701613909,1.57527514339833,1.6579673014701
1.32590414314834,1.2825488044304,1.3137890527031,1.31670735855877,1.4096855290372,1.40889854175644,1.47106009672739,1.26791261200283,1.29419620215864,1.37460994409041,1.2923473131851,1.40386012292432,1.35375333046901,1.44787454367937,1.53363470768011,1.5307343525127,1.51457900357391,1.3338257440297,1.33204199052924,1.34872771500301,1.35656140870273,1.39201271253983,1.42363999772974,1.51150592834755,1.64512040229777,1.31623428789435,1.28065447846528,1.31148777450627,1.33703461387204,1.33724422741677,1.39183615935199,1.51380997502893,1.54552123651884,1.56425576997967,1.63900076381256,1.63696129327834,1.33990019405634,1.32264618104426,1.35067973339872,1.39514933594181,1.451562084165,1.51878000443265,1.62597452925343,1.66209332852647,1.66803049523868,1.68917403334983,1.6502699453875,1.382311099991,1.42169658900762,1.44666647009804,1.48529343290792,1.51642219611607,1.46982461358394,1.52841876988218,1.62706324317814,1.60592666684413,1.44768821839579,1.35555500444345,1.40135371415975,1.40001038706886,1.44689080553653,1.70313047473985,1.70495071894327,1.39398186232001,1.30606440189289,1.36735247258467,1.35441373359497,1.35464760235245,1.37721286480525,1.42345511244959,1.4523300546129,1.71545425368475,1.32054017539316,1.34969647202272,1.3476245434653,1.34828826458861,1.4063160677641,1.45467146135274,1.46506128302139,1.46485329116339,1.46867555280353,1.4445004799118,1.46862188099183,1.49555298408764,1.55177270174271,1.61021113014484,1.65568104991955,1.84427989077421,1.68558737660932,1.6940986255064,1.52025062513915,1.40299020120241,1.40050996998265,1.43782665061241,1.45005940750522,1.71069988451056,1.48864341194213,1.42815541373749,1.42311372603908,1.4585971241242,1.42669484716778,1.46335474338642,1.47481380075784,1.49437773487837,1.54756029384615,1.54772029388876,1.52447899244716,1.54237674813282,1.54314626552273,1.54259029054393,1.59576821784434,1.74462403926156,1.75091731599702,1.77920622091779,1.76444420567133,1.65864994838501,1.58818475077484,1.571449149065,1.57419202312651,1.58095412856404,1.71638276709205,1.71382454369433,1.85485169623822,1.8246338710657,1.82448374293927,1.82670162415416,1.48684489189958,1.43322525232743,1.47479249504589,1.4706669480386,1.55168167225428,1.64096005461326,1.75993569622584,1.7602234462058,1.76203284647518,1.7847196125278,1.59212312847275,1.60915376220231,1.5635231810845,1.56586658434504,1.57997010300867,1.62976002802315,1.72079404292267,1.72143552844581,1.77958989875764,1.50690920848399,1.55605427104111,1.58144272545787,1.61788052429675,1.65113911680288,1.83652459080466,1.84595522074851,1.6249222496717,1.66736501239499,1.68372425597051,1.68259718818771,1.75112667442523,1.7515508070897,1.80275818881699,1.82479753606827,1.85398775825151,1.62581553498278,1.65206623734619,1.62488576450156,1.62692379795779,1.67418580801061,1.67925672385316,1.86162148816837,1.86313827006377,1.90262236988994,1.89985637874377,1.85574041566841,1.7316000514278,1.71479328916568,1.6153802730549,1.58606300996792,1.68561606734627
1.24827946963992,1.28523537325299,1.32105004402247,1.31866510571726,1.37167319334034,1.43518103488205,1.43188737458422,1.30311624836547,1.29307862977279,1.29238357369421,1.31124022476662,1.35072312730849,1.3682112096322,1.44915009062744,1.51337606947041,1.50611323394221,1.52784128068327,1.32494531982998,1.31901013683924,1.31365104964795,1.3607675082197,1.37649973085031,1.49545689516186,1.50940396028213,1.63660948704261,1.31164981669332,1.3104720454995,1.3098606754148,1.33605816131625,1.33949543118573,1.37183974345214,1.46384814249289,1.55109861633926,1.56673051050487,1.6376960142234,1.62957420645627,1.33950004483137,1.30965950143133,1.35564142833972,1.39999481697317,1.45954531354383,1.55368005018024,1.60940489301929,1.66063929752771,1.65972677205824,1.71968004588834,1.43564005279528,1.41276730457619,1.42110058327571,1.44250694077771,1.43429754754941,1.49115516512433,1.48437812176085,1.55035187228822,1.7099999453871,1.64100998075194,1.43662427333681,1.43496498763006,1.43278564423131,1.43106149421148,1.47138179640644,1.70984551549484,1.70940719196305,1.3722014820286,1.33281061481093,1.33072721391943,1.33025458207832,1.37458297047129,1.37571141743532,1.4087405869931,1.71612409369657,1.71502182462778,1.39276010704639,1.35386504259542,1.35374188962621,1.35849841000659,1.39941613015042,1.42595988892884,1.46498630728838,1.47912095138936,1.42454192062934,1.44629430084504,1.47875820658464,1.49018462569543,1.51419006541289,1.57641219207186,1.57658352894858,1.70697996810995,1.66324636402727,1.65184767180574,1.49309930890282,1.43618470223011,1.42942530554073,1.46158610349874,1.48397856141307,1.48551820659237,1.48604901934113,1.5050927407817,1.41465023591113,1.39058643977774,1.44508688946866,1.50349703155693,1.50710155973422,1.51233856937629,1.57899047048675,1.61707996176317,1.55328404588342,1.52583641524578,1.54363361275069,1.55945570190886,1.59350255713351,1.64395999819161,1.80739056431167,1.78750130809727,1.78008921931557,1.57852999750456,1.65139002371347,1.55469884683032,1.57502392982744,1.60035290926847,1.71672499311863,1.74572052331779,1.82520434934325,1.82405918874489,1.82491233771534,1.86116006191981,1.50199521134912,1.46843994633057,1.50301592930695,1.53412749753985,1.55320833892109,1.71397995592196,1.71280130979723,1.75944197447944,1.77265790447721,1.79577991194011,1.80974097056637,1.6081015190712,1.56155542442714,1.54616698157421,1.62085005158173,1.62846009900713,1.70948311341833,1.6935439591279,1.53592181521441,1.53733501699477,1.54959178250213,1.59158869801508,1.61954363775661,1.62796811842696,1.84390595445504,1.84188752005695,1.62046990977079,1.66699503435805,1.69339294977979,1.70576845718302,1.71654229235797,1.81152994029938,1.80806908652038,1.80980687398861,1.88148856313485,1.88905082569151,1.59718959209987,1.62191641723763,1.62114903724178,1.67198916645128,1.68810218904704,1.85961810148822,1.86664841580764,1.90592656935231,1.86640420681822,1.83623118019275,1.83855785305173,1.71997722487685,1.63037281597532,1.57300661211293,1.63162997885714
1.31558912215857,1.23896492280335,1.28610834148389,1.3175478328203,1.36139546770364,1.44665406071779,1.53306989077421,1.25282279055692,1.2805809133215,1.31811234777803,1.31170500334017,1.34187746255516,1.38173926684176,1.45056073698387,1.47816179825293,1.51025741772055,1.51228287627846,1.29864516116382,1.29899086581651,1.29921250596737,1.34047650275638,1.37795943635814,1.47086908476635,1.50630719582471,1.59668994186296,1.32339444695822,1.287194264296,1.3010246387867,1.33631620989813,1.34973437312545,1.40250032685013,1.4620881148667,1.57236660951149,1.57088890979329,1.57232172916089,1.62028330834946,1.29789003287751,1.29806968660124,1.36126697998953,1.4233973864292,1.46198610347244,1.63883129257511,1.65839005738674,1.65935719127735,1.66569724840984,1.65292460123473,1.61361524857664,1.42290519665281,1.42063986809333,1.41644338140653,1.46345730748996,1.53366630252236,1.55242991364489,1.57026264025011,1.78628989077421,1.43728010922579,1.62649023972983,1.43189720620571,1.43255275358712,1.43803533529768,1.4569074123041,1.50862570680153,1.34404099759192,1.35388070672469,1.36486737112079,1.27709402967215,1.32024576646128,1.35307380894744,1.36816932174069,1.42666801529934,1.58943997269355,1.59211997269355,1.35767764308558,1.35243496202407,1.33811491508197,1.36449330118308,1.44378998985836,1.48799309723937,1.46624315023575,1.46688774840657,1.42189889176615,1.42153824151575,1.43290933900099,1.48019257434736,1.48077250754351,1.59252479047531,1.57618255818551,1.60627277126176,1.65209568197949,1.63796954949697,1.52292417991728,1.44892000299232,1.49151244428595,1.48974398379249,1.48838148419805,1.73192729947375,1.74977361498323,1.39380610673264,1.39555027585889,1.39525649265155,1.47163807778895,1.42003973744614,1.51734359794906,1.51561995852176,1.59069943512371,1.54355002689378,1.51012736291062,1.55120780479336,1.54174527271184,1.54055453289512,1.60587922012872,1.69137004887997,1.80845673793495,1.79193549652209,1.79285931227608,1.80676575386108,1.53634718333242,1.5540125329147,1.57438016289472,1.59915292369264,1.69535103875156,1.73086120203298,1.86657995685172,1.8214785753973,1.82359978328858,1.6367300546129,1.50400177220949,1.49074948976423,1.52167836750734,1.53721079979598,1.58493278948035,1.74639932124764,1.71593715728785,1.75913830085846,1.77710700539552,1.81412301046744,1.62730010922579,1.80408989077421,1.56308518353755,1.54686926190143,1.59400996521202,1.66212004983494,1.70209337252662,1.68647707010739,1.67147118929636,1.55256064845596,1.56561462006435,1.58999234729895,1.62171780316504,1.62423541956644,1.84253395027343,1.83923739350009,1.63801958868993,1.66683630173448,1.69638426988245,1.6941664302507,1.71423930677009,1.80901808631148,1.80899186020379,1.89991581700766,1.86920417193762,1.88024813044035,1.64375998459192,1.63598408187631,1.63492734373051,1.61977057454808,1.69574103809637,1.87771213716652,1.87262403252129,1.87730935379663,1.8551721024945,1.80873001538636,1.77506886452844,1.72196901545019,1.66350995941085,1.59054534199574,1.67490015182858
1.29908594067361,1.23730713911378,1.31946590631038,1.31777231602726,1.38493774520007,1.4409175241785,1.25968103845425,1.25998586049477,1.26167561033845,1.26248623267649,1.32354270609416,1.34987936429092,1.43493537311087,1.45155697031643,1.50837705345374,1.5096446195024,1.53440572535578,1.24646996816553,1.2858166417781,1.28325011538707,1.3473328468743,1.37186941067968,1.50493301642711,1.50324120136385,1.49967889299668,1.28205249783643,1.29145173416521,1.34301425927325,1.33827602601174,1.32761709225033,1.38498245629849,1.4823037676874,1.59774592414501,1.59988969366207,1.65494007208835,1.6217529427161,1.31041486066684,1.31229998586506,1.36737202463256,1.40862739389703,1.43277875193188,1.62056841176754,1.6391507702644,1.65826201244676,1.65895875685879,1.65684465030038,1.62314469746037,1.37777987754407,1.41194758742305,1.41130065512033,1.45093291062039,1.50819384860956,1.58284596913258,1.58867328419881,1.71624502132204,1.70433490176727,1.60826963931054,1.4339283123548,1.43194042543563,1.44958041702999,1.49816095053572,1.52011544448789,1.38610009898689,1.32611430570593,1.26907511879906,1.26977068733222,1.32260594815339,1.35749400473637,1.36328929288769,1.44002636690706,1.36321766854033,1.36671106547624,1.34745688526734,1.34971128440875,1.3480272660722,1.35116539657474,1.3725826517565,1.46634739687317,1.46684304712635,1.46903727420091,1.44393137450741,1.44558519463166,1.45214910998302,1.48053158199401,1.50325153079391,1.56248523043279,1.57867639321716,1.5896777239839,1.66079719838436,1.66131686239268,1.52890651571441,1.48186624361023,1.48971331113294,1.51967306889495,1.66096000207302,1.73381144050596,1.74591512970295,1.74365380575479,1.39887650067,1.39682630422025,1.42663999096412,1.46304015194098,1.52341188071473,1.50353609675978,1.49606311811361,1.50360089472488,1.50103750199831,1.50321714306751,1.52213104365231,1.54962751341049,1.56764160454875,1.65855995292842,1.79585952922856,1.7930280985579,1.79445533826349,1.52051097851534,1.53688050680702,1.53720570641533,1.57276372378449,1.57933474312143,1.72494665017802,1.72348713358191,1.63380011051814,1.82059724018581,1.84787053406624,1.84725051045124,1.85884300468255,1.5655291786829,1.54118100372086,1.5532662037807,1.58219017756735,1.7197030705396,1.71772410449751,1.75885516240565,1.7807161818695,1.64125010923592,1.79153420112269,1.60178837187555,1.56886148747782,1.54506830036373,1.54583047010191,1.60934330212657,1.68807528730369,1.65066002602098,1.59314828129445,1.56316996167591,1.57822139026523,1.61751633657488,1.62837456132541,1.67871219313587,1.84393057826418,1.85040418426716,1.61986562800481,1.66675226782529,1.66630156089734,1.71618858087726,1.71203540204605,1.75971798782662,1.79669008759861,1.80488477530876,1.78981712336749,1.87430930796565,1.71499997656288,1.63598422767026,1.60761420375868,1.64546163807692,1.67089067960702,1.7759992803971,1.7757120281296,1.7744320155713,1.77501107952991,1.77570542553827,1.77605162442638,1.72091973426526,1.69666845970764,1.62994467694066,1.64864060695275
1.28850495197683,1.23790965058398,1.23889859066049,1.31360592076737,1.36429433843505,1.41897334167628,1.44381978212738,1.24509682530356,1.24604926660516,1.24385655167328,1.29159518089149,1.30193043228251,1.36877003841493,1.45141129102425,1.46063253482588,1.49637217507971,1.5536416495587,1.29173292307477,1.28872490670691,1.26012533864075,1.33378768098512,1.38383486513877,1.51795946282065,1.50261871023045,1.5002544998063,1.58424491303049,1.30254319021115,1.31578735046783,1.33994865213251,1.36379022109052,1.38782825841424,1.54441944250169,1.53331328683601,1.60079676947321,1.61287410097316,1.6130586604301,1.31211987214176,1.32951882708421,1.37354442605672,1.41180029840127,1.51460526514393,1.5574600662337,1.66203736964093,1.65852085894041,1.67132701128394,1.66843529383668,1.48891005519748,1.40809875864018,1.4143487424248,1.41446879831957,1.46193540595118,1.50199978563009,1.41281010921647,1.60356756977328,1.66194694855465,1.65910952188062,1.64559998608358,1.39960923387515,1.42984907316085,1.43232216069224,1.51650718217358,1.54690002801602,1.31004303020754,1.2970560765011,1.25686602908584,1.2676673381097,1.30711974549156,1.33391913512615,1.35681895784092,1.3339144690676,1.5964249607737,1.59620496077363,1.38958022790846,1.37262438035519,1.36132099458586,1.32914786332238,1.37342284044785,1.44463589029811,1.4540122618878,1.52517992341042,1.41190544376267,1.42476172481484,1.46136909939132,1.4817469774303,1.48103181405978,1.55149466149478,1.60381746846301,1.66374508169133,1.66125775713823,1.6060137588247,1.54256811179087,1.46248729083618,1.48640353401369,1.54558706946515,1.70333992876587,1.73565171441016,1.71583587169613,1.74037922685936,1.40426344137102,1.37561173354109,1.37322503274363,1.41429003020683,1.48012842931027,1.49475143844566,1.60306992170135,1.53704732934412,1.54690428518155,1.47352370978325,1.5073116810417,1.53523221626224,1.59207837065017,1.6130095182795,1.78832730463493,1.79081213469236,1.80919829137892,1.54623842158583,1.54478569046024,1.52625505313039,1.57146272582647,1.59384631898025,1.61748995195369,1.74531751836653,1.80787951928206,1.82549201998758,1.83289176457046,1.83629185976058,1.84853744887542,1.51374085758792,1.52710871773885,1.53213743073908,1.5898186183735,1.7504874155618,1.74898707088313,1.75817970881604,1.68915991478312,1.7830855633105,1.75448015843758,1.74785718388796,1.57704891249918,1.58439373717117,1.57575142381482,1.61578569075148,1.65717003133972,1.63635888206026,1.62646021024093,1.57035325597527,1.58495558685977,1.62590096522841,1.63290521039865,1.69317773590491,1.84354538393494,1.91057173757711,1.67147242864836,1.66655362280512,1.64562551174613,1.67834610833747,1.71417238210229,1.78569245905976,1.79244143517519,1.8459238466116,1.85535855629225,1.86840788747072,1.66498326311165,1.63706327531387,1.59215636273225,1.59766061064419,1.6927482975471,1.75461598601882,1.77622020145943,1.8447770098966,1.81728664941606,1.75577891096687,1.74412091936862,1.73893705382811,1.72267345310827,1.63760780923578,1.64959302923566
1.53538012078188,1.25012382038469,1.23913613019301,1.30736940856731,1.35710924556723,1.41860035154309,1.24956054587636,1.24677978813855,1.24969350254083,1.25323369607656,1.30512997550398,1.33598228161465,1.45189265807098,1.45005693736487,1.48775896794388,1.48293034008659,1.3046541650826,1.27921239355306,1.29464673492223,1.30910716097527,1.36971086878504,1.45365998367898,1.4611792469052,1.505122720683,1.5699175694725,1.58437889882017,1.33353222700441,1.30435681558276,1.34240234803379,1.34329198920384,1.37868649972305,1.55460711415022,1.56825148023176,1.60014544980722,1.61286675864559,1.62986282424469,1.34353882710839,1.34528147027629,1.37966625052404,1.41304848117172,1.48938101560249,1.52788998837919,1.65405128464693,1.65584686794477,1.65595836280732,1.68906590771639,1.66557402842206,1.4714500015355,1.41864313505332,1.38185852869454,1.46123685987057,1.54488314310743,1.58331997177825,1.61366684992177,1.69493706713073,1.66692639974137,1.49460289878431,1.42288808483963,1.42613815429739,1.43253025962161,1.49634643704506,1.71588989077421,1.28075415515668,1.28052279233506,1.27175723119804,1.27516932172876,1.30651345423057,1.35311706881324,1.36340559983425,1.46612006909799,1.61451002383978,1.70034833413325,1.44298999992563,1.39144252169297,1.38675268509334,1.34391538854475,1.35179708350921,1.41170157994592,1.41829374073374,1.41179433773957,1.40963913617657,1.44289244399982,1.43229259164554,1.48401449318957,1.49625051362235,1.60820945651327,1.60641732829083,1.7212099453871,1.66898834535041,1.6294399627187,1.53832135994331,1.51966697269023,1.51795370817476,1.56891756496964,1.73019048401784,1.73409184005782,1.80347493234893,1.73719566725253,1.41148893617223,1.35828745368569,1.36020017789055,1.37152700816965,1.471661463354,1.48922622880772,1.49865882187143,1.64748898152812,1.54044514292917,1.48063008921632,1.48133456153395,1.46166104238195,1.54087001929115,1.61024051464812,1.7141199453871,1.642922664103,1.59790661486012,1.58459636461175,1.54624142528099,1.53709286830226,1.5711135502736,1.5831567050446,1.65088393110569,1.74355666649525,1.74483065690697,1.82909041470817,1.83439422414965,1.82700291868771,1.7827851771879,1.5099814460239,1.525241127319,1.54505567303576,1.59101620034971,1.60203000449649,1.76110034834261,1.76144098423402,1.76243014336697,1.78084986446585,1.78006810045812,1.80066608657729,1.57754416154857,1.57604519731267,1.56381802154974,1.6415148226189,1.61058887950129,1.61242426196429,1.61336867343304,1.56604123170926,1.59633863909007,1.64302226400489,1.64510736741071,1.7232300538461,1.84148839421492,1.89923815320114,1.67219929688559,1.66522540146351,1.63459715565746,1.69158143061961,1.69948157102903,1.79095474537187,1.79106065165178,1.84490898238122,1.87039338129231,1.8685215728237,1.67654677356669,1.64030898044374,1.57089926426486,1.61371219956924,1.69971560574628,1.71637803897157,1.77675060207679,1.82447883287451,1.8243705930581,1.81459710361892,1.80677466419552,1.74670797551335,1.74024859361632,1.68680995025994,1.62372393815374
1.48473955882331,1.31226573956194,1.28086945463915,1.30213419290813,1.3108243538859,1.31258061794852,1.26295822685559,1.24902835782055,1.25017970555935,1.26976638168863,1.28293427851954,1.31718382621069,1.44527028919292,1.44516831233948,1.44440183730175,1.49257563281386,1.31594614687197,1.27944042504972,1.30316291126583,1.3121895827699,1.3572999475753,1.41405002095031,1.47546894888973,1.50829088774328,1.5954578809527,1.59489047053358,1.28637833423763,1.34471439500618,1.34476018275623,1.34321603965659,1.37266459952967,1.50649000080025,1.59643983805697,1.59842070329926,1.6227315451106,1.63771008050743,1.32950475855027,1.38802378743885,1.38909649539124,1.38823266603462,1.478600282197,1.63325991894206,1.63414693794552,1.64383599766526,1.70677003377537,1.64725887206402,1.67881464435509,1.42351678055468,1.42178584227233,1.42367976356041,1.43367129836027,1.53165685738119,1.67228621942882,1.62317687743878,1.59547200385783,1.63431000345314,1.51278710121569,1.42156274341071,1.42226537103594,1.45018598394545,1.4899962092287,1.53491,1.27800213224716,1.27908967553564,1.2792618475205,1.28143030566026,1.2849250974384,1.37588669016239,1.37722671438112,1.42743993090201,1.71666620473319,1.71459674356409,1.71253763918266,1.39197050491792,1.3784072118002,1.37763072076339,1.37716704674929,1.43518845586172,1.43810310127773,1.44111616540408,1.40397602205586,1.42809348096728,1.46066001090096,1.48606114570837,1.5253692758761,1.53967999605126,1.58626578969699,1.89716658474732,1.67089263642568,1.6072661798652,1.57522012638221,1.52939919753964,1.575203644882,1.59155334272119,1.7280330814119,1.76881002310308,1.80669493234882,1.74245051364902,1.4194840157197,1.39183842721269,1.35134821418046,1.38528472050199,1.40280999734051,1.47905790195205,1.50006538618465,1.62074412219621,1.5247532802794,1.48057290840007,1.48108365312696,1.49620607419574,1.50914012731265,1.58439991439781,1.59958024017662,1.61642468524688,1.58956341547822,1.57149508103034,1.52453826692803,1.53656363916136,1.5718893164349,1.62984998835044,1.63599509906689,1.76197430819901,1.86468991737122,1.83053629409313,1.83626236540699,1.79567249225124,1.79281448074911,1.52318224739721,1.52450672278773,1.54533627835761,1.57133218542759,1.6411269483922,1.76364818204665,1.76113749867146,1.79041378594649,1.77822885811402,1.78183329547153,1.71133,1.56939879550296,1.5205008641912,1.5767006575125,1.59833923845915,1.61298967489468,1.61274778777471,1.56923547096413,1.58719162384151,1.62193964480788,1.63212898584535,1.64650345265074,1.67539966202909,1.81822166119633,1.86440026022325,1.86882919963216,1.66291296294246,1.63804443015345,1.6758203230153,1.69070136330511,1.69602637516951,1.7843448757083,1.84463606634764,1.87877943832548,1.87580608866036,1.63186663117744,1.64452296284608,1.64805719372557,1.5994418065312,1.73484387898072,1.74567135707816,1.77885847873587,1.81791830924956,1.85003320192708,1.82794317331204,1.78189579775715,1.74674112836958,1.73874581368671,1.71271601061346,1.71108046244377
1.50341782896662,1.30238184901517,1.26074099871022,1.29784578520781,1.2961161198653,1.31374926758012,1.19789999659981,1.25228521221368,1.25232311014456,1.2674800415473,1.32386117883473,1.31891406108729,1.44512388696353,1.44224427485946,1.44030782685884,1.52302002237218,1.27769990874211,1.31658602620497,1.31781068364751,1.33448016904449,1.38116429638775,1.3859684439953,1.48973299131071,1.51099023001492,1.55955993951319,1.37964078993629,1.28473166757091,1.33091012648346,1.34823639745623,1.36542834997395,1.43249740886081,1.44361003487221,1.56046715164504,1.55953218586013,1.49187992790043,1.53288666471837,1.34633968031717,1.35167177450032,1.38930706243282,1.42015953437889,1.46384893907207,1.51877551106548,1.59148256908215,1.62029523167154,1.64109463000934,1.67583648893249,1.68669665926477,1.40822990602086,1.40756377682064,1.39817686022612,1.38145911028534,1.49752691421065,1.6644537911091,1.63495299528263,1.62625408376569,1.69996989959413,1.43018968035896,1.37479992563801,1.41852587132987,1.43809791392485,1.47496217121093,1.70394989077421,1.25007535442915,1.27841118994663,1.28787729449266,1.2931785954174,1.32084556817507,1.32209579996753,1.38452576453933,1.532956988978,1.60232436237101,1.71338443224372,1.71044009079483,1.39407671551166,1.35524221422759,1.35261006773083,1.36229257284342,1.41332742678201,1.43999600193169,1.43992794804495,1.39873161545782,1.42189162455946,1.4874130821566,1.48758800472439,1.51013316046303,1.58231598346578,1.62370996547002,1.90055325141399,1.71838161736802,1.72359137359316,1.52287998799762,1.59341911826662,1.58274668035605,1.60338136242529,1.608962797121,1.72552568012669,1.72439687812125,1.43946509071526,1.42600314734276,1.34351685052796,1.3436325494535,1.39867682378334,1.44109366040105,1.46947673849722,1.62685788224735,1.63883885520804,1.69031991952285,1.46508357363503,1.47039474864311,1.4375062560568,1.4679248133476,1.53202040794494,1.59721365425941,1.6329261343927,1.7282698901664,1.5850384893889,1.52561769895448,1.57287495409108,1.5723076768158,1.57201748792599,1.6522189016887,1.68438147718953,1.82028857912673,1.8201943413477,1.82567318975986,1.79905966046942,1.51440109881518,1.52093697883883,1.52250125945025,1.52369760108529,1.60061981582939,1.61857332077705,1.75654309363367,1.75650881032433,1.75606003562748,1.78079626313457,1.77780367846884,1.60199003724447,1.56718473784534,1.49499913283878,1.56869583365176,1.58921610359909,1.69446991799393,1.61264986701241,1.57282323631124,1.56649160064532,1.61878354997218,1.62754304187639,1.65459238927639,1.70461390279775,1.87014749872601,1.85689284605564,1.80420849869035,1.6597333721735,1.64659534905821,1.67441138508254,1.69970297782318,1.69918742350535,1.77819749781194,1.81500281481602,1.87555008376426,1.87378965109835,1.86890199806182,1.64461035917409,1.57843534964458,1.57594199694545,1.70810970693031,1.74224666692569,1.78159333356133,1.87339407661106,1.85349140403038,1.86449293825797,1.76050137483388,1.74794109967935,1.71488406064855,1.70282031825687,1.67870231582385
1.50464126709022,1.3025876005479,1.27347295171537,1.29882322866653,1.29789469947378,1.27952989613203,1.23292453547132,1.24164457837852,1.25331046803434,1.26935726021117,1.31255134836864,1.32815176889472,1.44148373393831,1.44084845366556,1.37862652881452,1.34569702657258,1.29733320042655,1.31756263018547,1.31803037955823,1.34345225451856,1.37650889005222,1.40130374112512,1.4667630810808,1.51221876343675,1.51045688513437,1.36087889998977,1.32058932966905,1.34246781326335,1.35002601516297,1.36013635928636,1.42967557882258,1.48876724183538,1.55939243834265,1.55910726642185,1.55205130853516,1.54220805487386,1.34985101533521,1.35146432729788,1.38892998745174,1.4299772040355,1.45201441987779,1.52354664094486,1.589395091497,1.61026513648711,1.66694514203318,1.67191544843766,1.44811186157961,1.40742137574258,1.40575902871016,1.40156544453791,1.45186283188648,1.51223821847093,1.64073388988275,1.63872086218391,1.63736619331749,1.66920781302582,1.43229668748667,1.403947679144,1.41452911236752,1.43473984916041,1.47321705537117,1.4903472819849,1.27639743935295,1.27800979098536,1.28389045009457,1.29066907269064,1.31899759720517,1.33126864953838,1.39224163330857,1.5430878144336,1.63395741466321,1.70573896638377,1.70662801323158,1.40058773659175,1.39427981930389,1.36157785724642,1.36790026888378,1.42215363252319,1.44091389438137,1.44011846537295,1.40769111903211,1.42076289549795,1.48474266869059,1.48880237727979,1.50540714859674,1.5749191540921,1.64798003712583,1.75714467444453,1.71964710183864,1.71879694445995,1.58598602466582,1.60152878599223,1.61348490789085,1.62428791889969,1.63348318497834,1.72090111990668,1.72082623222336,1.44734971310187,1.43287921548595,1.36324474530761,1.38348308706789,1.40255508941758,1.41282215721991,1.46505746418462,1.60507170781685,1.61501894074838,1.63302847491388,1.47735643047047,1.47494476280085,1.45459086421143,1.46817796792175,1.51361065576928,1.62460270832575,1.65014144359576,1.65953313231395,1.61649881921785,1.54423740898551,1.5567264629232,1.56202545854249,1.58522088287645,1.65184848324521,1.72236717554634,1.80657274596123,1.80256112540487,1.80457117870944,1.7896480385298,1.51610500708748,1.51883482344162,1.52170659770998,1.52366470282462,1.60017301999148,1.63724352520375,1.75483336983488,1.75347480702075,1.76649798622719,1.78105292087534,1.78058872727178,1.57833943453785,1.55048952380615,1.53294488026547,1.55005225840016,1.60003119771052,1.63252082458787,1.61367765875867,1.60389630061922,1.59326717412821,1.61266301857668,1.61793497397861,1.66076915549992,1.7378916392431,1.81157952845618,1.8152235247684,1.81976125732067,1.65587400290083,1.65485172188814,1.66970895091054,1.70033432963739,1.73212248954108,1.76801072521091,1.81256492055045,1.86569502976379,1.86909937172321,1.71468367516345,1.64823218292872,1.64135265329588,1.61616116912674,1.71439219036762,1.74064804290768,1.78254599867949,1.84092401789549,1.84413820929776,1.80832453729672,1.75610984877008,1.75196964138217,1.75286690979943,1.70219885550718,1.69855082750603
1.51436582319534,1.30440931178999,1.25317601451387,1.29973362425377,1.3039997484702,1.25753868721204,1.22453854777012,1.22383351680394,1.25407872575898,1.27319572268665,1.30211683368408,1.34364788276819,1.44258751039957,1.44137718867401,1.30234549931639,1.3162065389105,1.27720996664315,1.31762202240305,1.31783348605371,1.36399508930252,1.37046873742606,1.4212536117122,1.44365533570784,1.51458924261084,1.5301605247846,1.33701998937202,1.30539861969646,1.35391292244286,1.35044826426988,1.35286147462627,1.42681338726727,1.53316998688267,1.57569279426336,1.57881599812279,1.6228773022595,1.6425669712181,1.34178487523926,1.35157452946276,1.38963483876729,1.44355464720625,1.44400172693667,1.52859320575077,1.58461662220332,1.60016172438224,1.66930161395856,1.68032705368052,1.36443373826961,1.37554454163445,1.38732801696112,1.40081760446597,1.52274714586258,1.52374036577674,1.64407242703762,1.63938554081451,1.63741473697406,1.74025514985549,1.43550167823667,1.37739261416646,1.41133671455207,1.42645244999433,1.46933323402944,1.54058995254875,1.27415495211637,1.27756221126013,1.28109615742831,1.28613012790178,1.3190416705351,1.34963393199215,1.3967560005198,1.55052423677181,1.70244448399661,1.70419551944584,1.70537685559821,1.41080430312326,1.42656926885047,1.31928999336527,1.38102383107946,1.46719034902548,1.44199795539821,1.44354236874012,1.3996842485953,1.41708842664037,1.48282432303281,1.48979463543779,1.50231935513919,1.56788604143624,1.7631799453871,1.87575989929979,1.72940302102442,1.7194030356228,1.52992003458834,1.64625733078206,1.64667306511334,1.64504682241252,1.64401167115579,1.73840043852397,1.77331994584089,1.45692602956523,1.43765017886399,1.34672143923298,1.40315003346105,1.40756834361106,1.3913976071073,1.46438953542208,1.58541940300901,1.58493289011246,1.69076325141399,1.47796325675687,1.47615872415698,1.43322889738164,1.46942881117908,1.49680735063071,1.70301997910599,1.66230434820495,1.73405825141399,1.73517158474732,1.53133842693475,1.55090591228107,1.55985308068533,1.6067603561037,1.65172784722409,1.7695098629826,1.81434285025549,1.80113917111661,1.78192128444944,1.77728051319843,1.51440676026799,1.51633085480035,1.5165840737538,1.51506366685516,1.59941980954572,1.65157085899911,1.75449617614247,1.75112526517987,1.78384234985441,1.78919471593099,1.78573298517503,1.52110088937342,1.52254041759948,1.49225867323883,1.49270852819346,1.61069280014983,1.67162546181564,1.61630075305545,1.61589328336141,1.57883153906856,1.60554353395381,1.60985978584861,1.66099544113586,1.7451699453871,1.82037727281804,1.82011105798443,1.85416401994818,1.65306468171652,1.62592569927531,1.66555017831565,1.69733000935698,1.74082979463496,1.76009408164822,1.78186663825137,1.84838476855776,1.87858404825109,1.67645696715209,1.65725005931748,1.66014004194274,1.58549196198852,1.7149905100945,1.71399644436782,1.78067240136254,1.8476231495802,1.84676914593787,1.77862499814863,1.75592764737843,1.76628073194708,1.77382491732962,1.70181112542421,1.73552106190261
1.51245349632957,1.46741000059055,1.2985818078666,1.29959338015039,1.29861057231257,1.32381226548943,1.22128679852475,1.22346640123669,1.25492909788393,1.25357639724569,1.29465171834589,1.31792279738483,1.42902865460026,1.4429045870631,1.44394996946039,1.29921340258737,1.23749000115415,1.3077450371001,1.31699119669591,1.34863194040806,1.34597167666662,1.39628131029579,1.45277369495451,1.51618280611615,1.55530665122899,1.55649331789609,1.28492283214149,1.28548854769575,1.34713698190288,1.3541120865354,1.42687521848259,1.4709700395307,1.55711106040371,1.58104263748665,1.65143862976129,1.62259549972201,1.3254899835897,1.37729304748153,1.39182714130769,1.41737209741421,1.42639204460097,1.54182166262477,1.50340198340026,1.56827036123343,1.58404503212156,1.5064500546129,1.32971542177965,1.34337860902602,1.35602017899578,1.37008048405505,1.43307,1.53622090596923,1.58856996979611,1.66014381287009,1.74774688019398,1.73906798327357,1.38227695443348,1.40080272680028,1.41038953519573,1.42774406665709,1.49459497289574,1.30768018904052,1.29141825201511,1.27645661376747,1.24311741968971,1.32588354230665,1.27899658344066,1.32530996768996,1.39951982460613,1.54887166276453,1.81015989077421,1.70345564224159,1.70517317110329,1.40819983689805,1.37591036365136,1.36163193956528,1.37696530382515,1.47621979914917,1.43771009066664,1.41667383473345,1.42324420226413,1.43309818130205,1.49285394450109,1.49117012022904,1.49514518280565,1.57442915016071,1.6911700546129,1.82702993686153,1.74432283091107,1.53692010924049,1.7241699453871,1.66127604251614,1.66542993486146,1.65123199758896,1.63832905382715,1.66205904053778,1.72060208016129,1.72873780069349,1.44247477659226,1.34368103376497,1.35322163236475,1.32549352146275,1.3803882652554,1.46286318393711,1.4886600725587,1.61234061315877,1.69233658474732,1.48757425002433,1.47923996367881,1.46034722633303,1.46686755555077,1.49443390993824,1.61938949647371,1.6486003540084,1.55175261154718,1.54600751585702,1.51508121604849,1.54337976899282,1.55774025927928,1.59688695810296,1.63753936172192,1.75182998587829,1.79156029557998,1.78833898659302,1.78546871886246,1.48311869636831,1.46036718599841,1.50835577008848,1.50302545500007,1.49847721386124,1.55106345942671,1.64518003791784,1.75294130261731,1.74979503292974,1.78320492361633,1.78172875522971,1.72091004183373,1.57447001425279,1.52387157031985,1.49389415993782,1.55647000416427,1.60122685990846,1.64500716752738,1.61963158114034,1.59266844260392,1.5679978080728,1.60327537862025,1.62668325456338,1.66218462628397,1.68280517101611,1.82204102069892,1.86370007888314,1.6953411902069,1.65020712289279,1.63534323809102,1.63743994990442,1.68998603211677,1.68946513787403,1.75297688280339,1.80280695238473,1.84275791068323,1.85071760690331,1.80495994538711,1.65572492311135,1.654956830957,1.59762963196627,1.65610995114614,1.67364993684382,1.77748743741747,1.84167976956729,1.83451556501401,1.80457705581402,1.77796283492417,1.77012876852872,1.71689564674779,1.69823681905739,1.70000204785692
1.55600171375161,1.52328998223938,1.27428160750514,1.30177845126885,1.31258533081425,1.39797993698529,1.24474766209823,1.22327420285427,1.25725858046869,1.26086668578368,1.29282589967921,1.34895836555369,1.44899043199762,1.4470167121123,1.44670027058115,1.29232582589362,1.28601217070737,1.23296005386171,1.3161627904455,1.33336857543646,1.37634421412386,1.38114462561221,1.43582185103939,1.51706078310669,1.52778057303675,1.3506200546129,1.28456854434698,1.32405697847368,1.34343936814166,1.34137982570462,1.37989998755479,1.57991025355499,1.5864599341683,1.58240951151958,1.65975133535579,1.36282731764166,1.36660355240956,1.36831557361527,1.39485211167618,1.41869301735038,1.42704406405035,1.49660400094327,1.53143367458369,1.54493813934687,1.51769065819365,1.6488899453871,1.28541995456555,1.33331794416715,1.34709585436606,1.36379233185597,1.37550774456344,1.59931705926312,1.6361433907541,1.6687428743896,1.75077971361248,1.36199060082397,1.35634944318664,1.39177481217534,1.40613202990433,1.43126104560025,1.30201018912996,1.33337975239559,1.27251968991882,1.27399564943693,1.25307332491203,1.27169219488667,1.32668009488756,1.40911445907638,1.40455389349246,1.4543800546129,1.4976500546129,1.61192663971125,1.39773502049065,1.40057949135953,1.32944081758428,1.33987580308796,1.41170753537387,1.43311289204538,1.4349634000303,1.39564912928427,1.39818933418252,1.43237795804379,1.48296965190945,1.49188219011353,1.5080812667544,1.61636999189532,1.85217682885128,1.53778674850235,1.75261724900334,1.86542676666729,1.83109903188491,1.7386,1.66283477174048,1.67407017828079,1.6817669495049,1.62915394937631,1.66480210042321,1.66475537833084,1.44628123237932,1.37507452547042,1.37536138312172,1.32406670956167,1.38974847793486,1.46009191861455,1.46118998205419,1.63877631861851,1.53339005975177,1.52107510750399,1.50090601236092,1.52599881888124,1.48901695876539,1.50863055625894,1.71989090253686,1.72092505013045,1.75726768548251,1.75671415473267,1.50963757992335,1.55457402044566,1.55583028803765,1.56623142638273,1.60033006458224,1.75079000431064,1.78283094622667,1.78511702866648,1.78460440721048,1.49601144186254,1.45403420348566,1.45916660287689,1.49360241152093,1.4968826241262,1.57614655520514,1.73373459611757,1.73225782245119,1.74406255613751,1.75390806497466,1.70639285223532,1.68614028206536,1.72753850473058,1.525505136138,1.49552760314547,1.49708442403746,1.59964104872585,1.6414442633477,1.6218466715881,1.62252813992704,1.58590416052492,1.60198346702033,1.66109664925296,1.66554031893269,1.67092729206844,1.82154290437883,1.82417301126233,1.67696888909735,1.64819196317355,1.60583138930602,1.66135797584141,1.66592254860106,1.72155890233096,1.74529480452857,1.79331652319048,1.88822000720293,1.83480151388534,1.6453309049866,1.64454254115523,1.60758375239897,1.61571386876671,1.65511881376812,1.7294779793821,1.77635129843756,1.82766539896373,1.83483250762179,1.80652944207156,1.77816523883527,1.77244657570108,1.73079010038505,1.70399733425605,1.65994990499605
1.52733918250795,1.49156993611343,1.30754008226514,1.30497722111322,1.31935905443884,1.34960789707203,1.22258591064249,1.22875929038756,1.25799040915553,1.27764166661479,1.32676147644068,1.34715169888685,1.42769738669534,1.45404775837575,1.48868182118583,1.31077130082493,1.31053852857071,1.31892541927062,1.31724603790872,1.33609188073637,1.3730302085924,1.40430449465171,1.46188000324975,1.5165019540739,1.5131601097024,1.52597620062813,1.3366796748411,1.32710768956796,1.34290021424351,1.38864010061183,1.42649499700436,1.51640673339792,1.57114213313797,1.5773444182862,1.57267452820617,1.37824675317584,1.36545537304307,1.40123355830775,1.39761066024225,1.43312095227567,1.43374951597148,1.5005907964433,1.58913170405131,1.58939124348156,1.60046004653206,1.7024099752054,1.32242012168049,1.27766999872054,1.33235971642045,1.30126637804256,1.39279241127211,1.62409288477538,1.68308457863342,1.67492454379279,1.38882005461772,1.30856156733652,1.32928065788705,1.39719727310242,1.40170736156361,1.43349773828205,1.4928899155813,1.51889475760317,1.27342494918604,1.27282707314615,1.27384028836183,1.28356433763164,1.29174168158526,1.33791005445968,1.40311526177457,1.5383299453871,1.5745160124643,1.61007330637792,1.41510868770921,1.40266219870521,1.35976810332694,1.33996186948122,1.4266303720848,1.52588996802962,1.43255315229843,1.4279239807979,1.37764991260042,1.45020189634662,1.4647757373695,1.49279346797778,1.50506182020949,1.55181193849358,1.83635300731004,1.53913341516901,1.75512844597105,1.85527254812239,1.8349314970765,1.78608810175258,1.68816518685295,1.68738861240823,1.68707665312241,1.66720522582663,1.63510268366619,1.61063475479951,1.44875859672656,1.44206940722396,1.32426778768397,1.3545459350129,1.37394831137385,1.45542281030462,1.5272699453871,1.60524867884008,1.69351989077421,1.51768841636136,1.48737185320537,1.44372987535308,1.52345282275132,1.55542091300548,1.69973904946457,1.72017595447809,1.73984059975512,1.77630740892423,1.5373705111486,1.54125094204602,1.54085827692296,1.54491030094148,1.58228122680328,1.64342953296445,1.76140333578304,1.77476452518438,1.80685831698415,1.80629689571267,1.50161004771816,1.47226847246616,1.48865663823942,1.48366552285385,1.53684945314632,1.73695767323191,1.7346265650919,1.73798103036037,1.74055634242214,1.68146072389982,1.72307822778355,1.53725107159271,1.52813119192837,1.5098513061166,1.5173145707995,1.6300241358365,1.61701079191136,1.61014797290822,1.60098976330094,1.56382882517876,1.58753918065142,1.71302570320665,1.69572078576058,1.69980982339463,1.83135232019003,1.84217441292429,1.80529833944677,1.64797631146497,1.63505111318914,1.63446749308911,1.66795062718577,1.73135955179155,1.74020600840687,1.77904158177938,1.84362815314605,1.80818906438675,1.69354482650811,1.64444997082669,1.61228106095108,1.61348576743054,1.6526139428529,1.75606784493072,1.77814256691735,1.84000920630826,1.79882830371357,1.79389818341299,1.79611846638894,1.77358711202746,1.72741048525266,1.78274996110345,1.71669216681928
1.5441176548053,1.26715279316842,1.29272993951608,1.30677090465015,1.3461014123371,1.34717975994273,1.26365613763405,1.27011697443909,1.25900735877865,1.25998848456809,1.31164203875821,1.40650296261467,1.43042418748826,1.45734785454565,1.47416078985047,1.49488058873833,1.28222073742934,1.30626706688992,1.31850901625842,1.33290001950182,1.3605986226921,1.41938456669701,1.49190658734154,1.5181915088824,1.5789399637304,1.53584493683581,1.295487718783,1.2955938730319,1.34330429380957,1.36018258784687,1.42947499700444,1.5439533175073,1.56831207201257,1.59030614730255,1.66937994327431,1.61764988249731,1.42549786178901,1.38687525841853,1.39733498203633,1.40366841173817,1.46963045696837,1.50202949373753,1.57821645148843,1.5890188930609,1.65402170257476,1.66489018165293,1.58779396969821,1.353869142435,1.36524353402458,1.37680194005278,1.31471291129141,1.57496,1.66873324526038,1.67712380401097,1.68136039620914,1.36047002833231,1.30719582827527,1.39566380651769,1.39887998983523,1.43069960535499,1.44035966574535,1.50687514235146,1.26888874010643,1.27038400180849,1.27022038052065,1.27048051149983,1.30481517033149,1.39897307018455,1.40393348805475,1.4366631369522,1.57721491677448,1.73527825141399,1.40290833884395,1.40397931331824,1.36870151388207,1.38111103682689,1.43317389327798,1.49087158599901,1.41542833699777,1.40293491963937,1.34624207526645,1.42329994228321,1.48777580236296,1.49348234923423,1.53753204391756,1.53729398860006,1.55109764267746,1.90606562882647,1.89761811190718,1.88514557671158,1.884706766729,1.80262188388494,1.75618787915246,1.70286718404493,1.68445498174141,1.64687906852494,1.63098209068404,1.60193195659049,1.45228723962644,1.38916005095587,1.34306587446504,1.30970033281892,1.37736822670962,1.44878445801186,1.44148465181978,1.63155503246555,1.5357000546129,1.4523476812885,1.46954224670944,1.47427866102765,1.53754345491696,1.53667060134667,1.67687326148632,1.71820498572876,1.72038766430973,1.55839999067023,1.51578719770512,1.51420624579127,1.53731237841471,1.54960933204961,1.56319612598604,1.65373046634913,1.76906954858915,1.77142610073349,1.78298890943999,1.81645075778788,1.7518099453871,1.4713549692089,1.49148443814834,1.49852886961216,1.51994182250702,1.62236000361237,1.72054766052545,1.72824474644655,1.73533567718604,1.68521646825285,1.67218343024354,1.53451281158662,1.5317808801049,1.52620271657876,1.55646006251942,1.61686539884024,1.62146972057808,1.60147891680772,1.59025739708796,1.56785721784174,1.59030960523541,1.68868697718811,1.69323277781712,1.77152998519775,1.84081418360506,1.88595871284532,1.8041716727799,1.64896365487464,1.62661802047833,1.64503166348539,1.65806831961845,1.72423570187052,1.73625462039063,1.76417042170974,1.82639430006008,1.86783012203904,1.70715518366926,1.6438790961101,1.60948967370053,1.59510530309664,1.64382369000006,1.73140629282945,1.78254013704337,1.78935619080961,1.80313050241719,1.81169270121867,1.81560588154323,1.77745847738121,1.77614098941243,1.70239008047695,1.67521566030828
1.54683394720618,1.26770719147643,1.30065282547188,1.30948326431956,1.33567464178247,1.34469171468724,1.28762417055465,1.24452395458132,1.25983030061795,1.27181009261425,1.30609613865539,1.42105550767325,1.45418384514693,1.46299241148007,1.48895437347091,1.51261228186328,1.27433111094372,1.32322999642988,1.32206016936408,1.35036453904081,1.37137420250013,1.38201222549975,1.4985875163327,1.51858286701065,1.52703525774317,1.2892474901024,1.31059078429796,1.28518113831609,1.34438089956613,1.34629208836853,1.37477002220064,1.54375996029256,1.61397375798108,1.59915545984401,1.60145859872062,1.65461003459726,1.41038571508329,1.39944284420014,1.39810588960707,1.40966279446246,1.45831181910724,1.50023360111696,1.51654000493204,1.58889399679536,1.62741969350404,1.66495738255065,1.60287603030282,1.39449006215454,1.37537682653495,1.35692530379884,1.30693530275706,1.36765002329673,1.69564548164549,1.68738181845075,1.70268887517976,1.41893,1.29931764429975,1.3131489491158,1.3784626717662,1.41574228013281,1.45325977527535,1.43676323450809,1.28057007451271,1.2694761503631,1.24551261692913,1.27086698902645,1.29427052106009,1.40659193398717,1.40549119768299,1.44442695423196,1.56525907005916,1.73695158474732,1.5252499453871,1.41223339323327,1.39263518537622,1.38887436013166,1.44517814957937,1.48747825266552,1.40880791084111,1.35117200047091,1.33026893488293,1.35813155389654,1.42119006306425,1.49856960485873,1.51505458165178,1.54795883873595,1.54945945739805,1.96004998430842,1.92068828733727,1.8815639781747,1.86505069028434,1.84155999758714,1.76913212091193,1.72882690494657,1.67289780075896,1.64891915527404,1.62597926131771,1.61691335649186,1.45704526135497,1.3537386443268,1.3741720655043,1.31150147606432,1.42320824662667,1.4503224229671,1.45277131603762,1.5414200546129,1.76082989077421,1.44529057700628,1.46808032131499,1.50963374170305,1.51311093475206,1.57103597747505,1.66196256495007,1.71632326437941,1.71557230007237,1.58893006315657,1.53974481430844,1.51354237514463,1.53570388244695,1.54804685897331,1.57738350573205,1.59229001004497,1.64068001359327,1.71443815278205,1.78336212750177,1.79762132090144,1.51605005467245,1.47128120936157,1.49341879079749,1.54404146678128,1.53648186210322,1.67524997835647,1.68901227358663,1.71387566295904,1.70105003622779,1.69161585591605,1.74526998966728,1.5881255577892,1.56935283984421,1.57037505365629,1.59895701527143,1.62754038789492,1.57744727518473,1.58445019612358,1.59462126668514,1.56745736153994,1.58388736850782,1.64915672045308,1.68276579413921,1.83068000185606,1.76701968645024,1.87167117711647,1.77844496256292,1.64710548131619,1.61080014565939,1.62186841028617,1.6820203775122,1.73281550798089,1.73250104404968,1.7304303607383,1.80986026832343,1.86703027372021,1.66087473158202,1.64180228240495,1.60404683212974,1.63647754715002,1.66190845902355,1.73844355968196,1.78542503417674,1.84088331365449,1.83540079507791,1.83375155329086,1.78543346911322,1.78138239547322,1.73871141342147,1.7974499482278,1.73178762507137
