0.321174480163681,0.322185486682325,0.526282688372468,0.345985773344797,0.342570770352211,0.341882472313268,0.341812179805451,0.341167996162963,0.340900206169137,0.339801779075953,0.338928507888054,0.346690648738111,0.48642454000947,0.3765380469475,0.376275483298658,0.376287167824692,0.376323058014963,0.376025111471594,0.376009310370017,0.375874067506283,0.376101484070228,0.376558960245098,0.367661055671581,0.365961065665322,0.364047634560493,0.348843620622917,0.341548981084571,0.340305844934899,0.333132646453716,0.332153381647195,0.330874690075659,0.330540255119011,0.329529308456612,0.331660136206553,0.33338743712411,0.333658346908902,0.334261600189593,0.334173383522338,0.332856217907957,0.339083541551957,0.349802400270384,0.349799796753599,0.349758327441649,0.349127157260392,0.348146120114118,0.452459360519695,0.410757382114127,0.339440101663366,0.339173201117919,0.33848790692391,0.337521204006662,0.337144265889158,0.336863056214617,0.335759478987794,0.334662357457102,0.335609858129317,0.336351688732539,0.335672449431512,0.335045442347202,0.334324739720656,0.333226737477026,0.332876429275668,0.331986185746766,0.331348108645798,0.33091571820384,0.334184228465922,0.335157204797843,0.335569174822886,0.335260746926229,0.33790433928039,0.343770547435934,0.341684682427373,0.339611995967149,0.344023351480961,0.346055535093944,0.346250735464062,0.345664499182077,0.347543251195274,0.490819777275361,0.414271885054871,0.361448689381899,0.4274699695143,0.464160476756158,0.359605215417541,0.359397151649398,0.359131272471433,0.359270350261334,0.358296349461439,0.357927274120365,0.357451262223916,0.357238440636849,0.366313230349147,0.375612531608665,0.376069086268263,0.376801161747203,0.376629273334688,0.376842563504706,0.376437209661151,0.376182025930191,0.46820944171236,0.679190171467152,0.441934540503867,0.349012497962329,0.347486851195768,0.313353369180842,0.365298612579137,0.406341296041113,0.406508932667608,0.406660903450591,0.40602602695312,0.405298466145787,0.414856772930565,0.358634053210243,0.43297516035968,0.43168556389287,0.454645116653944,0.377415166203898,0.377722130903499,0.378210341214519,0.458580120283564,0.482146643723178,0.482737408577527,0.613528579807442,0.469000600473192,0.459609890660682,0.469731965146648,0.485086990593938,0.469870608633519,0.462337862337718,0.509477856185959,0.714283389479915,0.461677393022107,0.437346864644256,0.42544668686657,0.40449660436689,0.406370833389408,0.408631151050581,0.408932010018796,0.409413189170455,0.409434535435557,0.40990135307353,0.426571972368417,0.432652946190993,0.432924481020797,0.434165816677752,0.434005683580362,0.427916704155936,0.4206069447218,0.390947030274359,0.403269891112797,0.416021362550002,0.417896736726317,0.460596667013404,0.46089930156288,0.493226619341033,0.493196525283688,0.507795971563857,0.493195156714836,0.494866789577799,0.474932893959998,0.453308973016316,0.438307180261505,0.421897124112353,0.420793730424561,0.384059086008777,0.439732428746778,0.454142174003584
0.320779911619035,0.321591141834176,0.321656978840765,0.338878997379342,0.34086220729928,0.341265013248161,0.341879077869974,0.341121422750286,0.34089586093013,0.340027630500802,0.339620765621773,0.337996618267319,0.336311958993488,0.376298180340312,0.376254246484328,0.376189751627875,0.376414125667978,0.376029453694263,0.376123616408947,0.375810873811644,0.375965559415076,0.376619346105522,0.368086108199947,0.358945424541247,0.340223431171538,0.339902132809021,0.340065736882571,0.339065202526912,0.333089715743437,0.332064931212307,0.330833070035645,0.329759655492715,0.326827299224814,0.329671513071149,0.330785109029136,0.331845263712363,0.333465479183943,0.332885002929307,0.333273406837197,0.336831463133742,0.349951183728645,0.34953108239043,0.349300305742488,0.349047920737212,0.652965220120418,0.600656830008806,0.652756254563808,0.338732460700061,0.338560611058525,0.337933832159983,0.337144042364095,0.336363074896995,0.335325750818258,0.334816916335211,0.334348332426171,0.334672417736804,0.335272272068877,0.33496433110124,0.334927836275333,0.334055598209385,0.333693132159034,0.332779869613032,0.332465470672532,0.332066269040945,0.332843350628016,0.333691572442496,0.334489896864064,0.335038469363289,0.335492779205983,0.335444550908673,0.334148668940101,0.338212891677715,0.340289464781469,0.342538504719549,0.346385263522647,0.345621262854672,0.344496634200679,0.344998581178555,0.345219829926632,0.393659994629266,0.712030500091529,0.711837445841563,0.711583365558622,0.358914051129692,0.358947039206465,0.358554277905869,0.358718709347312,0.357654707801226,0.357098794802429,0.356641359720568,0.356450403738674,0.371509369496059,0.376268420127027,0.376543380688492,0.37722098785475,0.37699029563754,0.377130184662066,0.376660770621228,0.376383133095273,0.495163710914641,0.680106052639,0.423251372047467,0.349377861481032,0.345777643299805,0.312020220311992,0.313202537349944,0.312717467896655,0.363119520632518,0.407292285005635,0.370068810156477,0.333922512644988,0.421687591943133,0.435260546328739,0.434286334238676,0.433845927880723,0.468954262342432,0.509687590144676,0.442126696290444,0.378168194407788,0.468907548765208,0.481574968598084,0.48220669540214,0.445575703782734,0.446311629359882,0.447710696322958,0.458345908333081,0.468580032138677,0.466353345644616,0.464121994673219,0.458889442718085,0.452894879167302,0.435998347392827,0.423747570124127,0.415628127657552,0.404369941534538,0.406416029835049,0.408733160257177,0.408530179977768,0.409206106305413,0.40905157314868,0.409083919249285,0.425333419865243,0.432442613551735,0.432613989249266,0.433189821606724,0.433917028094744,0.421441163354837,0.419549128063398,0.390977303616026,0.392997898695382,0.395455417418742,0.408622293216024,0.44813715583235,0.452673169265986,0.490205661595832,0.490470224552377,0.490424187225386,0.491736338403467,0.528327318637161,0.527620460831189,0.659958548808727,0.455813632989316,0.421322856249773,0.434766664263562,0.454524527385855,0.45469839317869,0.45502360935305
0.321537255054829,0.321492276030683,0.321439679010532,0.336937464824414,0.340247488424993,0.340511556227988,0.34117562992977,0.340606279278389,0.34033315031893,0.339843386444481,0.33900220615362,0.338116968943319,0.336096142047045,0.376088726042008,0.375846417561939,0.375828589305313,0.375961772618658,0.375606650025353,0.37540116575682,0.375161093505334,0.374959631334675,0.426016214521287,0.808948509292756,0.35126490381477,0.340362319638412,0.33943100523363,0.339103272840514,0.33740180504778,0.332852642393909,0.332346670704577,0.331993296777982,0.330339441385995,0.329622126027737,0.329324958928234,0.329053670329366,0.329401199041053,0.328687577013957,0.330494701384199,0.332053987933274,0.335213022407117,0.349587788120463,0.349228026122104,0.348677211354568,0.348819684627215,0.551000929207113,0.575497342238536,0.641278316156531,0.338312641131659,0.338314364532128,0.337588367830614,0.337009184808136,0.335864853123488,0.3343688932841,0.333870221135956,0.332300177346129,0.333511934627872,0.334184851778853,0.33404159111895,0.334254194232081,0.333356532502873,0.333175492327622,0.332289183522746,0.332346025463487,0.331950308677834,0.332139836294226,0.333305025847576,0.3348965197153,0.334431759509704,0.334953669631842,0.334552976247867,0.334267596938948,0.336635037871574,0.339241742064125,0.338087900156918,0.337152631894264,0.336903736985792,0.337033028543916,0.336936897201623,0.337445284349975,0.372882634461971,0.71200352079184,0.711857456014455,0.711690385567602,0.358247785717287,0.357715844155087,0.35805840210584,0.358933486582,0.356558065838167,0.355193868255499,0.355604817105583,0.507183853826231,0.376603079473634,0.376336659829841,0.376636782998853,0.377242256893109,0.376932017306888,0.376870418300521,0.422939102270716,0.682831412627858,0.682926352775636,0.682101649255188,0.405701679770841,0.348712798977849,0.343892784431923,0.341857893651364,0.314595280508665,0.31387182840601,0.314292450576975,0.313986052662469,0.314216897350153,0.312645723180099,0.427215888849868,0.43552378301384,0.435071481583707,0.51122545321654,0.49140540782215,0.510509757837867,0.502997526693718,0.500867095451638,0.500703652614182,0.500545764608993,0.491485133794498,0.445012720648093,0.445511340095789,0.445049128075236,0.451299791655021,0.453223851428374,0.459423493716041,0.466473197560761,0.447565499371484,0.406350062318898,0.405695712507856,0.405323111239912,0.404583063775935,0.404182844220807,0.401768004849912,0.398733143659868,0.407007942494629,0.408851062773425,0.40832447007458,0.408056723111812,0.423446544904706,0.432087417247751,0.432229034470812,0.442781697853827,0.434626851340935,0.415324204323728,0.4171603399213,0.39155545825195,0.392636781661522,0.393260108993179,0.373717980012788,0.341353148655791,0.394926053643424,0.488386575549856,0.386442985228883,0.327807089708097,0.40995180728012,0.526582525308818,0.527038841873026,0.659917408670359,0.476741014526828,0.480376709919542,0.443919395631742,0.45448955749142,0.454753419596694,0.455264104845791
0.321308656857139,0.321318550637764,0.320904485579249,0.334752384704273,0.339315464650228,0.339445208148353,0.339315795223942,0.339823789702834,0.340037494984358,0.33992275533432,0.339995369801031,0.339312496169868,0.498092674403623,0.402025713820541,0.374758919884778,0.375303296938214,0.375323520993702,0.374969661100063,0.373941877814684,0.374160579565909,0.523274061934202,0.548377146895792,0.810694749935135,0.344480089093791,0.338665731141678,0.338282978084544,0.33810856989062,0.335592349257721,0.333389964109931,0.331903012520075,0.330907515841041,0.32999589571518,0.32924901091205,0.328874543842348,0.328599599570211,0.328098363420851,0.326813946323876,0.328139130942423,0.327558430226009,0.334161147021701,0.344708260020251,0.344472081519894,0.343725393276198,0.34296513258581,0.34164942278018,0.339380287663333,0.338180503975335,0.3379572255996,0.337869307424341,0.337045957514591,0.336165502374158,0.335619394253858,0.334792160877328,0.333897351517273,0.332719441109257,0.332797312270848,0.332292584328661,0.332683329183292,0.332350078679712,0.331873618444451,0.330454952137705,0.330753864210342,0.330122903148253,0.331172021674549,0.33265502163534,0.332399989155679,0.332397019935086,0.332934306385238,0.333238673468495,0.33327690176408,0.334257761936941,0.335402875608778,0.337043278628733,0.336617312845829,0.337024298995056,0.336611313565143,0.337059720277662,0.336377603274716,0.335701249865162,0.341500758604154,0.346034887313051,0.344460985952696,0.344546890119148,0.350306081906788,0.352195926706216,0.353728082905787,0.354736942873157,0.35402605082341,0.353371974232816,0.354686155949817,0.505520526385791,0.376624239655158,0.376189841253448,0.376454764475938,0.376405650790061,0.376603526730546,0.376406562471521,0.450761979770097,0.685398885600145,0.683620813427992,0.682745935854436,0.389214252056283,0.31871788830113,0.326394191706794,0.317983827028005,0.316423393113233,0.315114336160372,0.314965023321115,0.314312779258406,0.316386754408689,0.524478851536375,0.431558899319371,0.435787303621222,0.435386156784182,0.435305369360137,0.479782697858664,0.510761397332326,0.505418181274704,0.436276868424664,0.519601983024548,0.66609119128668,0.494371786325032,0.429990708603122,0.471018759943136,0.486311677591787,0.449189860085061,0.448120367299278,0.44596754651084,0.443949757405544,0.434230849965485,0.40837298670621,0.405303363512831,0.404712143552167,0.404271080794023,0.403486231275698,0.402005962479282,0.399495429037434,0.404801672533909,0.406090375160517,0.407158540087124,0.407869534564778,0.420681506060742,0.669959241755094,0.432613689834194,0.433673624223949,0.435233512128272,0.438380319134684,0.437743487222646,0.477438457948416,0.3809384394437,0.345215847890918,0.344501022776141,0.343506521128151,0.34384698546865,0.32763717272535,0.327394880883938,0.328314932275069,0.38211528991498,0.432703430854207,0.472238667911328,0.527305179035729,0.473394105919425,0.469985236256711,0.404952200685684,0.333808540299162,0.402157232972544,0.454621430544101
0.321971166342865,0.321509505610456,0.321153723826693,0.332114902044629,0.338220990911569,0.338765320026106,0.339316584262691,0.339290048347463,0.339804694320134,0.339901212269023,0.340247758745241,0.339841369392065,0.497755325269013,0.417175422111608,0.443084991134202,0.441488059872082,0.551880082464438,0.408032110655566,0.37114619650988,0.372916238063334,0.810231290456546,0.574023892572136,0.613036813343327,0.340647386821362,0.337479133020557,0.336963099284572,0.33616072696893,0.334737957165854,0.330498523714245,0.331119101416456,0.330534553610742,0.329606166816247,0.328517415629473,0.328423515570417,0.327910175345673,0.327676292300072,0.327041457631481,0.328042098497092,0.328628330280608,0.333521650508677,0.3338777939039,0.334223504587763,0.334364842139475,0.335681653141721,0.337606065502026,0.337867217799222,0.337905676520838,0.337583011934156,0.33703340684889,0.336641666349837,0.335877606011333,0.335767469353812,0.335506793624816,0.334336754188911,0.333021043209176,0.33279099336482,0.332113826244874,0.332148907428119,0.331600746792867,0.331393528695369,0.330567896488781,0.330188071869752,0.329058426497125,0.329987003281958,0.330375855559377,0.331193518212494,0.332340177327187,0.331570025132291,0.33071933472425,0.33085273174252,0.329168626053046,0.330916090456258,0.331239055701512,0.333859420548604,0.336437550914984,0.335757896844171,0.336535261819304,0.335921709262285,0.335625615529813,0.336126601674975,0.337519513125915,0.342335021293634,0.346793809237352,0.347751509571682,0.346168952493506,0.35344640059361,0.353557028401813,0.351624392204768,0.348401969733224,0.348032001127491,0.34777152416963,0.361658499138631,0.652587660095066,0.420808521386883,0.375512164685151,0.433094614438556,0.675886111608826,0.553316414129549,0.666516847849394,0.676634577827562,0.684190591270683,0.373588039661528,0.336492000195505,0.332753981025933,0.318886363238625,0.317784469414706,0.316925816436836,0.31591056172047,0.31459128383157,0.319529491982751,0.321772465498515,0.324306460533915,0.326311077044676,0.408883288761834,0.434431340626593,0.468201177557317,0.511262053912354,0.508193313312391,0.667711724346597,0.547370056096401,0.660053573891733,0.495663495297781,0.498815803878645,0.497315630371873,0.498067902585822,0.448071507089016,0.446839688990732,0.440454544494161,0.432419317661676,0.426796082306575,0.405262089728984,0.402899032011922,0.400476339463043,0.396668042836904,0.394887437798658,0.397463271250005,0.399544582173403,0.40272414931191,0.404123830895891,0.405883405939826,0.408240048684926,0.417447161624785,0.416725790369788,0.423649650415461,0.432626999391161,0.42962985661021,0.406582475793618,0.437144729628652,0.47700490417566,0.372124295858274,0.345455197261881,0.34476097808207,0.344133323489356,0.344094570172662,0.423181125443879,0.32586421822899,0.320997661997034,0.321671785643361,0.322250344323425,0.401851455253625,0.352564618050503,0.454831032013083,0.474232480293114,0.377130402226316,0.334370577830552,0.374341142599981,0.420172443403424
0.322044213430472,0.321602445883727,0.32136591866415,0.328611802137455,0.337488720859333,0.338185402157756,0.338139330160528,0.338342037793472,0.755836115970254,0.339587627335305,0.339537230497323,0.339935959542351,0.340612209376339,0.387325955235377,0.45206575223102,0.440263208421382,0.439596521084197,0.421181686724738,0.553194984579169,0.367124704667997,0.361390426769968,0.351137717721645,0.336938284553195,0.33645777862728,0.335946016444073,0.335851649687851,0.335771258272196,0.333727660618773,0.332244933236443,0.330862754487936,0.329310619229705,0.329261025369935,0.328866014044612,0.328286382236279,0.32774267490204,0.327491232102929,0.327143390109552,0.328443736385053,0.330060607637028,0.332472208755001,0.334496773822185,0.334441755779393,0.335066090252616,0.335250416850076,0.335680182211921,0.33684207944271,0.338049282091156,0.337340337941283,0.337017734404239,0.336500997367855,0.33617215306086,0.335905342764506,0.336038241795471,0.334756752366125,0.333859962588388,0.333084531758059,0.332363868574671,0.332085588108125,0.331516595002467,0.33147248625074,0.330993712805551,0.330356214525879,0.329489090703683,0.329356460138069,0.328876418149299,0.329716714285651,0.33024552943851,0.330352619361197,0.330569516157838,0.330280286401243,0.330121480609742,0.330485139172459,0.330651855196024,0.331025076969036,0.331265479779513,0.333824247976324,0.335946287004655,0.335304184693865,0.335370033693371,0.335708024190601,0.337507773044287,0.338417166028334,0.347417295353834,0.347998729062578,0.352821410534112,0.352186345942279,0.352891254034224,0.350768682238195,0.348538211867883,0.348045926283243,0.347752513074,0.358483968760562,0.652414238588719,0.447718124929042,0.48890523357907,0.489022823072082,0.674970268836255,0.525565866965604,0.413011105040454,0.434791542792555,0.348784918818707,0.348912310594159,0.337600091386748,0.335540564698265,0.319454761814504,0.318810103218018,0.318954189230232,0.31703082796326,0.314674981014254,0.321861176103796,0.3225196944814,0.322954194192407,0.322486370137504,0.386741241581192,0.433434358270626,0.457805491518121,0.441718882642359,0.480863355125533,0.669024411223108,0.448152683583524,0.39452195429045,0.446649186082208,0.492702950027418,0.495132191774689,0.504264196549497,0.436394665233049,0.404073953577884,0.419927256398878,0.403260633862122,0.415445638453797,0.39798522428353,0.400551380492095,0.395495388057735,0.394668314416505,0.393164018828506,0.391344385361062,0.390060563154939,0.389936638676533,0.389790953557772,0.398521292384944,0.410020447997436,0.415170463032194,0.418509764638689,0.418045203476315,0.40993059165841,0.427155960405613,0.433634227646284,0.435724318712633,0.347952846960048,0.363920704368041,0.346006654896004,0.344924118563871,0.344251145644481,0.344199613415104,0.424673779934008,0.324082481350594,0.321375249687219,0.32168974512494,0.444658262845718,0.445306461125782,0.445698998454723,0.445796215840865,0.334305097554242,0.330031493098599,0.326228953688118,0.32196690793313,0.298798507530605
0.321854398047344,0.321476221167312,0.320660302837507,0.325472087752099,0.331040386615414,0.330801083918605,0.331339233196183,0.337548503642414,0.338875615550321,0.339432752087033,0.339545085315599,0.339816427792116,0.339542622033292,0.339536464601171,0.340062898430775,0.386405752938569,0.439447447811272,0.396789420012318,0.36120337868706,0.365213237097979,0.598710534892841,0.345432024109024,0.337131207149315,0.336437141090498,0.335490921188718,0.334870189108463,0.333383348746796,0.332867848988105,0.331611299875904,0.330906299517771,0.330083871386458,0.329378987921105,0.328754358528903,0.328234733432017,0.328010357532388,0.327474619412368,0.327537477141587,0.328544245571651,0.330437329964687,0.332216068164286,0.334739633028712,0.334446266002558,0.335160910400781,0.334998539129819,0.335075064102189,0.336161563264463,0.337209076867974,0.336836764351884,0.33680500453625,0.336295256313217,0.335901797982599,0.335809232452502,0.336000570764253,0.334967002261662,0.33438034532433,0.333478441391413,0.332870742272758,0.332431552744819,0.332019837407865,0.332053961387367,0.332505162105581,0.330773971327614,0.329147480557858,0.329057589218889,0.328683125852535,0.328493184361387,0.328467528249649,0.329047408367316,0.329793074563565,0.329698342375551,0.329704784717169,0.329771294715012,0.329800596304038,0.328325699851108,0.325126069186447,0.33167470030176,0.334369684755427,0.334000698456727,0.333908168987662,0.33420578643794,0.333940144965568,0.335347791650206,0.347391420706052,0.347629139334779,0.349095224466835,0.350692193376421,0.352092548274747,0.350346434331995,0.348696887787218,0.348063427413035,0.347588272345334,0.347482706125639,0.3472302013551,0.394396367188346,0.489479250003193,0.489230716189381,0.490199561447164,0.501085952413322,0.503824110762639,0.451334902228661,0.349709546911393,0.349231749218326,0.348962555664195,0.341437841007106,0.319234538887931,0.318940037612847,0.318738918247027,0.320019271642738,0.323120287187943,0.323144708358261,0.323536863482597,0.323233337573618,0.32233037753928,0.364602879231072,0.535554409709987,0.473694070781195,0.432208622163116,0.463895906159709,0.382252243725153,0.382979316070336,0.382860077502902,0.382978136921928,0.382347853289704,0.387673829544118,0.388649413646785,0.396758482106147,0.404218261975356,0.454480545060873,0.51385383435674,0.512086930505598,0.509573352079582,0.50747026494963,0.540362180855059,0.392984899345639,0.392167287852152,0.391130368512152,0.390318074773999,0.390117024894439,0.390109551474651,0.39360452325277,0.412596430755027,0.413460884872978,0.417155033313351,0.417421855276669,0.416566680952359,0.423658351929762,0.418270313705623,0.43533028421418,0.458177431801943,0.376756092715015,0.345805419174695,0.344650258676614,0.343964348603276,0.344142729418982,0.425062432325143,0.322893795008959,0.321637847204429,0.32155514128997,0.445272917917514,0.445537873316548,0.44610127192645,0.445815911791987,0.326713438494472,0.326989510450053,0.326705722498477,0.317821293812214,0.298976518607989
0.322315057667263,0.321775304785328,0.321185395588368,0.322235936596945,0.320956332583993,0.329763119036582,0.333009086242723,0.334872478722409,0.340044748571275,0.339684797230169,0.340275535361842,0.340262232211674,0.339752425465979,0.339378929707369,0.337006425421732,0.343970785764852,0.345825822101559,0.343803181087616,0.342861087307099,0.342357889160094,0.341892401747656,0.341194956556551,0.337808079248827,0.336758949254159,0.335643923878765,0.334685922617669,0.333592919362654,0.33260222055779,0.331533790938111,0.330918252157585,0.330290924862638,0.329275313031509,0.328469072056351,0.327796041558951,0.327398991699648,0.326811961412571,0.326755946329953,0.327572755321422,0.33047511053628,0.331367372660503,0.333663991588734,0.333237086673839,0.334922128528885,0.334244067448798,0.335109526334444,0.335168666428671,0.335354524506229,0.335853986223586,0.336783830772435,0.335805817993387,0.335571303769405,0.335232784481215,0.335321881503504,0.334543293551655,0.33423912950633,0.333420748319821,0.333105473266248,0.332632016720015,0.332597581095178,0.332147863196055,0.331813690129536,0.331066722592467,0.330294058821388,0.329054755826317,0.327690496394408,0.327164891352232,0.326739854569161,0.327452276261752,0.329259294101942,0.328940152653803,0.33007429743561,0.329171453308897,0.32830396863752,0.3275044039138,0.325947661626849,0.327664704583156,0.325713158857249,0.332688309723794,0.333379786364228,0.332888098468638,0.332370040342661,0.332800860487227,0.333153840484434,0.345451637435804,0.34922332259255,0.349940482738278,0.350354937794879,0.349672774414007,0.348342960465031,0.347573629225157,0.34763336305871,0.347600301672738,0.347545242977019,0.346010874223025,0.341771074889803,0.39015840547894,0.496502192357492,0.49831301123855,0.504751358964806,0.467409879234078,0.349930294711165,0.349436536093456,0.349202357122514,0.344516012877959,0.318078038716954,0.322361881021682,0.669055424561431,0.326905634640263,0.324774070965552,0.324169228009377,0.324248542528626,0.324287864014755,0.324561641740255,0.325135119876963,0.325106971742147,0.487130637451934,0.697790545353903,0.488220548858397,0.383981214643418,0.383864965127094,0.38391158192959,0.383749657000355,0.382861298646426,0.387016037002498,0.388200351169384,0.392445304994577,0.701384927603262,0.476061217106672,0.5129330298766,0.512654016217314,0.522919342704007,0.505280649118361,0.502973885329532,0.392090223900417,0.391367339986076,0.390828815048499,0.389858870366998,0.390127151400709,0.390382653329988,0.390734163467206,0.39130006156423,0.396559706318687,0.652154297734166,0.435128308683553,0.435685494939533,0.426512410065768,0.430959733320077,0.433632572328723,0.489156948802837,0.390780029807901,0.346283707258075,0.34389697169395,0.414036617864224,0.339297243275535,0.295768409791265,0.305160107868952,0.320831238737148,0.321241578253007,0.445246083019102,0.445460296302792,0.445604066430518,0.445547684676932,0.504328095346509,0.31831405892389,0.311684635429545,0.311215806545132,0.301028403983224
0.323217778858321,0.322173502351377,0.321407383376892,0.321433078668233,0.32075064515515,0.326887485414437,0.333708056384354,0.333721636210286,0.33328082573526,0.339281841668107,0.340738749324299,0.34131690945489,0.340203890093367,0.340845460192307,0.340552115127297,0.342344815977701,0.342270844265998,0.342896958463851,0.343090431210114,0.342407485307129,0.34219954972955,0.340678132726883,0.338857157863744,0.337347115999532,0.336244715499759,0.334777508915558,0.333458926611451,0.332593882537621,0.331592598311807,0.331110639227532,0.330823498608115,0.329121481875084,0.328180380412461,0.327103608804731,0.32766738791351,0.325599571142844,0.324141184402701,0.324599029477167,0.323046055033582,0.329464686956478,0.329442552549196,0.330526852667142,0.329616525546666,0.332469795061505,0.334307579865159,0.334188496307479,0.334061340536804,0.334627583712099,0.334626968848828,0.334770320113513,0.334566427059255,0.334428327521787,0.334259305484208,0.333829944584363,0.333276839742725,0.333011929246617,0.332583230775937,0.332504536658537,0.332340039884707,0.332208045859968,0.331943487667981,0.331448301602745,0.330967725345697,0.329155466081762,0.327066955439932,0.325745386625951,0.324273839849865,0.325075050147515,0.324794921719006,0.327064593678477,0.329311438736954,0.328596346034522,0.329076274994324,0.327534150222671,0.326825444445544,0.327482734351227,0.328949454938005,0.330442748427633,0.331214040281794,0.331431639162012,0.330511947853385,0.332436637976372,0.333482408622007,0.343325177198168,0.349802890673343,0.346739511505148,0.336793816127178,0.336627309678344,0.336394452344823,0.345860682381278,0.3486378132775,0.347842082790628,0.348300655270441,0.345586412412324,0.342642608657327,0.34199902835501,0.340823148757229,0.389133571684077,0.506925401360387,0.484315192435556,0.510120976795354,0.389585112332149,0.349140739930596,0.386708554816439,0.550800153829058,0.336731326496672,0.336788555384274,0.329198421063839,0.324795769384818,0.324461846469559,0.324761554907886,0.32496258774993,0.326114475241193,0.325724260748745,0.325662436271861,0.499387768967404,0.846677339029413,0.513487143410185,0.384764141975489,0.384595530169736,0.384701782359254,0.384648583933883,0.384078617144149,0.386179109264092,0.386930308058269,0.388537112902743,0.389347274204572,0.390284430186218,0.376997317751387,0.377015708317186,0.369812392173165,0.371082276482372,0.371110835056037,0.372699357829876,0.373506945640691,0.382116809926862,0.389721504304391,0.381210232646372,0.369168388812244,0.368452755286676,0.368070115120997,0.385237776809056,0.646015806279869,0.434576948138562,0.434109088262484,0.422215231945096,0.417146395932663,0.4163753935319,0.41561407882774,0.408427208009981,0.406886406480844,0.340879664621152,0.296729178266362,0.297043055843457,0.29717911317779,0.297750400387764,0.298348605887427,0.298497331570735,0.29898563168019,0.350637615662553,0.445347200045092,0.445340919802826,0.505873698550985,0.314624428633041,0.312163594222858,0.311274643435011,0.311911341308017
0.322981553702351,0.322362837364853,0.32180867620289,0.321474381228687,0.321201740313345,0.323320858977008,0.333546791597346,0.333694613372944,0.334896385735342,0.337550495857846,0.343829220354121,0.343593866996637,0.343997358934665,0.342902423899491,0.342414858429289,0.34249058640536,0.34211315249628,0.342284941604653,0.342115748559393,0.342026127389949,0.342240219805606,0.340807262496629,0.340192647703003,0.337651379202435,0.336249775084314,0.334586955213812,0.333545977609078,0.332527249294666,0.332087674607781,0.330917131353926,0.330376220089826,0.328045328487718,0.325505274468698,0.32526905067813,0.323195843003645,0.324283113852932,0.324171161349472,0.323884945315427,0.323503023967336,0.327279017735202,0.329512291135459,0.329546550351457,0.330171947477294,0.331837141544439,0.333273817659743,0.332964253022995,0.332862556870389,0.333740797374596,0.33458488616069,0.333882298691179,0.333860328401501,0.333453160367975,0.333395970563293,0.333065640979358,0.33296049200687,0.332625147539509,0.332388374789659,0.332363667583129,0.332292237018391,0.332332800524778,0.332297110067236,0.331738560272454,0.330855642322368,0.329455462313066,0.326867863487567,0.324509629522109,0.32335671000675,0.323392770897826,0.323857313842889,0.324511790429211,0.325132340295171,0.326447710650676,0.327152273955697,0.326780576354678,0.32691269402038,0.326672530757692,0.326238919426106,0.3290464943092,0.330862326877582,0.331281394809007,0.331329739247154,0.332783112232363,0.333825163609662,0.340647121480993,0.350220098505484,0.34073546659785,0.337079161207086,0.336836422261839,0.337062455118487,0.342937196240449,0.346766516288755,0.346763644536928,0.346946105477059,0.345404637468773,0.344059008105814,0.34247614798815,0.341050545764513,0.340943714556148,0.340712535888833,0.387879013140484,0.511729872629517,0.409995499425542,0.45488123140017,0.408554704743766,0.551553967748983,0.33694298062389,0.337594577083745,0.331234198593238,0.324805981264409,0.324282637372987,0.323647152397346,0.324812616587283,0.326208384956364,0.326020937053649,0.326151630271781,0.51015463252766,0.904052641852983,0.539935850924334,0.384790152995773,0.385119847838175,0.385988957886346,0.385541743943627,0.384752181669585,0.387258957355176,0.38807324491895,0.389225592467022,0.389948187749374,0.390773795670135,0.378107335341495,0.377339059878891,0.371982887757468,0.372209978929859,0.372464055704509,0.373452385892791,0.374198263893773,0.375318654435618,0.375665340444273,0.37624078244973,0.370340369091363,0.368385367251782,0.367999032662181,0.374032976936996,0.386446941892125,0.404850144816453,0.429955590249769,0.420049948504033,0.417757696300982,0.391107372868006,0.343503624296506,0.410262379196894,0.418771164854143,0.338375419993865,0.297114754594104,0.297176044413814,0.297425579047886,0.29772331266114,0.297585298857344,0.298257960557667,0.298730611489415,0.297683841259224,0.292029485436316,0.354417230868287,0.505885091352399,0.311951270880689,0.30672665171449,0.31014376750405,0.312698283205093
0.322838424089104,0.322546271682646,0.321823458017619,0.321422212720976,0.32074381876219,0.321150810997258,0.319990477372517,0.328007380627942,0.336655513913084,0.336643529932089,0.346423399929514,0.345547751498947,0.345203127860696,0.344698228612123,0.342905944563838,0.342937289249004,0.341947192614048,0.342004668818436,0.341361397450941,0.341303462396104,0.341102894865647,0.340316131203484,0.340540373047901,0.336382031992401,0.335214912172227,0.333924965494727,0.332880353446585,0.332084080382825,0.331403455723135,0.330300481876684,0.329629569389681,0.327349632651951,0.325174984574961,0.324777974939777,0.324197492409721,0.323626521222471,0.323032808731445,0.323185710625056,0.323342480552634,0.32508554919031,0.329660867266464,0.328449143847756,0.329324521076902,0.327694303957842,0.321225082445571,0.331437183753121,0.332941026925457,0.332865895877695,0.332309002868963,0.33249686204661,0.332270730477085,0.332318680587441,0.332207845773889,0.332220986131107,0.332054818385998,0.332258976856986,0.332369287446275,0.332355456137269,0.332392378803205,0.332586295749186,0.333011203313147,0.332322228492744,0.331650059321758,0.331196384775804,0.322426651452371,0.322618760937478,0.321472298313293,0.321496351530905,0.322152334309615,0.322774357639849,0.324827547602084,0.325253405201874,0.325035177790833,0.325501843223044,0.325686758532137,0.325953435968567,0.326303989329178,0.328492587235039,0.330651549352523,0.331381021118392,0.332612840010045,0.333483620691153,0.334694130412259,0.337443842437,0.337456429694373,0.337503560867885,0.33722979418629,0.336670875666372,0.337787460463182,0.339676313745836,0.344962176322589,0.345364387244411,0.345764939135018,0.345320511761796,0.345035524109953,0.342793708680201,0.341484531524596,0.341077866483486,0.341338772466609,0.33985470496598,0.338651890061998,0.337870596987959,0.336849934352437,0.336353500902768,0.336052401870541,0.336759661636341,0.338207866582108,0.333115858159069,0.336703963778429,0.324230375437677,0.322924202890987,0.324398750462441,0.324977230078953,0.373380528790808,0.546973739492816,0.51945308101451,0.766819583519953,0.655432690069598,0.762898611877462,0.38828354802144,0.38696259557355,0.389624463892215,0.391890569000632,0.389997213460295,0.389306298552627,0.390298662813865,0.391218303730333,0.391710809198334,0.378396999063189,0.376937287866368,0.373328429882801,0.37361014509435,0.372876601249234,0.374647962010382,0.375318623023735,0.375994654556995,0.376256963798751,0.376585141227645,0.36425003647858,0.364698775247998,0.363768325101089,0.366972060855927,0.369974352144818,0.366760950631545,0.360476784635128,0.350346433306027,0.342760278573638,0.374248148768294,0.414998195932435,0.412483718229307,0.5828006939985,0.336837768782036,0.296129611153215,0.297058799016027,0.297067260048377,0.298130741699102,0.298261977281832,0.298374260720485,0.298120052484868,0.297312112245965,0.367643867671398,0.325355238134585,0.29480953762455,0.304310314928948,0.305791899518743,0.309620838085895,0.314107377957946
0.323430595536044,0.323143941356399,0.322350458003072,0.321639780227487,0.320776377411326,0.320665493787419,0.320307744264852,0.324750174534295,0.336932369507552,0.33624298064494,0.347922453509621,0.346947337367563,0.346817604898667,0.34814382963073,0.350933854992375,0.344378374689136,0.342824397297859,0.342195181700743,0.341785521277015,0.340842089692772,0.339412592538324,0.339241324890282,0.332664967454607,0.333944100642608,0.332674385031822,0.332859499354203,0.332283236839549,0.331300332325395,0.330324438763681,0.329027103626542,0.327332539397591,0.326354316400854,0.324752668115392,0.324434810361196,0.323843015710344,0.32300619762743,0.321644049792545,0.322292601711218,0.322638127159454,0.323473781216753,0.323297477720702,0.32589156039554,0.328034783370174,0.325313175539183,0.321835574882321,0.328149622748594,0.332528746367916,0.332235252210286,0.331716436514887,0.331392193521016,0.331300313778825,0.331191726507655,0.331165243261084,0.331448844525302,0.331654349560348,0.331904417763256,0.332160705997613,0.332238316167005,0.332097384644138,0.332561130111355,0.332771597919663,0.332760601554905,0.333101814714639,0.332024456318081,0.321716164171004,0.321618452222895,0.320724808633533,0.319044356895336,0.315420204365278,0.319302384495019,0.325608637053595,0.324499812834755,0.3242863038959,0.324474516730425,0.324699640361864,0.325280480250924,0.325448941762534,0.328103612571102,0.330223732068032,0.331090904310985,0.33169645419135,0.333737229668599,0.336086734356301,0.336692045602865,0.337413280999243,0.336831984323245,0.336615015357408,0.334840387067284,0.333135697700803,0.335934713057742,0.343496833551975,0.343945770250658,0.346723120753708,0.345176826963569,0.342917641834824,0.342177631381555,0.34134915072253,0.340566307056037,0.339832160709394,0.339610273294735,0.338937598530001,0.338133506554385,0.337261710843039,0.336113249336732,0.335022150123151,0.335820960809303,0.338076340866466,0.33165569707872,0.326380851643595,0.32566806730914,0.325278320870662,0.325018757446524,0.324452297463205,0.401199240947735,0.50651186518301,0.512320677579375,0.487891292414802,0.628674421979661,0.593051194731445,0.394752639517826,0.393710042752635,0.392845595887067,0.393052559783702,0.391535331116396,0.389141801831979,0.391412762775273,0.392777314312665,0.392769111551145,0.378183111772397,0.377260127689978,0.374932116202373,0.376011911509912,0.377699341005286,0.3771005731332,0.377888056813877,0.376980633830213,0.376699718462246,0.376977312227801,0.364529519592075,0.364033029817833,0.363552622547819,0.358391181621899,0.356737475625619,0.353429062838591,0.34635304584847,0.34462883664449,0.343495259854834,0.341759752721989,0.33803853630505,0.351809364221185,0.375970968464339,0.336464948723789,0.29771337253364,0.297897575863344,0.299050433541243,0.299404543607529,0.299258309903463,0.298943999558322,0.297885040099814,0.286621787175923,0.275675124124315,0.290372577585294,0.290311656960079,0.301176427007616,0.2972385247748,0.308927733660164,0.314046875293691
0.325572719688765,0.324309924162641,0.32324363424362,0.322074721837964,0.321190295437107,0.320497153980193,0.320081411174376,0.322335742761911,0.337059964516215,0.335580703857613,0.34793155401168,0.347620107488628,0.347881198535761,0.349541140567125,0.351909641189998,0.347787451916583,0.343137573747772,0.342336122315514,0.342087372045189,0.340860022183022,0.339545890526122,0.338371846403981,0.333493197280256,0.334013397793097,0.333142740808664,0.332695116488928,0.331807652036912,0.330750727101194,0.32916694656286,0.328387895791863,0.327090063281784,0.326182860746693,0.324898135820785,0.324483103140525,0.323749436571351,0.323000937922863,0.321908963648127,0.321771471466585,0.321000077728101,0.322229617200567,0.323174165104941,0.323844083330051,0.323656327105858,0.323605312228615,0.322794735102539,0.324948220552229,0.331667786630066,0.331595475426089,0.330638367574817,0.330003906508787,0.329924732009322,0.330068779646816,0.330321534307996,0.330815496698561,0.3312815128558,0.3315759351727,0.331901516666604,0.332367650687802,0.333074316805905,0.332795496688018,0.332638401394719,0.332837476761727,0.333537357355399,0.331979518408723,0.32197165070958,0.321542017096235,0.319937410372611,0.318238139724125,0.31646702373646,0.31662964372746,0.31421165431281,0.322441280940827,0.322767677052365,0.323371176864364,0.323604051345161,0.32492531805525,0.326917321422255,0.328143634239904,0.33067780345517,0.331207560818446,0.332091789576878,0.333738253227138,0.33568728888675,0.33585636932041,0.335029214425231,0.335329740898893,0.334619998939747,0.33300019391322,0.331359635537425,0.331601523924219,0.332779166549345,0.338689944397443,0.387817490358128,0.362838805712552,0.343431709766407,0.341514794894317,0.340538421166431,0.339993764413166,0.340067278988305,0.339758875675584,0.341589188603336,0.338368613494193,0.337328027398738,0.335725831855342,0.334817202796899,0.334008721461116,0.332279399395983,0.33002965772784,0.327745693476784,0.326723420458765,0.326604761940518,0.325944995383223,0.523653157066911,0.511729035232403,0.497590171973722,0.51689024240318,0.569481732416422,0.653605922923205,0.764124271534952,0.39792528124574,0.393984840776006,0.393660610818688,0.393966817097508,0.393843722309075,0.394825881800635,0.393323889746083,0.393748813971981,0.393435230571592,0.382587604873755,0.378515221421606,0.376478072507128,0.37754914712537,0.37887629026765,0.378121890647983,0.377910806806935,0.377664900022835,0.377902798296017,0.377532166766043,0.364600172610279,0.363904585943731,0.361862815130919,0.355279582448556,0.351128026829062,0.351062098593285,0.344224280220542,0.344002721084,0.343628438100224,0.341414647676767,0.339378669412798,0.338926884997327,0.338480608951917,0.337122749573233,0.307051662039007,0.304011127643027,0.30150269060222,0.3012072993071,0.300747576010532,0.300341336987222,0.277232904343905,0.276707934779073,0.276164706634698,0.290885905729918,0.291432334935991,0.303122125212004,0.304111965317728,0.307649554649728,0.313570981009778
0.327253815239197,0.325224732318556,0.323651406761251,0.322131016803609,0.320903310328677,0.319793421540141,0.318338387724391,0.317897321502182,0.317661672800897,0.33398005519821,0.347929498352591,0.347717864498375,0.348108684603317,0.350085463107251,0.352222753136133,0.35084199283377,0.342617518224493,0.342245742220441,0.342281651964905,0.341064610202007,0.33966653631293,0.337978506831679,0.335764578070982,0.334791801738007,0.33381065338474,0.332768056017994,0.331827267492095,0.330466532955588,0.329029735563944,0.328020377120891,0.326799310747153,0.326184478589413,0.325725027151252,0.324691310914692,0.324029046969838,0.323213122202599,0.322574929988534,0.321823075640939,0.321135282264412,0.321200593435396,0.322407422241433,0.322892765812335,0.323625694396553,0.322669366493997,0.322144432695249,0.32102385582418,0.319510219259011,0.325785610174236,0.328919740215245,0.32799842762711,0.328104473715881,0.328773735022491,0.329840060495356,0.330110383924434,0.33053842335578,0.331195435602337,0.331507530417035,0.332273526275389,0.333001859995951,0.332910190951181,0.333139754223698,0.332376462190745,0.332143242119623,0.33120294032177,0.33078090186409,0.322645062982025,0.318126472454534,0.31775071416807,0.31719556624498,0.316712758517328,0.315740401272501,0.320528515031421,0.322055165409282,0.322565080836256,0.323441287770834,0.323988594695148,0.324762805145342,0.326545507551156,0.331410814185985,0.331308031191073,0.332702925432148,0.33353015254238,0.334373014393965,0.335897587270083,0.337978581813367,0.334327394352945,0.332125683685742,0.331364463725063,0.329905675480999,0.330813646774068,0.332524779187802,0.334362395230558,0.44413216129211,0.473716026714668,0.688887186492562,0.339882659133045,0.339059319302251,0.338823951206521,0.338040228999748,0.337806968382508,0.336652020509376,0.336512813287095,0.335874452431118,0.334700722474342,0.326878068936542,0.328042353347443,0.328146434891481,0.328446385792047,0.327809004739679,0.327079718622174,0.326924095232174,0.326356399293177,0.523694451640847,0.518292432199089,0.52443612965598,0.520524865270861,0.768612027708835,0.679864609442637,0.764659726258929,0.405328846448238,0.394315574839088,0.394294416452231,0.394712450694845,0.395132069583852,0.396443852747922,0.436632468336567,0.530077401022757,0.424420544601246,0.382948880132724,0.380318648175314,0.37898713326829,0.378640949839104,0.37926877703872,0.378344178404483,0.377714744555339,0.377802328659465,0.378059992272907,0.383008210114453,0.40625979718109,0.405767942558342,0.406206367144914,0.352924385792727,0.351431884319554,0.349925758400515,0.344017494464182,0.343695887540555,0.343584211058384,0.341464371184922,0.339707145236468,0.339121480612353,0.339241591825594,0.3502032852812,0.36479295279846,0.304883724062153,0.303543205729246,0.303238245625826,0.302790426612738,0.301492367664088,0.276567656719752,0.276627079467263,0.276483763080294,0.291316946098514,0.292184806961574,0.30353019704076,0.303884264199343,0.306466276838471,0.312245345281744
0.327918144142047,0.325733052942019,0.323881906973765,0.321969710085718,0.3197442215002,0.31943297379933,0.318575780242036,0.317875686898428,0.316809989455075,0.332733930455999,0.345338930518524,0.347273908149564,0.348113738199869,0.350423883919147,0.352544512536085,0.352180615757733,0.352513377248648,0.342030804686053,0.342727113001688,0.341546755900791,0.341089620538755,0.33893683040378,0.337327972180962,0.335622166452926,0.334033947983936,0.332980776438917,0.331993849896584,0.330532136067214,0.329553391218187,0.328114531836592,0.327158781250115,0.326234466897688,0.325552940850806,0.324684052211858,0.323918611683936,0.323364344556061,0.323119599002999,0.321870886125248,0.32085298924357,0.319351518058189,0.31539751698265,0.321967136733287,0.32303032780657,0.321668789768863,0.320622297663773,0.320428157737998,0.319936305828917,0.322093954675782,0.322832592324059,0.325076679322276,0.327043284533164,0.327484556866266,0.329510552686568,0.329371322824914,0.329992742383163,0.331164169435164,0.331524123450063,0.332173817612202,0.332469673393651,0.332660114230596,0.332846781904301,0.331300300771985,0.32973810050528,0.329710753562893,0.329851121725922,0.324094812529683,0.318021742905193,0.317766262432631,0.317561308228509,0.31701111979291,0.317352311280602,0.318812882799311,0.320396217806325,0.321311620841351,0.322610563387582,0.322775817758368,0.32303824872371,0.325113721488911,0.326575786057508,0.324810026335618,0.323266628158474,0.321925323633237,0.320484203341829,0.319864082896275,0.312040421245116,0.32809350947799,0.331401874202386,0.33061523593384,0.329601080973693,0.328924230095761,0.327504734597794,0.331035401686399,0.632534978465626,0.523523438833608,0.498443771768507,0.338985430556992,0.338742479864046,0.338138908001105,0.337406942363058,0.336759039197894,0.335680649051542,0.335096616225654,0.334227030496354,0.332988062137811,0.327449357882864,0.328061810530513,0.327708433847176,0.327550767727307,0.327276748138841,0.326813737012164,0.326998046068358,0.326263774006115,0.325780575151509,0.376478648643846,0.525408529062625,0.437414072436828,0.385881079153666,0.424324194542841,0.426194401863791,0.41294046905555,0.394443579343146,0.394473825503031,0.394654857756837,0.395458596708431,0.396565772646385,0.465572732027838,0.545610315790977,0.448313116782972,0.383066670990961,0.380442099008934,0.378925751118995,0.37887917883777,0.378871144053419,0.378436897863109,0.377981402471055,0.377844337489662,0.377768731340676,0.386738102108307,0.40513275555853,0.40505177500861,0.347542820802531,0.347857604859675,0.348305795989698,0.347854548809401,0.34372780730205,0.34359611639972,0.343139296600597,0.341317301636092,0.339448085950531,0.338919393180934,0.43062424347545,0.389925094385067,0.36390179829375,0.306405796108355,0.305160150481192,0.304726014228956,0.304949089231373,0.305833793623164,0.315479776886764,0.315639509544034,0.315955034926598,0.302951876378072,0.292353751443439,0.303017721280574,0.304474487634649,0.304911425975071,0.309969494037228
0.32850416208232,0.325835251272193,0.324438843433129,0.322063810809385,0.320452667230534,0.319393866893492,0.318454457283828,0.318029913717116,0.317512959224963,0.331575404433017,0.34667608485767,0.348080427982133,0.348068306267484,0.351045977939352,0.353290444795012,0.352865575584479,0.352874151340584,0.34165776858012,0.342631624836557,0.341490348230875,0.340786142649041,0.339283558770074,0.33792969202784,0.336170125246577,0.334859762237477,0.33288141377153,0.331237557604809,0.329834676432392,0.328225749077496,0.327479681911199,0.326424581330827,0.325844511070098,0.325132696844308,0.324424206576426,0.323831797469589,0.323091974671499,0.322147895155011,0.321599642093671,0.320612890533769,0.319041024695884,0.317091375308146,0.319577143344179,0.320384978790805,0.320282209660481,0.319452541579054,0.319710020608706,0.319466932944917,0.32103914678238,0.323332314794261,0.323035373977712,0.322494408040348,0.323288061184581,0.322158983411183,0.32765600740201,0.331084743367902,0.331864634858159,0.332422678547238,0.332465207585277,0.332509955424015,0.332487525968521,0.33246471141391,0.330385441188966,0.327058400519988,0.327916526202749,0.327581250067398,0.325899763694507,0.327446036303514,0.317728207722029,0.317481316906327,0.316443815295027,0.315680209797913,0.317407412281207,0.31830910412278,0.319658348399124,0.320237046405973,0.321476415203328,0.323412369303196,0.323585766279751,0.32330261499625,0.324217317283357,0.323717026489112,0.321846950320118,0.320157255758733,0.319330738846266,0.312801919505925,0.32379093587282,0.330892929366257,0.33012927675645,0.328950424487445,0.327750609718955,0.32712026202462,0.328636794509269,0.631075643732105,0.549643733847689,0.33815939616081,0.33822949279732,0.337787549205884,0.337552897906154,0.336940427164563,0.336222324131663,0.335016722335058,0.333992624073997,0.331962030817901,0.330837953569204,0.328772674929328,0.328159746557575,0.327710819672387,0.326922415065787,0.325682949657156,0.326026353339237,0.326051423044758,0.325989392700052,0.326468959171211,0.326912560256626,0.328079082892505,0.380520863445438,0.38563946519548,0.422518977440399,0.426416446344659,0.418679364163236,0.393491158037948,0.436213194101203,0.641170955238856,0.51054167117794,0.551669406369111,0.494867653133551,0.475572858583139,0.472449203665692,0.469428776657453,0.379467225160906,0.379504137941406,0.379072332494968,0.379112890490685,0.37845058443569,0.377971406838944,0.377726287682931,0.377369020491055,0.390802138079083,0.40503665664442,0.4046218251867,0.348229767489274,0.347846633884088,0.34771473347191,0.347402205927561,0.315657833668359,0.315473004435137,0.315500872909889,0.327098026859971,0.338942619865781,0.338642516989502,0.432738398956055,0.434505105981968,0.556491845424243,0.309161548855425,0.31092912615767,0.309962802561298,0.31082141470953,0.30777635655511,0.319804617738202,0.319998216103769,0.319145076330931,0.319345200493429,0.48908662342442,0.301071457270656,0.298873359036691,0.303425737755034,0.308727685978723
0.329715119337406,0.324706719096122,0.322020657725777,0.321377663216756,0.320058566532496,0.319277175353294,0.318215767477149,0.318085821770411,0.317698893389347,0.33033974068943,0.344411844196051,0.350054943959939,0.352221405069238,0.351951235479573,0.352835318268906,0.35293225172435,0.353098575415048,0.341057967494673,0.341887634812238,0.341085612105716,0.34047337667688,0.339722925292255,0.338864409867782,0.336349745594862,0.334195996539878,0.33260092881338,0.331244081777991,0.329611836304199,0.327825869963815,0.327387453870818,0.326768054800783,0.325769879404265,0.324664569948092,0.324184948566149,0.32346559879786,0.323133873643448,0.322660829711762,0.321806419845031,0.320694810196324,0.319445343619709,0.317789062939061,0.319055772215681,0.319550174655121,0.319806860283701,0.31961622612308,0.319457030574996,0.319068060083653,0.318896621448171,0.316748958823604,0.321144662677125,0.322782050467412,0.322350082100371,0.32287332766632,0.324519224341041,0.332678428293262,0.332925588982143,0.332704766820216,0.332719766816191,0.332998214782757,0.332234689231405,0.331719576969955,0.329540998790235,0.32728438433011,0.327050841710618,0.325960719239668,0.324144663483744,0.320977857003029,0.318627328174911,0.315113063387108,0.315826559602831,0.315518427347688,0.316764562387823,0.31784323815556,0.318747186741676,0.319570010148305,0.320003921013272,0.318806959971362,0.322659964262896,0.324616552632942,0.324281770656303,0.323927464973194,0.322027039438097,0.317832931074942,0.317582579200884,0.314893823976078,0.315552283665831,0.313523512937267,0.325460073311208,0.326785162878491,0.326195297229383,0.325367644915845,0.326878571300184,0.627044880842516,0.576531463191161,0.624399802644215,0.337863799199019,0.337405821125553,0.337297837376249,0.336944799074981,0.336186639345075,0.335372838438034,0.333937238863623,0.333295943960325,0.330171664462597,0.328641939501839,0.32801886321729,0.327801784848075,0.326613814327827,0.325500022542597,0.3254995600767,0.325189033983517,0.325212916613429,0.32499713084817,0.326233229376165,0.328107340186209,0.376294865519796,0.364313100253313,0.420684859345544,0.426293292365764,0.434450163919383,0.446471372313002,0.460225787233292,0.481305605063631,0.481118255311516,0.473772206846631,0.511303225223995,0.542069935154101,0.499138523740783,0.377033475677283,0.37852531322527,0.379137042308065,0.37884995251295,0.378927140417615,0.378339839212658,0.377777057759599,0.377783026698065,0.377489367395419,0.396157459708328,0.404451837050566,0.404263933891161,0.347879914342329,0.347739228648116,0.347903321821812,0.347442984337473,0.316094028731485,0.315103593309521,0.315847201458074,0.314237132736448,0.312567142048492,0.324060941518063,0.438721199461772,0.436553994274211,0.552381505180233,0.310182906011645,0.310791011604129,0.309385221006706,0.309777268578455,0.307738007407469,0.322117410226298,0.320937347101448,0.320809605830167,0.319792476954808,0.319496013455537,0.30054949601972,0.299388048227146,0.301224070163952,0.500008380773059
0.333486222179697,0.324549217518242,0.321060180923733,0.320922576853114,0.319955180801721,0.319311902517421,0.318526172999962,0.318225404208252,0.317693806352877,0.328820989172694,0.550952530575563,0.350626415932849,0.352050285812619,0.352430746442359,0.352761584576568,0.352879570937011,0.352517596466743,0.340521429399342,0.340084897315399,0.340542514902184,0.340617411999903,0.340239644856484,0.340388614027821,0.33602301764542,0.332646702105709,0.331996594408997,0.330223093082007,0.329301483198705,0.328179446407048,0.327262087144074,0.326698734703812,0.325635755517905,0.324795379594346,0.324048477169014,0.323359404318595,0.323181134507396,0.322816871060571,0.322222402387895,0.321477552657586,0.320232508442425,0.319541144999266,0.319353251929167,0.319309067025185,0.319725320367714,0.320181084994516,0.319645384352396,0.318130218315104,0.318240245565111,0.317497810439252,0.319401729443474,0.321005081408131,0.32048611409747,0.319101800951516,0.322124951135405,0.333258480792906,0.335524878956602,0.452766843417098,0.375815113933126,0.332665951412391,0.331726226951101,0.330508632221965,0.32900855781227,0.327336692114112,0.326888246505024,0.32622672907191,0.324019674689904,0.321612005332685,0.318478120428061,0.31613814577913,0.315757101485975,0.3156875044115,0.316261777997137,0.317209065579518,0.317955315998684,0.318804279259549,0.319451034548375,0.319645195563195,0.322108241484089,0.324205472183395,0.3241321562301,0.324642372929232,0.321037250588201,0.31881229865968,0.317787010646307,0.316891478158803,0.318194848887617,0.321871251376717,0.323584492627302,0.324371965451491,0.324499568163171,0.323338040117672,0.323121535323989,0.32284354740262,0.417779228883205,0.625712887211714,0.337665418529863,0.33723319440271,0.337191943550958,0.336782968927952,0.336145898385832,0.336096957667536,0.332733623938876,0.327141589889164,0.328037230898607,0.327956502563856,0.327556765379232,0.327291476614311,0.326335073347246,0.325811845423004,0.325334011879756,0.324684824723026,0.324660248253064,0.324158494145015,0.324911952108897,0.403163278116045,0.383768467059645,0.387690186625469,0.418659658916464,0.814033662802554,0.493146598838527,0.479567772898006,0.470734241215587,0.455570724874532,0.481280914869357,0.534545500846324,0.534442304367063,0.532803418320203,0.542843092577039,0.562962397781836,0.430453276725734,0.378964877624102,0.37831235937163,0.378311263027234,0.378178156752,0.378496677639203,0.37807548873972,0.378225998007842,0.402223941549042,0.545752188496191,0.422146743564983,0.347329864824091,0.347435751199337,0.347349495477975,0.347273492021291,0.308885159022333,0.313362134302823,0.315997673169995,0.31426274534904,0.314050005585291,0.313611637824648,0.313102517455152,0.356187431107711,0.552019859520121,0.310591684865297,0.310750213645956,0.308676825151963,0.303061319257558,0.30652783866917,0.332728040694057,0.333186088583638,0.334435694306829,0.334746135978878,0.335628519728428,0.299522968975766,0.298406876560977,0.296019535933792,0.287455430369216
0.325595175831025,0.324122327078534,0.322193214331899,0.32136533801417,0.319991040566745,0.319608929256631,0.31888286270784,0.318566639826069,0.317998774702116,0.327027950194523,0.333791361155531,0.34106341819343,0.353351275841085,0.353140504118213,0.353511022160447,0.353221012161046,0.352949089104831,0.340515666026832,0.340151056314108,0.340422672009481,0.340559100317534,0.340146051654535,0.340518349027718,0.335360736543927,0.333613333922442,0.33231004366296,0.331341882104543,0.329376781763159,0.327452114421379,0.326971258625184,0.326242040069179,0.325425329024973,0.324650818216704,0.323977617520296,0.323703378815533,0.323488019227274,0.323240684885381,0.322865681175234,0.321507624046397,0.320519338408387,0.319466586873138,0.319261573958207,0.318754080657063,0.319604622774462,0.320494407301863,0.320705136614367,0.318470984380143,0.318266425398725,0.317981090294018,0.318395637687248,0.318606426483283,0.319052982730724,0.319176238764539,0.32078766085129,0.333519365703497,0.338336383648249,0.637772146884533,0.40369141229025,0.638750965715066,0.331466539190203,0.329676121602543,0.328625682789331,0.327407939664402,0.326871721880433,0.326456727032009,0.324301637584445,0.322690962835338,0.317927470794969,0.316176650853556,0.315457424538425,0.315116989497188,0.315354450688195,0.315935957277364,0.317014882334559,0.318511244818691,0.31940806176335,0.320496792758614,0.322206323761529,0.324241101997659,0.323793251940057,0.324364250748699,0.32049423681337,0.318446712996992,0.318071623202983,0.318097566277959,0.318801937875144,0.319274657453552,0.322431940389368,0.324222983823645,0.324231003396086,0.323425710360304,0.323359089722323,0.32339367943071,0.390032911372284,0.626550735663085,0.337486298913412,0.337028350742804,0.337310924763401,0.336613788078659,0.335755525519582,0.335001237825151,0.329915351774794,0.327925103841627,0.327180650038461,0.327097203632726,0.326931671527844,0.326156981388704,0.325455559500411,0.32562686257436,0.325251142231309,0.32490332258408,0.324622900550551,0.324070354988837,0.324407218233537,0.323869312301973,0.359598736881926,0.405954448605685,0.4163111616589,0.794620432542296,0.506449641397375,0.527791436859534,0.481700076067799,0.483890542256177,0.482298584768,0.456805445140551,0.536424125316148,0.590927588455056,0.550497567585705,0.531466188405252,0.457401059568683,0.3771619285951,0.377212474515673,0.377064752760537,0.377619438499492,0.378432328411608,0.377816372395494,0.377906013712113,0.406578403911486,0.542293253392891,0.552979760607669,0.564186688002757,0.558597435257746,0.559330390398707,0.36221927482334,0.310416299108925,0.311160438565129,0.310503891257463,0.312795319230665,0.313758866611533,0.313499526811755,0.313160204162396,0.308877997622355,0.295603586959105,0.305692136029967,0.310231385312427,0.307245873380565,0.305065949513985,0.305613400812059,0.333794326362799,0.332715951436558,0.334924132896943,0.334398904699214,0.336163826171208,0.298640026954153,0.298615228285311,0.293349982442353,0.2863588770996
0.32434331492542,0.324363034374191,0.324598796915257,0.322348087047913,0.320638763619141,0.320098578870993,0.319464144815682,0.319103527277598,0.318973942260915,0.324990772090078,0.32489154729673,0.334092507988075,0.352926142045558,0.353351970831,0.353975185428191,0.353491070835242,0.353201487266541,0.340669582142372,0.340858250331262,0.340424376751452,0.340239517091921,0.339570854933493,0.338634846876146,0.336212495457608,0.333006407114095,0.332278461181797,0.331111127086226,0.329231180351569,0.32737889135862,0.326767321712552,0.326620419451245,0.325034537746153,0.323809678088854,0.323383240967677,0.322755141966817,0.323711712910772,0.325814067169802,0.324102417897535,0.321454295776732,0.320990664551867,0.3209983936073,0.323623295793648,0.327186353438434,0.327815168007671,0.327753809700464,0.324128905578266,0.318781832602097,0.318661579062928,0.317832802718982,0.317764425970884,0.31720825556525,0.318092614463275,0.318639554673489,0.320135603046669,0.410819742147602,0.340817173864197,0.341298135253594,0.34180899250229,0.341705328588588,0.331366205241238,0.330136567089989,0.32837283691008,0.327370315290442,0.326674353179789,0.32630375826518,0.324848043332393,0.317504346902892,0.317307977561943,0.315749817479835,0.314768494356436,0.314026953136606,0.314142075359385,0.314281187175527,0.315583814745489,0.317879390844496,0.319254171955742,0.32108479358961,0.321953845007509,0.323049709664204,0.322791116607763,0.322693023399374,0.320057721917295,0.317829624379096,0.31786249640831,0.318598248151147,0.319372996150899,0.320603491591784,0.32181747783107,0.324959382935465,0.324297411907928,0.323818568916753,0.323344361031907,0.323294284046341,0.3624004503023,0.456171348098272,0.337245198721192,0.336456826679436,0.338132578117638,0.33946626390407,0.335119032198258,0.333878135725171,0.327807070119049,0.326658745626235,0.325488261261905,0.311959069354621,0.311754181630393,0.312285908981321,0.323614735937414,0.325294943977166,0.325165151626699,0.325035111234775,0.324846316397401,0.324657769123119,0.324640052901229,0.324100728246588,0.343432363127434,0.00444172039816713,0.413630026476238,0.440287126999045,0.46429961374642,0.498142366532541,0.479507714707843,0.472614014678362,0.485729632377927,0.54031541258912,0.538314498814779,0.56633649227493,0.559298632896185,0.568055173274591,0.484749703239672,0.354361759412585,0.376438572652594,0.375883704207574,0.376828174220603,0.377047987931332,0.376808827376676,0.37676054188393,0.409208071002115,0.729616874949834,0.67433375599427,0.719461440824731,0.55801477085086,0.558961023285771,0.382140546617141,0.310239183294676,0.310680347213997,0.311102736727733,0.312490250422941,0.313691866293031,0.313366085492038,0.312854547400093,0.302750155564218,0.297351845140873,0.301023813318835,0.305340261241551,0.305339875411152,0.305587175641276,0.305262508735766,0.304995247645385,0.32930094606491,0.335607147042426,0.331580091167353,0.328063748992664,0.298337705635162,0.290033991120901,0.29070630436715,0.287300297090473
0.325117506565764,0.324612102497516,0.324024459458261,0.322794014809067,0.321627839354329,0.320788395002143,0.320123086003588,0.319649600376745,0.319369859991514,0.322602383447963,0.323904842820572,0.323459157500787,0.323222129877635,0.341420145951606,0.353498283950766,0.349143275006739,0.34045653273298,0.340597812352775,0.341083723354872,0.34029457848429,0.340000800157299,0.339325410067867,0.33949681684452,0.335836480787116,0.333739802807873,0.332428203035872,0.331390473537344,0.329215411695572,0.327295747470288,0.326233487954088,0.325052027720061,0.324394700829194,0.323763958633015,0.322973915853994,0.322748831652517,0.322548806968476,0.329041495699729,0.329031861819044,0.329908922817327,0.330235602365144,0.329961718164451,0.330147984516065,0.32970462110548,0.328814656807173,0.328499020617191,0.327060722679249,0.327466803950599,0.319402628325904,0.318089145776801,0.317400985235283,0.317191182652495,0.31744391372955,0.318837246897064,0.319429771287636,0.411703305715407,0.341818401146416,0.342740919391171,0.342393862314718,0.34226338235809,0.332031601503802,0.333073962235181,0.32716220413894,0.326807669255892,0.325994670034394,0.324897491042627,0.323822887700087,0.321924070048301,0.316633395959474,0.314648138688378,0.313779499138435,0.31253559460951,0.312859282467553,0.312511767493377,0.313800512842151,0.313389855374724,0.318840314550198,0.321927236181895,0.321439465605407,0.322153600627449,0.321514630208434,0.319602112249183,0.31896393683719,0.317777132599325,0.316788839931024,0.309254168635227,0.309120331670199,0.308872667883797,0.313417854545925,0.324466433679149,0.324109441577229,0.323475578920186,0.322707447555168,0.322297327231187,0.319899122156743,0.317993721449734,0.328159927143662,0.512031427979524,0.339340604242008,0.330896934189585,0.334278139858108,0.327971621130267,0.326483045920642,0.325429958936359,0.32240514182694,0.309275205024538,0.311256575306844,0.312815070480082,0.319962478526611,0.325818475610164,0.32492613967876,0.324692487316583,0.325017291917084,0.325388854136797,0.325469844689458,0.32484717966225,0.364669762177258,0.550125613794386,0.410651865327021,0.368390697548939,0.368134381674999,0.367890070035351,0.477328449206631,0.47515268569012,0.493450516664525,0.54721576244422,0.520899267288791,0.502613270188294,0.505414078661171,0.508616755183558,0.520841722271932,0.582496864896711,0.581964337424549,0.580876814414212,0.400390849526425,0.375735709271555,0.375561825858767,0.37624151767827,0.41575138315654,0.625936104673616,0.64973220047063,0.720889953001042,0.556876770733852,0.555256341152276,0.402075700755184,0.309736363439158,0.310111041749664,0.311049244108167,0.31234663800407,0.313457648263162,0.308395405945392,0.297259830979805,0.297282124884217,0.297598051182668,0.297504304483537,0.297204208743536,0.303363603920765,0.305878976099638,0.304768933082034,0.327235383629823,0.32654747800202,0.324773637174294,0.324834399203735,0.325446701759485,0.298743100751658,0.297916704765391,0.288841996069005,0.286506244171467
0.325569390005511,0.325023453961582,0.324241727815291,0.323179035260682,0.322164672986512,0.321166464008396,0.32042331010329,0.319937832070368,0.319587816524737,0.321893343136046,0.324212713034842,0.323326571665324,0.322930672435629,0.331277642076931,0.333236671445433,0.33865421856687,0.339816936354648,0.340018888610157,0.339360997152955,0.339622745133124,0.339305780177849,0.338577218240633,0.337534216893987,0.335747307160969,0.33397900538112,0.332180688678872,0.330160098348322,0.328797619331684,0.327090299785517,0.325698229911969,0.324719417531013,0.323628604482579,0.323299739566392,0.321935649990128,0.320562414787832,0.321300537525349,0.330240225489018,0.33006435749983,0.33064984489931,0.330917041770861,0.329812002666426,0.330575801329511,0.329866929456542,0.329488835370604,0.328745063910887,0.327651325851115,0.327228512296212,0.32172549768999,0.317778930440873,0.316728685560642,0.315678539490918,0.315788453800442,0.314200172850353,0.31892621955564,0.322139013003225,0.341026378628015,0.343249871446061,0.342766911960947,0.343113295358318,0.331995749557446,0.333650332297058,0.326529845803,0.326187329516639,0.325483896800512,0.324763675857255,0.323755465918348,0.322930780914665,0.316768580128708,0.31403705767707,0.313075984225051,0.31185784888304,0.312247685091189,0.312298980813436,0.313337561560069,0.314459760921541,0.316715808997183,0.321207187023949,0.320228750552716,0.320839097190913,0.321300910337347,0.510523800139674,0.318309478507519,0.317765520984043,0.313835346783152,0.310898602570323,0.309389852902783,0.309125660391189,0.308176453972349,0.307605600467999,0.317314697767691,0.322486834933265,0.321319083376374,0.318915013511528,0.31908578952242,0.318435948680578,0.318019775208878,0.317805717874433,0.339999650280717,0.340416164993821,0.337354440975311,0.330809302369313,0.325272673766093,0.324333172260136,0.318849044984718,0.310452196572612,0.310866528529251,0.310600493605505,0.316316982434502,0.32359290317609,0.32412477307995,0.323995468728868,0.32516851325429,0.325617491340289,0.327364388414131,0.329431066801098,0.387512836792392,0.404090048576048,0.407430874032218,0.368340932692669,0.368158482858594,0.368037239190022,0.49741219356722,0.548065572513374,0.502820666111532,0.516454798044633,0.504059822496624,0.48449728741997,0.498774964292988,0.544951054948788,0.531468047482058,0.582909958026038,0.582471421475244,0.623045304012328,0.413332192510694,0.372654681361106,0.373282678021608,0.434171643293037,0.423924919857393,0.547814424096881,0.549335723112056,0.5508570221455,0.48200730453766,0.439233449010239,0.418603688248055,0.419320066122963,0.30882047675946,0.286877226208119,0.302756186378381,0.312531102435978,0.301762487512942,0.296181134289181,0.297048951013346,0.297635107341945,0.296948267310679,0.298074867676654,0.300929415310525,0.305287514493203,0.303129797683675,0.325068729505919,0.32513170511827,0.324739900818589,0.32466021704193,0.324943383941698,0.299787757677807,0.29899706801826,0.287834814538174,0.287373329650512
0.326396439686734,0.32562820669712,0.324768427020551,0.323591111328355,0.32249660032276,0.321380242703446,0.320432079205767,0.320051776967142,0.319617323528678,0.321135959716312,0.32239746489208,0.322554515992967,0.32297196815348,0.32876385225061,0.332548929631996,0.337150198949814,0.340605563773167,0.340358379791635,0.340107643080803,0.33966289226451,0.339209118004893,0.338234711294272,0.337499096356434,0.335351808181959,0.333283427074737,0.332267510489356,0.331069863454794,0.328807844241846,0.32669991502135,0.324848998597801,0.322966574716386,0.322192172333475,0.320734528441726,0.32092668691763,0.320510165617567,0.320595514309297,0.32030101455782,0.330663574501699,0.331985426192577,0.333086494750285,0.334102891307633,0.332600646642601,0.330455682396838,0.330564778042033,0.328954476936609,0.327456767489725,0.326417353411075,0.32453066160669,0.325090148173791,0.316491293362168,0.316093653355729,0.315547157377635,0.315022237639423,0.317565233559448,0.320305196825196,0.338298350152118,0.343364099172367,0.342677075589395,0.343061167228409,0.331021927984039,0.325196384650284,0.32623209104592,0.32576422194511,0.324863980108136,0.323939438048323,0.323373292708532,0.323088916384406,0.316997835367232,0.312637914484637,0.312443984305575,0.311887403413245,0.311963095099467,0.312241572769885,0.312921589786584,0.314207409666443,0.315815926207159,0.320102979684424,0.317510460187942,0.31493763365654,0.313602217069647,0.312804263908654,0.314462056147901,0.316373162918885,0.313005966291797,0.310767814944326,0.308704247297031,0.308282615639546,0.307984456484318,0.308089337668856,0.308902328613333,0.309811982622758,0.308952116280724,0.307880619862976,0.314040782605146,0.318449702531298,0.317718674271922,0.317934401711456,0.382316560544503,0.685223498933185,0.376093941292209,0.333465459489871,0.320297671281315,0.318748259157366,0.314602167283153,0.310848432433834,0.311028475128756,0.310677736619419,0.312972106478442,0.323318801852179,0.323864308030573,0.323940077747073,0.326078274586285,0.327489396546913,0.328582354093796,0.330489717642234,0.415039051077264,0.487335002911302,0.412076503702584,0.409045370760352,0.407017711096615,0.563919395578884,0.511274948839661,0.498569054538265,0.412348373982353,0.338313017630528,0.391665991741334,0.625815556824662,0.378934415642583,0.313967080730864,0.314045384176142,0.313931137729025,0.537641005593632,0.592293568303192,0.424134022651879,0.409041433428465,0.371184219005669,0.365944672973352,0.366341525237161,0.366536530108255,0.425775704381788,0.942398415437089,0.454186034295101,0.417692149715312,0.417851717919324,0.721394225054577,0.306870448926432,0.289340784427867,0.291119485072497,0.291733501125808,0.298613421062555,0.299580164544601,0.297170659196627,0.295647216240073,0.29427776859974,0.291625991384207,0.291982746860784,0.293262216308813,0.299654120276528,0.324034346700942,0.324228935909552,0.324071196778473,0.32414955927741,0.324659816073735,0.301253344133404,0.299402855220641,0.287802632076213,0.287852057779076
0.327156421103411,0.326286439915965,0.325581781518878,0.323890245389583,0.322336149764149,0.321382242193251,0.320583816724142,0.320135674943393,0.319783765561423,0.320631421119505,0.321347990033992,0.321457740206376,0.321003740529692,0.325921901674843,0.333406174766792,0.334261319885372,0.342712604856181,0.34116875409575,0.340728178033657,0.339644926021283,0.339060070589606,0.337603259692473,0.3366340200523,0.334810996968124,0.33334255867753,0.332575704975179,0.332027764522449,0.328172549893697,0.326058713063809,0.323934714812062,0.321465610384028,0.321343118378462,0.320866214571261,0.32054946771233,0.320241108235701,0.320138484169821,0.319982123239609,0.330636730349596,0.501046061647717,0.335004586380445,0.335411223241143,0.33519426793392,0.336386159669099,0.33352055318439,0.32769247074353,0.327134150521634,0.326623116311316,0.325270787436739,0.3177657852409,0.316562429324532,0.315829618772358,0.31532733447108,0.314968611751385,0.316172812741154,0.316348856764367,0.334390583396702,0.343212502200667,0.340030407417715,0.332518703883201,0.331122116985425,0.330493864033908,0.326519162590044,0.325319729210908,0.324189061665098,0.32330055388957,0.3228111866248,0.322689692147235,0.317098752684597,0.31155434661854,0.312080651663597,0.311650881759261,0.311510043567115,0.311127983300319,0.311758247953013,0.312282777879449,0.314072846130019,0.315281881583069,0.315234211461827,0.314675835707231,0.313007967267423,0.311804574857764,0.308670471438921,0.305644064779091,0.304743466765512,0.304607842857752,0.306416192656251,0.307215415833264,0.307469870516825,0.308353883513095,0.308797230362078,0.309583875763337,0.309111822458636,0.308790587842453,0.308239619333346,0.307769125576752,0.31582385284853,0.683296309819822,0.638914209884649,0.833257742363179,0.403501733718621,0.332540085801223,0.314991139541585,0.308457284375472,0.310081436733456,0.311135798975494,0.310937250288668,0.310795009995385,0.310838554088875,0.309298636889407,0.323988089961023,0.322935702664709,0.327860338868922,0.328734570942749,0.329109015346548,0.573725495937334,0.442696633125502,0.573729135254021,0.418781282306958,0.404023786265214,0.405721464070122,0.536886325018857,0.523585486153057,0.578294899459501,0.384535826673262,0.338089071549779,0.337412010285304,0.337377209313465,0.325986919049623,0.314527818438518,0.314306094076724,0.314063747472113,0.511634251586169,0.472161873325494,0.436541901967852,0.409035679277724,0.368320551965362,0.366874701985714,0.366466186941292,0.366471032985762,0.386338182683632,0.40652161433289,0.412468730046687,0.417515545384951,0.41722315369177,0.416332651847578,0.304004038006366,0.289685660187037,0.292232161268075,0.29275369565276,0.298233881593462,0.299717504494142,0.296517634440597,0.293558855894416,0.292780140721043,0.291119975936384,0.2911271746704,0.290759328663303,0.296855021785839,0.323993786113093,0.323641899044777,0.323037490480597,0.323034186197737,0.322171436762205,0.302814075721895,0.287887927644367,0.287996343678193,0.287044251556177
0.327454837264255,0.326849377790401,0.326209671151592,0.324070241438917,0.32181935317257,0.321276480455931,0.320601212121849,0.320170101634415,0.319808371363251,0.320199754334466,0.320722142150329,0.32074224865337,0.320929996299654,0.322489151227503,0.332980412235354,0.332110128808853,0.3422707072432,0.340993330872416,0.340164566023802,0.339147478817843,0.338833344738658,0.336479040180463,0.33415548210459,0.333946635491919,0.333243193879332,0.332793685896826,0.332637792847364,0.326929361089695,0.325497080304291,0.323246676862854,0.3212467247886,0.320903060970495,0.32078224998481,0.320277116046842,0.319980980512996,0.319922692111474,0.320007152301722,0.329583346569646,0.329270643947603,0.336005495257985,0.336926616203834,0.33660673904079,0.33673147516073,0.335410125375606,0.334952750164346,0.326878848317427,0.324629972902014,0.324560940544143,0.324165618063809,0.315042477661564,0.314778861540222,0.314792396189328,0.314453114232018,0.315117392817413,0.314921718788687,0.329792834553342,0.335317835938426,0.335767467345559,0.33358248842839,0.331996138006474,0.331537736204123,0.32481286587924,0.32473668655664,0.32329086856876,0.322254856966579,0.321795525818767,0.321284082031031,0.316879812978476,0.313237600695175,0.312701530432615,0.312236640373057,0.311295388009827,0.31071333945861,0.310599181783231,0.310716764642069,0.312274281686947,0.314336458782322,0.313442238971037,0.314057837280018,0.311678394110199,0.298025100997435,0.301645171640627,0.304057917103136,0.304037037235316,0.304002672561211,0.30531066387545,0.305725735033555,0.306691979112437,0.307045690143649,0.308687571573206,0.310753548727156,0.309394383777245,0.30840060198982,0.308462982616086,0.308015368422524,0.313502512334633,0.589631470984779,0.620097451199318,0.685875728357604,0.431068855994292,0.695563281561723,0.311936660930458,0.308494146902451,0.309873142621785,0.31082540679307,0.310734832608214,0.310932186008733,0.310717943911519,0.310490484436178,0.324632830748538,0.443685949035573,0.328510447435684,0.329953248977419,0.330201468724437,0.331737522965359,0.400274756789427,0.574647509727415,0.427426699698875,0.443096747762557,0.397737226573808,0.355035972271578,0.355271067559861,0.334811041339532,0.335633445875619,0.336938150075019,0.336952946116176,0.578009133729151,0.319198719303076,0.31518108045061,0.314666880426585,0.57868363274769,0.581318676293062,0.64653414186509,0.445383604899873,0.409548026340846,0.366585177586837,0.36593676931124,0.366088858902286,0.366708612113264,0.366324677816057,0.340293726079543,0.399003209673823,0.398525871589793,0.372774465889624,0.299533012750315,0.300358874800827,0.297917972998013,0.295237171126692,0.294288703327734,0.29673844206903,0.299272950140681,0.295313855640677,0.293366149683345,0.2920938367548,0.290761088380474,0.290667552685306,0.290353531117152,0.295021947603533,0.396067504719649,0.323313265497899,0.323388279222969,0.322851875063564,0.482113369971207,0.304105921320649,0.299843617249897,0.289316686899697,0.287191103797248
0.327763040716102,0.327324496958332,0.326502886954399,0.324109151168089,0.322116690637258,0.321238314132496,0.320512209998481,0.320110461746013,0.319907263006173,0.319671167458168,0.31943731081223,0.319956943642106,0.320122561182087,0.320462644999772,0.319389361193276,0.329654097983262,0.340093462582349,0.340287623038069,0.339711535413113,0.337913593770687,0.336327166560276,0.335340313271362,0.334102947027335,0.333595825082479,0.333381753248347,0.332586602562436,0.332754461884169,0.326621334627689,0.325869742142037,0.321981993975737,0.32038877528045,0.320205174721673,0.320285178771925,0.319822611211896,0.31977130396087,0.319642460608675,0.319391613605451,0.32811065008162,0.3296562302489,0.335881321888661,0.338475606281909,0.337822717490457,0.337681986025325,0.336627252357048,0.33652775250108,0.327330385519958,0.32532179864273,0.324905938016624,0.324377119897898,0.314246318564611,0.314600433341345,0.314643120671889,0.314753377314261,0.314891606000786,0.314651378097251,0.325856558077757,0.334881666398653,0.334734684820626,0.33393270078402,0.375529213093177,0.45913660042082,0.323153006577558,0.322707554709186,0.32189082644428,0.321497163476723,0.320508276519654,0.319776215826781,0.316630052058891,0.31426707137829,0.313188870859987,0.312963057287174,0.310686097510678,0.309044930324915,0.309235365647692,0.310430137032003,0.310050039942133,0.309455275641055,0.310668929215895,0.311049980196974,0.309876872701305,0.298396719013475,0.300808041715245,0.30317944956259,0.303563347872622,0.304299373222014,0.305140193332655,0.306385655938974,0.306521391864665,0.307309829416146,0.308151663527341,0.309214121602597,0.309051845331383,0.308879458027177,0.308882068470366,0.309021746077368,0.310608112571503,0.691761932776609,0.391753077922027,0.3570838215223,0.34230395220067,0.308098016200845,0.308438762554612,0.309086795626871,0.309540319545759,0.309920855382439,0.31035680108371,0.310520204284379,0.310942665835265,0.311721255404442,0.323761031437526,0.321903454602938,0.327743132071733,0.423678550359875,0.33020501378395,0.331695095553048,0.352933329494165,0.352719614930865,0.353045488082789,0.353066873575856,0.386637394040238,0.534315458619933,0.355127645145566,0.335641246149988,0.335270553082291,0.334953436465961,0.329931157150736,0.313447444301038,0.314026208572592,0.314740207927221,0.314614850598045,0.314518069642338,0.583506685089427,0.623584400572079,0.452697931651112,0.362796481515755,0.364338346516594,0.364541224792664,0.365106095441111,0.365008813748949,0.365594716610361,0.479855725756175,0.399537789649954,0.400103250762202,0.350107256401229,0.300069557294649,0.2997363475114,0.298539814772203,0.296672009517009,0.295309036722913,0.295964277138673,0.296038004149595,0.294334065725937,0.291795888876278,0.291558831265628,0.290589785717983,0.290661898492855,0.290402630079277,0.294114153460483,0.494644339651958,0.322855106445789,0.322541680412143,0.322270845429579,0.32166259731303,0.304847415494717,0.298620722746251,0.290589110677449,0.287469131102853
0.327531181029025,0.328148774248311,0.766821482302061,0.323842933308354,0.323190682577796,0.321057946701034,0.320495191570384,0.319876425259988,0.319030685159634,0.319143119997156,0.31916776069004,0.319450194158656,0.320086670069506,0.31980403989155,0.319619793370768,0.328072894187753,0.386710424569319,0.358250979142164,0.338944686801717,0.336426198339309,0.334826139661124,0.334435625684123,0.333909381741194,0.332943333413029,0.331708110316415,0.331269725749523,0.330330885933635,0.326418277399421,0.319069817797077,0.32004832928013,0.319286177679427,0.319273643547774,0.318906297284212,0.319000529461476,0.319287651124804,0.319518310567067,0.320230627343954,0.32612569051506,0.33122859567363,0.335719296798105,0.338845715221039,0.338219189385704,0.338277963069329,0.336956642538956,0.33676031959013,0.328194853877875,0.325561700521245,0.325437679133904,0.3255282752038,0.31373345326291,0.313956165558253,0.314343838308914,0.314412010786826,0.314961260058225,0.314903324787469,0.32211777781805,0.334228296299611,0.334159573835613,0.333623914266272,0.403395289581267,0.459520559446431,0.321897585105531,0.321447818721173,0.320109088708715,0.320190229590707,0.318884700372852,0.318348902443715,0.316119036438026,0.314112827686836,0.313177837514223,0.312858646097297,0.309203734064775,0.306672448138814,0.306914835946932,0.305178830232421,0.308090716507578,0.309612796364464,0.308932239047008,0.307478816724994,0.306894849248168,0.299432707081028,0.300634862316431,0.301549243947048,0.302894266487278,0.304255036743685,0.304630454828676,0.304960131707586,0.305817641069424,0.306587467494456,0.307663534679558,0.308950796381589,0.308938746545307,0.309232116567814,0.308966571577014,0.30927045114349,0.308935824463905,0.307574741150001,0.307496778084385,0.307369759271762,0.307876469655798,0.308147595955687,0.308288333774411,0.308492856275378,0.309110922091235,0.309975492883483,0.310165452092426,0.310668241564497,0.310785813386583,0.311064279470087,0.323639803514567,0.32214115700737,0.326867851079335,0.327421467730922,0.328885364523588,0.544351506725676,0.353170882311603,0.35330420587651,0.353364594697399,0.353885241284774,0.353724989148846,0.353511047972555,0.354498838950433,0.335178404586661,0.334945039947198,0.334372485182851,0.325488913020048,0.313996013238776,0.313957258748509,0.314944150639193,0.372765639309848,0.654416928813014,0.584994883896402,0.465614885810906,0.458177264729794,0.363510799526498,0.364260411176881,0.364435909180125,0.364685617915956,0.364403835997205,0.365080471217251,0.564939021471117,0.385330892739685,0.322072434529726,0.322565848668784,0.301158355524144,0.299835562514765,0.298863375874496,0.297436643259352,0.296975420287301,0.29576806903938,0.295232138318788,0.293721617521037,0.292231537863796,0.29175752820853,0.290871749489826,0.291092990470573,0.290777800966749,0.29368775951751,0.495065867838919,0.322665766629346,0.32238462216012,0.322210599181683,0.429751784170658,0.304897397994787,0.300106889586539,0.291462830634009,0.287480428571953
0.766895534551121,0.329228917940282,0.315660395511647,0.316153255871529,0.316485453499582,0.319318713191777,0.320791032277262,0.319876163441945,0.318853168503816,0.318729220049257,0.318329298879803,0.318689769453954,0.319066567571575,0.319163133953302,0.319608615788106,0.32679405781735,0.386581307767192,0.369814333374006,0.332343763764128,0.334078487886312,0.333764506433384,0.333692088581078,0.333655811378172,0.332482130604439,0.331389539138687,0.330946681842325,0.330253748155602,0.324124330776154,0.319950574449801,0.319508862305864,0.319102480213668,0.318732150728726,0.31835635214745,0.318024586520264,0.317635501702729,0.318921493596178,0.321412040535927,0.324299513219034,0.332671962637887,0.334724795396289,0.338517565160375,0.337778828205471,0.337976403669513,0.336127633952269,0.334916073669501,0.328981556957707,0.325871285431198,0.325847725393884,0.325569141896491,0.313893649185252,0.313882312534035,0.314418129402052,0.314860491892045,0.315591813100164,0.316174938695037,0.316692234649483,0.315519584414788,0.328315690255418,0.459750741743329,0.459537110815719,0.459421768875829,0.321025450489279,0.315731194749038,0.316957822986176,0.31482832135415,0.316710773674443,0.316805343026396,0.315365047751875,0.313962814742707,0.312868926570583,0.306811988740099,0.307462571460888,0.306044323267793,0.30649867011979,0.306416404784295,0.307638871407008,0.309297036963673,0.308041207139188,0.301546970115924,0.302840750337123,0.30092738125729,0.301007138524931,0.301341740266801,0.302359090933511,0.303609858566922,0.304166668724904,0.305157167336104,0.305125959765539,0.304962076180286,0.306848038978418,0.308961184572951,0.308324397828169,0.308601195504184,0.308284032225626,0.308798707477969,0.308102884081645,0.307371766033945,0.307548957790799,0.307736459882564,0.308096553212151,0.308503610141606,0.308080510368943,0.307740454792829,0.308410661813455,0.309666195352885,0.309844217348295,0.310680871577295,0.310584974859635,0.31067580709237,0.324004194528407,0.323539785663859,0.325179661333203,0.325250121192074,0.32771995686974,0.525150948515875,0.353249368517542,0.353379951066153,0.3531579143614,0.353880560069134,0.353736262270184,0.353602949304026,0.393787904532871,0.55004206766724,0.46364159204367,0.531097033942729,0.321978055258939,0.312249401668881,0.31291634191138,0.582906649903131,0.582519945698614,0.629970511818098,0.585762012334342,0.586716727669728,0.489893351180808,0.364179849723033,0.364446945759514,0.364832895066499,0.364690977234937,0.364143242478511,0.36486373436052,0.570345565631518,0.373696609853219,0.322834876647775,0.323017335342213,0.301202790323642,0.299628872144553,0.296773065788504,0.297255690933499,0.296736866387913,0.294974487981622,0.29244557122553,0.293123315614231,0.29318947983491,0.292368890802391,0.291584627206526,0.292063141106314,0.292725741610895,0.293293459831,0.293076056088501,0.314374375976433,0.495532966643931,0.308897888575798,0.306282559149485,0.304274929788236,0.302615255462166,0.291997524113165,0.288243570510228
0.329353623231019,0.329653810326375,0.316739494042997,0.316533771547033,0.316424708826922,0.318998349467686,0.320453000475185,0.319991096405391,0.319032509747081,0.318575143410384,0.317736698606792,0.317861401524683,0.317270354771027,0.318139519958248,0.318345849479353,0.325224979604641,0.54701497899665,0.546659874646076,0.546165724695819,0.333651057008865,0.333511448407405,0.332925342365988,0.332649251043864,0.331972210360418,0.331374509205773,0.330816919701852,0.330241935383515,0.321523533946342,0.31882666096863,0.318950482886974,0.319401901957028,0.318209422147789,0.317111943436293,0.317003546218434,0.316212811073217,0.317039940974574,0.32334578850271,0.32325419400964,0.333568939676195,0.334689986650699,0.33568409542269,0.336858971936664,0.337115456347163,0.334478553990547,0.332539551607106,0.330146759358235,0.327290256861845,0.326433183761915,0.314232174111924,0.314564205619704,0.31435309192298,0.314601394591866,0.313980100615106,0.316282076014512,0.318113021820053,0.317668441645866,0.316637989659859,0.323492228955325,0.662143881315768,0.459372153085725,0.459111128679858,0.320086567308666,0.317211376858398,0.316984849083774,0.316348243999188,0.316185784266277,0.315540870899337,0.314492423790011,0.313744628923933,0.311417852390141,0.308439475630867,0.307801762234121,0.307261398596889,0.306584564115486,0.306259303809063,0.306693432188987,0.307373029882016,0.305489713396137,0.302718391469879,0.302178329560453,0.301598985451795,0.301227001224132,0.30133626901041,0.301558073270424,0.301770594825434,0.303235007847101,0.304953883542525,0.304589529805934,0.30461046636909,0.305892037110177,0.307246733123501,0.30694161061774,0.30601951962956,0.30689184774741,0.307172312532653,0.307297130722439,0.307371993640187,0.307574731253619,0.308179800857136,0.308224739431352,0.308603088939028,0.307584146823417,0.306638614050453,0.307047286556643,0.307022059526267,0.308848124696365,0.310514435175872,0.310187031941129,0.323372758076977,0.323978349649668,0.323678581071347,0.324748926517909,0.324822710532879,0.326716928671822,0.327498606614254,0.350948602188214,0.352276495500141,0.352107610998465,0.351934525906981,0.384996783521852,0.452236172967176,0.416670811000656,0.334564263691881,0.437497636913045,0.583965592839492,0.318085112242467,0.312166129601949,0.312567844966431,0.312372469719437,0.582776680232942,0.629550882492169,0.585228537967725,0.484968005522467,0.514855822992449,0.547326019329906,0.402140236050414,0.365442368107104,0.365005251957728,0.364791036466652,0.36499789229293,0.334757795764854,0.359569606074293,0.323827983855443,0.323613185285545,0.300360161773378,0.299786584322791,0.298448717236177,0.297870295931604,0.295125338421973,0.294850596474891,0.292717039243865,0.293137193027711,0.292855171817565,0.292930826163002,0.292756510210409,0.29282232115479,0.292768771338143,0.293623283807191,0.294565732762356,0.298494910231734,0.299268201877457,0.306006819626791,0.309513153313208,0.303001688396815,0.302221624807379,0.292723919036582,0.294233546969899
0.329635120146678,0.329826868681998,0.316844932781065,0.317042593375616,0.31689234210106,0.31980585944911,0.321121704828767,0.32060425020061,0.319992449902647,0.318831261534545,0.317822726656124,0.31780593485731,0.317499199248019,0.317807192871133,0.317367192570478,0.323215451566311,0.546687687974521,0.546725742630026,0.784053820413601,0.333196189626453,0.33293004219905,0.331806610495517,0.331436782835777,0.331218539592929,0.331229003855449,0.330576164124128,0.330302990668997,0.319581224439622,0.318078059619965,0.318132970337388,0.31793201553502,0.317653546229487,0.317117101650227,0.316706066326892,0.316127312606867,0.316493507349683,0.324197173917235,0.322387936740912,0.33367562927214,0.33425813297288,0.334328472547345,0.35508332938804,0.719045439616422,0.331941269156875,0.331263712597213,0.330316802651948,0.752279709239725,0.325670241022339,0.315192849737466,0.31582282906538,0.314906384673557,0.315738281005705,0.315875607277367,0.31732922762735,0.319065489413533,0.318625742808294,0.318680924425467,0.317407192099423,0.316274565429376,0.317373620010275,0.318929567972661,0.318957053402483,0.318336277158337,0.31749817249168,0.316995926050348,0.316152374223061,0.315034581998932,0.313598395037719,0.312922091857841,0.311016819038785,0.309818750224111,0.308259622130675,0.307279237377673,0.306471155384527,0.305874214553068,0.305703520338876,0.305221934403161,0.303997823305213,0.302483824890515,0.301723767329609,0.301495983570431,0.300966356055216,0.30113067174566,0.300761254580676,0.300552976882735,0.301998112527523,0.304398512704431,0.303571461552492,0.304091665137066,0.304763020607639,0.306489032027088,0.306051769122748,0.305902549510321,0.305959234994756,0.306506270122448,0.306460783367246,0.307017837610033,0.307190949049656,0.307988791054089,0.308152352011651,0.308546524285157,0.307039772028084,0.305705022044732,0.306209883035073,0.306604744989362,0.308015796473953,0.310427300521712,0.309672132818022,0.308541189848758,0.32459022995575,0.324491700431023,0.325320063787016,0.325964230494682,0.326847812461664,0.327564354466362,0.349761927779039,0.351219257314015,0.350932757456085,0.351675383217914,0.399677714152515,0.544470839884925,0.554463244009794,0.564191874265466,0.41292022998881,0.311984904461965,0.31226572208524,0.312807513112308,0.312731322020664,0.312661159142338,0.583848241117051,0.584079206056571,0.584626357322365,0.541825184997952,0.528119714965806,0.488919479146775,0.422426195804613,0.365180567726621,0.418914439844964,0.573401828798993,0.571708503257215,0.569014044825172,0.395700394012862,0.325502637121375,0.323940151079289,0.324170411159759,0.300762894271273,0.300988337605839,0.300489639478818,0.301468020575455,0.296570454778481,0.293437323923693,0.293633713134584,0.2935113705555,0.293742238139029,0.293936767113308,0.293682087450832,0.293329079845263,0.293871517631407,0.293780375505749,0.298285124522009,0.300255792915757,0.302366261104003,0.302406017212971,0.302511927727552,0.301920919962711,0.292066958120125,0.292573201422098
0.329694575223921,0.32979522807049,0.316396871579667,0.318192077438079,0.321274615650236,0.322303284702498,0.322868162631025,0.32128557858739,0.319456846544902,0.318908216492881,0.318266306269393,0.318010899467877,0.317775082769954,0.318193745126484,0.318824482818272,0.320758322308202,0.320164243688157,0.325764703905551,0.327204253393081,0.327787753070712,0.329195892000207,0.330297322219944,0.330393813513102,0.330323673348651,0.330287581520369,0.329939108765795,0.318595404562348,0.318446736109548,0.317918789353706,0.317672435561701,0.317391666050517,0.317403211751315,0.317261560208484,0.31651024550346,0.315657112488173,0.316310637587408,0.318317053327899,0.320328107184078,0.333480328151236,0.346790328810259,0.386987761681546,0.379446052390466,0.378104596527755,0.330143114705217,0.329840750401006,0.32993780656677,0.683512702102322,0.324571256801329,0.323798016126197,0.318940494636287,0.317337169273787,0.317596500563693,0.318124616282809,0.318037250503606,0.318086066347914,0.318907021451313,0.319760618171063,0.317555843874123,0.314714694789659,0.316945927631858,0.318770839774455,0.318604545591726,0.318624370996589,0.317810847000637,0.317511455532035,0.316188284512464,0.314654869666925,0.312550341140285,0.310886950716965,0.309977895114293,0.30947211115398,0.307844979259577,0.307509855561283,0.306001651962131,0.305908922435382,0.305034743517689,0.304878689212621,0.302871743039451,0.301310685312253,0.300570630367844,0.301074257296757,0.300104848598337,0.300322123817976,0.299905718244204,0.29968137507364,0.299849343129854,0.299233519377858,0.301215389545239,0.30335034587368,0.302586684179931,0.00409674135052805,0.304965957298295,0.305183129409963,0.304668609975884,0.303777301472204,0.305028846375843,0.306950578182303,0.306203624488551,0.308211084013216,0.308278769220312,0.309088181472601,0.306360071977862,0.305522737369651,0.305419235509499,0.305359669276464,0.305933978578199,0.305049697949959,0.309786220664567,0.310892012853774,0.325252449725571,0.325279478124203,0.325926673019903,0.326276838802186,0.327000611509034,0.327506400286721,0.347956486042113,0.347475008483163,0.349324473378978,0.350974777026811,0.415369715679628,0.607649988280382,0.5933112367663,0.592017573772996,0.389690960736766,0.312055755458234,0.312340301226847,0.31306296191671,0.312880883386625,0.312770728653352,0.585231494060813,0.662957506667627,0.593646908497782,0.598089880877357,0.548968896512067,0.598158030234735,0.442698442068319,0.475508520467835,0.488712028423287,0.574057667229539,0.572966842254454,0.572664849559131,0.423334033324989,0.331354788102057,0.307472191872763,0.300817423497563,0.301302618178711,0.302291256285376,0.301710608373061,0.301537375331429,0.300167710915185,0.293118323927039,0.294281775918343,0.294391413930098,0.294607521885113,0.29488346030455,0.294596955935489,0.294425153472851,0.294434026146924,0.294654283461947,0.296258819688139,0.300883960246243,0.301894773933947,0.30225201161162,0.302564336775062,0.302445065365769,0.291438834307411,0.29256925590311
0.330175821949429,0.329497239437577,0.328258303140689,0.327883675618164,0.326966542636438,0.325385981340692,0.325465427560219,0.32194413378272,0.319746787568415,0.319094594528161,0.31830320156228,0.318224448524881,0.318276406623158,0.318394827949596,0.318255625536136,0.320603087436027,0.322643227227125,0.324063925700909,0.324851465135076,0.326568039828898,0.328683110311681,0.329476347846395,0.329538969951031,0.329236686747161,0.328774302012606,0.328728970149085,0.54767809202415,0.318164740213416,0.317411394747399,0.317369242947297,0.316941038842224,0.317215731799675,0.317364237886629,0.316233387204071,0.314812896011811,0.314695497228576,0.312905281366799,0.318898985537954,0.319829490558192,0.358723484297487,0.400954962151126,0.381879055596364,0.384497448678663,0.328614675479791,0.327758468060355,0.326571457460596,0.325119594869876,0.324834727857629,0.323861576942748,0.321615613073949,0.31949687615233,0.31920930243213,0.318952278370965,0.318634604329777,0.318584828068171,0.319153339971903,0.320109339401436,0.31769448115279,0.315613006071347,0.316815134214291,0.318442393020109,0.318101917900425,0.318432152780845,0.317501096369032,0.317367771341655,0.316094953397507,0.305347221752629,0.307602480271839,0.309529463898409,0.308725748897615,0.308589287338945,0.306119731209387,0.303055923458668,0.304060589701911,0.304389624049017,0.303653756347308,0.304265603058028,0.301309691794169,0.299541691442287,0.298482992655799,0.29678383508964,0.298233401940862,0.299729931336284,0.298720482546091,0.29873254296537,0.298455423822982,0.297978010770105,0.298689495517486,0.29774937699498,0.299631698375719,0.42020568975,0.303634604876606,0.303733787459837,0.303654859021272,0.303610408447555,0.303549953622517,0.302444990974873,0.303201862589467,0.3011927555022,0.302130627515823,0.302068611345267,0.303884301203522,0.303481411398642,0.304634760959771,0.304951818189747,0.3054820730023,0.30533180497098,0.309212282985647,0.326122915564872,0.326267735706243,0.326932887242132,0.327045084271494,0.327630453974017,0.327365460409381,0.327150193093864,0.346643483746664,0.346949681674009,0.347614365198932,0.347819106595446,0.432712068324281,0.596466837413705,0.594791640656348,0.648412885442372,0.367508811799773,0.311450792298681,0.311885499821707,0.312508288412877,0.362747632082772,0.664528743490645,0.586996344484087,0.58928267681002,0.527126110616257,0.375188341155276,0.375763802542107,0.375425589188912,0.385315594013637,0.387204380610883,0.514453528135968,0.573762009321311,0.573083061797777,0.572299772636711,0.572596205488023,0.750586476080073,0.300411615714158,0.29945558074275,0.301098924299858,0.302311451968333,0.302125868164816,0.302338791363524,0.301485177985475,0.30118778228053,0.295543888130371,0.29535723445376,0.295309303979809,0.295385357624825,0.295376363033485,0.29535466529208,0.294573530196533,0.294007131439393,0.294399215846009,0.301072876118728,0.301961910816406,0.302616025256262,0.302633932785071,0.302561476511335,0.290302646872714,0.291183271764811
