0.625361778754753,0.676208854674539,0.682256761493474,0.687006511343844,0.709534270851186,0.779077587535444,0.836632472940821,0.874527878845154,0.874168484124168,0.874097193528376,0.866402988678567,0.865605797583671,0.866321654144653,0.966414005442907,0.911748649575542,0.92093500385954,0.910219786696575,0.933157817145103,0.89826074491389,0.898929290738173,0.930227348289525,0.978693558957576,0.94926279347321,0.949124972323589,0.939167569622962,0.934138637623033,0.954890779915891,0.967349244256575,0.968223185643387,0.969138949936405,0.962931343304396,0.958016318238059,0.958349776452407,0.959323104656178,0.986651136220694,1.01257498824459,1.02534111623148,1.04234833699949,1.04425469250748,1.08596379509679,1.08395837770185,1.11838671288772,1.11552166678352,1.11094416249121,1.12666921476809,1.14146611898233,1.13896973747242,1.14881810339464,1.08888750894675,1.06472866485657,1.06427804315381,1.06380739093897,1.10085405241478,1.1030833876076,1.12704088248614,1.13123693647113,1.18405485013749,1.18610549032439,1.2157333227051,1.27840670177736,1.2824683657276,1.28864751213874,1.24428214582375,1.20403607927668,1.20454712344461,1.20353830585996,1.24654005129798,1.30566952962557,1.29180958381514,1.26202895596919,1.28140754681187,1.29461980906133,1.20318523628975,1.11185587027711,1.11619690320734,1.11470111345519,1.11000047920823,1.07454511059542,1.08137752247946,1.08883433095334,1.11770290203361,1.25043031484989,1.1654657282901,1.1645636888811,1.07700781880528,1.07862605721875,1.0541122841613,1.06567685630225,1.01214751985041,1.00290383265732,1.00699661124795,1.01057682551445,0.96804550471441,0.961460965419607,0.959720788105801,0.974625875015678,0.921002246028982,0.855489413770583,0.854958427923809,0.854017913891622,0.855110748430888,0.855347920881602,0.849463670866255,0.824410726791806,0.795610306233739,0.796836194390999,0.729274108610166,0.699434318563501,0.699220637831392,0.698877628449261,0.649254507679399,0.650949138480736,0.611679970505196,0.572393362400371,0.533319705753419,0.482667365367302,0.493134269996219,0.507015640378523,0.483438569064594,0.482895509986255,0.459914894420512,0.42748772471442,0.423022432688904,0.384175167077254,0.385479917328249,0.385870415599886,0.384754148330611,0.385218351256179,0.338318190568576,0.334347022463675,0.337581471238685,0.345602425815089,0.309007229461718,0.295488899495432,0.287591622819283,0.288490990318959,0.27965535825163,0.278105146686056,0.260527126320521,0.231724978382134,0.232251683746161,0.232388190377956,0.233738023927625,0.234649278507926,0.279863936472413,0.27284259120018,0.287037167461887,0.288162160080254,0.287878158857579,0.287267914552578,0.299849587650761,0.297808907218497,0.299598319648735,0.31994459002571,0.300167670292789,0.300418149706491,0.301033594021844,0.301824334227911,0.301805000347889,0.302058841783283,0.30219500077016,0.302369629410794,0.302963793636407,0.693415497293071,0.420667530836288,0.694332708568536,0.306385983021245
0.605448598870698,0.611913325348779,0.631578221146302,0.648583860883523,0.687067612408777,0.961081599937894,0.860755582439981,0.921060393869864,0.868775016723385,0.865246895519415,0.806089016836979,0.74085965023745,0.791487311114635,0.824388537433269,0.81882027645452,0.813251312125103,0.856511060856556,0.8772295233722,0.897416002124098,0.907824656808739,0.925485201177662,0.928279990830368,0.931456539096548,0.93323369708572,0.932905224932567,0.934358312564074,0.935230296080069,0.939906342364077,0.954265329619189,0.95889161494923,0.958927270768207,0.958890476257236,0.958532692816834,0.959304978216113,0.978987959377296,0.980420924196466,1.00431750560173,1.0090291005772,1.04366683249875,1.14855132798286,1.08188277253283,1.08088584994399,1.09569487580418,1.1385719658389,1.12547472762845,1.12530730766785,1.11617679362958,1.09395363025215,1.08802701468763,1.08696916548616,1.06414515676499,1.06347305725425,1.09589330219641,1.10236365236344,1.1244321561873,1.19894631592241,1.18137995497746,1.17785904349042,1.21560706804331,1.39118516650173,1.30522699041824,1.32945881756312,1.24790041020705,1.25751718358399,1.25912484719707,1.26735776053102,1.26262896686515,1.3220019674348,1.34742008576966,1.41502157686976,1.29374275086406,1.21552559197025,1.20874851903757,1.13182198673287,1.11989276504495,1.10871488273748,1.10420672686905,1.06148474466302,1.06093496910553,1.06076172645549,1.06276347084539,1.06449695109719,1.05352847071018,1.03454578116955,1.03467455269698,1.03443979504477,1.04771612098578,1.06336114444045,1.00084677268465,0.966278383022974,0.953462119059021,0.937506046796479,0.937591278347202,0.937444566166393,0.955212934799798,0.982301225473588,0.913600924522693,0.904996521801187,0.888480812574619,0.91684610433832,0.850129646989859,0.84617964173295,0.84712897844666,0.81639861196898,0.794503555762738,0.728989595653013,0.729335920352619,0.701086904936427,0.683600525242546,0.659620438578406,0.637025581498431,0.593672264519636,0.592133483526954,0.494939077033791,0.494865947203338,0.49307017290299,0.490756431601317,0.487327254568837,0.474639748282578,0.463198501698049,0.457966508234597,0.425219229478262,0.423461369995184,0.385374912171833,0.386945397495602,0.386721119469286,0.385746150066805,0.385907619200928,0.336430073726789,0.32195523698089,0.319437153983055,0.303387964705257,0.301593850106009,0.296611022560919,0.285890117262967,0.278518397076989,0.27905886703706,0.278156346972211,0.261367797262381,0.231969338737656,0.232391648659916,0.232752308758362,0.233537403251972,0.234102371751975,0.28889426302152,0.330355001675335,0.29005450299019,0.287637819591501,0.28771666337132,0.287087911603398,0.300248064168133,0.299729658870922,0.29968232756757,0.309263189204671,0.299648549903955,0.299640130188177,0.30047917358058,0.300431278920253,0.301489945784605,0.302102766722994,0.301918242891933,0.301616235313224,0.302037047113235,0.693700893608719,0.392980737799338,0.297659514480476,0.307241042559071
0.599205019651806,0.603113560525705,0.614623879450853,0.627627882133453,0.66395852759119,0.764123490860234,0.812508730575186,0.901854347346867,0.817095725340665,0.774574548484653,0.772829384784261,0.741867185864547,0.741928848531518,0.741889397707125,0.76389555042155,0.771736664605061,0.834150739581137,0.82793893631105,0.895794877115981,0.922476765837522,0.920915000312594,0.919557468236416,0.926026057616366,0.940447168957352,0.931003133716063,0.929915170395589,0.932442445131622,0.930678310551971,0.950077231407298,0.95688353400933,0.956775051480933,0.955391140599654,0.957573546514403,0.959255067891711,0.978105043065845,0.979053728028059,0.999493017233965,0.999038985618388,1.04240106536071,1.04025003780603,1.08070392669957,1.08389993193623,1.08301984385001,1.08260590459546,1.10094059185314,1.13810287797428,1.10777860570676,1.09595640983607,1.07465971000461,1.05613617762703,1.06162018688824,1.061324500537,1.09038092886882,1.12107732066117,1.12182179024271,1.12062450151121,1.14958129444941,1.13843988603344,1.2108961174849,1.41618551131984,1.27825687612822,1.22885660704465,1.23481502942843,1.24042820967948,1.25951902174161,1.25725365223662,1.26019222732534,1.46209301646262,1.43227737473983,1.41782746131571,1.30081614446693,1.25806279344278,1.21759040314241,1.26637120313776,1.12834419097219,1.12869822539812,1.09376482312421,1.05990537037632,1.06047921660998,1.06002357032849,1.05747516515711,1.04774751040141,1.04595592640148,1.03649783982327,1.03504559109927,1.03492623454848,1.01588773158605,0.97601369304303,0.97410172605257,0.966115732788238,0.9467427382133,0.934535016357044,0.918842742245239,0.891455877719136,0.881223080550777,0.85984311891097,0.849141973458909,0.83081332597501,0.832217901080048,0.833179763786233,0.841896964360451,0.846135219307354,0.84586579253789,0.847113135348355,0.793534236801519,0.729881651479172,0.729698461463128,0.724182580252933,0.673012259093698,0.6195637370495,0.630306488763052,0.657862057454974,0.590714371250866,0.495036716615371,0.494823903493891,0.483006894168341,0.477755249189446,0.463439247552538,0.463563326113248,0.456010118366266,0.455610491774128,0.425115181094129,0.424536884785762,0.39217266450495,0.390436133954391,0.389900024850868,0.372973272122597,0.332114102951876,0.334159569844817,0.324312820617907,0.316694247055106,0.301168157794552,0.299799057145295,0.297969109554678,0.284490252384128,0.279882707740518,0.280119882652374,0.265675438428494,0.263359199716875,0.256706205045492,0.245347087138991,0.232920870553054,0.256438873799176,0.296755308056744,0.294400801770465,0.324690645531761,0.292001024236716,0.286622429602106,0.291326780573414,0.300683633747445,0.300876807605609,0.301009528350178,0.300175236129942,0.299648365000506,0.299752329862046,0.299883344118566,0.300575686837144,0.301184294795034,0.301396841052709,0.301576335770036,0.301417740474779,0.301013680842508,0.299943249644069,0.297751629605611,0.365426367719681,0.411861670190543,0.306691086037484
0.597452575147246,0.602170278685025,0.605572489386814,0.613183777651597,0.640083917556936,0.766181040510197,0.76794346838165,0.769471532751098,0.771351574750786,0.773373567812705,0.771836320441273,0.742025964194237,0.741744386832422,0.742128782015366,0.759174006405288,0.790458691108261,0.839817092535856,0.85821769383318,0.889218032034697,0.895360494661342,0.91505072781156,0.916931647468529,0.925038552888238,0.92781932349657,0.929249491241366,0.932089211232291,0.933623162454651,0.935621332277051,0.941030969924713,0.945671998618318,0.950751213099252,0.956257627971556,0.957021427671917,0.957405616775787,0.97689601066691,0.986014686509303,1.00049094599465,1.00027171044909,1.04249359010913,1.0590000318926,1.07902532204569,1.08001086297627,1.07830788276165,1.07684953165609,1.0739136678728,1.07167873639572,1.06936038096156,1.06689740148693,1.06392177671788,1.06060884873359,1.06122445637249,1.0630141482863,1.08535061972049,1.11503223452665,1.1234538407716,1.12428126662455,1.15653921972016,1.16283305092358,1.20317090847962,1.27031564514373,1.26664069820835,1.2321605907701,1.23235749511884,1.2531942083251,1.26131184394055,1.2602840000408,1.26107822844117,1.4392919634677,1.43243463403711,1.42305637681485,1.30937371001633,1.29366857298393,1.21308033646812,1.19465902713803,1.12752177932492,1.12746437125752,1.08329190277979,1.06393041207189,1.06107557297726,1.06088978637443,1.05548286659123,1.04621032254656,1.04475611432222,1.04000647963948,1.03386592016376,1.02483893683601,1.00023243262409,0.974090473509483,0.971817304780551,0.968644739283729,0.937006501763098,0.920789124396203,0.906664754120392,0.8871579036045,0.875031299944036,0.860871015343609,0.840723180526705,0.831910997502845,0.832468212863386,0.832910751518464,0.840329843982364,0.842285529264967,0.843277134101637,0.842835202235686,0.792662096921231,0.737765676119941,0.729567896192463,0.724717664147308,0.662665396609921,0.619003735533943,0.616183932662331,0.609594472033912,0.589651673182891,0.544193474408642,0.499192734727345,0.49407752789697,0.469462155590719,0.462790757257606,0.463110434307371,0.453311325610154,0.453110373692672,0.425441119023352,0.425166554473017,0.406705570528296,0.392193957830919,0.391855993219881,0.363380710909229,0.333501672424111,0.334138003408195,0.330419048301118,0.313849548933509,0.29888836318369,0.298326033278551,0.297451633599142,0.283806015520602,0.280484084575985,0.280851178678322,0.265174745801011,0.263865028393373,0.262622845557047,0.272240124898941,0.275608754118813,0.278177535512923,0.288078788231416,0.290572210773277,0.314185757083672,0.297497706552954,0.296386704123101,0.2988101783196,0.30053181069576,0.301366318066757,0.301515949127919,0.300606884268143,0.300102710456396,0.300288414974246,0.300533978113103,0.300945705276665,0.301350314645794,0.301488970899092,0.301414681319671,0.301154319341735,0.300586963937063,0.299523973819098,0.298140958604763,0.34411015915246,0.364594067073402,0.305337126166731
0.533883057744753,0.538372161022535,0.568076655776018,0.587364466376211,0.614460889320375,0.804409330088831,0.759249555232978,0.758205533549703,0.765947397866632,0.778403879972704,0.769583874525969,0.726951762161746,0.740561034713553,0.737250080519677,0.756366231594122,0.810831686074993,0.845154163663017,0.892493534170166,0.886278421075762,0.8593593965102,0.913611169909226,0.908825453134174,0.909947079897554,0.904029243397362,0.926110817849315,0.944705456511253,0.940861209586245,0.937102250396573,0.933306222228268,0.934436643007679,0.942155847490212,0.955528348696219,0.955929910627527,0.95551881564016,0.976419081983601,1.07000161520082,1.00134751369258,1.00103227366146,1.04139273636243,1.07547323162701,1.07694608592411,1.08902743708962,1.05473996271125,1.02851575694399,1.03853769604819,1.03017641311037,1.0423613768639,1.0473321870233,1.04476238734335,1.04307671274717,1.06041836470123,1.06531759726421,1.08468883254149,1.10802958367925,1.12408568220566,1.12802195616426,1.158955014613,1.16726687078311,1.19543487128571,1.27846764505583,1.26088155702496,1.23307236027077,1.23221736292064,1.26406012875643,1.26344523199463,1.26959698886787,1.26481141847682,1.45609406026948,1.42587430550469,1.4138908598812,1.38112859081703,1.38689029206509,1.20759084687442,1.15846510004481,1.12676695746891,1.12629425823034,1.07534227806013,1.07278240217556,1.06130996210297,1.06111197222387,1.05373272550983,1.04134480852259,1.04287982955067,1.04422037657739,1.0326049731351,1.01285663085413,0.985768803740811,0.967308167230839,0.969479481847743,0.97778847898297,0.92722133834733,0.885117254477082,0.888357321370288,0.881153579159547,0.868309875783788,0.861945288343342,0.835329434807446,0.825138070780084,0.817791907828118,0.804618686206398,0.822599779691643,0.841794077741609,0.842263818697856,0.841944940982361,0.791825667789171,0.750897511081959,0.729375236405535,0.725663127498722,0.65290653955691,0.61921114101482,0.614543638,0.596949654128387,0.58916305085721,0.589188852810068,0.504138407926972,0.519055928218266,0.463347175258629,0.461369543390961,0.462082028953382,0.450356475781327,0.451675136126086,0.412794069858643,0.429057291659032,0.436148770555558,0.393068838074514,0.392568674594277,0.353425651823499,0.334123566527351,0.334441299700443,0.334401057332136,0.310901885037557,0.296422675429788,0.296997464765067,0.295811474159423,0.28369044812003,0.280026143202527,0.281019323368375,0.266408386860783,0.264859972388648,0.255766905720004,0.274676735020892,0.27582365874003,0.279686332850392,0.286423923306229,0.288759483749826,0.331164934801344,0.299838935610244,0.293255943878384,0.299764610809892,0.301057767840237,0.302367782245098,0.302993883245906,0.300968425907596,0.299898808421418,0.300644022619932,0.300887883840136,0.301273007893777,0.301989272373419,0.301581693267488,0.301615741751461,0.30093186457931,0.300621022081596,0.298883468305398,0.296969619492526,0.328349716518661,0.413072727076094,0.301439007179906
0.51656075435976,0.51079393996773,0.543840065775116,0.551813216944747,0.576632412701217,0.590585501152753,0.680469596506216,0.758911328633014,0.763498271123095,0.778692474023228,0.76769097218808,0.727099464561533,0.742924100989251,0.745880497965136,0.754298113744746,0.857757987925732,0.850919610843693,0.834229494789531,0.882710196882052,0.922287553232986,0.91821455081827,0.923828839087724,0.910326261979294,0.904104192743896,0.923093293229755,0.941864091757103,0.94301051685847,0.943234396550965,0.930055789486345,0.930917541132737,0.935528590399197,0.954401010138786,0.955249738595316,0.955050798893887,0.976293564300581,0.976138897256564,0.994112218627481,0.99137425947712,1.03928002267899,1.04333932964634,1.0405876468254,1.01144842306557,1.03360267609729,1.05916808211856,1.0501705859822,1.05878324993014,1.03833514478913,1.03347640129654,1.04371767557861,1.05127584450028,1.05907369159054,1.07819785497815,1.08263260366161,1.0975742851458,1.12448139615515,1.12030791552193,1.16198830585958,1.16661046780032,1.18815442497752,1.21568520704867,1.20958689076369,1.18748046376034,1.22643233972018,1.23293299974653,1.23828263760599,1.2476193667456,1.24307380562095,1.16549673633482,1.25292755684849,1.36005931025041,1.38066911284331,1.38345113971526,1.19947216591314,1.186224945935,1.12019049205633,1.08051621680058,1.06510816422068,1.0496517141539,1.04927852143739,1.04788653033487,1.05165074213192,1.04110551223011,1.05171465803145,1.06020096985355,1.03124779790785,0.959054264023574,0.958752250451591,0.954250448510393,0.946618592250902,0.920691532111006,0.915616371244733,0.907928404887468,0.890527767181705,0.891568409444138,0.85249586327347,0.823953345102468,0.811157689512241,0.791440118567222,0.789994815910884,0.789405355131037,0.79473598609813,0.796859313807446,0.811957484209929,0.873107235943291,0.790848460967886,0.791564078998306,0.729561316499483,0.690534464937163,0.642326906392955,0.619463026270852,0.611631709642197,0.597088597488928,0.56983144746888,0.534592427950564,0.496854789158822,0.45756243058594,0.458146652885806,0.457684987445383,0.46063746468778,0.461127364959551,0.452239390688082,0.453810740005995,0.43846357800765,0.450863331480472,0.381752549468763,0.341775754403188,0.343091808065694,0.335089207312129,0.334842499854381,0.334880606460072,0.308055946821121,0.297740393798651,0.297037504989522,0.295904764896452,0.283592834468725,0.281869562116,0.281548629259395,0.28116838402259,0.281109908573373,0.281164902230393,0.283312865127121,0.285244452645066,0.285563742536653,0.285490408175884,0.28648095673034,0.323268607367824,0.302539527190208,0.303934437979797,0.304096423727662,0.302670713950723,0.303821634732789,0.303680979351469,0.308656901141199,0.314149164648868,0.305611536549256,0.301187633309644,0.301213582272563,0.302276263043157,0.301590671798366,0.301126760048616,0.300567008870249,0.300108454583273,0.298422338878399,0.296900042993829,0.296548154700644,0.296126840633888,0.298698050619615
0.4944664246807,0.502195397203686,0.536428413337692,0.551645483672712,0.568462848923741,0.583469368316692,0.653024608686213,0.733910799577631,0.755037127091266,0.763449538459072,0.765701224733877,0.784138677937092,0.749142283214973,0.74809863909778,0.752495905130222,0.945366024558688,0.860295832990297,0.869722040459015,0.877255581246572,0.877664080945319,0.878165622835356,0.884874527591065,0.91131360820434,0.912270797788561,0.92090365304697,0.949063717432627,0.946435865926208,0.944507227187394,0.927693957203399,0.918818450590984,0.928814748335772,1.00209793734904,0.987644319981213,1.00173180317687,0.9910790673975,1.00100814502293,0.997409505144256,1.00911080066046,1.03676623723326,1.03618473639884,1.03545198721893,0.993517270495331,0.997031366927661,1.00049281500428,1.0015880727421,1.00272918358511,1.02911965029059,1.09241086087994,1.04239710453256,1.04128760358345,1.05772035098438,1.06626817448641,1.07275876595936,1.07284165937068,1.12876882867641,1.22315641503875,1.2239739624097,1.23809028285125,1.1802606944075,1.17005436863701,1.17943055546963,1.18686712008587,1.21006826921105,1.22933691572028,1.2253382047007,1.22185144171699,1.21952981646003,1.21829504223081,1.24235627363769,1.36141623974003,1.20331821521877,1.17991689527146,1.16475562515223,1.12163071789422,1.11332599001061,1.058398177892,1.05165293815863,1.0480835182453,1.04984419633244,1.05244526952563,1.05219899922715,1.121128869391,1.07086584020131,1.10116051285579,1.02986036347689,1.02848351867591,0.957876302360735,0.956613538398606,0.935716063803083,0.909600237068306,0.907882106723632,0.876998686847454,0.875565773569685,0.830228894239212,0.831814803510696,0.801167068603245,0.79884193387974,0.788731693960111,0.789640833915581,0.752796714358403,0.793041150941378,0.796325010935263,0.797199078570432,0.797379930232212,0.788739823639721,0.786224227283786,0.730095709777069,0.690869304915772,0.628316813863135,0.618092763069361,0.608155071621415,0.557039238803344,0.55389152881137,0.517696796111159,0.492247162366488,0.449893571879086,0.449190348125515,0.450331245142053,0.448959391279539,0.448205264335832,0.445211149702616,0.421397308963665,0.419502536783415,0.391829476547521,0.376666539092677,0.342633718333885,0.343358068522842,0.385516958340188,0.361681683319937,0.383439385564324,0.305562085818803,0.296069046580536,0.297195183962843,0.356686294074584,0.283043592167768,0.282256576812212,0.281951140339024,0.281677399827888,0.281341206668408,0.281386590620145,0.283693060610466,0.285592252866975,0.285507695348477,0.28541057801388,0.284605424010485,0.282227730320343,0.303930857863218,0.304656222364188,0.305181512533732,0.30654025350081,0.305714688137613,0.312581675253196,0.312682417548397,0.314033348920144,0.310171219795586,0.300032018934308,0.300253443847921,0.300497542731564,0.300856483901806,0.300953979884921,0.299622449454712,0.297661349191413,0.297445180281694,0.2964673570993,0.296238243004392,0.295633363944586,0.297398689085893
0.488316436985283,0.49368103057196,0.52590951223586,0.540736052356421,0.558392637329667,0.563849290678843,0.624694229992151,0.638341509721632,0.689055090529114,0.710736428200504,0.731802224847598,0.749569562338925,0.749412960003954,0.748717537306532,0.750942462737318,0.7613678030208,0.834214101021561,0.833435905210837,0.857870740509151,0.864665511923779,0.87199922869257,0.926215885063782,0.912619247699061,0.913923559792,0.919097308322513,0.950160933182976,0.948678265001134,0.949836127191138,0.927269526177395,0.919438634945008,0.91866021865024,0.917086558422459,0.920638003483734,0.92235344812987,0.935517340675467,0.942847251718971,0.989406142018387,1.03374183510516,1.03495580327951,1.03461919937732,1.03478944286915,1.07108123955237,0.989982099814466,0.969013486298147,0.991156077803535,0.997206988305951,1.01877063653935,1.07326865306407,1.03906154992448,1.03522540691627,1.05668534266699,1.06079928987265,1.07161453693316,1.07122245201842,1.13230428355863,1.22722492599488,1.22488997915153,1.23220753907862,1.1601993649802,1.13142728153005,1.15853818066673,1.16180703606674,1.18188488830232,1.18890959307733,1.22258020750295,1.24024429336239,1.21812683059735,1.19841353650705,1.19716046458531,1.17366827218582,1.17354295076303,1.17367883394101,1.15319169587624,1.11551988331657,1.10492614873308,1.06362709690007,1.04379331928678,1.02794514233367,1.02802014699979,1.02821584686402,1.01964731149571,1.00572715292514,1.00541171387721,1.00558239717929,0.989198284804224,0.967240152773311,0.947264256310832,0.92883080177701,0.923586041647575,0.909230151781349,0.907231849187102,0.873372772545299,0.874421424735555,0.839565692076811,0.833804480323634,0.816122904714355,0.79691158430396,0.789072796151918,0.790211843497108,0.793192010393768,0.791527260983594,0.780331479762959,0.793978336391069,0.899704486010648,0.783189958931888,0.764650675955997,0.730787380732852,0.604363758078453,0.607366866887896,0.604735540723158,0.603730197747559,0.589608347221473,0.543229510550064,0.518196158922129,0.487334382135023,0.451091301250971,0.44761349218702,0.445508168422678,0.444577578655041,0.436614254933116,0.435433444783142,0.395751798023259,0.416144268131177,0.416575817814375,0.369448803766332,0.341228068913964,0.336401875594748,0.317357474024631,0.308384038059509,0.29775003930548,0.303247557170322,0.347941334390475,0.297887376242017,0.281545221592837,0.282905935218236,0.282429949449971,0.282261944959409,0.282059879673774,0.281414928306724,0.280384534850269,0.284750739661571,0.286271707837276,0.285574069808633,0.285854450153968,0.291744022983235,0.304500776054238,0.304708921531454,0.305249248752277,0.305600723121589,0.305983218411326,0.306755875051248,0.312144280782252,0.312466728177052,0.315726426805373,0.315922601420657,0.316716211392546,0.299733667382388,0.300230707829611,0.30087593645262,0.301257591216791,0.299729828842055,0.298119398798167,0.297446007206369,0.296584705999657,0.296209512914402,0.295102132761235,0.294920686378913
0.48484857769662,0.48823758041553,0.5133809360975,0.534540861267551,0.549607371715871,0.564175759911087,0.609991760062238,0.626946444825126,0.665573581830244,0.70508450725886,0.72128221894535,0.750299082281839,0.749861456199517,0.749452089295996,0.749937051086873,0.762835593305419,0.835287106579165,0.835048114255546,0.848934425509497,0.854948650217107,0.868391404194593,0.915999700526701,0.913999871636334,0.914797637089126,0.916985277483461,0.918413515037684,0.924454122435067,0.926658685022604,0.927526442283837,0.923532924538454,0.918726495482964,0.918669503200871,0.920280656885891,0.921507783654811,0.929990447928771,0.94099020842051,0.983288144776661,1.0059451939267,1.01258530439328,1.0195983442771,1.00706906797338,0.997375681501923,0.985612503213801,0.980383070074716,0.988052922808643,0.991109109951283,1.01134973947927,1.01886831033549,1.03353662413555,1.03389699066346,1.05565003801375,1.05897565218682,1.06984193940903,1.07141743917431,1.13480310461211,1.15229778836316,1.14799489495618,1.14251716217614,1.13892940814271,1.13719312974305,1.15618374843847,1.16613462223508,1.17964650972979,1.21385176541898,1.21846485783763,1.22168610510616,1.20905517605842,1.19414026724468,1.19044066239572,1.17341835363843,1.17367045354374,1.1747790384569,1.14404618940774,1.12009791676136,1.09874708831603,1.07422971131202,1.03478161128719,1.02491764249327,1.02212704884346,1.0190554527338,1.01589619321873,1.01243654798578,0.995164249391508,0.990155917629179,0.964771547717952,0.95432027435753,0.940891429509142,0.926806693005122,0.919481251757779,0.906456271285877,0.90574670647057,0.886228606973342,0.874027719933712,0.838473702289772,0.835977581993294,0.802529922655666,0.795540751524671,0.790316699542638,0.789245245456875,0.787767817129428,0.786668255798171,0.782750712618602,0.791618617576537,0.814610142090454,0.780238316405603,0.76986859718803,0.731623591278346,0.677975178023662,0.609764458207424,0.60740817991256,0.598615136974014,0.589682403933694,0.530868736777545,0.51770514505994,0.474715918349445,0.453615473249149,0.446015635742739,0.444525868366206,0.44214251987628,0.43637461488647,0.43545913910422,0.420930124941254,0.415392344654368,0.415256903784029,0.359562350595101,0.336439244802035,0.334310177605032,0.32217493187962,0.303235098718203,0.299445304198737,0.300944901782267,0.329085745598662,0.297529327920762,0.289047507986862,0.283827865026088,0.283036854136803,0.282683748062538,0.282305966222225,0.282150872879124,0.283625385274299,0.284978139710559,0.286321338701165,0.291775080736136,0.296055167530058,0.300164495997477,0.304924374950421,0.305108917880155,0.305464477941654,0.305984640685417,0.306698445112055,0.307421848237608,0.309297113306105,0.310873449048208,0.314579352400737,0.315983282796963,0.316508692848497,0.299746717426341,0.300514350788179,0.300849917819259,0.300855532512796,0.299495512667046,0.298105921030166,0.297298910526444,0.296769594835922,0.296544167227516,0.296291111089333,0.295856242106101
0.476787767289125,0.476375026293849,0.502951473032078,0.52764332758179,0.541931304190791,0.564474909519667,0.597834513905327,0.619599234240738,0.642011571247497,0.69526775925321,0.709927097713072,0.754268889132503,0.736983179236251,0.694283891937129,0.739226073165642,0.764438066883998,0.836648463675992,0.836540851000495,0.836587939511542,0.836234124161044,0.865719639017949,0.919395419884632,0.909624231096679,0.901129783571713,0.910061120312161,0.904455812200948,0.921966760010218,0.92720432878922,0.928089145161504,0.928966874567732,0.918574178275696,0.917866841776145,0.91133057070321,0.904405866060603,0.923994777442327,0.939110071876151,0.974628296884819,0.995169565982384,1.00620995625347,1.033735624766,0.98642084368151,0.962820300414277,0.963587454465189,0.963744239329082,0.968177990904361,0.961069353221082,0.997934028063617,1.00441991144069,1.03322759050519,1.03244363458161,1.05283243321637,1.05051264553187,1.06536751289799,1.0607288031693,1.13637950314611,1.15895296277336,1.14584296134217,1.13806489252767,1.13198865773319,1.09691845793163,1.15429065248458,1.17243766097585,1.17845840391615,1.21576073726802,1.21641446365861,1.22532332825914,1.14096971758819,1.11330020710406,1.13848371639247,1.17158300093286,1.17308154151147,1.17772820474741,1.13523314535955,1.12463853542293,1.0925069334841,1.08466546874974,1.02397620817251,1.01242481265943,1.00434730075556,0.994587507225997,1.00513991540011,1.13851551550964,0.989426928308951,0.976543700203293,0.938341432808925,0.906040149223179,0.914959648263967,0.924340181201083,0.913969581034299,0.90524692680516,0.904891148067445,0.998812124101007,0.87400977592063,0.839171732271861,0.837362860448342,0.795556629963833,0.794622013384453,0.792954728179648,0.757532279215963,0.723784859003607,0.705397471597474,0.696532327515231,0.737024625161187,0.899022914461944,0.777265429155072,0.774431466906825,0.732763377604633,0.709321649819997,0.620652659050822,0.622904750368216,0.592910829549617,0.589918553051336,0.523945619070503,0.517155758018346,0.461706130881816,0.456345589626535,0.434556747545628,0.415772268352676,0.430985693109622,0.434661462943557,0.434764055338533,0.448607385920493,0.414629999428366,0.413752923812936,0.3504766375974,0.324962887242219,0.33082506186207,0.370884762530433,0.301968621625285,0.298992051530825,0.300134055270372,0.34863417191949,0.295993002680512,0.293995084452798,0.283717737674791,0.282415804915639,0.283021372528509,0.282596514041074,0.281877666607009,0.294301714327604,0.289816978202348,0.287094124448284,0.297217854569535,0.304970927128964,0.305537553679397,0.304881090690376,0.305233232640993,0.30541710814084,0.306292520141475,0.307269582304412,0.306870130510549,0.30512673511983,0.30753373574009,0.315428061295347,0.316032561491216,0.315402091814337,0.301075468941071,0.301848313635581,0.301728396408947,0.301376397298659,0.29951835648158,0.297064846063209,0.296990623990477,0.296243673840225,0.29676654060099,0.297199115674011,0.296676335403156
0.478464154965103,0.478717540696844,0.490391992217334,0.490779772189437,0.534605617669604,0.579830563974696,0.58496467387893,0.59091238755827,0.608901789090671,0.625519329510521,0.673272436683696,0.729348920409676,0.726491111134131,0.723289031568968,0.727415691753052,0.869586565263144,0.83752095213419,0.837198507825264,0.836949940851834,0.85298209748308,0.861885596838244,0.876222731719726,0.893038278219941,0.940136886796843,0.914605156557487,0.919805636094627,0.920317015708802,0.94683841113384,0.947813926945887,0.947330862661304,0.908217011005708,0.891964309294246,0.892409397525767,0.892234682261199,0.917908237734179,0.989724502390746,0.963639387526804,0.941047530761422,0.959376114653644,0.956111902510762,0.948974352566929,0.936768902218281,0.958146182338958,0.979417251427679,0.971028845785165,0.97564048524194,0.988071451996021,1.00661045463748,1.03377002207263,1.03441123827551,1.08188269175837,1.1233684658599,1.11189237235165,1.13812410593463,1.13737812038868,1.17771057357694,1.13725616063734,1.11786496403346,1.11808697709611,1.1028490245378,1.15205437639137,1.20973317072028,1.17739958859904,1.1590002172626,1.15415360532455,1.14133192983711,1.1336272907676,1.10905569734486,1.10702497233058,1.10499252222337,1.13418423953125,1.17013441984514,1.11442533748675,1.07186959479117,1.06758530806882,1.01776470398378,1.01719869141005,0.998680693966503,0.980738329603458,0.947243631202024,0.930260767476411,0.909245546110335,0.892068372444194,0.879343456115222,0.88198221993179,0.884759698899671,0.882168347562231,0.879727347785974,0.879665391825137,0.879701780149001,0.888825678924139,0.898333711257076,0.874261256971948,0.838855825449943,0.837568455694143,0.794454719570441,0.794540364569159,0.794930664389659,0.745697795531296,0.703954505282278,0.688107290424169,0.673445925685798,0.671077002731981,0.663358936607667,0.728168720247723,0.774754868552967,0.73432548887968,0.736226638473431,0.617539329657149,0.578647903366437,0.589378534316077,0.509788860223464,0.503260124591206,0.464399976713981,0.458681143392671,0.45139116732664,0.425292964835506,0.417093469031723,0.4258461632602,0.433022701358215,0.418548944394348,0.398048163301678,0.395056463862763,0.34638843554008,0.339031172773854,0.337673254309149,0.32544685376565,0.29923063193152,0.300744955214606,0.299128671433044,0.29838885606718,0.294252537591271,0.295722989641676,0.296319918717315,0.283308062022998,0.273549252295502,0.283861448585645,0.283592313884616,0.282043503348712,0.293353382459557,0.295828083045041,0.298020350269619,0.30144635745452,0.305397009652043,0.305999148389009,0.30546799150287,0.305401207715178,0.306002578158364,0.306291020377314,0.307231009116156,0.306777961602419,0.306457560450771,0.306166400004678,0.305064662543394,0.304747660333553,0.304379070029449,0.303098853018678,0.303643769910163,0.302449090169645,0.302316450058182,0.299513490950842,0.297786011243925,0.296821509268054,0.296907254792106,0.29655882263179,0.297203117022777,0.297059687071363
0.480689932271982,0.489060361244148,0.489642289858298,0.490432190462598,0.52657705280369,0.537995592643406,0.567396301188609,0.585062288289245,0.591969529733865,0.598661092545472,0.624441536411759,0.628167342739496,0.679923329629122,0.700046268410589,0.718187514436403,0.869371892163841,0.829294480200952,0.823448645152304,0.828784307958914,0.833779047627267,0.856563857849501,0.878442626175543,0.880617211096095,0.881689361440795,0.88649182512805,0.885964748472729,0.900462872822865,0.96413270865142,0.949082001730543,0.950580191148839,0.898799853155782,0.88421384722102,0.893824814349056,0.904100360263567,0.91245819881458,0.930760114803098,0.956008962126033,1.00315565634318,0.960590081467328,0.936390443153007,0.942450890623181,0.93919120197123,0.937723481062675,0.930906485152345,0.954098661681801,0.958096979981492,0.977323942080624,1.18157844517781,1.0727342203699,1.125050950122,1.12453447932311,1.12426497678266,1.10363497062375,1.09349048609628,1.10803701459675,1.21398595187047,1.12899444340776,1.11696929502138,1.11778816813042,1.21586355944591,1.14815105774708,1.13875619211427,1.11862535552728,1.0998526747626,1.09684636245293,1.06384277502951,1.07955202563382,1.0766870305067,1.10027985074813,1.12607526676676,1.12538867034522,1.12481351448193,1.09983731098556,1.08122959234855,1.05317391293778,1.03519076974086,1.01666008841899,1.01616831087395,0.965350689276533,0.933756776185523,0.922131356198362,0.895311015560026,0.888005293592274,0.869520499365702,0.857824331839736,0.848195143206122,0.861938527922096,0.847867501243465,0.867621402327572,0.851971010078296,0.88293140335977,0.906589794822055,0.874148437076449,0.873237267378716,0.848191526396464,0.804587703781735,0.794008967197875,0.73934083870582,0.731462624024675,0.686733091613744,0.67917358464724,0.666052232564864,0.668458740027054,0.678978100550501,0.691160198009133,0.706037715907591,0.723449804212855,0.736862970654864,0.614159397311082,0.610579914643123,0.599954699577353,0.514611299080439,0.49581739252667,0.425455853741793,0.425980707849341,0.425709561668077,0.420321566302568,0.415968424666397,0.406890715907398,0.398467601291425,0.40637676566975,0.413034095920756,0.390588564950867,0.34669399835576,0.333195939725755,0.324270130442115,0.321932450430428,0.304897491275923,0.303251725956901,0.299587881905252,0.298509515464098,0.29359257642471,0.295532501529732,0.295860415759058,0.283968366785975,0.28489762472996,0.284155432988289,0.283743545580818,0.281939123383996,0.301259639066278,0.300479192679999,0.299740171413218,0.303740568326267,0.307575677557959,0.307076811871727,0.305174380692497,0.305167494833476,0.303953256025581,0.306013926114493,0.30694771307171,0.306994791014791,0.306333975557244,0.306346889947819,0.305719177119148,0.305383076154959,0.305322599232799,0.304499664915593,0.305189523330809,0.303005130022405,0.301083777531116,0.299235306668331,0.296388289356458,0.296217027086819,0.29504388873022,0.295562449916866,0.295024872845379,0.296263312750165
0.483489583482151,0.488203082618619,0.488236884182471,0.487877776160213,0.517693722035649,0.56804106472945,0.54891687595632,0.532343997648214,0.576380250298196,0.583880576652798,0.621899711509533,0.621842213630973,0.659544278537574,0.668860142999738,0.708699733130216,0.813594768904938,0.80967175243861,0.805588194793925,0.818193373931795,0.825788727090308,0.851212358876134,0.878571932018293,0.880115220196199,0.89411463936954,0.887214063994927,0.887671728515259,0.885558233734814,0.883671476725305,0.889671960992745,0.891361751817008,0.896145597213632,0.882307982456428,0.897075939950535,0.904028112344864,0.904840624707892,0.90546739973051,0.949281201329713,1.00475788134874,0.963645828956527,0.962329302623353,0.954575602004915,0.934063047519907,0.935703323442572,0.93393833085194,0.951681913456717,0.961615515762819,0.967172813394668,0.972938672554243,1.04252730961374,1.12479244795394,1.12450626608972,1.17407740292646,1.09730516913354,1.08224557491311,1.09943155806779,1.18641328467835,1.09945134328556,1.05118798788548,1.08795171901374,1.10469013744664,1.11216053788262,1.11958006959532,1.10624555994306,1.09364528654012,1.09094184290383,1.08277977319075,1.0816808555769,1.05092512488608,1.0880734908896,1.09128270704781,1.08925224570517,1.08722703042574,1.08926014841226,1.09107829113638,1.04179710085918,0.979206218318131,0.97736779328064,0.955811341782786,0.951010658837004,0.89858014856914,0.907440735028003,0.885651401788384,0.881027159658209,0.847629500302823,0.853337678838706,0.892909421650299,0.880237910179368,0.891842004626739,0.87968808298394,0.902203581260503,0.874796767984144,0.86141762038461,0.862414696945785,0.864025564076423,0.853380771459092,0.864508731969655,0.792982995888942,0.716592163150229,0.718324758975214,0.716701666984715,0.668578072615541,0.63362970600208,0.652794428612,0.662130238053842,0.662285348360593,0.590167734485638,0.635105356044904,0.6481520085671,0.611312159672056,0.609499225723726,0.605291253311152,0.611628872090892,0.48581624743036,0.425204220025049,0.426695815961522,0.397894070311785,0.398238885634762,0.398515376384954,0.398541224063521,0.398596267256519,0.401818596532938,0.419308904539181,0.385909208350392,0.378146283686457,0.328097340825729,0.32491264402502,0.319831324644467,0.30717598794936,0.305966670307653,0.297355228521519,0.297515585988763,0.295402492427621,0.296416449901712,0.285596379790555,0.284653305530082,0.28412534587986,0.283521022742857,0.282870755924754,0.280916252257324,0.277513729317385,0.309058780719001,0.322691289575722,0.314432028214716,0.313397633471208,0.310002671455973,0.305101595343669,0.305858733118947,0.305090698195633,0.306452401717136,0.307410289713889,0.307375573058918,0.307384644916287,0.306831217889057,0.306077310423562,0.305751031235209,0.305388617869019,0.304121687855949,0.303620942896343,0.30240276197523,0.301826795753733,0.299099482827662,0.29713759168288,0.295905817599686,0.295473129999604,0.294900719604143,0.294713696323835,0.295609743922696
0.484904827196734,0.486647116705878,0.487257863851967,0.487485858653358,0.509155137949401,0.526978426880345,0.544649547045448,0.549333478589068,0.571341056892114,0.578424765538441,0.637154610040556,0.638561454496734,0.653568170569034,0.658230785093413,0.69347788198095,0.728351477868117,0.757287375055376,0.781511102130883,0.801407256378192,0.829334805168916,0.845730969469969,0.880122973206842,0.880503701063009,0.882386731184799,0.884164210118708,0.885664067338954,0.885139629511622,0.885801571583292,0.888295331610503,0.889592237423356,0.899523766492943,0.901263275966408,0.901901683048493,0.903877265627759,0.904774952645705,0.905141936829214,0.943797089860571,0.972058776810536,0.96759205454403,0.96480802495181,0.956910377662947,0.952645741604703,0.936194853622511,0.935262588355417,0.949863980400171,0.953725246695125,0.963683366128347,0.971392148338037,1.01931151083861,1.11197168313239,1.10572201114117,1.10187439825498,1.0951485044567,1.07873234184511,1.07682643806964,1.07498875588491,1.07234143918448,1.06887052561039,1.06952459192274,1.07210515733643,1.07452511579366,1.07810854735505,1.08283116134843,1.09248377219598,1.0900947776751,1.08307051254684,1.08309584298655,1.08407082989902,1.08426917058889,1.08292839762356,1.08002633150613,1.07751782425165,1.0755250995013,1.07390314385561,1.02986077770636,0.985812960508064,0.975571673637384,0.94935171136382,0.948395420112179,0.918668431636133,0.914914180478252,0.899650100132203,0.872621362804846,0.851457665140949,0.853942048277451,0.856274643732024,0.857790389478461,0.858772264341111,0.859461753086489,0.860024954194539,0.860600849462201,0.861376342007292,0.862469814770165,0.863800071006637,0.841224130460159,0.831080595093054,0.791563703467717,0.750273712570553,0.719592591424503,0.686383142802825,0.656358853275202,0.640023087172657,0.646861763616287,0.660689791288313,0.661485739980903,0.637703463535246,0.629660316618963,0.624057829988713,0.609524526643315,0.609016364771013,0.556311818621854,0.528546489180989,0.476833275070401,0.431879905025243,0.4288578067643,0.398007522726193,0.398159470460671,0.398182625046145,0.398424829383219,0.398563562239294,0.387735881431372,0.373658128517716,0.360152230600479,0.346269584320826,0.322033389276064,0.319866891968506,0.317755801819336,0.308720431987288,0.307942117147662,0.301737592168941,0.299206624120384,0.297036021225151,0.297317353621938,0.286375263753102,0.28561347230737,0.283844353703221,0.282710327638365,0.281416831647804,0.280042357165046,0.27846647209775,0.314589178296088,0.319695424544773,0.316575556207816,0.314608270935388,0.312910844493225,0.310463575362448,0.308050638632355,0.307109370186602,0.307589279904871,0.307877589652401,0.308143430691211,0.307901949347286,0.307924595885798,0.307403357434098,0.306565806981748,0.304982635789161,0.303676403072904,0.302718495767434,0.301901087834676,0.300750467981066,0.298873979277866,0.296774586954251,0.295260744662803,0.293950738605101,0.293796108010421,0.293747372109366,0.294385844480714
0.484954928898623,0.4861502498455,0.485957085659058,0.486802390194456,0.50197557296959,0.505338907781562,0.537834765175207,0.558379687294981,0.563667501084863,0.573792868762993,0.640773932994004,0.644662268551113,0.641699288405113,0.639359480683943,0.680975137334162,0.692813723241623,0.733100431940701,0.761582863949781,0.783759758282929,0.832937518391332,0.840010381803135,0.88141173572422,0.879781563658096,0.877665583060163,0.881601975705775,0.907388591906846,0.883512289288446,0.86975808582182,0.881198384715203,0.859570627639952,0.899940725178234,0.949783096343906,0.904843280414317,0.891872753115327,0.898879939713142,0.888143409209641,0.938747272401892,0.981771889727358,0.97205145259021,1.01265009190059,0.974983642562277,0.996023874026781,0.936987798507482,0.935221598606419,0.947648826342053,0.947071343115179,0.961059737389472,0.96979942389459,1.00740393426994,1.19780097460147,1.07995419374697,1.04362566813211,1.03835695832665,1.03453502717057,1.05250921115054,1.06582786915804,1.06514067911092,1.06433379452901,1.0612647416158,1.05779818880976,1.05810232602189,1.06000467280948,1.08191624153019,1.10806854268517,1.08718444617322,1.03970641954614,1.0593427461401,1.11566503135144,1.08454198622349,1.08414547642291,1.0792413268584,1.06819218855633,1.07038107159326,1.07240036556227,1.01696155414115,0.993124546142353,0.973430163084413,0.943679930107447,0.941764993358133,0.923854712587255,0.918567647131461,0.962302044857668,0.866931799457547,0.843452697323262,0.838798181740359,0.830224222755564,0.812491794428461,0.780006269940232,0.780659201187754,0.781347632788259,0.817592105229207,0.861393369227803,0.862948862814171,0.865473486915138,0.829272943795513,0.816627865538305,0.790231662431382,0.776227382682897,0.720298925277236,0.636112415471197,0.635623524507529,0.635889262679508,0.640291220590182,0.659187108090891,0.660604325516699,0.681510526452815,0.617930715754647,0.56694266762012,0.593856197511475,0.648443040698366,0.5294871526203,0.480164339652887,0.468551686379805,0.438030679509621,0.431002576637479,0.397793576737362,0.397983545399376,0.397500176035097,0.398211564973955,0.421919073337332,0.372719249313435,0.333400536631949,0.331993937255763,0.3154378964274,0.315594099026111,0.315178794244335,0.314105562940459,0.311257143955203,0.309551510031112,0.310905897918295,0.302241339567397,0.297523302427203,0.297533418548008,0.288071677041967,0.288001207343598,0.283139225192831,0.281634644214409,0.27973862660212,0.279115006428712,0.277143962681033,0.317738957003523,0.320007937380719,0.317986366397647,0.315934304191981,0.315667020034769,0.31652724917509,0.30884218652711,0.30801436425176,0.308612315149561,0.308803895919874,0.309019313498715,0.308307129445443,0.309163744490827,0.309487759342533,0.307927945983905,0.304696116775791,0.303021315786548,0.302319217229301,0.301417576919175,0.301037483589229,0.298446205337276,0.296388143422279,0.294046150397169,0.291423015011044,0.291928640670506,0.291435142310214,0.292268635999212
0.484528226279486,0.483731715920479,0.483190180123407,0.480996374385947,0.499940061097385,0.503145207629047,0.531408991729584,0.560213385994277,0.556423165509896,0.550151201643167,0.642815291826203,0.643852638667991,0.640937367585919,0.639043744465226,0.666519311675969,0.678529069064792,0.708843534059814,0.756188729642712,0.766672602900961,0.77389445076911,0.804358970508836,0.830491216226964,0.851190381827676,0.878747417121781,0.880165747207307,0.880398133866471,0.881921060476264,0.898109751013799,0.887585580662905,0.907472681064285,0.901950378047945,0.950740676259119,0.906746111731614,0.907823385377147,0.902232982254005,0.970394533493681,0.934527529979458,0.88339558664249,0.953091042023689,0.984270053451614,0.962372838298414,0.93908347225751,0.939211666167547,0.919658182177483,0.946649987020437,0.95907257169065,0.956244825195398,0.954310956966551,0.993796319508108,1.14777212084052,1.06447106616839,1.05011518361804,1.03402962788839,1.03092779705168,1.01884000272434,1.00187262999766,1.03524465049481,1.06211672940671,1.05407065466003,1.04440565943064,1.05627338479417,1.05466252966793,1.08055026731141,1.10648509555588,1.08496676532766,1.08321945411461,1.0407568603534,1.01165496152363,1.02276420337904,1.03316295381975,1.05211389982592,1.06723684688536,1.02746106988943,0.989197494934624,1.01029039101651,1.03181107571717,0.970948353749783,0.968051144124604,0.941588723019991,0.936654339277922,0.89571590030866,0.861188679472131,0.860516115797446,0.860712339802639,0.835386740731459,0.830486230303571,0.790507089554036,0.746401585243519,0.761904973495118,0.778877620796831,0.753188714380527,0.724488024984262,0.76372253286991,0.798461542816452,0.792440665259121,0.78634357127846,0.789505822895278,0.792667862208246,0.720648921073098,0.636055303403493,0.635436639521765,0.626515942752875,0.63656900596293,0.65841091284509,0.626715514299651,0.610343848501167,0.607117744691018,0.543718539558571,0.535877940907522,0.485558393866274,0.505724696090434,0.528504283735332,0.461313513223569,0.455900953295308,0.433151736786349,0.435305567502867,0.398275013662733,0.398311336113886,0.398443178879304,0.42188152004043,0.358324621118592,0.333650965483015,0.330537609789614,0.31873902053184,0.316108313448128,0.314570288195335,0.312365571609996,0.311405312497845,0.308658074079307,0.306107503150778,0.304971450635015,0.297312730722745,0.2974726963874,0.291661420492256,0.289742192164703,0.281861264209653,0.280971008076475,0.279104717967199,0.304529088674684,0.322785947455546,0.32189442952984,0.321937268263325,0.319440728921588,0.319458623114769,0.31680192809989,0.316526863216852,0.310655071342654,0.309790388856942,0.310532918949344,0.311035538357698,0.311144294256425,0.312050492704391,0.311210070569918,0.311626434016701,0.311264141245631,0.312956269121384,0.302163684845644,0.301574090188813,0.300862546217715,0.30104799760499,0.297887109840656,0.295416827680855,0.293600590573412,0.291272733169343,0.291043194257145,0.290192978360574,0.290122491152278
0.484233002236974,0.482962432123173,0.481984630105261,0.480249095314188,0.49526302010141,0.501400110581715,0.524800551736994,0.538645241592146,0.547889494159473,0.648394267461543,0.646211191113243,0.64672586872543,0.63980582542659,0.639528898792821,0.65156239581962,0.68342387913294,0.679618751193183,0.676077827549467,0.714945418301114,0.739961388983489,0.768610865181692,0.825142772629371,0.84033697937822,0.874444758574554,0.862996171093585,0.841538084457879,0.863627147416004,0.877028618139728,0.851246002446763,0.820251909612164,0.861102519278476,0.892828684546707,0.874601509878756,0.860066573154269,0.880894153554225,0.880412834153668,0.928768769769135,0.938123159736069,0.939854905052456,0.941763209759877,0.942198227113982,0.941321051920182,0.941558526887543,0.924304161986373,0.94520625109455,0.942285965137113,0.94388023742887,0.944878586961647,0.977479933555145,1.05951517400096,1.04572904476171,1.03098493122823,1.01410181820751,0.970234936857079,1.00869093797022,1.03553812382831,1.01395950370884,0.982232849246759,1.03708820834926,1.11276412765448,1.06650503273907,1.07622788296018,1.0757182272649,1.05734654575012,1.04704758254758,1.01117322518549,1.0044617479333,0.985689559071361,0.986791588063957,0.985862382537977,0.984480454069705,0.983252695411742,0.991697703509539,1.00572300096778,0.984856985384533,0.957223066200844,0.952650709267524,0.944220685172472,0.90628546030797,0.861347449509463,0.859189685554714,0.857526793918703,0.860039874643587,0.862528274578113,0.832680817908923,0.829926974715983,0.76833655120615,0.733737117482817,0.7199596923342,0.713494832237686,0.705951330897942,0.69800793942144,0.715527435853785,0.730906626290538,0.762096143704848,0.882984390580316,0.787354685284215,0.748409684286418,0.720976694445925,0.698110455008487,0.64697780923614,0.659957556236314,0.621949882007319,0.587040577463025,0.597818712040022,0.610144047056082,0.604588210934054,0.599896285551687,0.516302123922665,0.487104291288044,0.465112071484957,0.428592511270205,0.42611619014213,0.387372636730524,0.410546049839504,0.434181967180746,0.384999226274919,0.377379407980694,0.362774484983802,0.329088368551962,0.327986513886884,0.32852339951009,0.329037946461437,0.317101475067543,0.315761494401994,0.314710143228447,0.30932583806575,0.306041856326305,0.306855885383921,0.306500056605204,0.305300448097996,0.41402279650741,0.366613647954705,0.414134044754103,0.311136493137027,0.281182602674753,0.301735397631313,0.360100722447868,0.340781992026313,0.358134866372071,0.330125235156739,0.330698400434837,0.319612481503295,0.318822699646377,0.316857398107098,0.313004160932617,0.312313154414593,0.31204180881596,0.311812422706433,0.312725110516517,0.311824948234667,0.312613684774329,0.311389341707483,0.311884534770308,0.311895882827518,0.313162233278765,0.303202956422159,0.301605375097284,0.299751540615277,0.300484288119651,0.296912821116404,0.294852966843514,0.293032531292608,0.291310581553637,0.290330895280953,0.289332376397648,0.288986477249748
0.484254343742136,0.482203039363711,0.481325760034749,0.478414696444267,0.489589851877033,0.514367778017738,0.518042644615528,0.5265370154247,0.543022195290678,0.648377954814374,0.643610716748526,0.641678931134499,0.628791118169836,0.614557864421989,0.614430282678916,0.613172192678114,0.66241427668959,0.693765043912603,0.68068193778371,0.671854856278374,0.692662061842249,0.705538111607298,0.793222294406086,0.825011737736394,0.831738579864988,0.838372007476011,0.818440269022698,0.804920866696314,0.811421529946793,0.817972780945467,0.818464031447289,0.818625387443178,0.847222181912574,0.853299993579961,0.880520569131114,0.974290569207935,0.921708152588709,0.911784545926686,0.928409643467029,0.944939264742262,0.94359384451069,0.985124364891466,0.944296164621317,0.931307609927555,0.945647199660934,0.943580720672847,0.94345569018537,0.949476308056708,0.960682981323031,1.05026796123106,1.01132301565114,0.979153572870679,1.00161323302299,1.04385592975482,0.995536529192064,0.953054827573216,1.00991799333099,1.01937526795193,1.01899795608821,1.01868421872207,1.05490029948514,1.10670884323018,1.07603355226375,1.07716309173347,1.0324357380814,1.00811870286275,0.999107587705468,0.990422042355358,0.988440766401896,1.05518729145567,0.976819732772808,0.966640273434975,0.973701007457798,0.972693925257562,0.972332352544788,0.971879612422604,0.944183345304437,0.865239915901433,0.871876489192951,0.849217156559472,0.84865952403787,0.849177459504818,0.845722692295335,0.830437490721486,0.820571407127418,0.740737204903315,0.744435325985132,0.706191677076489,0.697250762199473,0.680816905768488,0.674559955129605,0.664323276818356,0.670406245649956,0.675026487299904,0.727338938164882,0.788648692214842,0.783996227427027,0.778940748405204,0.721502516198507,0.722229972174599,0.629644959924716,0.623731847239538,0.605221702047337,0.580674569960162,0.580786009066125,0.580866085934395,0.549132622376787,0.519318090219693,0.495987990790943,0.437822630722051,0.431914990508277,0.429029689773754,0.423531810436594,0.387216464739326,0.386786838393826,0.386308558779249,0.377159914258745,0.334433431654988,0.33547253755416,0.324653454772357,0.326368785498239,0.326995114757309,0.327622815536433,0.320366016431028,0.315308086971023,0.307223316457374,0.306760539775356,0.305012380239638,0.305698651719294,0.305277882009034,0.303971097355241,0.301571747142411,0.346375775588718,0.414800595449195,0.328289160330466,0.334059865477663,0.321516803472481,0.318224386122421,0.318482245841617,0.31789617442927,0.327850237585056,0.33164143776279,0.321691161005986,0.318885812511687,0.316592089982621,0.312810876981572,0.313018125447557,0.312984776916744,0.312826334131948,0.312411601651699,0.311894012670058,0.31063865265478,0.310801610376758,0.309968261429905,0.311477701957756,0.312782158576197,0.305617208877903,0.294790558349332,0.296106969771902,0.294904327475789,0.295235356163521,0.294357113266014,0.292900661142631,0.291197959443692,0.289935911208333,0.288630629876773,0.288138506918566
0.484947761273995,0.483622947930828,0.482489382803524,0.482088092071336,0.484064953295944,0.50335296338905,0.512680992673987,0.527009346382662,0.538235550606605,0.578539363349309,0.600662721953323,0.60566637883337,0.617583495303161,0.615945300395055,0.615172691767867,0.614479239374759,0.643985571690885,0.651451579063322,0.656750324361314,0.665420794326098,0.684586820841718,0.708674674283196,0.76779694898749,0.774040493636073,0.776383521311812,0.780419286399355,0.788508672408875,0.798564886193292,0.806693104748442,0.811891457095244,0.818377996162749,0.818128808678807,0.843354230414972,0.865178602626329,0.879171605763144,0.882630372691566,0.893004640324086,0.905567259819198,0.916753903525164,0.926190426844824,0.933781075287318,0.947616605533045,0.946996819011145,0.947322105221967,0.94632029729426,0.944584456346416,0.943469807369018,0.947228676139211,0.953275166264256,0.955228122267155,0.957877828785209,0.964218036740318,0.971735075766181,0.979912543790057,0.987926454559724,0.994970845965411,1.00055849021023,1.00628362688281,1.01085760466864,1.01459951691599,1.039166998495,1.065828774225,1.05694552609847,1.05188474324186,1.01687219346459,1.00078842263835,0.996454418416895,0.98666560464841,0.983867491260304,0.980454693228696,0.975819527244143,0.969716235326542,0.97286613852505,0.97342722965374,0.962077072917596,0.952424663456053,0.933357607850346,0.889459174306876,0.877458267062219,0.868613177543593,0.845820648771716,0.843084722928007,0.841116056417611,0.833305027885389,0.80824985008193,0.752069458015747,0.748412382940814,0.730950279669651,0.688100871108417,0.675132451731557,0.672130385353682,0.660112510828757,0.657788269183336,0.656549157877274,0.655192004179,0.653471575823724,0.651619077035551,0.649770138464551,0.647887722669951,0.645912855602203,0.622907494111148,0.611062388185159,0.589084656045446,0.572101078007007,0.555555257201876,0.53973352548973,0.522674301081127,0.509370278820083,0.478575544183977,0.430382888183888,0.426179592981211,0.423786265438208,0.420075672812554,0.381203945983191,0.376760108246427,0.372610723055612,0.368252878913333,0.334940177625793,0.335622344269308,0.325341797181307,0.325579902686884,0.326253785726758,0.325611779070497,0.323390668693715,0.314952323775855,0.306204940248209,0.30594621197862,0.305850282099265,0.305660066796242,0.30518874911614,0.303659018348751,0.302090699038463,0.307771102907078,0.314543929049107,0.323911492016381,0.329069974762846,0.325191658268769,0.319787939314437,0.319712191513993,0.319899275275506,0.32481117440701,0.328573576969172,0.325183757442548,0.321871982888159,0.315082497060271,0.314142113877162,0.313856786867948,0.313680055309329,0.313389119793471,0.313055921878913,0.311933273792947,0.310815138369064,0.310442072256433,0.310319773970435,0.310696895829274,0.31073981752363,0.308784262606292,0.30348330079283,0.295725508836493,0.295164971754043,0.294847814739451,0.29407736553213,0.292716521998374,0.291116319626654,0.289417734328218,0.28812652770211,0.287299346939097
0.471740246014644,0.453980560932915,0.469223205725753,0.51911624753058,0.481290783417631,0.473388993062031,0.507297263863352,0.527483052506965,0.533990990883244,0.548339328323338,0.592203916429416,0.602039222431874,0.617171450743066,0.615470708173228,0.615347154670276,0.614821714733115,0.635360432357804,0.641999051780553,0.653635530603554,0.663120027774734,0.675194733560825,0.7119640357633,0.762723608962369,0.77156283932923,0.771722553655807,0.772062866490218,0.775828964114587,0.779691191633918,0.780073948807499,0.779957944416984,0.81796296119044,0.817009508157976,0.840477971705757,0.876970155380907,0.877435160711207,0.876518676963261,0.882555206773966,0.885854338507,0.889735909383151,0.894367921962987,0.919678576496747,0.947786070742822,0.947969624155799,0.962011012693837,0.926535483519758,0.916594263464439,0.921383590024875,0.927234386250583,0.934770936704762,0.943152050413284,0.941971755163845,0.940846596036601,0.941794386419614,0.942793837527321,0.967549240729914,1.01516608375792,0.99379401586407,0.982974023401652,0.996472296358097,0.996033333055147,1.02338956375962,1.0745738663343,1.0517498899052,1.04280439018375,0.995802501619272,0.976431041820729,0.969738211731589,0.955340999847265,0.956170227194359,0.956943624406033,0.958997458712806,0.95524230299733,0.976433655338399,1.01489383295153,0.94811513506336,0.934541983528127,0.920700460614653,0.913656049805918,0.88341786887519,0.891267932290864,0.842639097869491,0.838998976495727,0.8372427579182,0.836171341830893,0.794726810027732,0.753012113487752,0.749710521617572,0.751038559887959,0.678568489648227,0.657894218667978,0.658629678281829,0.659239336729761,0.626520649938777,0.591478947321806,0.606006396613765,0.618888558583877,0.628581966683117,0.640951472887822,0.642397519700523,0.643858112986128,0.611138712015246,0.595385449124084,0.577291708756701,0.561051675749312,0.532197441976616,0.511993542117845,0.50451685125916,0.493633360297535,0.46736514416071,0.421970423373368,0.419278738371662,0.417184159831604,0.415436094441535,0.3591465086455,0.363699684143784,0.359592350522508,0.364663041662841,0.334015041309626,0.335228625013843,0.326056584137049,0.324648483069939,0.326290488128316,0.324294870569727,0.323161548194392,0.314111208430978,0.302734315155523,0.305625028280518,0.306890876218572,0.306060298798636,0.306142339186442,0.30363278313673,0.301135643607826,0.30167883004261,0.300601648266343,0.317965217601979,0.336329852001367,0.328797743894447,0.31998120197687,0.319889439651948,0.320252023281512,0.321915384434403,0.330993208231044,0.328558497527702,0.332086387634911,0.315595442228709,0.315404548495356,0.314867647163025,0.314070078293499,0.314315001570539,0.313939048421871,0.312355532522338,0.3097835762869,0.310151482082155,0.30953994775012,0.310274301277165,0.310012278410706,0.309767638437483,0.309054599270908,0.295824829987438,0.295606094925391,0.294901485311052,0.294241618424144,0.292772898210507,0.291026117253545,0.288556912915345,0.287262102248139,0.285297518141433
0.470753987609588,0.454595752480745,0.453836858400723,0.452616111932017,0.45254783001186,0.451558697879415,0.501619793658236,0.526341011601009,0.530333477753258,0.533796204922746,0.578219737548437,0.650297178172483,0.617308998600623,0.617057050933262,0.616016242126989,0.61716054816171,0.628066332945026,0.638984632347507,0.647469315406345,0.654636520967788,0.660145730489839,0.660392957821127,0.753751666886038,0.753845599755402,0.764485301784714,0.76353180705229,0.769602526784117,0.780612356485525,0.780416230182385,0.839390447034451,0.832245768411596,0.871396733461138,0.837830812792545,0.835512944482125,0.860881033168144,0.887457495379949,0.875126673364212,0.861494190357277,0.870959739194866,0.878509147370864,0.905297734972458,0.958500290155172,0.939055144884262,0.933955568272053,0.922329438700553,0.892637286948149,0.891753518925077,0.890809999263566,0.903188216791766,0.914782164463217,0.920289149693641,0.924741359986868,0.928889350572918,0.93476796377103,0.93337569438641,0.932623195361897,0.968307856445034,1.00052802978402,0.997889005398796,1.01008061165226,1.00744005139685,1.00458297448309,0.989439702827675,0.974102808781324,0.938602775282094,0.901138781205328,0.909025481442306,0.91665664773813,0.939096750677727,0.959419410512634,0.964197326564914,1.00776830926994,0.97939291132487,0.942691839479225,0.939554733073047,0.9295599581237,0.903711067960946,0.802467422303085,0.818947165913788,0.803855336053902,0.812027262537755,0.807219136495546,0.813988182822365,0.821078432687254,0.784141115605764,0.718628014704025,0.736176861631604,0.751533821628418,0.669666425360812,0.649565851293076,0.624405199901843,0.597664435706179,0.596376827782929,0.59513873499422,0.583188003631879,0.569661446526513,0.60329356394759,0.644601941290206,0.604055277720306,0.565705330111045,0.58330899659029,0.596515142324405,0.49930360653324,0.453857721385876,0.461338747606804,0.470643484564708,0.467006878898491,0.463264370078551,0.455204408888606,0.431437392059003,0.41593608060599,0.399591841775164,0.399630810267065,0.37409441346522,0.367973240861291,0.35781258062965,0.370145207221574,0.405253430338929,0.335092885938345,0.329676765005512,0.321075121529077,0.320289159746816,0.318526124476939,0.315138720275525,0.312692123432959,0.302945788281079,0.307480863588929,0.309359519994297,0.305470374446563,0.304595545683393,0.303549036944633,0.300581033618009,0.303843595644515,0.314468267009636,0.314707931727601,0.336183416421502,0.332055794856685,0.335648000956039,0.319966570306536,0.320270910405889,0.321008419569327,0.331165866810501,0.32615369144288,0.317333164587708,0.31692848428347,0.316349448832598,0.315956105286736,0.315244440078446,0.315347107585695,0.315592461278001,0.314021105602706,0.309286159536566,0.31039149996493,0.310286780396437,0.310142045861905,0.310099874675213,0.310364310788912,0.296287766542137,0.296231981973894,0.296540854636083,0.294907266251628,0.293079822456301,0.29278118179916,0.292202599569278,0.286338588290792,0.284855956756755,0.284116850112303
0.454759904160475,0.454195158427018,0.454051105628555,0.453754864213646,0.453340269924587,0.452214012255259,0.495396977559182,0.524798996953702,0.526663230587397,0.531926925133598,0.564662779595853,0.594987554370849,0.606997981342814,0.616631863374383,0.61536562548909,0.587705655025664,0.587622140885973,0.587252561390405,0.640154232876865,0.655761754824117,0.65852689770501,0.710819981251109,0.747378077893177,0.767444341293459,0.765419276386688,0.764491496552393,0.764663680122043,0.764653322433751,0.771603471382559,0.781495005991325,0.82682277196722,0.820420240188085,0.833880660929733,0.835949172121985,0.850046373679028,0.862248293060161,0.851145648163025,0.842372563121263,0.854701980212653,0.860436924673843,0.890960888941534,0.924685191544837,0.922727446788037,0.92054836134723,0.918046428039996,0.85639545410804,0.86087491756871,0.873946380449207,0.875277379508711,0.875963055418494,0.894764752499956,0.914347947938387,0.925413411397829,0.931256468774041,0.932385617119884,0.932416781127163,0.949242106380988,1.00914534944889,0.996302267333186,0.982505104136053,0.914290371540946,0.874854550599894,0.870014877110642,0.86463667544652,0.872947320087141,0.879590765839178,0.890253987177202,0.901163385075205,0.925989834180449,0.978810598822309,0.970219049951355,0.989964852222208,0.983240877144721,0.990200554317764,0.936829783229236,0.91101425522263,0.894386007223428,0.808798699364562,0.841249064395539,0.871849361746356,0.821192870970819,0.787808465929069,0.806297150392451,0.817756312215285,0.777731771327522,0.754117614092017,0.729271863906851,0.720035279304084,0.650043107988264,0.60928459588335,0.594515688913396,0.564016676278701,0.551013304777489,0.528447020641295,0.53798342495005,0.556319515528228,0.554372913598811,0.552483187741807,0.570889584794399,0.596320650760121,0.509741371903622,0.449497977626848,0.451539798285283,0.453483294492206,0.454760556884662,0.455939329463754,0.454393767658041,0.452862880737777,0.447948735221833,0.408012528795687,0.409732576036826,0.413560663209631,0.402859601111127,0.405962046503225,0.405200973827792,0.489560982788552,0.374294500976169,0.333603636634675,0.334439766039245,0.318595801880305,0.31928008597942,0.318085011642467,0.316775771639033,0.31570168984432,0.311052415920435,0.310651172198113,0.310552064144171,0.311987732911413,0.302667730426352,0.304193379859347,0.305870485917407,0.306724160956199,0.306865859512271,0.308020238500563,0.312809139253742,0.335616548106571,0.318563461687289,0.300001163454049,0.300619898097678,0.300658460976485,0.31718096871194,0.508957451770224,0.323279036321454,0.319553237472091,0.318691374788978,0.31918582959201,0.317731907541638,0.316820958400582,0.316856213095354,0.31688417045167,0.316051493649006,0.316834517410227,0.311373771217736,0.309714339019661,0.310179640255613,0.309662153918282,0.310295035264485,0.296341284689825,0.296706693000006,0.297229927564327,0.29530009805538,0.293792702067135,0.292826194764379,0.284325675879904,0.284792682215347,0.282899623088976,0.28287628420752
0.455202199747585,0.454447985630497,0.454175805454618,0.452958328717783,0.45444716271097,0.453055238517451,0.488579630018205,0.494456299438722,0.519994840088874,0.541297246481188,0.550639440798248,0.553976233079115,0.596008595325861,0.638568982594379,0.62906873765113,0.588489144725063,0.587774234209566,0.587077398519937,0.625155872228223,0.624140838638184,0.643699327179686,0.732406592382287,0.742040009763741,0.774647653048893,0.740283769309061,0.715335417171794,0.729542121186522,0.737378932825544,0.760521013989881,0.856204070769355,0.842912558704832,0.900322218901263,0.832703755887354,0.831528869101997,0.832199264241047,0.831321716675178,0.839813562454559,0.84277277104576,0.852166275572503,0.855292254777936,0.859854087787151,0.872527052813551,0.887726910703853,0.909023766632673,0.911009014669036,0.913710275129343,0.854179289335785,0.825374698742048,0.847095599973023,0.848781216359147,0.854491815989167,0.863061081520576,0.867301181873718,0.872587146018917,0.875286455732359,0.887954417258345,0.918137581326642,0.944445996843441,0.916832612728808,0.856133611733626,0.857907025472906,0.860485528524991,0.856749603303014,0.853076477182729,0.852578258577189,0.843076837951363,0.857612771428137,0.869389569766302,0.90664276345373,0.950050656982558,0.961811522365794,0.992972036312956,0.980239540616545,0.975791483645737,0.933536776530025,0.888038911637202,0.887211911686824,0.876578934687483,0.863171709731681,0.877747619649409,0.830773558524163,0.84286012447514,0.786738452762027,0.769554041464799,0.770089180086724,0.770747907338732,0.698884036805716,0.65811741371471,0.629271703153089,0.572408638187646,0.573572207102821,0.574073492680668,0.542998465069364,0.508249627615022,0.520335920418227,0.529156278384423,0.51216751285418,0.506050015903769,0.499875842902503,0.468029559982781,0.463532745541367,0.45294917684158,0.451443364554993,0.450048757521322,0.445909739407756,0.421466240720681,0.445472753308297,0.470628907671576,0.437631872330704,0.407922442357595,0.40853968500233,0.408321435396867,0.405293903252443,0.405653954613405,0.405124255212656,0.484857263734593,0.377726487017617,0.333241334867026,0.350489579645025,0.417538616685186,0.319489033216658,0.319723390738135,0.312695898998262,0.308224836128009,0.309412918013212,0.308926624142467,0.311214733371027,0.31341498413625,0.299230901891902,0.292704356556181,0.308437013248306,0.30848231996093,0.308697160329439,0.309596108594678,0.309731869285594,0.307608215307492,0.307561431989966,0.301221272144532,0.301139096374732,0.301369871819833,0.312711658877824,0.316223244562524,0.316460885973682,0.318703345909436,0.318912537398185,0.319105552617727,0.31854368955325,0.318281381045871,0.317799758226329,0.317939256318291,0.31698512999405,0.317208095782583,0.312317343441521,0.310950305412523,0.310376732456043,0.310309817009756,0.30990575282263,0.296215333621189,0.296979738182213,0.296900934304997,0.295027922242903,0.293675288453282,0.290663826569195,0.287470919125511,0.285568447921419,0.284551585212033,0.283288321804637
0.455511549872767,0.455151023630981,0.455012061482797,0.456614128584157,0.459519143095032,0.461987756462781,0.481330306914293,0.50297831598585,0.515242692515908,0.53512442468119,0.547536243228794,0.561109996743626,0.582779850938798,0.637474128417057,0.635876317338446,0.633648831562395,0.631162222498939,0.628561330700758,0.626018373843887,0.625099944557216,0.640180986831014,0.679284632137081,0.70487436471513,0.723296325892017,0.720418398662441,0.717789902965623,0.724425813693109,0.737873905925015,0.750627671672761,0.779034094771493,0.804025325383811,0.832757795974883,0.832647717183984,0.832577542170545,0.832983022736042,0.83370148684871,0.83722404476024,0.839035834724717,0.849944086301653,0.853452983477114,0.856162166902092,0.863905944201094,0.869351858729874,0.879309948112009,0.888282644889827,0.902060476409851,0.849942208794223,0.843287970068945,0.844963275121559,0.846608784507974,0.853787827843322,0.858172181027456,0.863824546770696,0.868303018822449,0.873012277091118,0.878043355497047,0.882495230293804,0.897843882174136,0.898376650631692,0.87806909947858,0.856804905823761,0.854829705121122,0.853146330807482,0.852244613952077,0.850438851460772,0.846347027388986,0.853664772241315,0.858899732174426,0.88598556141404,0.941023474815475,0.945406876498567,0.951742251113349,0.94183210534799,0.932296223413981,0.929389716458697,0.910104819528538,0.832141426669513,0.808911927924176,0.795110897639207,0.785084147395955,0.776882791673884,0.776621226711831,0.775492504552648,0.767268689468766,0.76663095136147,0.762718516468706,0.672551724969315,0.637623400640656,0.608378783853528,0.558159963209337,0.551107865918549,0.542324864342236,0.530358210849091,0.510035688158896,0.512135471573054,0.51508491923109,0.506428197695105,0.499906972930998,0.498180831572739,0.463647344861681,0.46198228337221,0.455530040168943,0.451278800674746,0.450936716987187,0.441907936680367,0.422131276401282,0.42202284221309,0.421461522851472,0.420558174853536,0.407940515621956,0.408274138686189,0.404120923603403,0.395462385738985,0.385143749386283,0.385003833905106,0.383668392192521,0.381439391170229,0.385595163968441,0.387735045998669,0.392914703339733,0.319085165048661,0.318585657185328,0.309140664580565,0.308578635440876,0.308663900528844,0.307042274128661,0.304308821795724,0.300852725748591,0.297184401430374,0.29477429341939,0.310206226371079,0.309812685507157,0.309979345536993,0.310282928566014,0.309531161576962,0.308173856595896,0.306512067656343,0.302459783513337,0.301399480952338,0.301062515689324,0.308755959170482,0.311987875789387,0.31491322849501,0.318161084730145,0.319109133021279,0.319524524270499,0.319236929512481,0.318777909264712,0.318510901990775,0.318262647397933,0.317341604959149,0.31612209185025,0.31343455906341,0.311211799693038,0.310240117665367,0.309426185847416,0.309109954843196,0.304326715610734,0.29774593704906,0.296655847850205,0.294782623856706,0.291833443805119,0.289721616706839,0.286817935006897,0.285446366854973,0.28450870519538,0.283561374536441
0.455331898313467,0.455289305823499,0.45471592111531,0.464523329044137,0.46264930539097,0.462820777577931,0.473943574637005,0.511554636510283,0.51233843168286,0.528327666833888,0.544041432700847,0.56875090189552,0.570438396980942,0.648884276122332,0.639385979034361,0.647820612216613,0.63144354961087,0.631968827119745,0.6246775739057,0.610777964674574,0.632433505550382,0.631953775182476,0.696066872627203,0.726378669896414,0.715773849737539,0.700234970159512,0.720723598455137,0.738009397518319,0.731922423502237,0.725624934817609,0.759718131098715,0.83315940391178,0.832757712652721,0.881569737383059,0.850752544847326,0.833231391704522,0.832609665282854,0.814970978237771,0.829605233636207,0.838412000220161,0.840321858094422,0.842292007256684,0.863550659317054,0.856865630550776,0.882896075309658,0.912909699138132,0.848104557074589,0.841268361710906,0.842781179303013,0.840143233041979,0.8433320510918,0.843833946032647,0.850926253858144,0.857432141308596,0.861159995456177,0.865859411185579,0.88007035661882,0.896666546181444,0.897959571220464,0.909759070900149,0.856951743957149,0.836358987600856,0.836292885595976,0.836002935930382,0.833816462241396,0.831361247065599,0.832614857894984,0.833755394344319,0.861723733311896,0.923574515136292,0.938816925139239,0.96968104106932,0.935491166581059,0.919482217009912,0.918955061423291,0.920336889733432,0.782635421422446,0.713624543547105,0.711944947747347,0.710300189346709,0.711800980033742,0.713324371367172,0.712332394148101,0.711328259624417,0.735137108742292,0.753394649460262,0.645782685277913,0.614862029271103,0.587503150620504,0.550670380319822,0.536813472830183,0.515989900401331,0.513094453214213,0.509737854893585,0.511196749466815,0.518264735638596,0.500554315462682,0.492201065836584,0.488897482716162,0.455412041741067,0.457714837839318,0.458911549163099,0.451411730901375,0.451420208586373,0.438148619269672,0.422525402823701,0.421957736951674,0.421117607989947,0.420208386502464,0.407430563179639,0.408120940142703,0.357611798196914,0.369054727829071,0.380405330266894,0.35688051808068,0.324471670163309,0.349956317528323,0.396336718065621,0.389701672574916,0.41820328976493,0.318037497889072,0.316033639834501,0.306517604552198,0.295809464370853,0.295525693484362,0.295083793707997,0.29500289821493,0.295751130389375,0.295238702760742,0.294201889420256,0.310822647498986,0.310210940277175,0.310972565870034,0.311867958213606,0.309708955133488,0.308909002642238,0.30689964437825,0.300786800845065,0.301367983782209,0.301018325188207,0.302387602077741,0.302816765764065,0.311986299285516,0.319365336558855,0.319917061646246,0.320573964188569,0.319943779504372,0.319197543794715,0.319058716111889,0.319524350332331,0.317829354873192,0.317306264813103,0.313755792456936,0.309821483787862,0.309596753484276,0.308243977777569,0.307985739335465,0.306842434808786,0.29717599208837,0.296545997086995,0.295584186383647,0.289810460642602,0.289449827646187,0.284510749302041,0.284859047432084,0.284118257929121,0.283217575507634
0.454648363681768,0.454365522960414,0.454600473684128,0.455644756290569,0.451764920341016,0.449097232885242,0.466892719296239,0.476303977688609,0.505394170790467,0.53580952179622,0.539505215880268,0.539974278033407,0.555294299416833,0.551466259437755,0.590991229106789,0.617330818490935,0.617176915598218,0.616946325153525,0.621447084194664,0.621727478510027,0.632664393202703,0.689203312580089,0.68610161497059,0.682363166193562,0.674542049195668,0.66487676886454,0.673428445976807,0.678994806151888,0.684112924514143,0.690013277668248,0.694095319634683,0.706456417841357,0.773383892711756,0.873430997684874,0.861706804047857,0.871613651676441,0.832491067767114,0.814876864295989,0.8193506846495,0.824871562573686,0.834865177839577,0.874512011103386,0.868076673294077,0.87612911213256,0.877638174827913,0.83567290748363,0.84338651046383,0.843472690823086,0.843814136376122,0.845975229698164,0.844853880387298,0.846527375274644,0.84617869175046,0.84592574233647,0.830607973025568,0.813230332960275,0.833972753895311,0.819965311942869,0.888545153504776,0.891786994539206,0.855574374505368,0.810369795469528,0.819795281949618,0.833596513202958,0.820066937965634,0.805282417373122,0.802205675617635,0.7990443422659,0.834313065696934,0.878270656771709,0.899534915772132,0.926215293965534,0.92902357442577,0.931497802688892,0.851333766582607,0.770730371354233,0.755031124635469,0.713526173422553,0.696254565535985,0.683444642595375,0.679525890099883,0.675641232536101,0.674286998114138,0.672941737626843,0.655520434867943,0.643022387755294,0.61884787139577,0.600617559429209,0.566474087288764,0.522188349036056,0.528809923507906,0.535316051354281,0.504868661975263,0.488941963493775,0.484295770287176,0.461353875849535,0.483715390101324,0.486418017735766,0.486605915159654,0.455478979763193,0.448193930090835,0.424256491323871,0.423491741690665,0.41194978796897,0.43456642241217,0.438511700834762,0.471958598654499,0.525201055147207,0.431623268269215,0.436666979457666,0.426851497347528,0.437123000139955,0.357015958612795,0.332710261537075,0.329882600452002,0.324785355382128,0.312907228156152,0.287004103480946,0.288718737136871,0.290194841527099,0.305443554308156,0.302148208198433,0.304156230731207,0.297500186437589,0.296838385539021,0.296282243684401,0.295551040562183,0.296194617170054,0.304617936807581,0.323458778025143,0.323508899783441,0.323713033534037,0.311828662010803,0.309680976235001,0.308611877973548,0.308751739341089,0.305345337698846,0.302501036723217,0.302105035216449,0.302018663892009,0.303086151578104,0.304278058675831,0.309452320840292,0.319600831322259,0.320528259230826,0.322140101433922,0.32063743029838,0.320081343444224,0.319118703162371,0.318391291856681,0.317620551403679,0.316569640249201,0.314815562800765,0.309359584664677,0.309560085019295,0.308553043920206,0.307877568718979,0.3071772764062,0.297327006235931,0.295757159970677,0.295755975582118,0.290643950315689,0.290153565346257,0.285068086751392,0.285141211989433,0.284615347448092,0.283349350989112
0.443116109036329,0.431586328473755,0.441146602885292,0.445780395928151,0.442717144343681,0.438014493687052,0.462636401495558,0.549494604837474,0.49937467987543,0.487401108126475,0.522004589147248,0.576447117566679,0.559087286813447,0.564453516194224,0.560379761205425,0.558135104202391,0.589147838346188,0.597546787696531,0.60930081472164,0.688006109851949,0.632483413579372,0.620778837136584,0.62762245534757,0.638668280071029,0.663182829588441,0.739494803502368,0.660556806933246,0.643476768914885,0.658764801879851,0.675355727683811,0.686254142224983,0.750957268752637,0.748267068672867,0.74560308299977,0.802484342894942,0.832934327719563,0.832803988616078,0.846383247768185,0.812708822553951,0.791206933584647,0.811824074250211,0.834396601068937,0.851999943272873,0.881677173027287,0.879632141485888,0.885005689180145,0.843429226904899,0.84365080132548,0.833485094317587,0.806901859118576,0.822848154017256,0.835729700820157,0.821177325341782,0.802720423833334,0.817343107899286,0.865867478866678,0.851806711065992,0.879268504364505,0.885117051296918,0.921025658792447,0.852703077649445,0.800690427600178,0.807754960276933,0.793529810061154,0.786506706555636,0.782085926968759,0.779769731997868,0.777585451601657,0.787559352279775,0.797715657176342,0.831234896878869,0.914100783596623,0.92393921703591,0.930428923523198,0.82564443559634,0.769223277734812,0.732565031660864,0.691656177792459,0.684621390792771,0.677839699186032,0.651930596153412,0.616934907339182,0.641442097053516,0.66507958340785,0.631999319926515,0.612921521846974,0.588254865338779,0.563350804331566,0.545320075895739,0.521435939826176,0.516614139478623,0.509713058227243,0.497399011427667,0.484329955884209,0.48043589561413,0.473000801978313,0.479468443154143,0.487222946907559,0.487560808032825,0.491913128294684,0.436623768936788,0.435130495699093,0.423029245428015,0.422575480889917,0.43214021473171,0.524686727621954,0.525278115392446,0.525336408026274,0.421752880372601,0.414274310818522,0.373047643017079,0.334100849161865,0.334039086611588,0.333860201021586,0.327454986357538,0.325113833948572,0.30442643699329,0.288302745324371,0.288906401090538,0.28968258144123,0.307800082242724,0.30557634837869,0.304688247771297,0.305172470172746,0.300784099523934,0.296453568639062,0.29603076846732,0.29714370850514,0.309461619210974,0.323393215642272,0.323517051177905,0.324304511982041,0.314969010487833,0.307502210419227,0.307174640551985,0.305596573141395,0.304920751450765,0.30281301006547,0.30302566033797,0.30278593635087,0.304119914651396,0.305505430860938,0.306798674104297,0.306112603670352,0.320556723837151,0.322270276966718,0.320382782689873,0.319089187017228,0.318868110456737,0.318271894156913,0.31754601304978,0.316595348359174,0.314398318008841,0.310942727511684,0.310581383129664,0.310298957175103,0.306786748302005,0.300027915221008,0.298867274901963,0.298225513776176,0.297264108358683,0.291788378273717,0.290790804517882,0.285336346553923,0.285708405145834,0.28461433416058,0.282680332825363
0.437907383984856,0.43151919297543,0.436953451040509,0.445863739198061,0.436696825125998,0.419608907739778,0.461089864077251,0.557012395583215,0.493877697610878,0.487662097189644,0.510124456420846,0.525405043125461,0.550330216546567,0.582750240421124,0.558821712355383,0.556572663015342,0.583178807948336,0.589401168081662,0.602980576655716,0.63152094904606,0.631666295461564,0.622214272945243,0.625978084206448,0.61695612794657,0.621129494305894,0.610039193354409,0.622074780203308,0.61963966074396,0.650244683563279,0.659091670954939,0.662445542153008,0.664941413463403,0.718648426105623,0.73303771039441,0.776157025977078,0.838274073938651,0.800939894645599,0.783443918379432,0.778815338665669,0.774002348800162,0.755728835005358,0.738099047931413,0.775469274081085,0.792199713870476,0.792253635143475,0.792385972548462,0.799365659437922,0.817196771269223,0.82855373436112,0.839610714130937,0.814366620442589,0.795905242566943,0.790631947043364,0.785112512025026,0.80956313382781,0.871189897290058,0.821890860457169,0.785036970809539,0.791056353128105,0.794705977629206,0.84914100443728,0.860285051947293,0.813073108568183,0.785470509648307,0.784555664343752,0.783601273024015,0.765551421592614,0.726613823403088,0.741535312166959,0.74610638957241,0.803630657098943,0.878147659966653,0.878150191154379,0.878161929784157,0.801874549639529,0.789141562299609,0.71020540096649,0.682890569416671,0.659842599447563,0.628331984764092,0.616960807952678,0.609045153157657,0.605085894421992,0.589120067510093,0.586233035858388,0.581306831387086,0.560337906436075,0.522031235569675,0.524272005799486,0.527280374755488,0.499951396004803,0.475275985918009,0.463865506167377,0.444433226992878,0.444805063498651,0.444685724217901,0.447495993255788,0.449722343551037,0.450059728097173,0.450568506185653,0.429434609416237,0.404833920100819,0.414911083251436,0.424395322541439,0.428953295668675,0.524812305390465,0.525659014086101,0.527384497437591,0.387192804394805,0.320214505685158,0.320634588854029,0.320750804866425,0.320892786119517,0.297553557211616,0.296599098266804,0.294864574443321,0.293497008258728,0.287171105783667,0.28884892398938,0.290503909173535,0.312362948510607,0.318159911260091,0.315367740349114,0.312986232909621,0.313584631979639,0.312547198272829,0.302947552881109,0.297665108353655,0.314264704906636,0.322516326756702,0.322915776135123,0.322853575137875,0.317842544559258,0.307936024570232,0.30690360971413,0.3069516619408,0.304991899373601,0.304103400572364,0.303648540721151,0.304091999069917,0.304644330758243,0.30589006631444,0.306031521859639,0.306162245822876,0.32050096367525,0.318736477433433,0.319684753186413,0.319245724415025,0.319023334550098,0.318082360253749,0.31789879995742,0.316449667671155,0.314620448789523,0.311934058734049,0.311400222073494,0.310925315115085,0.304249953151973,0.300826731598689,0.300382675436126,0.301221823319516,0.301162595776837,0.301509336036846,0.296368354206579,0.294608958860501,0.288479351765999,0.284660135933794,0.289761745871631
0.44129326225588,0.432115153694831,0.431957769390678,0.430609864913799,0.430126988641117,0.424166857977177,0.457752207560468,0.458355598956912,0.469674735672605,0.479738841080973,0.496290671417611,0.532050962866339,0.536528307737999,0.541361083415022,0.545417715030657,0.550235186730248,0.573266998883484,0.587100276286501,0.597921467222915,0.631155607905498,0.630535560307919,0.629261373340796,0.628199794347082,0.627267328976743,0.626250471640887,0.625077339766945,0.623973758510256,0.621230032298585,0.645516227219751,0.648837151783863,0.65367272825634,0.664963626510094,0.702133690611949,0.716831765920633,0.748817287032088,0.768198055340219,0.76496255463845,0.760996687770829,0.756084077423475,0.750658954946146,0.746072995153306,0.742190644184011,0.759582023224972,0.768917845658727,0.77664863611116,0.786559935779177,0.78563124640694,0.785422100265402,0.784998533104888,0.784562964382316,0.784263863902701,0.784163843534786,0.784305357080399,0.784805745884456,0.785448382147784,0.786380439205376,0.787249116832806,0.787233487644015,0.789877564321454,0.813443574107952,0.845609857979283,0.844378078596675,0.817832056787761,0.779940004279527,0.776007860258629,0.772780660882661,0.752652895780802,0.733272634332531,0.73882900496779,0.741495510122483,0.776197307592925,0.86575063057806,0.850375505812208,0.841920902197484,0.748991542418847,0.720216644212814,0.687442104388052,0.673203852436565,0.638739880845681,0.620510572881487,0.614658110786551,0.604869521124579,0.602186082053699,0.596395955473672,0.571912240096466,0.558823784378462,0.539672317517476,0.511135108086078,0.50215061057573,0.491613066632025,0.479327714921425,0.464619840899568,0.455976405447764,0.445083567727602,0.44525053148551,0.446002776194146,0.44771343603701,0.449008977833791,0.449823774584546,0.450222835726186,0.420365592778119,0.397659791831378,0.392929652853685,0.38840453853609,0.382818143691838,0.374888619392132,0.366747755939199,0.358283822652331,0.344215755017471,0.320629352688097,0.320866261479218,0.321162515240854,0.320174585898679,0.297502285756592,0.296809513457919,0.295167607813384,0.291425892151799,0.288668599921823,0.288619382987675,0.297192209885673,0.315105773991625,0.318265231941138,0.316351605167502,0.314595028514245,0.314073978010386,0.31350078401897,0.313784222009582,0.315475999962396,0.318279860907746,0.322399409223715,0.322861041311295,0.322912365005572,0.320128604846524,0.306923767522863,0.305960528874271,0.30556981184083,0.304536243470059,0.303969552267653,0.303872801006839,0.304130638921103,0.30467560502807,0.305386233213371,0.305425686849728,0.305422365430635,0.320805376601838,0.319807592779723,0.319987862404291,0.319892602824838,0.319992304743438,0.319806425365401,0.31936361828597,0.31818942436226,0.315458552058545,0.312561255143099,0.311899606401534,0.31138768816181,0.301634331269917,0.300911288572769,0.301163071414928,0.301891590038197,0.301771465401837,0.301705475624051,0.298504935421412,0.294174072695694,0.292812522197005,0.293703453192693,0.294930679524137
0.447039628617367,0.432574164423269,0.432375299758366,0.429492246588592,0.430072781508763,0.421264904981716,0.450554605557594,0.45181181734025,0.449810845034301,0.447502783302144,0.478613476589704,0.575037972662515,0.533260093835465,0.513129872699213,0.535794023122564,0.542844530591552,0.56444143803367,0.584847560766419,0.593946269799033,0.631791798225392,0.630878857853617,0.63081082935798,0.630368610125111,0.63178484446507,0.629519577215949,0.631078782696921,0.62791632257639,0.619980008646526,0.636661405446535,0.637372844593413,0.649278808416943,0.665182564966907,0.68828916384688,0.707718173485912,0.731138139135248,0.771321801110602,0.745710710939526,0.724179935353098,0.717392346397571,0.71145240415181,0.711187811884591,0.711439712763595,0.736026909705325,0.759575820099577,0.773200256596474,0.787555827204031,0.784135025177651,0.780796625390146,0.774274878040168,0.769297414421167,0.764237869918594,0.758376547136719,0.757556364217451,0.757100497448075,0.754422158588148,0.751739798115291,0.749107290936882,0.746435524759206,0.774304479363334,0.889636754208577,0.844377220095232,0.843940470079007,0.821946431493406,0.772593529646506,0.77034322003458,0.769074817989618,0.731552924185335,0.707233689915091,0.71166115422166,0.716030031985287,0.748786282962833,0.880574478933471,0.84303615711059,0.830180437565133,0.709160956217307,0.658126639074848,0.658406596242067,0.658656124411089,0.612565510677016,0.580102349121945,0.580277189383235,0.580359205835909,0.58994153967026,0.64344766575236,0.557298959284186,0.535253345438285,0.523424977536637,0.496359487764587,0.485247010802376,0.463253127889519,0.456427363304721,0.450771090973007,0.448801388999909,0.437748908748714,0.437582532525882,0.436956199589251,0.43035959857734,0.415069977307128,0.432085103450092,0.48888301038142,0.408930501263031,0.367749600797244,0.36776943117795,0.367560850713326,0.358807725094814,0.341214765464192,0.332593742058828,0.329225461776776,0.330686945325204,0.321120689545163,0.321177588751629,0.321826874730205,0.318270818290383,0.297662629252372,0.297318635963366,0.296838692797832,0.288757091972613,0.287252548733832,0.288110004425965,0.318169307558433,0.316887092140631,0.319028543128807,0.315681240200431,0.314030186262565,0.313522562189729,0.313475192643034,0.312582833209343,0.326786065934286,0.326227678878644,0.323789629567875,0.323511539455906,0.322807122786031,0.32178211863062,0.30708160407207,0.305003310047776,0.304854479832004,0.303589203741459,0.303727122742402,0.303375436106058,0.304025540926305,0.304267885656068,0.30568604467509,0.305488859819168,0.305585325480301,0.319767774525734,0.318407405570668,0.320017763855334,0.32052993465253,0.321199891977791,0.321899309484215,0.321483384806628,0.321376080582763,0.316167141517595,0.31103267998246,0.312127750261552,0.31081263618659,0.300623637301599,0.300589101735933,0.301760001555117,0.303301236241483,0.303035398996748,0.302869321641589,0.301543093870606,0.292790546716665,0.293289549737119,0.293252608816686,0.295185258414484
0.455885583742642,0.469022811205575,0.43259763203028,0.429656181860437,0.430327358789232,0.423358976244159,0.450293542319788,0.452399681593614,0.450003816986457,0.447781407169552,0.446691897769594,0.445586163911783,0.483020104122114,0.522551895252846,0.529928564507194,0.532510143883603,0.556213540839236,0.585988217368918,0.590394247694165,0.642398377798631,0.618122162455563,0.604631162899629,0.596201576281505,0.588693676617738,0.608251978309995,0.655993837071018,0.631418248337703,0.638742336765382,0.636341887214711,0.635522241000473,0.64501251144792,0.649892923401081,0.673478649202041,0.680906875606475,0.708281780694258,0.768656930431586,0.725634057712994,0.707384251185204,0.707782930756006,0.708347372151033,0.710627050456798,0.712387593624161,0.721704682544626,0.728911584759784,0.729193004928876,0.72954170985207,0.74924352291477,0.77282609135778,0.759912770232856,0.749066849153752,0.731554686005345,0.713920321535665,0.726818711595681,0.740903005042401,0.727309260237971,0.716809549112128,0.704490781412956,0.691241579056271,0.69015364705134,0.689779506191322,0.754029375542739,0.855382758021316,0.825335301930343,0.829687917992707,0.73669149793402,0.701797211756941,0.701362923455618,0.701025890568586,0.689901917315035,0.677836050167262,0.693823409936579,0.711004923755345,0.719648154919079,0.729672099578547,0.669218872817639,0.632609176044219,0.6047808688485,0.554660672924479,0.557387181677771,0.560084973285923,0.54761767247826,0.54171231266675,0.526202052484942,0.519422310719076,0.522187091325027,0.524942701211687,0.51560354617395,0.498874855062384,0.473758490520413,0.463339769300883,0.451412344740492,0.447322745320103,0.447209878277338,0.445509370102373,0.437220269346917,0.437325496506436,0.423660602230251,0.415218302008063,0.42387168247261,0.488819171783478,0.395016599102315,0.369118562192957,0.367688103047274,0.367178182389599,0.352362783182039,0.32850636624722,0.329374178630048,0.329580145470946,0.330781283288248,0.330860817031422,0.321190329702451,0.321492190459503,0.315297664242871,0.27425596255162,0.27263655413945,0.271467420969284,0.282121685826753,0.298918394607102,0.283829412932051,0.278103707559692,0.279898804252361,0.277642585953436,0.309377756407591,0.313440725302663,0.31231564077135,0.308950643109978,0.310632631205546,0.327519826194549,0.327404441886287,0.327613752002184,0.324559535745976,0.322397972949573,0.322319364362783,0.30172815812606,0.301322009418516,0.299590644867752,0.301142873475536,0.302229330049898,0.30199163472696,0.30339421870281,0.302782857800143,0.761049738431084,0.320106125178433,0.304773402312585,0.318074539619452,0.317406272937425,0.321011486352741,0.322056127129031,0.322680820080123,0.323227382792097,0.322977770711298,0.323167747496268,0.31639138518919,0.316317349266395,0.314717416632369,0.315343531337246,0.300379990142166,0.299494658862893,0.301822950107063,0.303475034212619,0.303572912211716,0.303522271989393,0.303100212854505,0.291464895556044,0.294982775500291,0.298142275286535,0.334576663182324
0.513351750288971,0.567196144640202,0.432578665409494,0.432810346763476,0.432361949535117,0.492360339634442,0.448686566749172,0.447610112589695,0.420552549082583,0.386066987190039,0.404916612448413,0.425837641401496,0.454594349461792,0.468766322880934,0.526118855964512,0.547665288781458,0.54883000623988,0.550100018354247,0.576005188733677,0.596076562867952,0.579538902015519,0.566584987091549,0.579774279302658,0.5895080931789,0.588983848026956,0.588510848890918,0.605276684783026,0.633725573217786,0.634522061877288,0.63366791178113,0.638099684313575,0.652348175658379,0.665042704017701,0.666029807609862,0.668137670313401,0.670452175692901,0.653693139940215,0.635007816751841,0.622936656822699,0.613410367328724,0.621414152881673,0.628268387799652,0.664932379067356,0.681538249036447,0.682662245397203,0.681856414167552,0.725137734767477,0.742785418405762,0.737391615459918,0.710664319964661,0.712059615881611,0.713327684198973,0.700526424175097,0.690975548168301,0.673905604292541,0.652625474289504,0.669708024036207,0.689280866680797,0.689455971132074,0.68892416200061,0.724506256423329,0.82026103202381,0.746315663998191,0.697050263446942,0.696114087175004,0.695177913176651,0.679058102479662,0.662032160764557,0.666473931485264,0.670841776220726,0.668121612087973,0.665592383964169,0.665390260536048,0.665181578989787,0.629489044085996,0.559738906218896,0.555869884994638,0.551235065684469,0.548627221498108,0.532437428296662,0.530010409417701,0.525140224713979,0.522925636277896,0.521218645637898,0.506928830911805,0.457990054741664,0.459059701578516,0.459551891272444,0.450895700626137,0.445530677160871,0.448364143652973,0.452080485787794,0.433107488122996,0.423889917876209,0.417787205510791,0.411401602346465,0.411191770941693,0.411077903896031,0.392882167299492,0.36428536436388,0.364794866069951,0.364385989211791,0.366566770818152,0.55758936549746,0.344007016939487,0.328269352269735,0.32931197246679,0.329497087200143,0.321473023270001,0.307206671015683,0.308897576269005,0.310907026017229,0.311740090696956,0.271911164617281,0.27199187686396,0.271485088476795,0.270798000420168,0.27017899438541,0.28202461716747,0.278751674226113,0.283560444605723,0.341396935611036,0.303097625730885,0.296005139390742,0.307794160028085,0.308472136720926,0.309341262528414,0.327645763609376,0.327774235751581,0.328377851728908,0.359464278783806,0.622441305171633,0.361835608003066,0.301294350851917,0.300295520063678,0.29956660188365,0.299566636304312,0.298923629557373,0.29887103277728,0.296752167029999,0.29985602646008,0.350542757977583,0.330243520270321,0.76250957831846,0.315683067483044,0.313723299406841,0.323558864651699,0.323533360154831,0.323599936167801,0.323623228840519,0.323648196927739,0.323306953697091,0.316262931941518,0.315933178742353,0.315300379141495,0.316016028984981,0.300758794700646,0.299709770931442,0.301877032599887,0.302888995464567,0.303699614401395,0.303404349944952,0.306183249180713,0.307138151588565,0.343411332324109,0.432835702387243,0.421656197190277
