0.322153455392896,0.323865172042333,0.322592251148015,0.324707519262799,0.325248396184335,0.324476209215552,0.324461770525809,0.325077355148985,0.324918806374654,0.324875748342174,0.324593926691616,0.329777789428694,0.330043703445015,0.329587561550312,0.329498593458596,0.323872244258789,0.323213064827597,0.325248618053985,0.324867173320346,0.325088503288545,0.32438647081154,0.323759195488548,0.323485198044457,0.323254235445045,0.322864294889259,0.322451790252547,0.323445141715384,0.322807951529679,0.322793773364962,0.322563078805559,0.323963313033298,0.324133593538661,0.36659429150484,0.365593981356478,0.507927647283583,0.466549591729588,0.463659565531265,0.463519467023941,0.468958324891696,0.481132629238765,0.364781649187593,0.327981917326383,0.327702473675914,0.327112032452413,0.327524374646702,0.329226702231679,0.328051056752145,0.328072802813162,0.329322971884903,0.330760932306429,0.328005161584502,0.327217333577533,0.326753511808136,0.337371300614468,0.336985666913639,0.336875632171096,0.367897543936552,0.353412449524286,0.354931374601301,0.3512950904292,0.351054848520167,0.568491384573375,0.369303177887144,0.367313325566436,0.367183148044615,0.369953959826927,0.371224023328343,0.327138166868901,0.326719326844508,0.326283403678261,0.32599487723391,0.324704500370863,0.324937870073493,0.325617761851189,0.325198314276786,0.608580867707031,0.608564702050846,0.383287434072087,0.437459969976796,0.735548185750298,0.356016008370513,0.356000695627341,0.391832694625433,0.392215487732918,0.392826661875361,0.393786882095083,0.479805690459482,0.449036715981828,0.383333932196082,0.331891040451272,0.329437661142387,0.328383044855819,0.327477037606447,0.327162994499956,0.327316123800228,0.321749843873675,0.320512181100404,0.321154841221232,0.320317620302652,0.319701620043486,0.321043413416847,0.321296170686528,0.321818183595186,0.321305581610788,0.322237474315267,0.322019067735085,0.315743786639592,0.315953052696524,0.315623240913073,0.315496355231642,0.315094029324575,0.314710639250608,0.314520123181485,0.316380281224754,0.317690283884452,0.318277838849064,0.318382203322863,0.318157643921772,0.318212261850136,0.318454937172938,0.319486223658601,0.319348069820575,0.321058397230104,0.319884303172062,0.319753691715369,0.319924202258058,0.319734770966349,0.318860384083651,0.318433737022635,0.317872607863053,0.676341465888448,0.351020402196977,0.351505818307782,0.342052956449233,0.33389306456631,0.346986252418208,0.33615599821972,0.33590816955523,0.444383705521999,0.533411625960485,0.474829160164524,0.522126482986959,0.410409217319151,0.277760789713264,0.276633104354822,0.281701109133048,0.261808544925914,0.262667762290605,0.262070460392755,0.26319901835371,0.292462175673145,0.293756612275305,0.293616833958332,0.294215924278101,0.293756420408034,0.300892041926737,0.300656853456718,0.300076337027707,0.299302579021535,0.297947842301188,0.287550300749141,0.31543413490951,0.224099776360305,0.230856203761792,0.225284817619112,0.225478274999509,0.22526057173788
0.327022468363116,0.326342053334753,0.327209140249133,0.326284427710941,0.326951830196382,0.32398053865348,0.324600186184462,0.324538542899893,0.324970832372655,0.324520621624257,0.324937349692172,0.33065925447713,0.330910248085669,0.330378061327723,0.330156075869355,0.329710898501188,0.324896880021081,0.325173104522191,0.325664811054204,0.325371607389813,0.325701922797349,0.32456633168467,0.324393212920639,0.323821387493059,0.323406216687558,0.322686128552673,0.323440639726517,0.32400811960659,0.323504330265226,0.324203276492794,0.323746621137567,0.324823554227882,0.324317972184615,0.364641950041679,0.640263368728256,0.536387287068293,0.462669928093969,0.949112684342764,0.47377774162161,0.480175341582771,0.482280395365191,0.328203771432271,0.328086352482796,0.327554136138281,0.328503774735219,0.328240224147948,0.328879955163131,0.329002708142824,0.330400393851817,0.333154911073535,0.333741540997922,0.331501520493593,0.337437363594007,0.337382745971055,0.33707979985689,0.546689301228858,0.363769699347471,0.564784061044161,0.356501848475695,0.357165230597238,0.570143873986281,0.56970560520193,0.363583724310482,0.364787581141881,0.364360750190745,0.369650581467092,0.521274193716438,0.384846547209392,0.362928076267414,0.32597906190328,0.325502277702514,0.326047467873309,0.32798122526908,0.327327621882212,0.327036403843633,0.327102281967777,0.502160998195557,0.382855152695914,0.434865013906727,0.44152924061355,0.356516880222258,0.357394676765346,0.358741974359184,0.376047988613927,0.392353722027713,0.395884779160613,0.396432772675116,0.448607459322129,0.38599826309674,0.333321242185004,0.334607064993672,0.327620360918484,0.327740662158953,0.327379816484197,0.327860159826787,0.330997322405529,0.329217687148182,1.17728195621386,0.326718695730256,0.323007502235863,0.322289353676287,0.322579263716977,0.32228499991567,0.322007571240644,0.32288228911139,0.321721904786663,0.316534601670091,0.316352716809696,0.316236031053504,0.314947900785553,0.31522509455342,0.313295587996458,0.313954835251556,0.316310015253039,0.317098700184434,0.316864229641994,0.321499605264216,0.318209148329789,0.317982444582649,0.318210694532759,0.318667247011994,0.324907477491257,0.322794434200593,0.325976316598329,0.669260009898904,0.319221577347092,0.318236591526598,0.317247799382894,0.31865085583773,0.318275165846065,0.332686690616272,0.333595863881398,0.333864811694676,0.333610395320418,0.333192633121217,0.334415164037767,0.33641884794005,0.335666486670849,0.462767594344318,0.517665988359272,0.388662814151219,0.576791552049894,0.26419910893853,0.26417739051283,0.263832218210106,0.256486538425823,0.256888390188254,0.257543792263436,0.258097169417223,0.256786503559994,0.2900873431241,0.291704397699291,0.292535771952493,0.292427959598341,0.297393755532333,0.298587501999931,0.299363045134676,0.298079046446956,0.321819122629437,0.355294128314994,0.288098971220863,0.285295857198817,0.532960168464644,0.348876790410002,0.468512183269252,0.223872787001558,0.224577027684831
0.32712481203475,0.327217431203213,0.327120302605281,0.327422725856374,0.327594209655508,0.325993712630589,0.325204660193622,0.325692807048177,0.325418372780661,0.325378665134921,0.325065900372077,0.330908429495251,0.33050602876783,0.331049370556679,0.330291530231186,0.507083441587443,0.324810393061619,0.325646750450412,0.32660448583986,0.327458696070498,0.326891433719477,0.326454417957043,0.324051050501712,0.324718040038623,0.322788840804586,0.322603901531811,0.322299421228653,0.323016453775642,0.32313149282019,0.323413913008886,0.324034250822155,0.323968877704611,0.325887831117686,0.363476026377066,0.653669073215497,0.369110451646671,0.58083476255908,0.3447703603056,0.4015973890806,0.346984756366323,0.483588394737498,0.327776777485339,0.327814505961487,0.327496809134431,0.326952276849324,0.335784141590796,0.339277938713722,0.336688102553854,0.335973301900889,0.334762234608824,0.33438239525684,0.500045144791956,0.345010417009152,0.349535173480724,0.661346919894806,0.661271480184102,0.365157306284305,0.357452402679366,0.357610268455969,0.358072129132304,0.359169877425487,0.359405374150411,0.565304954446055,0.372849429403746,0.376833141825816,0.381380339924098,0.560936634567069,0.375521309358665,0.393018349557186,0.982306167332434,0.331602882099068,0.331626791842145,0.329716161827763,0.328617139639502,0.32806660071393,0.42654433948999,0.443553938689611,0.458256791181001,0.428621158379169,0.364510954948853,0.364794867563932,0.358580228407683,0.358459863441157,0.362390748370483,0.358648078494399,0.396889342397435,0.397113088189983,0.396813415981247,0.397933819944903,0.490751635765943,0.589046915899618,0.326376031596031,0.32640703384904,0.362085615148474,1.68059819906235,1.68077183019631,0.331466846798464,0.333379877435555,0.33415922326518,0.333168267799717,0.333333249345495,0.321692423665856,0.322144417125105,0.322007028362714,0.322235275475638,0.321730749481175,0.3159660842169,0.317279727266699,0.317135042644425,0.316804018193357,0.316262537198856,0.318736245908415,0.319462896310098,0.318696637906851,0.318769098916693,0.325223597852438,0.322554553150073,0.329678690198544,0.330048706483081,0.329059638261126,0.32925795924714,0.328661086720797,0.330030244461922,0.330364686421973,0.331182063557695,0.320335036839648,0.319141873922254,0.320910709268946,0.319794565814924,0.320223546974076,0.333333677854709,0.33520328269961,0.334380237617452,0.334139694642269,0.332898182499637,0.333489748945036,0.336376116958155,0.466425016099893,0.480996454826336,0.515816114081235,0.518268824725356,0.470708914989957,0.264049728074991,0.264251602680133,0.264187352222121,0.264113342539633,0.256236448911415,0.256786785598782,0.256883478047671,0.256172224699477,0.283810363770245,0.284526516070244,0.284655225293141,0.289629330634664,0.683686062855156,0.296620906443208,0.692678227640519,0.295861412646387,0.336155330065536,0.354938177868677,0.356190065090527,0.301323264780126,0.301225542526127,0.300129454529293,0.299004188139726,0.222825873029538,0.223649298312452
0.325641388783117,0.327393604217395,0.328228107351917,0.328012028764312,0.328425347284549,0.328319680220393,0.328041521163011,0.326602061921641,0.326279629517822,0.325967966081764,0.32756961882591,0.329283564174235,0.330701025782765,0.332982425892923,0.33615596292602,0.336192665651155,0.324346497279059,0.327662100986065,0.328103674831999,0.327940568866451,0.328237044016266,0.327826107001596,0.327611978593289,0.327699294601482,0.328652379856381,0.321381951061773,0.324754182578871,0.324023997862255,0.323541495903499,0.324355437284762,0.334637275645672,0.330115915367538,0.328739168749995,0.36179380460159,0.36947528687954,0.494411947938776,0.497657566483455,0.459816854483936,0.429414139742523,0.349469477766323,0.486382039364601,0.825147239428529,0.698402198806752,0.374784238374104,0.335317618231611,0.336570908641974,0.340522929075372,0.340620638471662,0.341055234483372,0.3401615297333,0.339079427435367,0.500569835987225,0.499870555693114,0.358677214455168,0.363237844920333,0.825121493750466,0.825428042511121,0.358398557628285,0.358601529691729,0.558921315996635,0.360319737082286,0.359765433927007,0.359121275906573,0.370191854584714,0.375713054275513,0.668097878757437,0.385165644366586,0.346423747924437,0.408080820498712,0.658516133694814,0.331583767510918,0.332504155664259,0.331260100441312,0.329539029984049,0.328126308184059,0.517074715891016,0.426644290503471,0.458107789331649,0.422551152264212,0.365059764910534,0.365390182050773,0.356690911265469,0.357324688873798,0.365790965933028,0.368158635754234,0.39684697338337,0.396637454883879,0.396560365416666,0.397468179617644,0.609936027823037,0.610155173804231,0.595063665322301,0.616334101468603,0.38148826160589,0.334178393462224,0.334992296160309,0.33442324840403,0.334798317353626,0.334931355793349,0.334743786896294,0.334856503053419,0.335664252526748,0.322039807422426,0.321807094789924,0.321742689795073,0.320664257192115,0.321775582307957,0.319409239817316,0.318957328467624,0.318517550318751,0.319193880699201,0.319021675263179,0.319706874844381,0.319625793938838,0.320586610273422,0.321313737610089,0.331122920645644,0.330714030241449,0.33028791591209,0.330321635765342,0.329110888344653,0.331259156182967,0.330963482545568,0.331061614332109,0.331783391307922,0.331977393325179,0.340018985792647,0.339662477631466,0.339463040270219,0.685590018048286,0.332666937237205,0.333369871565722,0.337034010692649,0.335243513276434,0.334886593739162,0.335628820272386,0.336314082664065,0.527386672252596,0.510338774317778,0.500289876227272,0.477740230559909,0.265111023940209,0.264453641523272,0.264105179910944,0.263424027577511,0.25595100898382,0.256406565661942,0.256718579469306,0.263651057344712,0.280439519372143,0.283678589577208,0.28465929053231,0.284822859301947,0.285529771338268,0.284800326482708,0.684319450710099,0.692629460412333,0.352823281393687,0.344747070404338,0.304428801450636,0.305475774808222,0.301182166526583,0.29880227830372,0.299755502260052,0.341730113575382,0.221469005452203,0.222094357246427
0.334793940937667,0.327637127936343,0.328107729170457,0.328384693683127,0.328516854182429,0.328724803679385,0.328102836024201,0.327368837129449,0.32674061715894,0.326926427970266,0.327691049160676,0.329509498088022,0.332208936982787,0.334408588988464,0.335817370766153,0.335472587725702,0.332689935983823,0.329787961507185,0.329660026328058,0.329966878746788,0.329288950800671,0.329850244008038,0.329679253803732,0.32979334458399,0.329169306099632,0.327774534107061,0.325943482792386,0.327989646771062,0.33018997775164,0.332869043321044,0.335524435915255,0.337646336106013,0.338522865105889,0.359666386837905,0.413205474735469,0.442795438156868,0.498160431852909,0.499197560619943,0.499993074342176,0.500496679450736,0.500136059165568,0.574489211723782,0.544006619694541,0.402427513622459,0.372129585812638,0.342152169083119,0.341705655633984,0.341982988244843,0.341682402633284,0.341687708768431,0.341896737554643,0.347059174198704,0.353663120431662,0.3547616469379,0.356710821346156,0.358705662395715,0.360246022612971,0.359343274115767,0.359816925441872,0.360348863577851,0.360146038178222,0.359679218782455,0.359210365472158,0.367423888293723,0.370934163705541,0.493563029391674,0.467681134161944,0.443541651228202,0.422480122975384,0.3880682853409,0.332260339888925,0.332804136052794,0.335257963146529,0.336784826101517,0.391565359248773,0.426965291255486,0.426511269424059,0.42583397865025,0.417702525431606,0.365271845421419,0.365381083037822,0.366006358072983,0.367133926687436,0.367859157707262,0.36925941938614,0.395844482238996,0.396056090796507,0.396275887083573,0.396745335357598,0.448236370210764,0.592272739666991,0.594645366104944,0.575621088208225,0.401817187671598,0.336941504090353,0.335777606896841,0.335581920727146,0.335526374192804,0.335549574248176,0.335559840562954,0.335491587651773,0.335617789562733,0.331022866583828,0.327824546343877,0.32566262875315,0.32320829968885,0.322213555143132,0.32078587926489,0.320144697568067,0.320058323684994,0.320001793779074,0.319955061866924,0.319853000096072,0.32019845798358,0.320583487447457,0.321297892605149,0.331321671274793,0.33057027012265,0.330197321297604,0.329836696364527,0.330247681160454,0.330649197606809,0.331416170388852,0.331258704413701,0.331220396564186,0.331148774526459,0.340608692868949,0.34031643779648,0.339785992715768,0.339623467170447,0.338843719708317,0.338577832932887,0.33711541155593,0.334851375097044,0.333805474472122,0.333992983046974,0.335185199629639,0.517713820671954,0.516232791401489,0.490106004537401,0.471536652258529,0.265125206685033,0.264718749300945,0.264091612293122,0.263073360929635,0.256841155894439,0.256766684844331,0.256559602696867,0.270355006125954,0.281530821677605,0.282988649927444,0.283930832968982,0.284465935511184,0.285020295848928,0.338080271799602,0.365900045245087,0.410321540658861,0.369152939607103,0.360267494831836,0.342740073568827,0.303244870607093,0.301300770743118,0.30004237497662,0.299377743653787,0.32096711082146,0.220894464368958,0.221373139656076
0.549890102118277,0.327881504975984,0.329030024685063,0.328836168125256,0.328834203100078,0.329105076777462,0.329104809765958,0.327316649718578,0.326724394928134,0.326791836000052,0.32752668833603,0.328014401403798,0.337506371222398,0.336065391283964,0.337217383108197,0.337049120376997,0.385561704442226,0.328757281694595,0.33039336193842,0.332793315107002,0.329508041887822,0.331656094651252,0.332191138922086,0.331746861810403,0.332016903102393,0.338670225032206,0.323941656690039,0.335961910724976,0.337386892313628,0.337385447877873,0.336691474150636,0.33823415068548,0.338511509275989,0.357608642153578,0.635364218908749,0.37586679830673,0.497683278956793,0.50299947521615,0.50236658178618,0.50144504680536,0.500097517124771,0.713897879421032,0.497951639168053,0.430003568575684,0.391278957644593,0.341726620953077,0.343016747281402,0.343104848026808,0.343184935854766,0.342936233905659,0.343703150773836,0.34314932068173,0.351617955938374,0.351680933202902,0.350940252971744,0.350399678926396,0.362360311818584,0.359454648515651,0.360863972980946,0.36092938212016,0.360723312269962,0.360039459106738,0.359731644003517,0.364374976468206,0.360279152445772,0.627154428485564,0.580099480640203,0.569657748552812,0.440335496529026,0.344505439439584,0.332306731331866,0.33203664203547,0.337446153805571,0.338986813950317,0.426076068040489,0.427403324196191,0.426577274409665,0.425162419542349,0.413124591219001,0.365046633531945,0.365096064148277,0.365171652695975,0.483868659612335,0.371545984425234,0.37131725550952,0.395179485184968,0.395856181841948,0.381539147273066,0.391137948261899,0.395293581731906,0.590172754284336,0.596628120659478,0.555301684374842,0.423526765049682,0.340159330145566,0.336031853445752,0.336537453530726,0.336333385432106,0.336317278662964,0.336487258808717,0.3373684457247,0.337432423690404,0.338604761375025,0.340106596722705,0.762974121452099,0.323969573593355,0.323750355855187,0.320980196082866,0.321028861336049,0.321142746837604,0.321240219345962,0.320320136278365,0.319971869469676,0.320573942069843,0.320995949878155,0.322048449126152,0.774729248585535,0.329528780295465,0.329563486310307,0.329649786338554,0.32967817501307,0.331536628785941,0.331404344366962,0.33152926027518,0.33155591360207,0.331136660784905,0.341030849909875,0.340450651894459,0.340297927507292,0.340472549419725,0.474648845654822,0.339513672603783,0.338795804218065,0.332596571584465,0.331430977445216,0.330543987489954,0.330403116512566,0.521421583981273,0.518829379586286,0.471098197044342,0.461870741996112,0.265653161857863,0.264954350471573,0.26457106484973,0.263019497076821,0.256539546700118,0.256347472891997,0.256230343063686,0.275880767389479,0.281576094965765,0.282845609675065,0.283952889376328,0.284295244979522,0.284307321039269,0.473741773405855,0.272182090977829,0.683157984716684,0.38777828083637,0.370221103059804,0.495388486622846,0.302564990371629,0.301130778181529,0.299876549304802,0.298310742232896,0.968277969164181,0.219835391528523,0.220469679705879
0.34346183925322,0.390248847053588,0.329009166930775,0.329203506168063,0.32800531261576,0.328513397695229,0.327885300312063,0.326675227718477,0.325190426377352,0.324611870807196,0.326292529314616,0.328045752850083,0.330905008053763,0.336544052269952,0.337681819104988,0.338603672314744,0.33952469579111,0.512518694808587,0.332913045666287,0.33117003497424,0.333529706213077,0.334102148705454,0.332704701166727,0.333708175807077,0.332706342863832,0.338807204832137,0.338838748052997,0.337033800309603,0.337846087418477,0.33817945170345,0.337134555958965,0.338466446428892,0.338963775895413,0.356199019679947,0.375118806062019,0.496793101135844,0.688807881943091,0.631910156054961,0.556826216470237,0.756442622366805,1.47464922225037,0.75927398137052,0.687901706298224,0.457648491488258,0.830314861212148,0.344464530345976,0.345277960141409,0.345052726821327,0.344607665412188,0.34479654114144,0.345196818279641,0.345595363247986,0.350856529786453,0.351443512372889,0.351285531764324,0.350642182858543,0.363884974420173,0.364855781403165,0.363664180195673,0.36356754050986,0.360167810787983,0.35978471035413,0.359438375026193,0.414300267670241,0.718779010577595,0.61007797352768,0.60195967862795,0.674809320813221,0.460560426813902,0.507215460918117,0.338032950814714,0.33844241673333,0.33679446652604,0.342215244783268,0.710657563968407,0.430242857698753,0.345621113005007,0.399908100732286,0.408047141080705,0.452361519538311,0.364233527146854,0.466649539567458,0.370331864636208,0.371067388545851,0.371724697901347,0.372053104228521,0.382163292796533,0.381955668941934,0.385606615427975,0.384851176803724,0.392830626209674,0.557698736058369,0.556543836964495,0.447048401463581,0.341494256810858,0.336551429274659,0.337001132774106,0.33682874249065,0.336774597116948,0.337348611753784,0.336944600631281,0.339168938601399,0.338588355611677,0.34180874749535,0.347659824591234,0.324633707892021,0.322809953133674,0.322165342302948,0.321509439182525,0.321598025489468,0.321411678890187,0.32067181710904,0.32092495055217,0.32146325400159,0.321685308761995,0.322196458938009,0.326721562536187,0.3285810375101,0.329288698725769,0.329218999579763,0.330453401560543,0.331428098184039,0.331842060795674,0.33146769442139,0.331118669872398,0.483533670525407,0.340727495208088,0.34100846216993,0.340437120374285,0.340568218844144,0.558622251336582,0.339375412651201,0.331072763455962,0.331673043575691,0.330914765736538,0.330872164078522,0.330177669228406,0.605905750382501,0.545634647943586,0.604829986532285,0.264448541463051,0.266219613220737,0.264807529029326,0.265328222932848,0.254485193698283,0.255584455692609,0.255813852392593,0.280314005520283,0.281350081210173,0.28214869183307,0.282804256425886,0.284503781772261,0.2841760300662,0.283787126038817,0.271440530988736,0.270764405039582,0.547864304651368,0.499093115676814,0.352061324645388,0.298725179814804,0.508623396498505,0.300252290757465,0.316382327521385,0.295496291921282,0.269950310150179,0.535984044471847,0.219933885535023
0.345185367993629,0.34323829640234,0.330168871850507,0.330575195246086,0.332728214910959,0.332672913249255,0.332128619844334,0.323508701178084,0.323824076954663,0.323144660543625,0.323511840381207,0.328823155224594,0.334480169435846,0.336254054601514,0.337098624853599,0.339570668403614,0.340902087599864,0.340413164037459,0.338443604799178,0.336167411358149,0.343331444354771,0.334268637066104,0.337559774352939,0.337368950000301,0.338796167679733,0.33882468382251,0.338869430087066,0.630800595945238,0.621381880117882,0.614363800333246,0.629139712256895,0.338017390511629,0.33858528031413,0.355692527158934,0.676414211346299,0.582729736087501,0.496327889442428,0.350748438462845,0.397562642784849,0.755997332827668,0.763487013900692,0.347073675103689,0.34707883814014,0.382433415330184,0.410447835462602,0.345515110123627,0.345779448305158,0.346220678162631,0.346103138247829,0.346085963187562,0.346580142591676,0.347633279255799,0.350784377353537,0.351169270771832,0.35093644463155,0.352652058657814,0.352977852007989,0.365560603690393,0.365017974634845,0.365273718565911,0.365724936022462,0.440692881751841,0.569491690469779,0.50304995166797,0.570643212324197,0.610727654518118,0.484260225523869,0.352981675239775,0.3531047483584,0.350869119004502,0.35012365829318,0.344770709431902,0.33732170477958,0.344344941509778,0.346264023486259,0.431969757460722,0.356445013345634,0.356287043995961,0.381940025655911,0.462581455732268,0.590031374688747,0.590962396803627,0.370486033878321,0.371025181762677,0.371263756471193,0.371615785320053,0.381357332712677,0.38870925472458,0.387306885745068,0.387530797913622,0.595505994400892,0.557746443646472,0.601895021065128,0.472634739726926,0.344599945982565,0.335742739073058,0.336861359652902,0.336900551295127,0.336956673320558,0.336832795490505,0.338999938399006,0.339001412468423,0.34137480250216,0.343689982305812,0.347242514577536,0.324611790802411,0.324555398914575,0.321939313718991,0.321697216817487,0.321502373506746,0.32128438686604,0.320741086223246,0.321497723830256,0.322421916114175,0.323024325096104,0.323711557193147,0.326394683586413,0.327445255262451,0.329820948531219,0.330910615444281,0.339167182482346,0.340221884864449,0.340207733854582,0.340530548580502,0.66213813976611,0.570933296718743,0.339692288426917,0.346363199751097,0.389129952725256,0.559682898073887,0.340298991417402,0.329466475824083,0.33121106434587,0.3311830973766,0.331278470267733,0.331270687203396,0.330884632434979,0.605969814507712,0.423224552312197,0.263955829420521,0.264631670182215,0.265883382799473,0.265553831701089,0.265840377593118,0.255001437748989,0.255461046364505,0.496550617764314,0.279268005015898,0.281322683807013,0.282452524601013,0.284012154278214,0.283546091359034,0.282997008429508,0.282792817095617,0.281854047568164,0.26830698950142,0.548803110230873,0.00410172586524091,0.305200686788402,0.517461869050422,0.517085689024452,0.408217873163943,0.29113665908134,0.29443178496617,0.404301294380928,0.276089668661211,0.221690093554567
0.494880232418592,0.391045453907407,0.331898018210819,0.331557806677399,0.332456325428957,0.33405294768047,0.333690307961458,0.32216143200696,0.322785180074376,0.322485693873399,0.563830287263452,0.329702150606247,0.33173611205433,0.337808336941112,0.339952373747962,0.340632617256608,0.34215140936732,0.342812580522116,0.343735720858233,0.38690224770464,0.343367506767452,0.342223594087516,0.339354308087876,0.339334613882441,0.339390637048633,0.340701652373306,0.339190792664183,0.629812624200535,0.629581876917114,0.629349983978497,0.629157641780924,0.356371331442537,0.35612013625045,0.355932382834301,0.515847921376362,0.354076290595032,0.354303849005826,0.353234190997687,0.352777918395007,0.352064119999989,0.349595402198039,0.348542268034231,0.348552770968212,0.348837807249673,0.348710230529432,0.348414797541996,0.346131708813158,0.348349742522774,0.347159825118212,0.34690978138879,0.346669947058827,0.349482111381561,0.350687796849062,0.351460596759692,0.351967040382019,0.353072174209295,0.355062886419078,0.365871321179199,0.366008986478635,0.365658167485615,0.36596039644713,0.56957800890896,0.571529356426796,0.477250014277703,0.370961126662932,0.370169725489595,0.604339627529532,0.701078513925988,0.353262616629796,0.351204093222079,0.351957632472066,0.34915920578477,0.350371234603522,0.350577175270163,0.349794866795337,0.354933054870744,0.356179762040579,0.356850320798511,0.358355629701469,0.356424510399664,0.419082863440225,0.419967500998661,0.809797947822024,0.37824226690784,0.371712410425099,0.371471850833832,0.389718951240017,0.389154672793683,0.388319080310838,0.388120924297422,0.382462384685943,0.367168955932602,0.561841264122447,0.561384956384188,0.604412202455625,0.585462993296394,0.336398876775976,0.336344075655324,0.337046933726747,0.33680804440101,0.339942626286326,0.340242527842873,0.359697175413792,0.359870779998644,0.360285586300817,0.360401992159926,0.325642929937177,0.326246762664242,0.329299974659072,0.412881666077145,0.321854390193264,0.32181853424796,0.322744365186509,0.323860187522862,0.323680578282374,0.323837407542164,0.325461082287787,0.326387623806027,0.331629516104681,0.332757941841735,0.340812420728037,0.339863568885414,0.33996452419983,0.340129026334196,0.339755020679374,0.496650305240345,0.344182277510234,0.458384042997055,0.445811500139541,0.440818858315229,0.453576773598653,0.453593864049154,0.329546892791494,0.331077262165077,0.332315308081589,0.332037271299314,0.522780046237977,0.644830109200367,0.398835745981883,0.265010848741388,0.264864447358681,0.265670879599321,0.265751837873572,0.265785114649615,0.265377365531266,0.509484041696517,0.429820579125409,0.280936757645032,0.281281177852242,0.281690611829613,0.282090187955548,0.282575134156572,0.281741932775251,0.31923425827264,0.471122935445533,0.6122913655046,0.612460839609389,0.249589617189532,0.24930926295017,0.249224914271681,0.248641672570673,0.248072964951452,0.285306997614058,0.284534895464877,0.284269867058878,0.220770679743128,0.222324034341489
0.476478292859662,0.420171329504285,0.343664991180852,0.339731033308547,0.33370700353196,0.334441245940237,0.335385706953913,0.335676866320042,0.336272329454554,0.379969214738645,0.408120238769093,0.336685180155914,0.336442603492842,0.337931211599963,0.339720916894068,0.341352402671972,0.342548949680389,0.343171875926116,0.344209275859861,0.359221684991801,0.343232934497861,0.342133114169454,0.340450209557489,0.340415306028699,0.340557667157329,0.34069395668961,0.340325647867164,0.629050922608446,0.629140213861842,0.629060255733104,0.629027765836062,0.406028935750659,0.356429991548553,0.35631022593355,0.356212680747548,0.355860422848979,0.355192971223026,0.354093053629299,0.352954144755503,0.351785047456956,0.350382680772026,0.349619065041246,0.349213915370413,0.349215431537962,0.349032901354879,0.348712740813447,0.348428737948695,0.348305823220678,0.34730603128801,0.346966264304622,0.347411104674547,0.348913388547481,0.350674745104028,0.351706671995944,0.352111896677713,0.354313797268838,0.354845809865443,0.360717469117442,0.36715518049653,0.367038335592867,0.410583951595455,0.570038009145282,0.570533228693655,0.453303427299979,0.371302897510589,0.371085583867867,0.380625114863042,0.367706992825481,0.353842433895434,0.353577960693267,0.352711662555965,0.350529430602962,0.35044638402721,0.350932918229944,0.351519848593064,0.353470489335651,0.355736194010472,0.356224214230008,0.360067389124585,0.382671229064385,0.396751234658604,0.40470023702621,0.39843410283917,0.393237325760674,0.392300042260886,0.390906084520081,0.389796273324384,0.38912160915942,0.388132206161959,0.386779652421082,0.383867906918263,0.430517820193225,0.561389841295308,0.561206325853383,0.601079776543913,0.591586054047361,0.384717952866482,0.336949770022364,0.337657183346942,0.33845668933801,0.339230086585633,0.339462327861827,0.359867054378988,0.359900344707899,0.360261598938919,0.36050673013385,0.349940547231736,0.326703731865099,0.330412276918683,0.376716018999364,0.358393449920957,0.322639916933883,0.32407346826191,0.325979925002363,0.32640537881411,0.326740205429601,0.328269857704504,0.329494661307688,0.331465551479698,0.332091371406878,0.340507154236017,0.340210795634172,0.343389920849208,0.349700496897734,0.360421079720079,0.370854410358183,0.370830754285215,0.455313969264429,0.453825627596111,0.452445560578099,0.453115807290245,0.453184991925189,0.330529909091314,0.331090877027733,0.331670372219165,0.385881078680843,0.5247364628412,0.52673080607119,0.377649354563279,0.264580891552461,0.264752126967279,0.265380234844083,0.265971217461457,0.301095355926551,0.330001926907354,0.358125142496454,0.339706260449,0.305116178966115,0.301159116900978,0.294682701980827,0.28804983032344,0.304106463777957,0.318344724230977,0.339410997257041,0.5339428005486,0.612258413796901,0.612317671457793,0.309611246395487,0.249051054276967,0.248877511074641,0.248521506463466,0.247957044752478,0.258758971714485,0.267400952139564,0.277537706278209,0.258462277176676,0.222645385794012
0.491744027504826,0.564843335120929,0.348297035777019,0.343400658311671,0.334545111915098,0.335935407881357,0.335686880197886,0.335903769584891,0.336384791806522,0.585814678699624,0.599124411266062,0.336864819351243,0.336664273641584,0.338256639395205,0.340008810530046,0.342760102034788,0.343001403863428,0.342600713022743,0.345435447659013,0.812947406665334,0.343896364563359,0.343453619906436,0.338677075337313,0.341120001879991,0.341524195400551,0.341134051023148,0.341044138609352,0.628183545398286,0.628591160709876,0.628708399545558,0.629045752677667,0.629705537661501,0.357001473665433,0.356953481629399,0.356657929253712,0.357819718381425,0.356836256230766,0.354728208108647,0.353260306280027,0.351420912797674,0.350901655892715,0.349832672927844,0.349693668516093,0.349449316828071,0.349520025324255,0.410771149510143,0.350649842762576,0.34886646925288,0.346918537854856,0.346674897314078,0.346673215534964,0.349015843250302,0.350823999761311,0.352092471410022,0.350914330863663,0.356514979595634,0.356204769773215,0.355816593359178,0.368330260344855,0.367524236130453,0.529932699345166,0.846298205821649,0.570056695019944,0.430923142311846,0.371665060424685,0.371580611120069,0.401279315106962,0.353897770909345,0.354507182391165,0.355314613685041,0.355349701954295,0.349589015102317,0.350459299331428,0.35116785947347,0.351358074197009,0.352418144639903,0.356321755262548,0.356182436790553,0.362154428955993,0.493423461168804,0.378712017428708,0.604847948386401,0.393055600301626,0.393563938481652,0.392913008181604,0.39089846498209,0.389544481688299,0.389276087893824,0.388160986938628,0.387459282578954,0.382392076029794,0.603762154653512,0.56130883408156,0.561135419902367,0.605469888154894,0.595429570166626,0.533611283779193,0.336491591906042,0.33801319107411,0.339260367879877,0.339115629071021,0.338416218334192,0.360333185794435,0.364632076465867,0.374406846826917,0.373047423963171,0.371798762163639,0.325691122343989,0.333652102776944,0.519617513539534,0.519061893910847,0.321389005304193,0.329730321852925,0.328516515605841,0.328459866796204,0.331849274545233,0.330497167698633,0.33173155128689,0.332747660980582,0.33335966431178,0.339736581363771,0.339862180799593,0.578293161994665,0.370065414335169,0.37066641085759,0.371132844637741,0.371434589899134,0.48123275885727,0.454619293500782,0.456782673134421,0.443107152061752,0.453054508637369,0.330830904817233,0.331159240411552,0.331514987419947,0.492533900062836,0.529469172657133,0.52809962196562,0.359244642271587,0.263921841033925,0.264164966340581,0.264991788421196,0.266766025996397,0.318059133985126,0.406215923381688,0.392741155193338,0.313040810134879,0.312687589979114,0.31041050087601,0.306945708679309,0.00429371996872374,0.334298658104878,0.334649978316662,0.349604364172837,0.611780383000144,0.612231038182983,0.612297873776722,0.612837966193442,0.248759852476212,0.248942039521947,0.247856444451457,0.247364667448052,0.249745030399762,0.260609104087344,0.283170874996228,0.775826128130717,0.222730860461106
0.558303908157177,0.00362117480858647,0.39908721912299,0.346750206676377,0.336128824579742,0.334602945972264,0.336631806407424,0.334992132566914,0.337347105496252,0.337716937961444,0.338353224301303,0.337780515452008,0.337296761844275,0.338413685766162,0.340162158439347,0.343016666539205,0.343298568262361,0.348472776965116,0.347457207458367,0.813543141073247,0.343814786728211,0.343630572569781,0.343697549642801,0.34365517179587,0.345728979206118,0.345524798858833,0.346730883261575,0.352661760751647,0.398083391947951,0.60804245579398,0.628599686500004,0.62910113097421,0.357194925592212,0.357435896581005,0.357016869863272,0.358922681956797,0.358799356331695,0.354396644049682,0.353381316831381,0.351994475741884,0.350664210576687,0.350527815459838,0.349610538106765,0.349653929405558,0.349429930437163,0.350120346396552,0.351061907841335,0.345199651714285,0.345362875268207,0.344676781607039,0.354550566631008,0.3542156412596,0.353983500275907,0.354918562942271,0.356889815404175,0.356773196851399,0.356657374352792,0.3554585495589,0.369834829373791,0.372014858391362,0.371155884323053,0.599383057066554,0.372171707748232,0.409678005679588,0.372033093210522,0.454774815750735,0.453800685239751,0.586536297827214,0.380929267854351,0.356778159406965,0.356454464740587,0.356158525801004,0.350583954337754,0.351486382054453,0.352391390680744,0.35331934478868,0.361207635807977,0.619076421086762,0.370773395808583,0.371348230302796,0.380503629389354,0.427820677926436,0.400227523980314,0.398318287284986,0.391884264892058,0.390949518246232,0.391066791714796,0.388909157524369,0.388287429965337,0.386404045310157,0.388509813972662,0.396878717195774,0.595755664509227,0.44323176831679,0.379136684566417,0.579918068563059,0.578076362279829,0.386944806540711,0.3413229406211,0.341142695130064,0.341721538090449,0.341520721889464,0.395387320572941,0.39475189844621,0.395489869591161,0.359001805085981,0.375522807013915,0.394912387797243,0.345620163429956,0.344404266258836,0.385109963712284,0.330109014988949,0.331667049950619,0.329310788995996,0.327988341375033,0.330299900270418,0.329737322289211,0.322654654354091,0.334893512816002,0.475179618813497,0.340522433776929,0.340563740033953,0.527864393302817,0.370327364364232,0.371019525191684,0.37254943415062,0.371943712958159,0.371796158552674,0.412144422936664,0.518702058725899,0.361957344568444,0.562113135221345,0.499059886090895,0.465141911629937,0.545387089519679,0.490753880950356,0.464748278275506,0.465215284833847,0.343007637198774,0.26406130983132,0.264652907937402,0.264945606366494,0.266894762080596,0.334923374433616,0.385554520036821,0.312789810729325,0.313622972135914,0.31363404881172,0.313473881890056,0.3133399989525,0.909443957512307,0.334403769995617,0.333044323146599,0.36391745164381,0.472208728750583,0.611732963738755,0.256802706607802,0.248769861822804,0.248306808509681,0.247626072651726,0.246366666771269,0.246520900316558,0.248462685545878,0.252876703029564,0.282700157831451,0.775859362321046,0.223134372869553
0.00375400261242737,0.580735972431134,0.406495084268291,0.349462997917806,0.346714009154628,0.335613914029097,0.33588450592065,0.339686867724061,0.339532326871289,0.339028790033283,0.339305327276851,0.338434338076672,0.337769460269443,0.337939260740949,0.337479913649977,0.342154591263392,0.343237191736512,0.348834808073259,0.349229905822727,0.350225415107416,0.350708689943599,0.34376010326329,0.343958567581315,0.35001831615553,1.49383246891323,0.354205234450108,0.353333413480613,0.352567886175154,0.355692751253342,0.356389901433104,0.357015771015832,0.36333428787449,0.363778284571286,0.363561173951144,0.363421777654201,0.359675189031796,0.359203916852611,0.355956193014623,0.354185953884866,0.351966726792257,0.350372467121302,0.349816872965574,0.349790042364161,0.349294259624857,0.349763294667577,0.349980596000672,0.351059639810734,0.357005936786482,0.356624536157413,0.355803240693764,0.355650397963981,0.355261553014261,0.356264820222746,0.356797212144066,0.357284782023089,0.357280972469348,0.355741304218095,0.356517938285824,0.370507999143111,0.371945498156285,0.525010256697266,0.574103561306066,0.373593744715826,0.42833938413235,0.569928884574389,0.569834565672113,0.568046433347434,0.588300658571601,0.394252410660284,0.357608990081283,0.356842785453459,0.356467054276633,0.344331979292116,0.352715650106629,0.353270395737296,0.355299293537334,0.360073312107883,0.369541206013791,0.369962772586014,0.37070380182031,0.768388718555582,0.425813142394353,0.405045280572588,0.404397807172969,0.403976776653986,0.390939237846993,0.391463136031443,0.389017884804946,0.38911575218312,0.40913803274782,0.396086556146724,0.395618965105549,0.418443885429726,0.406979250060509,0.380796259112778,0.381668277622338,0.387476521120015,0.387334147090992,0.342054904835995,0.340122229532823,0.363434950578337,0.371030659804896,0.394320245413988,0.394297100320191,0.394741464066488,0.358630028281163,0.381593739583764,0.34496374860083,0.345431513506527,0.344559718738054,0.344525411615182,0.387101256547959,0.365685066329081,0.34953140251872,0.332697469663151,0.351265181020085,0.341365288498859,0.321000732429081,0.336999950245987,0.3391461941179,0.366313105918808,0.367930310828032,0.369045208595032,0.369855141372638,0.37190106762759,0.371866076025684,0.372787088892974,0.371816517442005,0.362728239031964,0.354262033361183,0.354230002237766,0.353687291850966,0.352566894428545,0.443715691935478,0.524816247514454,0.408612133351693,0.508301254506153,0.287620466853425,0.32818424806609,0.47481858580046,0.292140514898411,0.481647677363925,0.502515744713193,0.351847360363271,0.312296567199027,0.312985158327433,0.31397751770366,0.314148125543429,0.313492711749736,0.313605577797474,0.447151037536469,0.334320359040879,0.487406244284854,0.379264708084216,0.397998699968152,0.340041907032732,0.264159265866066,0.248122468022317,0.247668916591264,0.247577559256172,0.241023768175025,0.241484317723792,0.242765342641648,0.244338740194447,0.245314685448335,0.775053999029538,0.223548773776556
0.365322454365877,0.364774717422299,0.356165374971742,0.355355267738421,0.352502387575764,0.350443172870668,0.342636852080668,0.343635195389538,0.34226868382645,0.34244998667951,0.339531192562033,0.338587555625102,0.33796720104716,0.338424940986705,0.33778726708994,0.341936471445457,0.514450490855956,0.348004641364558,0.350054928844011,0.351365884582631,0.352431918291608,0.37766336101653,0.443821836019107,0.362506972990514,0.356438294551867,0.356063474696673,0.354437895153092,0.353992521569163,0.355226279309211,0.353887907331353,0.363441909997467,0.363738074137472,0.365101191288425,0.364533540681879,0.365444749380805,0.365176153767958,0.358395311097372,0.356228556430184,0.354806567659086,0.354457000991909,0.349310766628537,0.349340230995548,0.348720157116647,0.348702112211439,0.348568364923704,0.350071777165376,0.536665696354671,0.356974689607935,0.356935450602617,0.35693508722821,0.356582797917368,0.356405289839986,0.357137605179217,0.358130552923256,0.359863127481326,0.362265721296641,0.363130886531957,0.381230179000073,0.381192135472887,0.381510991927499,0.381655505746345,0.84625419931011,0.389056960120312,0.448145668731724,0.57090860302493,0.570681845402696,0.607665727346806,0.460201237005207,0.405904472157983,0.355656842887053,0.35714111462147,0.35611030527855,0.356106693553517,0.357753192514591,0.361402839720435,0.364932626174393,0.364602050958329,0.369450787351087,0.369539816843399,0.369945133774753,0.370569974393527,0.403444348885886,0.404233118853274,0.403446119194497,0.402872351966722,0.391468905414302,0.390222986394055,0.38894363906397,0.390280430140951,0.409184846761367,0.408873398405866,0.394415198560358,0.418549744933323,0.401013446815712,0.381373865188609,0.382045861296323,0.365652719475985,0.404532904489851,0.343786548314186,0.338503506653461,0.379254125581445,0.367399744076631,0.349999509253416,0.356731812904454,0.357417096141238,0.35957834631194,0.417925353797804,0.345031730485617,0.345753089792998,0.344420976275022,0.344131332309574,0.37867741246651,0.365592521148339,0.368398221387191,0.374105753981432,0.351754491457473,0.319842820489249,0.341846710717105,0.348390275274876,0.364653190794744,0.363169866965067,0.368398839564318,0.368660377599402,0.369391460618261,0.370880004463673,0.371746809698136,0.371576310410421,0.355905197487545,0.355617417819948,0.355083645555626,0.354703903799092,0.354238492686428,0.35362811611679,0.422413579105447,0.491629100566515,0.522413414181702,0.308380568263905,0.28616205712978,0.294780280064094,0.292822869572391,0.292611452357286,0.292382943019824,0.52824877711441,0.368697414017209,0.31188527506224,0.312627846645717,0.313344067328235,0.313318378510272,0.313248087831743,0.313164958683537,0.474628214587935,0.293872702207206,0.340161541893897,0.338946442947197,0.337955827882585,0.265173220804448,0.265021957854297,0.246414372760631,0.246683482181782,0.242797375433809,0.233539320072974,0.233901676647155,0.234029613806028,0.240653088050269,0.245175134453869,0.774945397265126,0.78162033344215
0.365414152883856,0.36499429422202,0.357929333717169,0.356945029735976,0.354872705609637,0.350242258944062,0.343534855589892,0.343927891239591,0.343005012914953,0.342191547539045,0.34037606743833,0.339352759900419,0.339098692791082,0.339245170745874,0.339750679358448,0.340841525769674,0.350969519260602,0.350716580629848,0.351466788309136,0.352397298966092,0.353451153773633,0.364680900473157,0.373464509889643,0.366334716799746,0.359997650882991,0.356098023315335,0.355693062814406,0.355906734436043,0.358168655910909,0.361468301373458,0.363315821456204,0.364363826810241,0.364979075309128,0.365238118854268,0.3656522293862,0.365747509079179,0.355566801268416,0.354841333143039,0.354086166037751,0.352850059722904,0.350075391636906,0.348362882588015,0.347760728023938,0.347709325041338,0.347549770433284,0.388721199470081,0.441829011667413,0.414016468246603,0.368937990475175,0.356959848184619,0.356780967157319,0.356706650161386,0.357281270915336,0.359418422046013,0.360648240889699,0.362474529652513,0.362992280827023,0.381200781482544,0.381251364698949,0.381687546179459,0.381923792409427,0.389424700685181,0.389306720017241,0.469530078640532,0.571160860907558,0.571101402196697,0.589155779769346,0.511735460948029,0.416377878618092,0.398047752005886,0.35766593086329,0.35621064234579,0.356423868015769,0.359220040124277,0.361551157109668,0.363338208565105,0.365150149703563,0.368449214171863,0.369149875256619,0.369501375973986,0.369643263965134,0.403170179788019,0.402654942851793,0.40219396211388,0.401925648610672,0.393272235693123,0.391330878100513,0.390816031592904,0.391756658507521,0.406036547954896,0.403945406603565,0.394115820597791,0.393851061703707,0.392794536399461,0.382098352908662,0.381117632925776,0.369476614883779,0.389158554810204,0.34660279889177,0.347766211502941,0.375909835695309,0.37270468071055,0.351781924626671,0.357109500659585,0.35790083003448,0.359757480780437,0.392017537799644,0.350537967995256,0.34972935253105,0.350528154529379,0.350702760741898,0.375777919676616,0.37055562742275,0.369861260571541,0.360440921445013,0.358046958931355,0.361009728056686,0.363765191359249,0.36472471533124,0.365054830466686,0.365231637473591,0.367428308137092,0.367984101123184,0.368452262764108,0.369444157690251,0.36285293536819,0.359448331242376,0.356207991300229,0.355824909547844,0.355171275077666,0.354458199913268,0.354022053441352,0.353828196132872,0.401046389812808,0.492070024599095,0.50817480804515,0.351142410168744,0.29813679871572,0.2961205933413,0.293376344141585,0.292631664416283,0.292178408013403,0.41319729980045,0.385550451161651,0.355348156316648,0.311940610454265,0.312169894434522,0.312272136551128,0.315884641440548,0.325200390184624,0.366201471650889,0.289830246246095,0.287632964196971,0.28473290881087,0.283395270459676,0.27431657232541,0.264839609308962,0.256322120889107,0.255573786620873,0.238543166404749,0.234524586151913,0.234760929607393,0.234573886642374,0.23458134805859,0.235250631361018,0.235809186139292,0.23625134201637
0.365734063640376,0.364959774088531,0.361807029915967,0.359524501090432,0.359212953693746,0.349928976729179,0.345597001910426,0.344978088325342,0.343873883390646,0.343554700988581,0.339745065741158,0.339883328555015,0.3390025529419,0.339402983205333,0.340335731231393,0.341267451380109,0.351081937187033,0.352208269087874,0.352414783512916,0.353330225805774,0.355064328998007,0.356413342644155,0.382522589350838,0.370273097832567,0.414784722791818,0.356678788974459,0.356730787677775,0.355275464157225,0.360778325828388,0.362556561500879,0.364279500509917,0.365526530535334,0.365402056044078,0.36553566426279,0.366089255561097,0.365915722565841,0.354592349218354,0.353873952016362,0.353725369795417,0.353428283708981,0.348837323714128,0.346978275180924,0.345804329334633,0.346970745842747,0.345672596746935,0.429132641313356,1.12877600339264,0.713109054845595,0.383949617769263,0.35718785478172,0.356801702824153,0.356140417747491,0.356293215513764,0.361606378773098,0.361853706495619,0.363126612579493,0.363477554794779,0.381541915682949,0.381649306028179,0.382183307129804,0.383130379682791,0.388885207355503,0.389256475138523,0.492864642454581,0.571110085085609,0.571074255617138,0.633758430045008,0.602845202509462,0.428228886621888,0.449557906402568,0.359307073241857,0.354516622137701,0.35450576899125,0.360926771372356,0.361712284917626,0.362542495479846,0.364475458508944,0.36933868813069,0.369196054535046,0.369223388793284,0.368856888801399,0.418793610786591,0.401228364922866,0.400562791600309,0.400162723518253,0.397436455221273,0.392147587653413,0.391324260605556,0.394014733188516,0.40788393043798,0.401160879567054,0.394466581785642,0.394763720297012,0.390615039779312,0.381733819887585,0.378032845412804,0.365238799113757,0.403441991998731,0.349098837978694,0.349282184018428,0.381419045649278,0.392669592711502,0.345052707807127,0.417195751894765,0.464111342334512,0.361741167491224,0.408701201200545,0.351128311767566,0.350441258537346,0.350538630853809,0.350622643210979,0.414958054156534,0.371094421824963,0.370328158643802,0.324927239052701,0.323915410999475,0.427800770798947,0.365038661588284,0.36518548691546,0.365200454481047,0.365711954215013,0.367582732398407,0.368221519482909,0.367506276044698,0.368927614108041,0.356344343308742,0.355982271221321,0.355800386465473,0.355747305496388,0.355308553370068,0.353969371485198,0.353608436626528,0.353943405755268,0.379663466760988,0.491725375652212,0.65139157002979,0.542897556499897,0.30035400525339,0.29758849901747,0.292029004994647,0.292134104566346,0.29187043904003,0.468626240957113,0.40255911430055,0.444685800281266,0.310931715896372,0.311462323113506,0.312051252866033,0.318265506909768,0.332536740299012,0.475255058547564,0.283284324834953,0.283635126499317,0.283205723326492,0.282125009278826,0.344073443619236,0.264854338468659,0.264314823558653,0.260484103268163,0.233309960465073,0.23443056237167,0.234722380208284,0.234341600062103,0.234452808801584,0.234447819462019,0.2358240100902,0.236443667368269
0.365380703883511,0.364658840368579,0.362157432223714,0.360103852707703,0.358991885791103,0.35912734004379,0.347015348294777,0.345458234269616,0.34382929783773,0.342373032866369,0.340616793156395,0.338865342258772,0.338776040533983,0.345423226672435,0.350152733203271,0.350473685109967,0.351100931679394,0.353085232235774,0.352642015593368,0.35259684978413,0.353456068121186,0.357317803817986,0.391781086631795,0.366356399042646,0.358067969620137,0.3574201159776,0.356166267511253,0.36346196242592,0.362828761772617,0.363403219315828,0.364351255145469,0.363681973111427,0.365722619303255,0.365378997600982,0.365146169035959,0.365357445342116,0.355014489309379,0.354474759680859,0.353841700103794,0.352805769511741,0.347107259104502,0.345895366793332,0.346825525070213,0.347907261941803,0.349945902442869,0.351087123401228,0.932480018421054,0.714828601799894,0.395246321082161,0.357665549760703,0.357016076515715,0.357134726415858,0.356143572870919,0.362633165619978,0.367359034461158,0.364183553140263,0.363870812811204,0.381742846099444,0.381480212499679,0.382077591095175,0.382023684836119,0.388936183289252,0.388693501031898,0.518366576525792,0.685262363751941,0.685410249579835,0.459546528465351,0.416210649268847,0.417969650637322,0.419316329105016,0.348041152786663,0.346315321015117,0.361035993873429,0.360984024253845,0.361504024015765,0.361893868925559,0.363503278055365,0.368932338553207,0.368993866743711,0.368688030077871,0.368246079114266,0.42776888145276,0.398948929848887,0.398971823852773,0.398846596577556,0.397264558996148,0.391808825282328,0.390843625991834,0.395984549318575,0.400898383900083,0.400323336050799,0.399944207458774,0.3827860103445,0.387515607499874,0.381599495533241,0.37638555769131,0.454362038707032,0.356945219049875,0.3523644300165,0.350218342589357,0.350337779417849,0.414920333533321,0.462710460282153,0.46281411233381,0.463440949871317,0.445495604937969,0.441291285768694,0.384020569593534,0.393206999288145,0.41185028110986,0.359107468464115,0.365243145147317,0.371562031098435,0.398613334956612,0.470977698096677,0.455846792771245,0.458270426867809,0.365146066187039,0.365318961448181,0.365872827870123,0.365611787456788,0.366583840482086,0.367433571279702,0.365226771521122,0.36331760666025,0.356218221662352,0.355647984692907,0.343975293977741,0.344009914425384,0.343931045623013,0.338470770152333,0.345543585722415,0.344591300239981,0.344010797522169,0.00409719948166175,0.378386846148721,0.306671108318072,0.299282069858944,0.298801667800548,0.289570207639078,0.287754570481003,0.286641368176178,0.281212956812073,0.281251485470072,0.281289297252304,0.27993618629242,0.42848870858229,0.744861400539337,0.321014676173645,0.321899389647053,0.283233778338797,0.283075229451954,0.282611252061648,0.28253157778999,0.281690397724022,0.281477655653968,0.340787324195894,0.409831745361729,0.263963463802855,0.232365022614645,0.233776677723162,0.23411974928812,0.233799164340108,0.233933163145713,0.233850810017422,0.236364114034036,0.237346996036235
0.368816291876184,0.366254104109079,0.360367965475545,0.359362679906277,0.359460260202506,0.358672129557034,0.345884187812256,0.775127423095806,0.775617535116059,0.776218010457499,0.775366925941424,0.338644119374152,0.351239836581605,0.352249995029398,0.351477933012235,0.351208863730697,0.351682746661371,0.352397490747354,0.352195190899173,0.352059171970663,0.356422412647928,0.361244154207682,0.359694268708898,0.359922764142879,0.36026402004662,0.359100177225021,0.366148490241723,0.364610668082323,0.364443263848593,0.363697215191422,0.363197907932554,0.363681782441468,0.36421704123005,0.3649760851033,0.364966536360485,0.364564934393144,0.356571009351939,0.355729048634779,0.354284416444269,0.352222280655243,0.350187632446564,0.349463088112414,0.348058005088699,0.348717301571975,0.347828487670745,0.352419292383101,0.434527048784098,0.411566951873368,0.403362913305483,0.358954854347119,0.35934211751286,0.362366318688121,0.36329371719987,0.364077294539951,0.375836982566692,0.369720834138677,0.37012783421454,0.380441028656217,0.381117736122684,0.381361488476434,0.382159544491758,0.388129088497941,0.843956879789342,0.551015602641647,0.55175729366038,0.559311095488726,0.426080025059422,0.363671606277216,0.418006264188084,0.417403024412159,0.363264770968998,0.536188269580471,0.535970572077827,0.498804113246148,0.536363637365123,0.536010388169836,0.465245275944769,0.465568481490525,0.427525807877065,0.425763821994023,0.426984418484189,0.426077423428088,0.395638126830266,0.397460837179512,0.397590018400694,0.397156091983842,0.390353006630683,0.390378133858743,0.397773736556408,0.398642036560076,0.398244230782035,0.453556254503753,0.497065562110055,0.485837164948654,0.479613949603125,0.462892336325602,0.452837155140127,0.46491726593226,0.445289832917293,0.431244995629383,0.408956925562687,0.465249170608497,0.462638971984903,0.462493895475341,0.462175271303065,0.396483558309536,0.382327592850414,0.383452949224647,0.398835641967816,0.409576310232572,0.388316544669285,0.403062380648761,0.403680957142507,0.410774537723906,0.456524196487124,0.409551458548632,0.440500706055735,0.364383282051157,0.365113718877835,0.365161291608905,0.367807540687938,0.362261791434804,0.362248273912977,0.363283981796357,0.361968692302203,0.353765265670202,0.353590760014246,0.344480842376767,0.343855782608387,0.343814913133199,0.334834212060039,0.334434671465931,0.343549288333205,0.343619438566119,0.502321756676486,0.72834009877857,0.316656457546697,0.316567939057557,0.305368583047087,0.28604506194322,0.285116742587722,0.283035281032006,0.281097859683745,0.28101632351879,0.280077694191865,0.278724229269254,0.596783081577763,0.338125389566285,0.32311706965372,0.32224369738096,0.283853844979323,0.283587507641793,0.282454236599925,0.282210923291197,0.281978269614934,0.281577284692611,0.27040441585119,0.270386692245075,0.26710949576966,0.231447347780038,0.232494178309106,0.232731009344763,0.233097664785607,0.233314195448919,0.233380690122,0.235985959964334,0.236595580327295
0.37141865829907,0.371251511535287,0.359402694254759,0.358726171781942,0.358205760740421,0.358190676148614,0.364886148224086,0.775472510106617,0.775469163660951,0.775396792225572,0.775281620633653,0.773575023282265,0.353195813163715,0.353031523084644,0.35279861558437,0.352218148904852,0.352213036508028,0.351573356170484,0.352012247043093,0.351816856393802,0.359161270635592,0.359188229787521,0.359760674475271,0.359792138023874,0.359521752801771,0.368304642352763,0.367314405109597,0.366285671649277,0.365688177259591,0.364683689307996,0.364622286343741,0.374115576024611,0.373123771976376,0.372494440200443,0.371771035998584,0.356891950891566,0.355762867902531,0.357686668762127,0.355349526319737,0.352771172161657,0.352381085193132,0.350953608100375,0.350790574343768,0.350455011377911,0.351930099422253,0.352447779736447,0.352337016879946,0.508032724782032,0.450214984685719,0.449853299690943,0.450281799942718,0.363748679203079,0.364342547506299,0.366177674887229,0.375922946135039,0.376253798117843,0.369009928993542,0.550943564119004,0.384091201379786,0.382332310973826,0.539147194334695,0.533594393356394,0.638970057832222,0.550764907227872,0.55064588220814,0.552639997452626,0.578639115301661,0.43442790156273,0.427704692953094,0.362305608554203,0.396993517283837,0.586616679307275,0.535217611672044,0.484376608610402,0.378141665528759,0.439476964470629,0.601443281340572,0.447111111964931,0.429710543727197,0.425195712631467,0.424814529785654,0.406380773208996,0.392741332977393,0.432083140943995,0.493809533425242,0.474529682943466,0.508924718425437,0.481785153079188,0.49190207544629,0.512235506017592,0.493208942527042,0.49264832833298,0.498216060902598,0.486800709580705,0.430645924974064,0.464302898067408,0.466118621585768,0.465453133064186,0.452073659607995,0.431188547859232,0.43074782275146,0.512452886633355,0.512049112752181,0.475041978704624,0.453352903234538,0.477487384402581,0.410186490374982,0.387726679385681,0.402814013223231,0.414641154001032,0.396358380212486,0.407758768580892,0.407728084699471,0.416360672331991,0.437304080467594,0.436927531812008,0.45914429113332,0.393938949124031,0.393765243761978,0.393480091231738,0.392326451947761,0.390881185579115,0.374301011854816,0.3743786722802,0.372984788646783,0.352199077618383,0.351839145972666,0.342332761720253,0.342702811808101,0.38383916371352,0.334665222249594,0.326355300652996,0.321927767529239,0.321099160343657,0.320031306559611,0.318306110936483,0.316432962020154,0.316421489737583,0.316244217841802,0.471435472964365,0.28265707260189,0.281967097267887,0.268970266156341,0.269057061075305,0.269095353092608,0.277322746468115,0.277160134494312,0.419082991797784,0.325859307620791,0.328633028620881,0.282223900605532,0.282518147166601,0.281663987321393,0.282277390580698,0.281629833598818,0.281531405166824,0.270927409572844,0.270898677230634,0.270821057929703,0.34610582619241,0.231349331279754,0.231954112651599,0.232294584252134,0.232629376352985,0.232999073807039,0.233952771297301,0.234106287805191
0.371691507889735,0.370840277272765,0.36939893866622,0.36826523949452,0.366972315757806,0.36564984154486,0.363925202136238,0.775264974604857,0.775315894144072,0.775296893609441,0.428208782092906,0.400083649909169,0.353657942652109,0.353695444826717,0.353373967543342,0.352758060104846,0.35192077594329,0.351541899238506,0.351705114709184,0.351945080842378,0.358918336220279,0.359348624822021,0.359531761994226,0.359622491784062,0.359264644872852,0.368387690733044,0.368026068736094,0.367104565095122,0.368302829538606,0.370829535666645,0.372474099251824,0.373406330836562,0.373157482951826,0.3726435166227,0.37230219792128,0.362122396173719,0.360651564728099,0.357989336252133,0.35630402157501,0.354446354643496,0.353068904566413,0.352193198448075,0.351484645563751,0.350990965637153,0.351224398876904,0.352203958730841,0.352680303398147,0.442032332949595,0.450172054957336,0.449840637462292,0.449727448845945,0.366725957842594,0.368471389694094,0.368975332932539,0.373969342443304,0.374872717995956,0.374982682085405,0.380609676785712,0.38483711216492,0.444205435266762,0.536080042143139,0.535099093969953,0.569343816289573,0.535714250373288,0.51624174401272,0.497819963097919,0.480232116561207,0.463197299835039,0.448176542914159,0.434532522066094,0.418200200396104,0.458105386504552,0.497556163999842,0.470605220869327,0.431968659383104,0.436498777297296,0.438095835914061,0.439665664487016,0.433599425456306,0.432613219767773,0.429854087745344,0.438612686276355,0.448946937000702,0.457790089940834,0.470431447036596,0.472427732225063,0.473746688616543,0.482070434825669,0.499246493069096,0.503672419605055,0.497949547317182,0.4932981299907,0.4959719608073,0.489049718741753,0.488115824724725,0.463814038926631,0.464659661550585,0.464019014848658,0.462014922188628,0.460613655188115,0.459820912127521,0.511887673278597,0.51170969894822,0.489918080965944,0.483040728408709,0.481504083384371,0.447385470958334,0.435120745687714,0.425190991035616,0.411204096980856,0.409559915467211,0.40838968756166,0.417482155350976,0.425823133317924,0.437517296524574,0.436032175502391,0.433935363477471,0.417886929808611,0.405101720472783,0.392662812601113,0.391926862511272,0.391146893526091,0.378562439846008,0.376297975771422,0.373732925791923,0.35963243613724,0.345318413387508,0.341095928445728,0.341390106223661,0.340658749234467,0.330423895895893,0.324099541602095,0.322035406454653,0.321111628536781,0.319929986551847,0.318432507745695,0.316943816422363,0.316378327088687,0.316541776841482,0.373730129984163,0.281361755728762,0.275140891646995,0.268694678825469,0.269119961521594,0.269554659968743,0.27631034383019,0.276290026308277,0.279596738853836,0.279834919146637,0.28033827516909,0.281260368165636,0.283072989226209,0.283027852758245,0.283170785322872,0.283179937388593,0.282938039144097,0.270776753693761,0.270741332308578,0.270747294139346,0.270760048048034,0.230691230921787,0.231526410590956,0.231775640159372,0.232170291359465,0.232503184373018,0.233082507816345,0.233339610916959
0.602679056031962,0.371104693396744,0.604817413255945,0.368343113185668,0.366842618995003,0.599980289354907,0.361218275753927,0.774927896023717,0.775139877557795,0.775097390926643,0.354508107350732,0.354464274494279,0.354315377854406,0.354553376349259,0.354488450157616,0.353286173248209,0.351540376235914,0.350359771262163,0.350881253563201,0.351348400293669,0.359275870669033,0.359154863507954,0.359709709661912,0.359572414507348,0.35934726763355,0.368306134952151,0.368582032701592,0.367036167692981,0.369539336657694,0.372167516919051,0.373213022395907,0.374143703921579,0.373549040118515,0.372611866220913,0.371808275790517,0.366789764717108,0.362402270008601,0.358025815622695,0.356866271644469,0.355049616493876,0.353830618126873,0.352994642112579,0.351931521032134,0.350815517680846,0.34996713288492,0.352578327523577,0.353450972798034,0.43777087842598,0.494857628475108,0.570561486600839,0.456752700207313,0.365319296162861,0.370832032519027,0.371174479237254,0.373545122520848,0.375096280819702,0.374914090065858,0.374754839720565,0.387301127621785,0.478472023434158,0.535030810095629,0.535200389084419,0.625690869185242,0.476197290074707,0.424574677656089,0.424110015006192,0.423816912977599,0.586840637278189,0.456165218461554,0.478717932180268,0.39746989948379,0.417739181194488,0.586649908726777,0.455074517456628,0.425925854158451,0.425346700391865,0.425261307359368,0.452429948303965,0.473582052096517,0.50811141858883,0.406935050479693,0.493523371718274,0.470562634241168,0.464397378091009,0.468655989267732,0.462026199765987,0.448969889588278,0.480619535013201,0.504815851453598,0.512293761110255,0.565542050993323,0.490898983519944,0.519671418000003,0.508254253037249,0.497307391204681,0.462191533675981,0.477231334613009,0.48449405720449,0.470701547745932,0.460663084316263,0.459706008241788,0.511886629039392,0.511588688221213,0.499348638033423,0.485650840842865,0.48395620383232,0.47081938062539,0.441984360821773,0.430627432569431,0.409038689462156,0.408728466831151,0.407545951059387,0.438008824404978,0.437740303634139,0.438159660437818,0.442538751716266,0.430086369206948,0.492862153588763,0.412856847650352,0.392577812790351,0.391438722502427,0.390727539821844,0.381319607527597,0.378302952682539,0.373117259138977,0.493118109492253,0.340978698241414,0.340218511037441,0.340396571530719,0.339500744626516,0.327421323127805,0.323729426949827,0.321394835457755,0.320853250921396,0.319881525503791,0.31860019976217,0.316365039774245,0.315829552270889,0.31661211540501,0.455872726345272,0.278958755562742,0.269163095828775,0.268935745943738,0.26890874869262,0.269303082642818,0.276055067376667,0.263268922729394,0.279331098742064,0.279797181409644,0.279049937075704,0.280423504887106,0.28479157385359,0.28460184476598,0.28401532517534,0.283919776057472,0.283908888074574,0.27108208735337,0.271057714097714,0.270810977018234,0.270634193248161,0.229312387531514,0.23124883705178,0.231531053505841,0.231491904447819,0.232076511753175,0.232144059840411,0.232877501474998
0.37565179619937,0.371088925026152,0.371104836480234,0.369714548130304,0.368922286915644,0.368712763493314,0.362178938815589,0.361541852985507,0.405704789832855,0.774768434624666,0.355494531180449,0.356252199864435,0.356360192938998,0.355650309063298,0.355122564675992,0.355387465928467,0.357244596379707,0.358519863820897,0.359742018815599,0.358474241403107,0.359132686024328,0.358919236590891,0.359147357141519,0.359484657357303,0.359193759678169,0.367405471937445,0.374397872102735,0.374351741488213,0.373761091499159,0.374061054363339,0.373710051665038,0.373243756832776,0.372574344902544,0.371969564260771,0.369389816099657,0.366798705862758,0.364949685153867,0.361821049536589,0.36305878682802,0.362713492407104,0.354173126261486,0.352648205483951,0.350704664233591,0.34980621585641,0.349693288987383,0.351743617534844,0.35358037262552,0.717157056295145,0.522684271761966,0.732306971461616,0.456561373864455,0.371462668948959,0.371999146696892,0.371510641182846,0.371962210413942,0.493698277342907,0.379210120198566,0.553947682100618,0.393741237215126,0.403708548293744,0.486604246576379,0.543185162168025,0.42448951561245,0.424865340320029,0.425009926804753,0.425075269154218,0.424296687703867,0.587022585113324,0.446329407069531,0.404440374274211,0.416144667114674,0.417347408172269,0.417473137621727,0.432539277137285,0.425239240297065,0.425270473095379,0.496007566219787,0.51457433935974,0.513431137248158,0.51489658073899,0.486017792796861,0.452473257973353,0.472756219511832,0.461410377107899,0.459114121762979,0.517412486793147,0.536458090266596,0.526411190732897,0.519041715541137,0.511028972252495,0.535105843885865,0.530081827844753,0.529528798086059,0.520267586393682,0.508709170731305,0.523827155271935,0.475358480048244,0.467537827580733,0.47403858848896,0.481787533569214,0.508298302182147,0.543620581338606,0.54348455723665,0.517092909372032,0.500609479670592,0.478130985933088,0.427029715458798,0.450562936869518,0.450544535733218,0.451727251584296,0.465877220307789,0.469841862933222,0.436386685190272,0.43713019077246,0.437703912451872,0.435164507179461,0.43175149885841,0.424869710826916,0.424224963463771,0.424217570671849,0.38892770824756,0.390623905511912,0.390618198466304,0.383481512350828,0.373087986463482,0.491720678227861,0.340940486898096,0.340488564298201,0.340228539455227,0.339820076671005,0.32623828210455,0.325997607604615,0.320791198143402,0.32065496914876,0.308982869348657,0.308498710976465,0.300435729277563,0.29963633580128,0.309463809775029,0.444398119226316,0.278858734666604,0.304730294857269,0.26796515800246,0.268372998476107,0.262293654303821,0.264247288462743,0.264206985088047,0.278809272842468,0.279386114521135,0.279484937735289,0.279433353739166,0.28492329698174,0.284044347347196,0.284043865617316,0.284142872318259,0.270300737471433,0.270370331028626,0.496625159406309,0.319701669565766,0.343446574469856,0.447459108912005,0.230188844045605,0.230439916881917,0.230638249281036,0.230117042572713,0.231139633799208,0.231163579430588
0.37539146737968,0.373589305242812,0.371547777841121,0.370357168645491,0.369797234140824,0.36827401552361,0.36285789869939,0.362130862850272,0.362357066610721,0.362049925674679,0.357689660737145,0.357398497050882,0.356686776384802,0.356860947041625,0.356965176791485,0.3575859458306,0.358549564350021,0.36096228174923,0.360812291275846,0.361727563261745,0.36150788492569,0.3731259491661,0.38542010498274,0.374763924648687,0.373760088781548,0.372367397544978,0.374142261107954,0.374778416147548,0.374482776572548,0.374465614473307,0.374021672593759,0.373531620424565,0.373883665934824,0.373606712253907,0.551380934958181,0.366574970303596,0.364242592488979,0.364429315778059,0.364828979546989,0.365084834559544,0.359531054050615,0.358796908726748,0.348250895161199,0.348658449723348,0.348231585110424,0.349203918423238,0.75595104144725,0.364459135729038,0.366297860900696,0.367599776859725,0.3683250099553,0.370580467353502,0.371219833362043,0.371276373138741,0.370995799943591,0.379366436724606,0.379106607819071,0.379169787784909,0.394936809837324,0.390816758412235,0.389966453610454,0.570142078142289,0.424657430023776,0.424986155256411,0.425515163438843,0.425665474169224,0.42501451289254,0.591558577296953,0.435913471352958,0.403830077552223,0.41597708605095,0.416171102408355,0.424772472673681,0.437811763173299,0.445004095462747,0.445878854261997,0.472179694408771,0.507235511443988,0.510883099784681,0.444749456105711,0.446798090940581,0.453023590305304,0.453231770559028,0.46028009186088,0.459078441029168,0.516790948066712,0.516905689531303,0.526277295182406,0.531945838129593,0.537030135378469,0.537982625821021,0.529305179402299,0.512296529462942,0.524199099449499,0.534804028334374,0.492153721589063,0.484741950048088,0.486026482674355,0.492782265383442,0.4968870339485,0.518746319966584,0.549296318993792,0.565298201346227,0.532679039012627,0.501978611604212,0.464687110163446,0.434685190377529,0.438715314906922,0.457375362498486,0.45896560371579,0.458646233810757,0.508429597920561,0.470867780870222,0.490398351426855,0.548868073038187,0.427311371917076,0.435634578132398,0.448897692142699,0.443711159569373,0.437730298084548,0.38924841879278,0.389986001304908,0.418416917696665,0.430827211164357,0.504797069134646,0.353726134985076,0.339623751917274,0.340000310273637,0.339955807864427,0.325133270385981,0.325372860794072,0.318518593665074,0.318388011184263,0.319803806849317,0.308448891323097,0.308108154350606,0.307817445958602,0.297924715028373,0.305647802768135,0.424628709858761,0.267840607876801,0.267618910021346,0.300453278510772,0.267316574382084,0.265661011285856,0.264240181057916,0.264606725612374,0.268799156056015,0.269075533602517,0.269214391059364,0.281220139235114,0.282312502339741,0.283340156225891,0.288035516703182,0.297196440710099,0.297525861864248,0.296960580159363,0.295016236229136,0.295597388864509,0.295683272335288,0.296210933424523,0.433139030064609,0.229658186136861,0.229951178666638,0.229753457416933,0.230144471744469,0.230139753577798
0.375667291270198,0.373348353111996,0.370921338859234,0.37048183751653,0.36970907295016,0.369044217582561,0.36369066584671,0.362883710482519,0.362527004369921,0.361817434618684,0.359266790729036,0.358211312134925,0.356772027388835,0.35779707482434,0.358729519111098,0.358022934750093,0.358133498038964,0.361632802869897,0.361265010810844,0.362432342329835,0.361972683238026,0.362544503532496,0.377277463854499,0.376105502022837,0.376474798870609,0.376051894312716,0.373999441134076,0.373764102378127,0.375181157995831,0.374626535040865,0.373648551857873,0.374856460267329,0.375068904268592,0.374815583928042,0.3747589117736,0.373787516890039,0.372820341145791,0.369234394529949,0.367598337900518,0.365657025953439,0.35880604088528,0.359007634098611,0.34712359892549,0.347771286466104,0.347596238672785,0.701235529600949,0.700620635918857,0.366200547320746,0.366812996819975,0.368020917964731,0.368533863165157,0.369279612250751,0.370417834181586,0.371246786596471,0.372432243112654,0.378042792419553,0.378320814296634,0.436144944329076,0.398021305757488,0.390514999723826,0.390063117692487,0.449907306892984,0.42458038991475,0.424889799213113,0.425165020118747,0.425431067468875,0.424488456881214,0.422395590336086,0.421977466783943,0.421294110306967,0.571051513022356,0.414462568935243,0.588349714483554,0.587290947134748,0.586020661030042,0.445315869076277,0.558570504347528,0.542336804225764,0.511812118196171,0.446914890807899,0.447352397070988,0.45227847823574,0.460267705923337,0.460343040586884,0.459594898167783,0.47846208869208,0.526449494811629,0.524744536551581,0.553639792916192,0.584769092031363,0.638763635610452,0.598704958167498,0.527590326563228,0.541033603516944,0.553026021589657,0.561710387614034,0.493227141246737,0.494775503320261,0.495173974006433,0.495307937044154,0.596028474806191,0.594901715533719,0.5932786746742,0.551449973164682,0.507569286182974,0.464167561948994,0.46254536203973,0.488954764895261,0.492609599518594,0.496188150163861,0.496264315113312,0.503543322276327,0.508531173616798,0.505551011151434,0.502988247799748,0.504461560900594,0.452729481630571,0.452265109782863,0.450432924221821,0.449655401256648,0.437409578140975,0.419142751750312,0.409453244409854,0.447573019518797,0.494816627202385,0.571235056398999,0.376039752390283,0.338708187231285,0.345322755947167,0.353877054498908,0.366994503773316,0.345067985580573,0.344509731628069,0.32904147618664,0.308273804712635,0.308498468929503,0.307041389373057,0.29725988592295,0.30183675544947,0.26909472461195,0.268770623949113,0.268686226672875,0.268068438909319,0.267533604066158,0.266006200078609,0.264275214996618,0.2640323987607,0.269495670366273,0.269229512933926,0.269916969715528,0.271402258860136,0.291701656822088,0.292403554764993,0.292606289826467,0.2972457737983,0.297648495941054,0.297005404377586,0.295630875907892,0.296062933710844,0.296483450522283,0.296208854758258,0.432079281442738,0.533275398781997,0.260020697274773,0.228510803255739,0.228924296745056,0.227810299463466
0.378827253405487,0.372497469989014,0.371719368388338,0.370962441376904,0.369759897650284,0.368274717115032,0.365526556663515,0.364071176892006,0.363109162028815,0.362083347408826,0.360613281843647,0.359675869469626,0.358890140162964,0.359098077237433,0.35929125967082,0.359403889039581,0.359782790810446,0.360786600606894,0.361051254522125,0.361416618511676,0.361444795327344,0.368115221158382,0.37657870895794,0.376575406104317,0.377229187101431,0.377988990860985,0.37884849085637,0.378208140577777,0.377098086612897,0.376016349418866,0.37604428085609,0.376245973014635,0.376182496571137,0.37601094632353,0.375340159884067,0.374609545930115,0.37322857423533,0.371488452276996,0.369595085620331,0.367761496319015,0.366260035368144,0.364724544533535,0.406931543466349,0.430692860991772,0.455459854840236,0.481653168594136,0.414509321189037,0.36586909960375,0.366730700246814,0.367812398839771,0.368480927322996,0.369052503991918,0.369970486271748,0.371363337448437,0.373434989331866,0.376431754865006,0.377655645074733,0.403335520803036,0.401087743614473,0.38909241396402,0.389105582513528,0.410571771943333,0.42475650151108,0.424703218314773,0.424589021278635,0.424467912419931,0.423704867919896,0.422532260802317,0.421831498947806,0.421285659969768,0.570878636168617,0.581182218362488,0.587527819855451,0.587240452584589,0.586532573322209,0.492834460251398,0.510662340426753,0.511981264651918,0.51223931925532,0.48792752020802,0.474984824177314,0.459352357374492,0.45954423120609,0.472515257764632,0.48071674528693,0.484490173833573,0.510168797756524,0.549695417590287,0.568318620467829,0.586049126663278,0.620981147653059,0.602651089715264,0.561230798641332,0.559915465999272,0.55336240414775,0.552711000524044,0.550427225387913,0.56174668234963,0.572418801108262,0.582782254244751,0.595261561644749,0.594516418370569,0.593452444045807,0.569519801718238,0.541154975905754,0.511623918600523,0.511537338539298,0.510378643496314,0.509037476924823,0.508046647044457,0.507386577456422,0.507013881499694,0.506882462107001,0.505246389035992,0.503766179821862,0.500237887163553,0.466365954024535,0.460914459181716,0.454264865394649,0.442545702005351,0.440061142803124,0.428117803847691,0.419096963936233,0.4636267181245,0.496155793468535,0.497726719840128,0.377505558022642,0.375745593640075,0.375078584425662,0.373340594515698,0.370527302457722,0.351942454836953,0.345151836138693,0.339106950247795,0.333338942725111,0.325996983911283,0.318904163201177,0.312800980495754,0.307623846571357,0.269194868474671,0.269261409871476,0.269073742080172,0.268438779222002,0.268034409654673,0.266959081300241,0.265676323305686,0.266159553058315,0.268704354056909,0.269656956140222,0.269928796351285,0.270883895431732,0.291557789949314,0.292445330734141,0.29340775598328,0.295910127790672,0.296711038420197,0.296529002810843,0.296195619744223,0.296271755268136,0.296480969471334,0.296497410732968,0.341326454554308,0.370271359346487,0.27480939814229,0.227168725421139,0.227316659368894,0.227731240043851
0.38319659124833,0.373099155660354,0.372502179418686,0.371427528456249,0.370361057352989,0.368177719514273,0.366549651614205,0.364968013728585,0.363750255973667,0.362644243885844,0.361643883314555,0.360797781352644,0.360174756224239,0.360233207772609,0.360187569578774,0.359522028404044,0.360704197251363,0.361165337682091,0.360679171457168,0.361450351348414,0.360784204611232,0.590439857271594,0.376462933998723,0.377137104461159,0.378784142857346,0.37938663055125,0.381920418917293,0.382451084390886,0.382290944293389,0.383444792272156,0.383806143203516,0.377965354743034,0.376830540193646,0.377257526607617,0.375833827363314,0.374903035374201,0.374396026676253,0.372761628692137,0.371430569025031,0.369301690563117,0.440250123104218,0.363154828059933,0.498959249240859,0.492074240092371,0.602168040898876,0.661449303146708,0.363297617357081,0.364650923420548,0.366407887426918,0.368029283528053,0.368414498858439,0.368587827767584,0.369098397463087,0.370962165252652,0.373454715591451,0.367958896287468,0.367718580323141,0.40903318359709,0.404935034778185,0.388494066665718,0.389426632827767,0.382699931147009,0.454115803040928,0.424395942684365,0.424107148202858,0.423656973258691,0.42423042993651,0.421476170368281,0.421245055043288,0.420327234160458,0.570438655091522,0.600404113634929,0.586461016409584,0.587079379479823,0.591848308018611,0.482930331027051,0.508748730789425,0.465789165867793,0.511989156678158,0.548747376765324,0.546737239356493,0.458609516794248,0.458333401535868,0.482349405912098,0.495755366600834,0.493572901911736,0.499024715096765,0.58829938103271,0.58790759980618,0.587479041901872,0.635938098794865,0.607087817274242,0.563476077775835,0.56121837493809,0.524568756640299,0.525499197048115,0.547484141098898,0.605290076103069,0.618792557652636,0.628809130404445,0.595294766957318,0.633882811578187,0.592608981566952,0.606047371499576,0.619504467888411,0.511257618279964,0.514259108465475,0.558212726466953,0.550798730277314,0.542647312842021,0.542621862999889,0.561761279042642,0.536549566170662,0.517715482893793,0.514069471370349,0.495659350973172,0.471723877810269,0.486063470983221,0.470329570228328,0.438219554922367,0.462475773257932,0.436750621497467,0.409986172395486,0.48107715996891,0.529910716637246,0.499272106806413,0.379268434750308,0.375457853431237,0.375597251012829,0.375558914172895,0.564530799079792,0.369166648724391,0.345233156638149,0.346146506468145,0.346706820049543,0.347357047086535,0.409502017118388,0.40340184502776,0.341441197175514,0.269182802640334,0.269867434631799,0.269380548313224,0.26872137064015,0.268642239155624,0.267561303225545,0.29342153123766,0.251168574405376,0.269362134157379,0.26971922317332,0.269550571179835,0.260739597533698,0.291121157851614,0.292591020851577,0.293432463638639,0.296787567513073,0.296620086851562,0.296496994700872,0.295985517466327,0.296217856871012,0.296639357176141,0.296606989051559,0.295493261735037,0.452268628999323,0.289732641150935,0.225535479004789,0.225900574752059,0.226382721206293
0.382986961081488,0.533092187999262,0.372544712505371,0.37238121239805,0.371497456166613,0.366588793610646,0.365257936189605,0.365701350049904,0.364052692197784,0.362362283819506,0.361481758663328,0.362045607738771,0.361729712649998,0.361543516964431,0.361171175525036,0.363965325644694,0.36646028510192,0.360032293086418,0.360431495524167,0.360353611748006,0.370269985579827,0.369620344588782,0.388129761301431,0.38830672086259,0.387855180182647,0.386808791334957,0.382973907315011,0.382842021832317,0.382673716991645,0.383320635268931,0.382873468997433,0.381097148218035,0.380997125087547,0.379696699150998,0.380458222884168,0.379382277260983,0.375163165715323,0.37493450149328,0.374062917493341,0.374604529501456,0.483588565931721,0.4833995732186,0.482991925223087,0.487571632110813,0.499686577506451,0.369017948163231,0.701370393849463,0.364510582810589,0.366196337402049,0.367663496707551,0.367969605393935,0.368209643232175,0.368770342616272,0.370193825113264,0.371015603443986,0.368501956091232,0.367910034175788,0.409082137706982,0.408764444489683,0.408816514098549,0.384067067161589,0.384125174649328,0.384965486248057,0.413219251869255,0.396796238076314,0.422137182823382,0.419233836333075,0.42095422030564,0.420563604493632,0.419578448462393,0.430892005607985,0.429591036929098,0.450819550178413,0.491303593403366,0.478531061339116,0.484823473964672,0.507472620922189,0.508967616917315,0.520941496534518,0.54830775206249,0.54669613451877,0.486691533990355,0.471823946394688,0.488271493945378,0.505203660114474,0.489618216537407,0.579324427226686,0.587805976897661,0.58789317961177,0.587675749149774,0.655223009010398,0.608193415111807,0.561848045248752,0.576989484701621,0.595702563097828,0.596001292689086,0.602603118704706,0.624891088438029,0.62518672881908,0.625901835461788,0.62451332505557,0.623486354488075,0.687905768897179,0.648008022980766,0.619053387632691,0.622135109780691,0.604971944798326,0.55921191516773,0.56824815734468,0.5814668904286,0.578758056704661,0.529622070618695,0.528381487036249,0.521983549642838,0.512226463536636,0.493668161273654,0.502898483606167,0.503562202306013,0.487888594620968,0.487218899466935,0.474419498498278,0.536489670712948,0.453010213783336,0.498347293258213,0.5217559989667,0.425043974875852,0.380621621592884,0.373107736900248,0.411449829025624,0.486983653490151,0.486863533935636,0.374413416230493,0.344965160646997,0.346174670300487,0.347231952358059,0.347634986808242,0.34832401003268,0.419846058106518,0.366156910232201,0.40420699435039,0.268831940485202,0.26995653625836,0.26828827129486,0.27022813704171,0.272865972603779,0.293206629066418,0.246907207701171,0.250694328582415,0.261002214255886,0.290892687634532,0.253999419382507,0.288037226108553,0.287177792168138,0.293548472019984,0.294934678559788,0.295032529961717,0.295669437745545,0.295936462279301,0.295821047328506,0.295881849379275,0.296812493661705,0.422473981011064,0.428844963350131,0.302500461080007,0.223702065228509,0.224545606134846,0.225388963145774
0.389332177085585,0.389189168153943,0.372399106212755,0.373052620195379,0.372603454814076,0.364113392487326,0.36517198539893,0.365391537483171,0.364875941161645,0.364401930595514,0.363048084310065,0.362728437405775,0.362490432370195,0.362829549501766,0.365324068053972,0.3634289197216,0.368341507026287,0.368731545441119,0.371206964318341,0.372439033436384,0.372231543193439,0.372015521481624,0.388105958150665,0.388475348263592,0.388313398130472,0.387812361221997,0.38269245023331,0.382521961527326,0.382953145079284,0.382726966951243,0.38246076491033,0.381936995205735,0.381281828438924,0.380579825281266,0.38051226084822,0.380357975102903,0.380580395354097,0.375158264344952,0.374927369583719,0.374663595603178,0.496818328252052,0.483426944330505,0.482559389511372,0.43421222163534,0.373628157591437,0.501537593124822,0.500455674640059,0.608373780337704,0.413569530141831,0.366951485568304,0.367173267929752,0.367474990993798,0.478646254159289,0.434033379506691,0.447561441874193,0.36626070650866,0.375945176593407,0.409324783877166,0.408262550749022,0.383928773208348,0.384024351672225,0.383261705878546,0.390447691952065,0.421685481090365,0.429248638691873,0.526746948044117,0.418998903921787,0.418777927816743,0.435790638603003,0.447265321050362,0.462416026074572,0.460180764938348,0.459350377739498,0.498546724868636,0.505894769686841,0.523258078211968,0.570319965485153,0.509184815322722,0.53057840469399,0.570580620432027,0.497218695214324,0.497595686588535,0.500015761298551,0.504873922909455,0.579277680908469,0.579137197570887,0.579082159337387,0.579860445966978,0.620579234222448,0.740488589890852,0.655238097095434,0.65510949034464,0.599418979965381,0.626490361992294,0.649524531667184,0.649688653404511,0.586832600010599,0.624485532440848,0.624928241090163,0.62531189712065,0.675815663192246,0.675752661626637,0.687364124541525,0.686991474395397,0.686612850948525,0.604147626942736,0.604441090138231,0.559070898316367,0.572014022349649,0.580789889981885,0.623754566212067,0.617171689758589,0.618130373419994,0.606665401665982,0.589050477473226,0.515192312907853,0.490231712057932,0.488431537747413,0.488252240402693,0.488306009407985,0.47859764989051,0.499220143620749,0.509124404602015,0.526524377535473,0.551981757388308,0.415804040623233,0.411669805366901,0.447118344212943,0.441215445955714,0.486354615071343,0.486620225564922,0.392725795120846,0.370115718478638,0.361291698740614,0.35427249965824,0.362363013937642,0.364895112359903,0.342160514262757,0.341200292305261,0.336802661110243,0.297113387861118,0.273810583714486,0.274237435982777,0.283882809957106,0.297141383655897,0.291968587847425,0.250257642533224,0.252244217824579,0.252924748681133,0.253808133445425,0.25430364804457,0.28650743732227,0.291415329712195,0.292645933816569,0.292935621186809,0.293112084352517,0.294498201201448,0.294823415858997,0.295187499541947,0.29604106645551,0.29615737898452,0.362825604813168,0.446656471051224,0.315005078694528,0.223306342029543,0.223772873439176,0.224245051982939
0.390975003591497,0.719837861130756,0.376960475720373,0.375183755913269,0.37403782710345,0.372970485211832,0.36471810553882,0.36558807852622,0.365173073443163,0.365467975464498,0.363945924941259,0.370258971480671,0.369990187663256,0.370855506677216,0.370764407107448,0.369984583776636,0.370333725141326,0.37052533038045,0.372100489664379,0.372313464690524,0.37304030442941,0.37215980939063,0.388038441706394,0.388266946272207,0.388369828934502,0.387822775077945,0.382650819255523,0.382819943060994,0.38352562061872,0.383888181158475,0.383160760316608,0.382122372905438,0.38114735030535,0.380892621947438,0.380679404981958,0.380300428490273,0.380830882973313,0.374691482053653,0.413204015552242,0.49047592269215,0.378470751407245,0.378734846637671,0.378644191694982,0.378168665932584,0.375406625999445,0.50072222834682,0.606808944711048,0.606918563410305,0.508194725789152,0.589773472953998,0.415374212850464,0.477069204316225,0.415987029331103,0.416796811869222,0.372397468999529,0.443304843529372,0.456686286578477,0.456660711335614,0.466906910827783,0.499819628698593,0.383072372600651,0.496948748789364,0.428388881171734,0.428049135973212,0.427960940359738,0.544652647747652,0.42069439418512,0.450820024743687,0.456570287257256,0.48056358090962,0.465116871835929,0.472666479308409,0.551414818947961,0.535072280318809,0.511512871138481,0.551463272498269,0.551228147857764,0.568355516094098,0.541300484780287,0.50990836969657,0.51167136652884,0.497749887214361,0.498733181217593,0.510900462027173,0.520227266061053,0.538130989412547,0.605062588447644,0.622815177100403,0.643017776375694,0.707916859449846,0.70841675880214,0.676072079823479,0.675958147356836,0.665621577396825,0.649399086720764,0.67930876141354,0.619641318783556,0.66775187873743,0.667500201550075,0.667103045534942,0.675813998422642,0.738652538156703,0.697916631393594,0.711181788864663,0.719474303705693,0.603837346819297,0.604445926884859,0.620419827082931,0.621436712651542,0.622506959688922,0.638206399578282,0.636231229314705,0.627583703055356,0.61219971687009,0.593479074310954,0.582712556819065,0.553131483081836,0.549739400881132,0.549522489584323,0.548869172008338,0.637007187592309,0.554802664024075,0.52754646755758,0.564820459434923,0.666422038919146,0.570160039444552,0.433513747974256,0.431762617544869,0.430593345077733,0.402771578938115,0.384647669754805,0.391074930511541,0.388950295372937,0.3826606926782,0.376821609428437,0.375201449800435,0.371222877220895,0.336463500160719,0.339191456338204,0.338633078080146,0.305925056485341,0.290772749703764,0.297661322564496,0.297024675422173,0.296039887814161,0.244286092360233,0.244138182853727,0.271773427625476,0.252842820217443,0.253721237721666,0.254220485019942,0.276865860868284,0.276722195724449,0.287613509460313,0.290700713490855,0.290974007977355,0.29048937413915,0.293420173926308,0.293910254910978,0.431452413908626,0.344727061767883,0.00388127122691213,0.347222666335376,0.326122482526426,0.63175029641009,0.231092065985929,0.231307031873152
0.391655906414279,0.384027230977078,0.376994636202458,0.376050301120087,0.375028003195438,0.373282596629505,0.370417971894939,0.366157069170094,0.365162890596932,0.365455157171005,0.367008052065676,0.369854714115246,0.370418511723481,0.37081584103463,0.371067302245784,0.370865038394119,0.370945330684259,0.371500670160385,0.372836067816476,0.373450262096094,0.373342582531097,0.380179590993282,0.387753677295906,0.388033271065676,0.388067118369619,0.387347656874293,0.383945665957665,0.383272847318924,0.384436754337932,0.38459263966287,0.384561143186832,0.383298192825741,0.38182663290607,0.381141938688345,0.380672374670783,0.380583586725083,0.380706119686786,0.417733650525166,0.434679512266867,0.452742839261661,0.437030875221307,0.420561483552561,0.378953221202063,0.378797721145825,0.379070404871439,0.420314982864435,0.439770655390813,0.460282009523852,0.482362195875092,0.508189997794442,0.415970112830102,0.41634409749198,0.416326065527798,0.417859144174486,0.434074200025117,0.441326767435179,0.451141010759248,0.454372020790786,0.476532408481382,0.497779433301078,0.496755632245696,0.496417782695458,0.496251987879331,0.496768444124103,0.497571384993759,0.512889151011658,0.453598869066494,0.45348875374196,0.460519343451852,0.476797214520487,0.499085918215866,0.517962055180981,0.551810187370293,0.552060139439263,0.551968483141459,0.551480689410678,0.552383802073381,0.55506344181162,0.549363228234365,0.541931924962815,0.534340381851704,0.521457117202542,0.523225979350718,0.526200564398225,0.530427008378111,0.539718393632531,0.605216177268837,0.640376966649986,0.658910626510443,0.677255290055991,0.676625517693374,0.675620378564073,0.674798229052724,0.685074348214076,0.691419872267595,0.696464374988723,0.701663341147161,0.707373237065829,0.71362593943303,0.718621276319708,0.722888257268684,0.732636214003734,0.730437602791359,0.725223665745234,0.717725887684548,0.685897215357976,0.68322762298098,0.679560478235585,0.670484947677158,0.661583279261329,0.654104787917203,0.650761677686488,0.650399659222368,0.650744033656393,0.64963405293296,0.646964704113068,0.643216744447182,0.639029990817429,0.638052624788988,0.637817973898015,0.637538559946344,0.63156594678178,0.610341563436564,0.610525127034469,0.64141844102879,0.486785913253028,0.432424486081604,0.431701788191464,0.430791374044404,0.420106099815136,0.411337161618793,0.404357206549877,0.398187367877805,0.392060843340086,0.385590469293897,0.381283556093154,0.37186001460473,0.341727267218788,0.340571733777108,0.340228644371862,0.332646066958283,0.323898348618878,0.316126377866489,0.309348760957593,0.30339971624559,0.244289081208997,0.244415322349389,0.253208067899171,0.252891897925341,0.25270762996705,0.257117514950554,0.276877125369888,0.276977527219807,0.283772258410865,0.286606562136335,0.288657509480545,0.290084784190045,0.292209010796555,0.293117314373909,0.333002057973039,0.345447374069992,0.345551278401304,0.346201892182768,0.312053585541067,0.276979306349098,0.232541429310133,0.232171231930676
0.758912949101469,0.379831558033624,0.378120604403247,0.377127787655032,0.37656777116194,0.373978003913728,0.374233710754089,0.364149208679357,0.364265846724812,0.363990840998075,0.372785849244832,0.371612244693768,0.370977741092002,0.371227641089023,0.371629736218566,0.371429054328897,0.371296017332698,0.371173057310712,0.373902787126189,0.375555698349095,0.37469980786548,0.385115259509441,0.387066696413145,0.387867179129508,0.38814624845127,0.389821842202261,0.382279301163808,0.382030408681161,0.386324209838095,0.389202346990737,0.38652758549027,0.385171164407265,0.381239150432999,0.381036398848157,0.380237270262163,0.491003102290155,0.380717981129238,0.648736809864274,0.454952810325242,0.485169095774999,0.798342783440713,0.483770357577652,0.379152786952188,0.379178735786371,0.37942484970038,0.381831627794143,0.382900765244127,0.38231835255303,0.437455097187632,0.606719572264931,0.402456617544552,0.402439323309851,0.401986995527006,0.419457647662181,0.44011992784606,0.441252105500575,0.412307170640601,0.399432449357371,0.484848076119807,0.497064348490679,0.496547054000173,0.496163688001964,0.527950806782051,0.496633998851543,0.498247025156543,0.543853126825561,0.453931008820416,0.453465405461602,0.468682851940581,0.473467563212522,0.54944915916067,0.552170652488211,0.553473780229248,0.560878305142894,0.607958041606164,0.550078983062832,0.596773201422729,0.558658123001256,0.559606488363731,0.560604030448628,0.627535100396885,0.515423748642423,0.598345605060374,0.588003784582292,0.577033513882425,0.540312994211906,0.604997728000762,0.692443992487198,0.678876027746528,0.676645171084713,0.67632163358873,0.741231311987138,0.673481732301747,0.714551358667179,0.749496298914989,0.734218522377019,0.712630716367678,0.710173353692927,0.717606652305656,0.728149494281633,0.766235298195755,0.76730539277436,0.735438667839469,0.726315046347516,0.716759405060359,0.691480369354333,0.692268990037283,0.700968298141188,0.709094675418558,0.723708541494519,0.721614674164903,0.673608569781236,0.649180606766951,0.676125989245251,0.69236658672133,0.831060277260107,0.691672096336639,0.635933381415243,0.637619428146683,0.639224692858695,0.641484685490636,0.642941992060821,0.610950709694886,0.612235043264672,0.68016374561603,0.00392524181025257,0.42869164632272,0.433158204332692,0.431275453807092,0.430921810484179,0.428706331656541,0.509733860642296,0.416594986542417,0.414682323628619,0.410097843522328,0.388238066273222,0.372746489114128,0.342012841377442,0.341290016518196,0.342214501052075,0.342146046346234,0.355788812730705,0.353901107303765,0.331134197823818,0.317470606292309,0.244305810839448,0.245053387795645,0.252501992759434,0.252662893628151,0.251997705101984,0.265504501508464,0.27734722494879,0.278035091868856,0.280814995752222,0.280857434126085,0.287908584791882,0.288375762017893,0.264770732133953,0.275819451814508,0.322866727262775,0.346302948511245,0.34535669417567,0.630558528230239,0.292935974858303,0.233327456666834,0.234028636887752,0.232366932190606
