0.373352, 0.369181, 0.369975, 0.369173, 0.367007, 0.366848, 0.370129, 0.369757, 0.370129, 0.369397, 0.369303, 0.364768, 0.364662, 0.364621, 0.363939, 0.363092, 0.357503, 0.35517, 0.693652, 0.690805, 0.689989, 0.347161, 0.346169, 0.807876, 0.805313, 0.690764, 0.362383, 0.811113, 0.359815, 0.350438, 0.588315, 0.352033, 0.787656, 0.689665, 0.586857, 0.364077, 0.364012, 0.371894, 0.37568, 0.37651, 0.382623, 0.384171, 0.384827, 0.388682, 0.388033, 0.38809, 0.387238, 0.391636, 0.391414, 0.391553, 0.392763, 0.392606, 0.893241, 0.413145, 0.415585, 0.417189, 0.420328, 0.419839, 0.42044, 0.428514, 0.431902, 0.494062, 0.819444, 0.489467, 0.481193, 0.497974, 0.491917, 0.639842, 0.563953, 0.580003, 0.631837, 0.697473, 0.772103, 0.752807, 0.857494, 0.890825, 0.877518, 0.884972, 0.95883, 0.877427, 0.850399, 0.931717, 0.863919, 0.892821, 0.890088, 0.963211, 0.9254, 0.915562, 0.980335, 0.918151, 0.918007, 0.936542, 0.946925, 0.960719, 0.997648, 1.05387, 1.02936, 1.02993, 1.10816, 1.04709, 1.05603, 1.07436, 1.0879, 1.13031, 1.22936, 1.13126, 1.09288, 1.20801, 1.20684, 1.13094, 1.12643, 1.12594, 1.1539, 1.14953, 1.1522, 1.15664, 1.18769, 1.20867, 1.21285, 1.22162, 1.27187, 1.27304, 1.36441, 1.39478, 1.46507, 1.41363, 1.41596, 1.46136, 1.82488, 1.76225, 1.74255, 1.76912, 1.816, 1.73191, 1.731, 1.50924, 1.54915, 1.56446, 1.49561, 1.52253, 1.53621, 1.49838, 1.24422, 1.21917, 1.21724, 1.19516, 1.18773, 1.19572, 1.19559, 1.19227, 1.19316, 1.14964, 1.06142, 1.07898, 1.00601, 0.971208, 1.07886, 0.950235, 0.952182, 0.966719, 0.97012, 0.930842, 0.91486, 0.905184, 0.95692, 0.908341, 0.922518, 0.813619, 0.797461, 0.790176, 0.764987, 0.674206, 0.708369, 0.631422, 0.639591, 0.627718, 0.649245, 0.566767, 0.55422, 0.583628, 0.519999, 0.521305, 0.449873, 0.416599, 0.449007, 0.448082, 0.358239, 0.36639, 0.353623, 0.33372, 0.37261, 0.327206, 0.355074, 0.298074, 0.298453, 0.332364, 0.332392, 0.32897, 0.327679, 0.320748, 0.314268, 0.31494, 0.315321, 0.314194, 0.306777, 0.952967, 0.303058, 0.302802, 0.302833, 0.302694, 0.296599, 0.296888, 0.2973, 0.297726, 0.30196, 0.302117, 0.301866, 0.299237, 0.297497, 0.296995, 0.493409, 0.394481, 0.289589, 0.277819, 0.281821, 0.281412, 0.281097, 0.279931, 0.328731, 0.359346, 0.270075, 0.268543, 0.329002, 0.276308, 0.420331, 0.421093, 0.283385, 0.322411, 0.325595, 0.515789
0.368921, 0.369668, 0.368585, 0.369239, 0.367309, 0.367245, 0.367255, 0.367897, 0.371014, 0.370306, 0.369264, 0.36766, 0.366765, 0.364714, 0.360695, 0.360721, 0.362038, 0.366028, 0.358008, 0.352745, 0.351113, 0.349374, 0.347841, 0.805718, 0.804556, 0.80249, 0.576419, 0.358162, 0.353765, 0.352316, 0.587604, 0.586859, 0.584775, 0.580943, 0.587037, 0.586881, 0.371002, 0.578406, 0.374551, 0.374978, 0.378156, 0.38095, 0.384853, 0.38832, 0.393415, 0.386839, 0.387727, 0.387818, 0.392639, 0.391473, 0.392003, 0.392498, 0.521017, 0.521088, 0.417165, 0.4165, 0.420762, 0.420395, 0.41858, 0.638411, 0.439464, 0.438411, 0.447502, 0.446326, 0.499785, 0.500732, 0.491235, 0.494021, 0.523124, 0.607671, 0.622303, 0.621774, 0.771916, 0.776908, 0.811154, 0.880986, 0.899374, 0.877414, 0.878016, 0.858027, 0.858333, 0.858426, 0.870794, 0.890134, 0.891581, 0.896651, 0.905631, 0.998601, 0.997813, 1.08578, 0.916336, 0.916968, 0.95255, 0.974785, 1.00568, 1.06152, 1.01962, 1.01917, 1.03101, 1.05353, 1.05342, 1.09929, 1.10552, 1.22547, 1.10909, 1.12454, 1.154, 1.14686, 1.14846, 1.12951, 1.12897, 1.15071, 1.18793, 1.19401, 1.15261, 1.15274, 1.17874, 1.21102, 1.23336, 1.27779, 1.27512, 1.40931, 1.4064, 1.40973, 1.41979, 1.41611, 1.4437, 1.46755, 1.73736, 0.00546288, 1.85819, 1.50017, 1.80772, 1.70783, 1.68028, 1.50961, 1.45348, 1.45299, 1.48882, 1.50565, 1.49905, 1.24307, 1.22243, 1.19703, 1.19753, 1.19238, 1.19143, 1.19249, 1.1962, 1.22693, 1.07305, 1.05779, 1.06402, 1.04135, 1.01256, 1.01246, 0.966816, 0.988393, 0.960088, 0.96212, 0.932404, 0.918452, 0.967968, 0.952216, 0.946182, 0.892494, 0.871794, 0.808282, 0.795965, 0.764976, 0.765006, 0.673463, 0.656401, 0.640069, 0.638999, 0.625749, 0.612099, 0.579237, 0.566501, 0.493872, 0.434428, 0.520476, 0.432041, 0.431329, 0.429681, 0.366349, 0.380416, 0.369723, 0.355029, 0.322238, 0.380833, 0.303595, 0.303577, 0.34775, 0.304835, 0.317144, 0.318415, 0.328018, 0.323132, 0.320569, 0.321483, 0.313397, 0.313736, 0.305551, 0.948228, 0.335737, 0.449526, 0.302939, 0.303038, 0.301826, 0.297432, 0.296614, 0.298795, 0.302326, 0.30261, 0.30124, 0.30066, 0.299632, 0.298243, 0.297812, 0.293358, 0.289394, 0.289803, 0.289011, 0.281337, 0.28141, 0.280699, 0.279363, 0.360029, 0.272087, 0.315237, 0.328039, 0.331224, 0.320798, 0.350825, 0.331375, 0.631741, 0.371998, 0.187975, 0.188774
0.369059, 0.368911, 0.368727, 0.367835, 0.367674, 0.367259, 0.3665, 0.368443, 0.371875, 0.370811, 0.36938, 0.368073, 0.367474, 0.364834, 0.360702, 0.36209, 0.361705, 0.366666, 0.365596, 0.355069, 0.353245, 0.351649, 0.349512, 0.424696, 0.808177, 0.804807, 0.687593, 0.885074, 0.353395, 0.353393, 0.587252, 0.586482, 0.365409, 0.365543, 0.366176, 0.382941, 0.373558, 0.373114, 0.375239, 0.375542, 0.382637, 0.382304, 0.385551, 0.390058, 0.393087, 0.392977, 0.389364, 0.388228, 0.389295, 0.391082, 0.392846, 0.39389, 0.5205, 0.498773, 0.414779, 0.41455, 0.413508, 0.413833, 0.414927, 0.412969, 0.439993, 0.441246, 0.448814, 0.446128, 0.44557, 0.476907, 0.476529, 0.521354, 0.551247, 0.59667, 0.644883, 0.627458, 0.747197, 0.774059, 0.962843, 0.961763, 0.89924, 0.87802, 0.878258, 0.935346, 0.857502, 0.856766, 0.911046, 0.911072, 0.971368, 0.88689, 0.918739, 0.924262, 0.960228, 0.971291, 0.913668, 0.912578, 0.939514, 1.03659, 0.971283, 1.01564, 0.977031, 1.01133, 1.04191, 1.06289, 1.07097, 1.14724, 1.10652, 1.11326, 1.11499, 1.11541, 1.10951, 1.11133, 1.11524, 1.11779, 1.13848, 1.23623, 1.20905, 1.20552, 1.15351, 1.1794, 1.19301, 1.21952, 1.30804, 1.25457, 1.47257, 1.46194, 1.40579, 1.4071, 1.39059, 1.40648, 1.48881, 1.47465, 1.45378, 1.87216, 1.81778, 1.75854, 1.72823, 1.61833, 1.60652, 1.47305, 1.47071, 1.46161, 1.44766, 1.50297, 1.28702, 1.22927, 1.22447, 1.21537, 1.21581, 1.19331, 1.19042, 1.24085, 1.234, 1.21385, 1.09964, 1.10406, 1.09915, 1.03028, 0.986739, 0.961057, 0.958705, 0.974661, 0.968182, 1.03651, 1.03891, 0.910338, 0.908879, 0.911013, 0.968731, 0.970794, 0.866817, 0.77669, 0.80762, 0.738313, 0.71695, 0.66938, 0.659416, 0.622717, 0.622197, 0.57353, 0.522143, 0.494539, 0.540147, 0.464965, 0.476808, 0.417784, 0.431967, 0.43102, 0.508419, 0.377805, 0.35321, 0.354238, 0.327773, 0.417699, 0.314075, 0.314453, 0.347117, 0.346837, 0.306142, 0.317396, 0.327688, 0.330341, 0.320306, 0.320814, 0.321097, 0.322946, 0.321471, 0.288046, 0.30052, 0.946574, 0.300445, 0.30152, 0.302307, 0.299281, 0.295845, 0.29653, 0.299515, 0.301299, 0.300124, 0.299539, 0.299044, 0.299324, 0.929183, 0.296297, 0.294107, 0.290568, 0.289885, 0.289221, 0.279165, 0.278963, 0.272773, 0.272488, 0.276152, 0.269791, 0.269013, 0.327585, 0.351725, 0.354057, 0.338252, 0.332317, 0.372894, 0.187441, 0.189634, 0.190538
0.369917, 0.369308, 0.368563, 0.368097, 0.366387, 0.366578, 0.365942, 0.367638, 0.370168, 0.370617, 0.369268, 0.36863, 0.367679, 0.366255, 0.361605, 0.361522, 0.362075, 0.364058, 0.360486, 0.355486, 0.353058, 0.353304, 0.691439, 0.662077, 0.804247, 0.8031, 0.441282, 0.684443, 0.352706, 0.386767, 0.361805, 0.362793, 0.362483, 0.362956, 0.368176, 0.371974, 0.373725, 0.373933, 0.373727, 0.373806, 0.38226, 0.382893, 0.391345, 0.392116, 0.393767, 0.39341, 0.389575, 0.389318, 0.38966, 0.390575, 0.391952, 0.39205, 0.52027, 0.403581, 0.403073, 0.413902, 0.414174, 0.414512, 0.415071, 0.414023, 0.510546, 0.445269, 0.465932, 0.464449, 0.439264, 0.473597, 0.506767, 0.507691, 0.556011, 0.630928, 0.631517, 0.696687, 0.737049, 0.76525, 0.813921, 1.01326, 1.01265, 0.919388, 0.868869, 0.868006, 0.855945, 0.86117, 0.86135, 0.852264, 0.86965, 0.877287, 0.981672, 0.960921, 0.929638, 0.927365, 0.970077, 0.910967, 0.966311, 0.991676, 0.973584, 0.982335, 1.01187, 1.03578, 1.05441, 1.09222, 1.07821, 1.0861, 1.11514, 1.11541, 1.11613, 1.10403, 1.10553, 1.11091, 1.16641, 1.16122, 1.15801, 1.15933, 1.25956, 1.15964, 1.15697, 1.21285, 1.205, 1.36005, 1.30946, 1.26337, 1.32028, 1.40198, 1.40326, 1.40007, 1.38543, 1.43379, 1.42542, 1.41803, 1.46535, 0.00402045, 1.83023, 1.76764, 1.75483, 1.67464, 1.64654, 1.52038, 1.42626, 1.39378, 1.39133, 1.44084, 1.2479, 1.25007, 1.23694, 1.21215, 1.19933, 1.19551, 1.26815, 1.18411, 1.16877, 1.06778, 1.1039, 1.09309, 1.095, 1.02936, 1.01858, 0.980474, 1.0051, 0.975131, 0.964456, 0.970025, 0.912496, 0.913109, 0.910003, 0.909562, 0.909645, 0.947447, 0.880272, 0.813043, 0.773895, 0.76215, 0.75907, 0.690666, 0.671487, 0.624238, 0.625314, 0.60844, 0.602827, 0.517693, 0.48518, 0.433654, 0.432703, 0.432746, 0.432396, 0.43022, 0.434506, 0.370599, 0.329483, 0.329828, 0.321774, 0.322672, 0.335567, 0.313799, 0.395123, 0.392456, 0.33461, 0.341132, 0.327325, 0.328205, 0.329283, 0.307175, 0.320856, 0.321006, 0.345899, 0.29508, 0.335148, 0.361471, 0.335205, 0.451923, 0.37413, 0.297723, 0.293693, 0.288076, 0.28837, 0.299344, 0.297928, 0.29732, 0.722577, 0.477306, 0.297635, 0.473061, 0.29349, 0.288216, 0.278162, 0.279401, 0.279033, 0.27363, 0.274021, 0.272955, 0.270311, 0.256844, 0.257881, 0.259374, 0.352891, 0.367422, 0.33137, 0.383316, 0.369257, 0.188452, 0.190643, 0.191942
0.371992, 0.370886, 0.36873, 0.367515, 0.366481, 0.366795, 0.365949, 0.364148, 0.369608, 0.370512, 0.368984, 0.367852, 0.368263, 0.365927, 0.362562, 0.361021, 0.359882, 0.365514, 0.362081, 0.359633, 0.511883, 0.358929, 0.353596, 0.886545, 0.803739, 0.695243, 0.441986, 0.514175, 0.388584, 0.853178, 0.362849, 0.36335, 0.362735, 0.362302, 0.368905, 0.370332, 0.369645, 0.376299, 0.378189, 0.376834, 0.376774, 0.376646, 0.391174, 0.392285, 0.394401, 0.393924, 0.393331, 0.3887, 0.388566, 0.390666, 0.390909, 0.39201, 0.447904, 0.405481, 0.404595, 0.403451, 0.416585, 0.417428, 0.416045, 0.415498, 0.617632, 0.443688, 0.471696, 0.473613, 0.473697, 0.475599, 0.4758, 0.504525, 0.552904, 0.579693, 0.583708, 0.679466, 0.783578, 0.766161, 0.898978, 0.831615, 0.843602, 0.849378, 0.838385, 0.845645, 0.842356, 0.894538, 0.852769, 0.853845, 0.957576, 0.92981, 0.923755, 0.929184, 0.92517, 1.023, 0.958435, 0.936256, 1.019, 0.983321, 0.984128, 1.00353, 1.10663, 1.05035, 1.07289, 1.0822, 1.08423, 1.08703, 1.13692, 1.11844, 1.13203, 1.15001, 1.10483, 1.10629, 1.10637, 1.17457, 1.24588, 1.26816, 1.26737, 1.23796, 1.19922, 1.25787, 1.29607, 1.38283, 1.39244, 1.26499, 1.27027, 1.29135, 1.414, 1.37279, 1.38614, 1.46955, 1.40575, 1.47151, 1.45438, 1.83155, 1.75748, 1.75649, 1.74898, 1.67806, 1.53583, 1.46381, 1.41357, 1.49301, 1.4956, 1.40241, 1.29195, 1.22038, 1.21957, 1.20601, 1.20576, 1.18071, 1.17718, 1.17093, 1.16992, 1.05988, 1.09746, 1.0979, 1.09766, 1.03365, 0.999113, 0.999006, 1.0353, 1.00565, 0.956929, 0.956395, 0.955316, 0.918918, 0.90878, 0.952756, 0.874259, 0.946837, 0.833665, 0.801687, 0.841185, 0.816298, 0.724161, 0.736243, 0.62066, 0.591982, 0.591839, 0.514391, 0.516775, 0.487702, 0.486045, 0.457444, 0.455473, 0.432392, 0.430873, 0.434121, 0.346227, 0.346466, 0.366029, 0.330737, 0.318762, 0.325427, 0.360706, 0.362434, 0.391213, 0.392331, 0.329111, 0.329492, 0.32877, 0.328606, 0.329969, 0.296616, 0.308584, 0.373147, 0.373102, 0.458695, 0.458455, 0.336586, 0.36045, 0.332169, 0.412515, 0.294096, 0.287329, 0.289117, 0.288767, 0.288342, 0.355046, 0.290375, 0.479548, 0.71521, 0.293241, 0.29356, 0.289433, 0.287322, 0.279311, 0.279977, 0.280258, 0.279353, 0.271164, 0.269556, 0.268658, 0.259007, 0.259809, 0.259007, 0.351312, 0.303773, 0.210908, 0.382785, 0.353047, 0.192947, 0.191885, 0.192481
0.375857, 0.372505, 0.368818, 0.369506, 0.368865, 0.368421, 0.365681, 0.365632, 0.369272, 0.369739, 0.370159, 0.367184, 0.366198, 0.365606, 0.363447, 0.361871, 0.361205, 0.364946, 0.362623, 0.360194, 0.358313, 0.357545, 0.356167, 0.355132, 0.80586, 0.752251, 0.429965, 0.426498, 0.35949, 0.361173, 0.364453, 0.364822, 0.363398, 0.361674, 0.361035, 0.370868, 0.370404, 0.369195, 0.376902, 0.37749, 0.378237, 0.376939, 0.581038, 0.580975, 0.391873, 0.393827, 0.389334, 0.390286, 0.39054, 0.391876, 0.391379, 0.396413, 0.396735, 0.404418, 0.403867, 0.404027, 0.416513, 0.417003, 0.416996, 0.416461, 0.417144, 0.531384, 0.491217, 0.475033, 0.475909, 0.470846, 0.50561, 0.505836, 0.55255, 0.576658, 0.631735, 0.693384, 0.763346, 0.801409, 0.995631, 0.808621, 0.810086, 0.842291, 0.841834, 0.840686, 0.848853, 0.890379, 0.89092, 0.857826, 0.907801, 0.951964, 0.926815, 0.940904, 0.978301, 0.93967, 0.943141, 0.943333, 1.06505, 1.06805, 0.984272, 1.07846, 1.08824, 1.06374, 1.08088, 1.08049, 1.08039, 1.07953, 1.09232, 1.09296, 1.13658, 1.13717, 1.14249, 1.14456, 1.18874, 1.23625, 1.17457, 1.17312, 1.22519, 1.16597, 1.22313, 1.23293, 1.50059, 1.24341, 1.24275, 1.28317, 1.2767, 1.39151, 1.4179, 1.41927, 1.41845, 1.43395, 1.49478, 1.46546, 1.83724, 1.83791, 1.75296, 1.74098, 1.65488, 1.58305, 1.54202, 1.47117, 1.47891, 1.3645, 1.41072, 1.32721, 1.25684, 1.24643, 1.22638, 1.20858, 1.22999, 1.17695, 1.16803, 1.20623, 1.1751, 1.17851, 1.10036, 1.09778, 1.06623, 1.02198, 1.02759, 1.02227, 0.982036, 0.985756, 0.971428, 0.97266, 1.02118, 0.906213, 0.908056, 0.928767, 0.87395, 0.87351, 0.798351, 0.816176, 0.814801, 0.814876, 0.791231, 0.688495, 0.629787, 0.611938, 0.549331, 0.515529, 0.494913, 0.487203, 0.455398, 0.427616, 0.448525, 0.387123, 0.356589, 0.354704, 0.348907, 0.347804, 0.365859, 0.32212, 0.318292, 0.317054, 0.346418, 0.365734, 0.316861, 0.31768, 0.330962, 0.330786, 0.316151, 0.328191, 0.316221, 0.436585, 0.297599, 0.687621, 0.528599, 0.250276, 0.355729, 0.791821, 0.790091, 0.366964, 0.411933, 0.627528, 0.286129, 0.287314, 0.287931, 0.287034, 0.577723, 0.291328, 0.714953, 0.714518, 0.715233, 0.490165, 0.287786, 0.279957, 0.279843, 0.280531, 0.280497, 0.280185, 0.270612, 0.268801, 0.269899, 0.258674, 0.259112, 0.258584, 0.518077, 0.213003, 0.213022, 0.206801, 0.196543, 0.197452, 0.198515, 0.193538
0.37806, 0.375203, 0.371668, 0.37001, 0.369796, 0.370784, 0.367766, 0.367664, 0.367144, 0.369453, 0.370722, 0.368298, 0.365797, 0.364994, 0.364271, 0.362384, 0.361711, 0.363052, 0.363255, 0.362705, 0.360269, 0.358334, 0.357205, 0.356712, 0.356121, 0.850824, 0.4296, 0.798419, 0.752302, 0.362876, 0.365077, 0.365077, 0.364972, 0.361679, 0.361821, 0.372346, 0.371892, 0.371932, 0.377752, 0.377797, 0.376012, 0.382493, 0.382067, 0.389484, 0.388794, 0.387963, 0.387704, 0.388481, 0.387919, 0.390791, 0.391568, 0.390831, 0.450021, 0.404675, 0.405387, 0.417153, 0.418372, 0.418181, 0.417355, 0.416151, 0.416467, 0.512416, 0.514307, 0.476487, 0.474084, 0.475382, 0.56945, 0.554151, 0.549352, 0.542657, 0.649738, 0.698417, 0.749776, 0.794457, 0.883137, 0.808217, 0.809947, 0.850192, 0.84745, 0.842116, 0.86163, 0.887418, 0.862845, 0.989591, 0.990443, 0.963722, 0.947903, 0.950736, 0.975606, 0.972972, 0.97684, 0.975197, 0.980193, 0.988886, 1.07605, 1.08039, 1.07269, 1.06846, 1.08198, 1.0837, 1.08091, 1.08079, 1.06751, 1.0683, 1.09835, 1.10078, 1.09994, 1.11162, 1.24906, 1.19156, 1.17921, 1.17883, 1.28217, 1.28568, 1.2357, 1.20584, 1.25361, 1.25188, 1.24771, 1.23515, 1.30159, 1.3899, 1.32901, 1.40047, 1.39815, 1.53005, 1.5143, 1.48819, 1.43425, 1.78703, 1.43875, 1.73472, 1.62279, 1.57141, 1.48759, 1.4895, 1.46456, 1.28233, 1.27115, 1.25399, 1.25299, 1.23451, 1.23613, 1.21897, 1.21927, 1.16035, 1.16165, 1.15405, 1.17287, 1.17398, 1.07446, 1.05175, 1.0653, 1.06736, 1.01503, 1.04422, 0.983622, 0.98594, 0.986515, 1.03333, 0.986629, 0.907251, 0.908045, 0.869849, 0.896015, 0.823347, 0.823771, 0.819667, 0.808753, 0.794124, 0.797413, 0.650315, 0.625827, 0.610551, 0.56825, 0.513999, 0.502926, 0.50475, 0.447464, 0.403524, 0.407134, 0.411849, 0.359363, 0.358287, 0.346496, 0.345345, 0.345809, 0.324275, 0.325913, 0.325753, 0.318415, 0.368544, 0.317086, 0.320697, 0.320891, 0.31059, 0.322191, 0.323223, 0.319753, 0.318868, 0.438379, 0.635586, 0.252192, 0.253225, 0.252622, 0.461708, 0.462203, 0.363043, 0.371678, 0.371438, 0.273614, 0.276134, 0.276477, 0.279048, 0.278594, 0.315004, 0.341583, 0.655259, 0.715041, 0.745839, 0.557141, 0.283966, 0.279246, 0.279543, 0.279367, 0.268705, 0.269071, 0.268323, 0.267653, 0.656574, 0.258209, 0.327656, 0.524546, 0.206902, 0.207193, 0.20814, 0.207303, 0.198345, 0.199379, 0.199241
0.377411, 0.376373, 0.372018, 0.372205, 0.371961, 0.370087, 0.368799, 0.367598, 0.368819, 0.368868, 0.368616, 0.36592, 0.36596, 0.364088, 0.365075, 0.363891, 0.361943, 0.362137, 0.363757, 0.363849, 0.365538, 0.361903, 0.359798, 0.358235, 0.356754, 0.609353, 0.802775, 0.575808, 0.675327, 0.553039, 0.551593, 0.38149, 0.364817, 0.362908, 0.361999, 0.372701, 0.373077, 0.371979, 0.373727, 0.375795, 0.375816, 0.380913, 0.381587, 0.929616, 0.388178, 0.388707, 0.388885, 0.387549, 0.387559, 0.389412, 0.391649, 0.391044, 0.393146, 0.504685, 0.404603, 0.513361, 0.41809, 0.417801, 0.417437, 0.417064, 0.417165, 0.416762, 0.805538, 0.476344, 0.487641, 0.486211, 0.493903, 0.493668, 0.54302, 0.542536, 0.640253, 0.752215, 0.752635, 0.785792, 0.980562, 0.965099, 0.917725, 0.821976, 0.822426, 0.841261, 0.873987, 0.931776, 0.915633, 1.00953, 1.00806, 0.956724, 0.984426, 1.00803, 0.984339, 0.983918, 0.983587, 1.06097, 1.01, 1.02154, 1.10279, 1.10256, 1.09919, 1.0581, 1.05645, 1.05507, 1.07337, 1.07801, 1.07545, 1.06355, 1.10477, 1.10276, 1.10117, 1.1152, 1.17615, 1.24456, 1.25045, 1.28506, 1.28452, 1.16685, 1.281, 1.26766, 1.26703, 1.25773, 1.33042, 1.30275, 1.30706, 1.38362, 1.31312, 1.36332, 1.42443, 1.45613, 1.39565, 1.42944, 1.49851, 1.65223, 1.72318, 1.66548, 1.40659, 1.40595, 1.30915, 1.30907, 1.29556, 1.25622, 1.28026, 1.25382, 1.24637, 1.22811, 1.23344, 1.21201, 1.25177, 1.17483, 1.16764, 1.14716, 1.14623, 1.13649, 1.13216, 1.08488, 1.13604, 1.137, 1.02535, 1.01726, 1.04559, 0.962696, 0.962823, 1.16999, 1.11912, 0.96155, 0.963968, 0.947838, 0.822654, 0.823452, 0.825604, 0.81941, 0.813574, 0.830378, 0.750201, 0.693055, 0.626661, 0.549628, 0.549323, 0.567621, 0.486344, 0.478989, 0.430077, 0.419905, 0.393026, 0.38259, 0.361268, 0.347801, 0.346462, 0.341612, 0.320855, 0.324266, 0.325742, 0.331337, 0.318166, 0.351441, 0.315333, 0.320405, 0.320999, 0.31947, 0.318714, 0.32349, 0.323755, 0.320775, 0.688938, 0.68815, 0.252253, 0.253213, 0.25305, 0.461608, 0.460616, 0.356521, 0.362479, 0.428614, 0.275704, 0.276841, 0.277616, 0.278507, 0.278814, 0.315969, 0.317412, 0.643287, 0.711918, 0.763293, 0.26489, 0.265916, 0.621036, 0.277795, 0.265662, 0.266624, 0.267729, 0.267943, 0.266636, 0.656032, 0.325501, 0.29641, 0.297279, 0.209506, 0.208381, 0.207854, 0.197639, 0.19812, 0.199982, 0.200211
0.377075, 0.374996, 0.375005, 0.373839, 0.371723, 0.368811, 0.367846, 0.36837, 0.369548, 0.368484, 0.368794, 0.368385, 0.365226, 0.364992, 0.36552, 0.364395, 0.363131, 0.363636, 0.364972, 0.365134, 0.365096, 0.36285, 0.361575, 0.360638, 0.359147, 0.359308, 0.752691, 0.573598, 0.569626, 0.459417, 0.372499, 0.374895, 0.373183, 0.369569, 0.368902, 0.372247, 0.372815, 0.373513, 0.371719, 0.368896, 0.421378, 0.421232, 0.530172, 0.587766, 0.389022, 0.385939, 0.388054, 0.386948, 0.385809, 0.386961, 0.385213, 0.390221, 0.393266, 0.451151, 0.4526, 0.45265, 0.417074, 0.41698, 0.416287, 0.417235, 0.418119, 0.417224, 0.416636, 0.517865, 0.487647, 0.4556, 0.489744, 0.489556, 0.543396, 0.549769, 0.631894, 0.752342, 0.751532, 0.929633, 0.908745, 0.950669, 0.847835, 0.822771, 0.871763, 0.874356, 0.945804, 0.882624, 0.881745, 0.894461, 0.894553, 0.892145, 1.00856, 0.988907, 0.987919, 0.98413, 1.04642, 1.04535, 1.05754, 1.02042, 1.13434, 1.14054, 1.07352, 1.05999, 1.04119, 1.07791, 1.08748, 1.06708, 1.06322, 1.07212, 1.09587, 1.10964, 1.1095, 1.13706, 1.1358, 1.24206, 1.24448, 1.1359, 1.13566, 1.1682, 1.16981, 1.22064, 1.2605, 1.2898, 1.30949, 1.25139, 1.28072, 1.28155, 1.3523, 1.36899, 1.36835, 1.4226, 1.38524, 1.46684, 1.42898, 1.68956, 1.65321, 1.40644, 1.3719, 1.29018, 1.28825, 1.27076, 1.28855, 1.27407, 1.22756, 1.22472, 1.22451, 1.25467, 1.23671, 1.21565, 1.17175, 1.13567, 1.13903, 1.13989, 1.18989, 1.13237, 1.14984, 1.10796, 1.10823, 1.10805, 1.08457, 1.05661, 1.0573, 0.961001, 0.99475, 0.949955, 1.00234, 0.958701, 0.933674, 0.897358, 0.940475, 0.823808, 0.824343, 0.846458, 0.800688, 0.800526, 0.700689, 0.652423, 0.634156, 0.549763, 0.550402, 0.503762, 0.487904, 0.508153, 0.431756, 0.396806, 0.396715, 0.413013, 0.361827, 0.367999, 0.349951, 0.396821, 0.325315, 0.392969, 0.353242, 0.353037, 0.352579, 0.352653, 0.307635, 0.307867, 0.322414, 0.322062, 0.320284, 0.320269, 0.320576, 0.318806, 0.688839, 0.686528, 0.251248, 0.251797, 0.259941, 0.259442, 0.460969, 0.355873, 0.431271, 0.431818, 0.275534, 0.276518, 0.277733, 0.278651, 0.278527, 0.327569, 0.316433, 0.711192, 0.711217, 0.264986, 0.265524, 0.26575, 0.265759, 0.748987, 0.427558, 0.26572, 0.265572, 0.265669, 0.462304, 0.00465651, 0.64983, 0.330353, 0.536532, 0.560204, 0.20594, 0.198452, 0.19851, 0.199508, 0.20016, 0.200714
0.37471, 0.375176, 0.375337, 0.375045, 0.373453, 0.372979, 0.368726, 0.366572, 0.366801, 0.368418, 0.36777, 0.366592, 0.3652, 0.365069, 0.366078, 0.364855, 0.364259, 0.363774, 0.365248, 0.36538, 0.365159, 0.365246, 0.362759, 0.361126, 0.361689, 0.36159, 0.610684, 0.642617, 0.427089, 0.563415, 0.375078, 0.374757, 0.375602, 0.371171, 0.368888, 0.372108, 0.372151, 0.372039, 0.370193, 0.369305, 0.367748, 0.835426, 0.833127, 1.1789, 0.933237, 0.585803, 0.386793, 0.3868, 0.385915, 0.386264, 0.386215, 0.391253, 0.506769, 0.402025, 0.453741, 0.45316, 0.41505, 0.415396, 0.419857, 0.418129, 0.419117, 0.417608, 0.515712, 0.483497, 0.483889, 0.483477, 0.511105, 0.530457, 0.53456, 0.588387, 0.583154, 0.728365, 0.728766, 0.930053, 0.92372, 0.991606, 0.846971, 0.879976, 0.835769, 0.979389, 0.964046, 0.961314, 0.894122, 0.856877, 0.849503, 0.987428, 0.991118, 0.991494, 1.02906, 0.998524, 1.02327, 1.0392, 1.01984, 1.01915, 1.01551, 1.12526, 1.12421, 1.05368, 1.04038, 1.0758, 1.10211, 1.05662, 1.05367, 1.08395, 1.08847, 1.10277, 1.10332, 1.08726, 1.21288, 1.12968, 1.13094, 1.14404, 1.14084, 1.17517, 1.1875, 1.22083, 1.27116, 1.29842, 1.23957, 1.24546, 1.32336, 1.33315, 1.34826, 1.48203, 1.37536, 1.41661, 1.38558, 1.49869, 1.45177, 1.51423, 1.39316, 1.34511, 1.34428, 1.36912, 1.29073, 1.27166, 1.24272, 1.27621, 1.24795, 1.24787, 1.44388, 1.3989, 1.27222, 1.22702, 1.25871, 1.14492, 1.14397, 1.14617, 1.14404, 1.12848, 1.10609, 1.11063, 1.11347, 1.06297, 1.03692, 1.04597, 1.0446, 1.00061, 0.940649, 0.942482, 0.992481, 0.902254, 0.885108, 0.933662, 0.932728, 0.823409, 0.828447, 0.834767, 0.814621, 0.748931, 0.746709, 0.657516, 0.586877, 0.585999, 0.563002, 0.563497, 0.511547, 0.513216, 0.449259, 0.423376, 0.399, 0.434504, 0.412749, 0.414724, 0.350831, 0.396649, 0.396073, 0.396469, 0.327055, 0.326995, 0.35327, 0.308521, 0.306902, 0.326881, 0.324968, 0.32323, 0.321911, 0.321947, 0.320671, 0.318211, 0.549629, 0.443505, 0.444756, 0.258877, 0.259645, 0.259575, 0.249852, 0.249736, 0.362294, 0.664122, 0.27409, 0.276788, 0.277958, 0.277837, 0.268778, 0.26907, 0.269589, 0.269927, 0.712187, 0.264662, 0.26694, 0.267088, 0.266189, 0.267777, 0.387832, 0.38795, 0.467221, 0.47701, 0.470753, 0.483077, 0.328294, 0.326962, 0.567987, 0.570998, 0.200704, 0.200986, 0.201346, 0.201442, 0.200063, 0.199852
0.374678, 0.375054, 0.374038, 0.37426, 0.373562, 0.372321, 0.368973, 0.36835, 0.368232, 0.368995, 0.368049, 0.367732, 0.366472, 0.364838, 0.365377, 0.363814, 0.365146, 0.363845, 0.362142, 0.365068, 0.366138, 0.364118, 0.365833, 0.364385, 0.362335, 0.361701, 0.361644, 0.597548, 0.599968, 0.375454, 0.375857, 0.375703, 0.37505, 0.375174, 0.369642, 0.369082, 0.372108, 0.37164, 0.37006, 0.368766, 0.368555, 0.367772, 1.0135, 0.93557, 0.93851, 0.584267, 0.386217, 0.385987, 0.385848, 0.386775, 0.389238, 0.389586, 0.505822, 0.399082, 0.403276, 0.453415, 0.511091, 0.513252, 0.419998, 0.420854, 0.42005, 0.513844, 0.513057, 0.483139, 0.484158, 0.48337, 0.452935, 0.530072, 0.54817, 0.546395, 0.594829, 0.720436, 0.7539, 0.752581, 0.798701, 0.839043, 0.85213, 0.84281, 0.967071, 0.980869, 0.963699, 1.02617, 1.02181, 0.932458, 0.931835, 0.935774, 0.87053, 0.00442151, 0.999064, 0.999162, 1.03293, 1.03356, 1.02016, 1.0241, 1.02399, 1.1842, 1.14981, 1.05214, 1.0347, 1.03514, 1.03464, 1.06905, 1.07091, 1.08201, 1.12788, 1.17033, 1.17947, 1.13591, 1.1724, 1.11112, 1.10736, 1.12667, 1.13965, 1.19391, 1.26734, 1.18387, 1.18446, 1.18593, 1.25415, 1.20584, 1.24851, 1.21415, 1.35374, 1.33581, 1.62364, 1.38062, 1.38486, 1.45131, 1.37435, 1.38903, 1.39028, 1.37943, 1.34722, 1.34794, 1.24336, 1.36118, 1.36706, 1.21311, 1.24797, 1.31877, 1.30286, 1.27965, 1.29272, 1.24002, 1.25149, 1.15389, 1.15988, 1.18092, 1.16347, 1.17001, 1.08066, 1.07791, 1.07588, 1.0257, 1.0194, 0.951061, 0.99077, 0.944044, 0.943063, 0.90133, 0.904011, 0.883053, 0.872221, 0.937995, 0.937697, 0.839899, 0.83572, 0.819826, 0.785103, 0.707308, 0.73543, 0.668176, 0.562167, 0.545184, 0.544685, 0.565249, 0.51728, 0.494449, 0.492904, 0.424133, 0.404144, 0.441689, 0.412487, 0.431872, 0.332005, 0.331597, 0.399695, 0.395371, 0.370865, 0.328243, 0.315507, 0.353521, 0.349485, 0.341352, 0.329831, 0.32787, 0.324291, 0.32198, 0.320369, 0.319302, 0.441292, 0.674357, 0.440652, 0.26548, 0.259079, 0.25157, 0.25134, 0.2511, 0.251166, 0.241309, 0.363987, 0.384132, 0.27685, 0.265562, 0.268895, 0.270287, 0.271004, 0.271152, 0.269148, 0.265749, 0.26584, 0.266652, 0.266821, 0.267993, 0.373761, 0.369264, 0.44679, 0.445986, 0.466512, 0.41795, 0.418439, 0.220882, 0.206446, 0.207875, 0.208396, 0.201722, 0.203204, 0.203278, 0.199829, 0.199787
0.373291, 0.373344, 0.374899, 0.375137, 0.374138, 0.373904, 0.370498, 0.3705, 0.369098, 0.369127, 0.370248, 0.369004, 0.371581, 0.372874, 0.370164, 0.369966, 0.368727, 0.363575, 0.362336, 0.362316, 0.361029, 0.364718, 0.364395, 0.36392, 0.36332, 0.362507, 0.362162, 0.663815, 0.741802, 0.375864, 0.376822, 0.376008, 0.375875, 0.372729, 0.369845, 0.368374, 0.36674, 0.370387, 0.370671, 0.368497, 0.368239, 0.367587, 0.83697, 0.937749, 0.936643, 0.584068, 0.894354, 0.387219, 0.388648, 0.390696, 0.390377, 0.390457, 0.390202, 0.39958, 0.400094, 0.400759, 0.514526, 0.515442, 0.521258, 0.424185, 0.431703, 0.43111, 0.431177, 0.514334, 0.482584, 0.482821, 0.504816, 0.514644, 0.565591, 0.570388, 0.570882, 0.722162, 0.732897, 0.75964, 0.86407, 0.794306, 0.831543, 0.829747, 0.904735, 0.880276, 0.9915, 0.905524, 0.870188, 0.935334, 0.829568, 0.84687, 0.919288, 0.918171, 0.936222, 0.998201, 1.04086, 1.01781, 1.01621, 1.09565, 1.07621, 1.11041, 1.18897, 1.03747, 1.03221, 1.03241, 1.03547, 1.06473, 1.1238, 1.13571, 1.10476, 1.17885, 1.15857, 1.1908, 1.11137, 1.11098, 1.10868, 1.11864, 1.11833, 1.20991, 1.1882, 1.19625, 1.18214, 1.1833, 1.17546, 1.17574, 1.33594, 1.21199, 1.28037, 1.3424, 1.34674, 1.31855, 1.3403, 1.36726, 1.4172, 1.37987, 1.4439, 1.53076, 1.404, 1.31569, 1.30081, 1.22401, 1.212, 1.21724, 1.21857, 1.2268, 1.37475, 1.37427, 1.29461, 1.20622, 1.25044, 1.25398, 1.25225, 1.17068, 1.21357, 1.2197, 1.17694, 1.17694, 1.02894, 0.973676, 0.93158, 0.932961, 0.923115, 0.932143, 0.90175, 0.891939, 0.887843, 0.880424, 0.863661, 0.93677, 0.83263, 0.904161, 0.798698, 0.820858, 0.740072, 0.707607, 0.619855, 0.690559, 0.563873, 0.545197, 0.483114, 0.471489, 0.470492, 0.492577, 0.453004, 0.45234, 0.407979, 0.392423, 0.392065, 0.351855, 0.334529, 0.328325, 0.31528, 0.424726, 0.372912, 0.42598, 0.405708, 0.380393, 0.381571, 0.382857, 0.322749, 0.327604, 0.328184, 0.322249, 0.320452, 0.319334, 0.430826, 0.455638, 0.342163, 0.262881, 0.262894, 0.252637, 0.252701, 0.251867, 0.251177, 0.244018, 0.416079, 0.375851, 0.264056, 0.265548, 0.267444, 0.26998, 0.270586, 0.26991, 0.270266, 0.262916, 0.264999, 0.26538, 0.265315, 0.360256, 0.376301, 0.389402, 0.23856, 0.384473, 0.221885, 0.22391, 0.224569, 0.223852, 0.208391, 0.209596, 0.209566, 0.201718, 0.201697, 0.200133, 0.199526, 0.198484
0.348926, 0.361754, 0.374773, 0.374655, 0.375627, 0.374213, 0.370643, 0.36976, 0.369455, 0.369479, 0.369691, 0.368858, 0.372296, 0.372219, 0.3709, 0.370285, 0.368759, 0.365657, 0.362216, 0.361907, 0.360652, 0.360474, 0.36372, 0.362488, 0.362817, 0.36428, 0.441753, 0.638355, 0.779941, 0.375585, 0.374529, 0.374025, 0.373937, 0.37372, 0.372315, 0.368587, 0.368489, 0.368299, 0.371167, 0.368321, 0.367894, 0.367251, 0.760182, 0.939463, 0.937954, 0.381436, 0.380936, 0.389103, 0.38846, 0.39112, 0.390907, 0.389795, 0.389397, 0.399862, 0.399851, 0.400482, 0.402309, 0.403432, 0.520257, 0.432056, 0.432953, 0.433238, 0.43148, 0.42999, 0.428025, 0.493866, 0.442963, 0.505011, 0.525028, 0.523283, 0.641189, 0.667302, 0.716641, 0.803797, 0.804075, 0.802971, 0.817607, 0.973781, 0.916793, 0.908002, 0.859854, 0.908018, 0.836089, 0.821143, 0.813952, 0.813762, 0.897666, 0.933681, 0.908273, 0.924428, 0.964261, 0.997275, 0.998157, 1.05587, 1.03791, 1.02254, 1.02424, 1.1232, 1.08456, 1.04046, 1.06357, 1.07696, 1.12233, 1.12285, 1.14975, 1.22204, 1.13435, 1.12337, 1.11107, 1.10862, 1.15341, 1.12581, 1.12926, 1.21633, 1.18759, 1.19101, 1.1874, 1.21429, 1.19688, 1.19609, 1.28793, 1.22935, 1.28526, 1.25669, 1.35095, 1.35494, 1.3955, 1.35297, 1.42993, 1.38615, 1.35301, 1.34972, 1.33697, 1.30485, 1.26868, 1.21727, 1.20208, 1.20091, 1.19137, 1.22782, 1.24375, 1.26512, 1.29541, 1.18502, 1.20198, 1.17817, 1.18597, 1.18612, 1.22683, 1.02633, 1.02314, 1.01899, 0.974523, 0.923281, 0.923249, 0.922058, 0.904174, 0.936748, 0.881306, 0.878986, 0.929821, 0.877311, 0.876504, 0.872986, 0.830864, 0.863711, 0.799804, 0.798757, 0.741807, 0.741563, 0.638302, 0.673776, 0.673024, 0.548121, 0.524949, 0.484941, 0.495046, 0.432622, 0.411417, 0.451744, 0.414785, 0.396212, 0.39288, 0.341691, 0.328545, 0.327522, 0.316789, 0.317288, 0.369, 0.376118, 0.382676, 0.380527, 0.382715, 0.339614, 0.326707, 0.327465, 0.327679, 0.321988, 0.322471, 0.320595, 0.659867, 0.342766, 0.671363, 0.26065, 0.261257, 0.259411, 0.250864, 0.250078, 0.248334, 0.254341, 0.255151, 0.255715, 0.264502, 0.265274, 0.26619, 0.26859, 0.268122, 0.269211, 0.255913, 0.257548, 0.690188, 0.263265, 0.443122, 0.441676, 0.339687, 0.383601, 0.481276, 0.428659, 0.224263, 0.225534, 0.225204, 0.22566, 0.223111, 0.209875, 0.209947, 0.209866, 0.203232, 0.199782, 0.199315, 0.19847
0.345898, 0.344857, 0.374989, 0.375674, 0.375548, 0.374859, 0.372576, 0.370254, 0.369656, 0.368618, 0.369064, 0.369783, 0.369643, 0.370814, 0.371351, 0.37017, 0.368675, 0.366476, 0.361929, 0.361673, 0.361437, 0.361392, 0.360821, 0.363647, 0.365498, 0.365122, 0.364785, 0.390323, 0.373125, 0.374478, 0.378473, 0.37868, 0.374216, 0.374102, 0.372894, 0.369651, 0.368501, 0.367731, 0.370023, 0.369576, 0.368548, 0.368371, 0.535826, 0.752309, 0.38146, 0.382725, 0.382578, 0.381996, 0.387539, 0.390633, 0.390037, 0.389271, 0.397369, 0.400205, 0.401446, 0.400583, 0.40119, 0.403202, 0.403234, 0.528991, 0.433262, 0.433938, 0.43221, 0.430424, 0.430201, 0.493371, 0.480588, 0.480596, 0.481737, 0.534527, 0.667292, 0.671068, 0.678902, 0.802871, 0.803114, 0.829574, 0.918628, 0.912251, 0.865011, 0.914312, 0.869878, 0.869423, 0.86857, 0.809025, 0.829164, 0.835914, 0.952669, 0.908167, 0.909002, 0.914612, 0.9469, 0.994949, 1.02982, 1.04835, 1.06033, 1.02436, 1.05715, 1.08159, 1.04916, 1.05722, 1.05731, 1.09313, 1.19205, 1.10789, 1.18498, 1.18391, 1.16331, 1.10104, 1.10544, 1.10523, 1.12354, 1.12375, 1.19247, 1.25781, 1.2314, 1.18578, 1.18515, 1.3204, 1.23576, 1.22383, 1.25856, 1.26822, 1.28459, 1.28444, 1.30159, 1.281, 1.34321, 1.50943, 1.4237, 1.37756, 1.34107, 1.36366, 1.34935, 1.26699, 1.26577, 1.21347, 1.19607, 1.19515, 1.20299, 1.19534, 1.2128, 1.21681, 1.19512, 1.15051, 1.13677, 1.23709, 1.2302, 1.18203, 1.19612, 1.02485, 1.014, 0.998598, 0.970259, 1.05705, 0.967184, 0.966454, 0.968214, 0.927466, 0.925664, 0.927179, 0.841126, 0.834677, 0.873622, 0.797395, 0.816405, 0.801666, 0.786578, 0.777945, 0.712086, 0.704073, 0.628632, 0.561572, 0.548408, 0.52038, 0.510625, 0.459911, 0.448569, 0.4116, 0.412024, 0.412153, 0.414145, 0.406059, 0.406403, 0.328235, 0.327832, 0.315288, 0.315776, 0.321784, 0.320977, 0.346855, 0.37998, 0.379109, 0.310617, 0.310681, 0.327225, 0.327355, 0.320812, 0.322169, 0.320639, 0.320543, 0.327743, 0.424306, 0.431871, 0.259676, 0.258848, 0.260878, 0.249742, 0.24878, 0.248521, 0.256821, 0.256897, 0.257091, 0.257019, 0.264262, 0.265178, 0.2659, 0.265399, 0.256026, 0.25614, 0.256291, 0.326002, 0.258965, 0.641167, 0.441188, 0.460445, 0.458912, 0.21359, 0.215013, 0.225357, 0.22592, 0.21928, 0.220964, 0.220799, 0.210343, 0.210376, 0.210129, 0.196057, 0.196367, 0.198092, 0.197902
0.346661, 0.347182, 0.570197, 0.375493, 0.375878, 0.375875, 0.37477, 0.372285, 0.369382, 0.368673, 0.370798, 0.369542, 0.368748, 0.366404, 0.369398, 0.369484, 0.356991, 0.357394, 0.361091, 0.361316, 0.361608, 0.36151, 0.360747, 0.363927, 0.363855, 0.36661, 0.365364, 0.389778, 0.656715, 0.378002, 0.378313, 0.378349, 0.377287, 0.37487, 0.371906, 0.368246, 0.367531, 0.3667, 0.375379, 0.370464, 0.369621, 0.368935, 0.536132, 0.537979, 0.383022, 0.380782, 0.382989, 0.38259, 0.380864, 0.390651, 0.389677, 0.389745, 0.390414, 0.399716, 0.400544, 0.40118, 0.400891, 0.399957, 0.401949, 0.68793, 0.432648, 0.431928, 0.431762, 0.431201, 0.43093, 0.525038, 0.508821, 0.480835, 0.480176, 0.62001, 0.681117, 0.672636, 0.663228, 0.704925, 0.732056, 0.766497, 0.797006, 0.788859, 0.866611, 0.800405, 0.803424, 0.794828, 0.80666, 0.796744, 0.803551, 0.803045, 0.89039, 0.89528, 0.916414, 0.925646, 0.957374, 0.993353, 0.994862, 1.06249, 1.06194, 1.0566, 1.05879, 1.0589, 1.0484, 1.06476, 1.14759, 1.14731, 1.09732, 1.10134, 1.14076, 1.12293, 1.1208, 1.10378, 1.14685, 1.12896, 1.12451, 1.19562, 1.25854, 1.22879, 1.23249, 1.18585, 1.18259, 1.18414, 1.25822, 1.25683, 1.27585, 1.27166, 1.26591, 1.2755, 1.29666, 1.28751, 1.28736, 1.3308, 1.35496, 1.37572, 1.32643, 1.43931, 1.27002, 1.26838, 1.22559, 1.20646, 1.26777, 1.19511, 1.17117, 1.17906, 1.18021, 1.18977, 1.16788, 1.13789, 1.16446, 1.09041, 1.16072, 1.17775, 1.12478, 1.00461, 0.99981, 0.997441, 0.999144, 0.976611, 0.947661, 0.92505, 0.904744, 0.883172, 0.927864, 0.914384, 0.833302, 0.851886, 0.771889, 0.772796, 0.786883, 0.805007, 0.724338, 0.74266, 0.687685, 0.622534, 0.565697, 0.563086, 0.563387, 0.482456, 0.484342, 0.457203, 0.429847, 0.406513, 0.405008, 0.403662, 0.447856, 0.449351, 0.408038, 0.407172, 0.327696, 0.454969, 0.300027, 0.286608, 0.435971, 0.345627, 0.420283, 0.378164, 0.280213, 0.310879, 0.337582, 0.320855, 0.320755, 0.320049, 0.320755, 0.320334, 0.329297, 0.330292, 0.394518, 0.483454, 0.259218, 0.248234, 0.247791, 0.248004, 0.259306, 0.256402, 0.261051, 0.258047, 0.257835, 0.257166, 0.264281, 0.264673, 0.256901, 0.256826, 0.257327, 0.256977, 0.256629, 0.690337, 0.438912, 0.673146, 0.432951, 0.214713, 0.216015, 0.217058, 0.218649, 0.223604, 0.224727, 0.222307, 0.222101, 0.209328, 0.209598, 0.208939, 0.199037, 0.198446, 0.197789, 0.213644
0.345567, 0.345039, 0.570998, 0.375816, 0.376592, 0.376602, 0.375681, 0.374652, 0.369136, 0.369128, 0.369734, 0.36903, 0.368041, 0.367071, 0.369286, 0.36853, 0.357536, 0.358226, 0.358122, 0.360041, 0.361529, 0.35878, 0.363136, 0.365639, 0.366932, 0.367306, 0.366021, 0.365356, 0.375636, 0.377332, 0.37769, 0.378338, 0.377018, 0.375765, 0.36975, 0.368294, 0.368638, 0.366526, 0.37367, 0.372314, 0.371305, 0.370071, 0.537063, 0.380843, 0.381215, 0.380609, 0.38057, 0.378958, 0.387453, 0.388345, 0.389463, 0.391345, 0.39245, 0.391894, 0.399893, 0.40077, 0.401213, 0.400252, 0.403484, 0.403473, 0.517009, 0.42886, 0.431586, 0.43148, 0.432925, 0.576799, 0.479398, 0.47906, 0.478017, 0.561603, 0.622437, 0.654399, 0.67785, 0.835551, 0.816163, 0.773554, 0.733393, 0.760611, 0.794273, 0.770805, 0.783894, 0.796114, 0.794377, 0.817129, 0.812653, 0.859284, 0.898466, 0.926365, 0.940739, 0.928765, 0.963618, 0.96337, 1.02214, 0.993265, 1.06579, 1.06196, 1.06555, 1.04771, 1.05393, 1.06785, 1.17884, 1.16726, 1.27747, 1.1375, 1.12766, 1.12988, 1.09919, 1.15877, 1.11214, 1.14565, 1.14392, 1.24324, 1.254, 1.15304, 1.15343, 1.20245, 1.17879, 1.21621, 1.23361, 1.23677, 1.28099, 1.26031, 1.26029, 1.28837, 1.30863, 1.2957, 1.30108, 1.32913, 1.34762, 1.31018, 1.36745, 1.45916, 1.27016, 1.25155, 1.22797, 1.2225, 1.2097, 1.18424, 1.19111, 1.17058, 1.18104, 1.17152, 1.17235, 1.158, 1.13487, 1.09174, 1.07839, 1.05545, 1.12516, 1.01737, 0.990567, 0.990984, 1.00318, 1.00495, 1.0011, 0.998572, 0.948744, 0.888014, 0.88388, 0.856043, 0.851875, 0.75164, 0.771793, 0.77089, 0.770785, 0.799154, 0.71142, 0.664587, 0.609038, 0.611361, 0.562873, 0.561835, 0.559854, 0.472437, 0.485068, 0.470568, 0.438035, 0.410251, 0.403831, 0.381066, 0.444971, 0.350373, 0.35455, 0.393731, 0.394849, 0.464533, 0.46445, 0.287635, 0.449017, 0.249401, 0.248816, 0.419683, 0.314044, 0.338135, 0.321568, 0.32157, 0.320137, 0.318247, 0.318202, 0.320274, 0.619863, 0.859055, 0.888084, 0.477436, 0.477056, 0.336783, 0.27609, 0.273745, 0.261517, 0.253898, 0.257251, 0.257616, 0.25803, 0.257927, 0.257626, 0.259983, 0.259806, 0.258677, 0.257778, 0.256866, 0.331888, 0.335427, 0.438089, 0.695234, 0.212114, 0.214184, 0.215579, 0.216483, 0.21741, 0.224016, 0.224053, 0.223148, 0.221852, 0.2212, 0.220432, 0.196726, 0.196601, 0.198473, 0.212559, 0.21351
0.34616, 0.345812, 0.344897, 0.376252, 0.376536, 0.376836, 0.375917, 0.374773, 0.371226, 0.36986, 0.369178, 0.367555, 0.367142, 0.366365, 0.370269, 0.365195, 0.357344, 0.358332, 0.357943, 0.3648, 0.361621, 0.359963, 0.359216, 0.360975, 0.359623, 0.36099, 0.363042, 0.64585, 0.375639, 0.376521, 0.377633, 0.37821, 0.377143, 0.375545, 0.373846, 0.367146, 0.368024, 0.365614, 0.366374, 0.372151, 0.371118, 0.370861, 0.374641, 0.380686, 0.382222, 0.380747, 0.378939, 0.37913, 0.379198, 0.387276, 0.38855, 0.391272, 0.392853, 0.392821, 0.392031, 0.400149, 0.400966, 0.400901, 0.399544, 0.400023, 0.403086, 0.708551, 0.524958, 0.439172, 0.500645, 0.489423, 0.489258, 0.479518, 0.47915, 0.478384, 0.550053, 0.615761, 0.756173, 0.688668, 0.777131, 0.742919, 0.766505, 0.736154, 0.743405, 0.759091, 0.759707, 0.807577, 0.808335, 0.813147, 0.825124, 0.898615, 0.89364, 0.92631, 0.984147, 0.994489, 0.959531, 0.975406, 0.970986, 1.01151, 1.06451, 1.0665, 1.07422, 1.03394, 1.06026, 1.14676, 1.36346, 1.28833, 1.2719, 1.27147, 1.08856, 1.07946, 1.08024, 1.11516, 1.11117, 1.15395, 1.18431, 1.21317, 1.21334, 1.20199, 1.15306, 1.15985, 1.19228, 1.19579, 1.28549, 1.28842, 1.28756, 1.28755, 1.29711, 1.278, 1.28856, 1.29437, 1.29546, 1.30019, 1.27058, 1.3401, 1.42591, 1.24966, 1.24962, 1.24166, 1.34042, 1.24799, 1.21263, 1.21656, 1.19552, 1.19629, 1.19593, 1.19953, 1.18711, 1.16419, 1.10154, 1.08907, 1.0912, 1.06194, 1.064, 1.00552, 0.987747, 0.997628, 0.998133, 0.999956, 1.06408, 0.99177, 0.887317, 0.888065, 0.869825, 0.807808, 0.809086, 0.752592, 0.738389, 0.741807, 0.738016, 0.704293, 0.690154, 0.619397, 0.618535, 0.610713, 0.577254, 0.518038, 0.486958, 0.472992, 0.457206, 0.420757, 0.427241, 0.389374, 0.391038, 0.396566, 0.448889, 0.350478, 0.349903, 0.405982, 0.370347, 0.464466, 0.274108, 0.392117, 0.248536, 0.250405, 0.250252, 0.280965, 0.288772, 0.29014, 0.290767, 0.315604, 0.318006, 0.316961, 0.317829, 0.319171, 0.317948, 0.327089, 0.597974, 0.331062, 0.329519, 0.334073, 0.337802, 0.286498, 0.292567, 0.260757, 0.260886, 0.258788, 0.257367, 0.257363, 0.258869, 0.259195, 0.2614, 0.25801, 0.258022, 0.255549, 0.244875, 0.337538, 0.34575, 0.209496, 0.210973, 0.214028, 0.215796, 0.21683, 0.216948, 0.223485, 0.223567, 0.223816, 0.223164, 0.221469, 0.218918, 0.199835, 0.199121, 0.198147, 0.213407, 0.213526
0.345465, 0.346339, 0.346042, 0.587132, 0.376077, 0.376525, 0.376034, 0.374979, 0.372526, 0.36882, 0.368228, 0.368698, 0.362144, 0.360667, 0.363514, 0.36583, 0.364989, 0.366593, 0.367041, 0.366256, 0.364036, 0.360678, 0.361264, 0.360338, 0.360952, 0.359269, 0.364511, 0.365105, 0.37618, 0.376028, 0.376596, 0.376561, 0.375826, 0.375652, 0.375456, 0.372008, 0.367505, 0.365771, 0.364224, 0.366318, 0.366566, 0.370575, 0.375354, 0.375483, 0.382184, 0.37992, 0.37871, 0.37714, 0.380339, 0.378316, 0.385881, 0.393275, 0.392767, 0.393066, 0.3937, 0.394737, 0.394723, 0.39456, 0.400297, 0.402189, 0.403113, 0.756108, 0.511081, 0.511011, 0.501847, 0.490826, 0.492257, 0.490383, 0.533856, 0.506728, 0.643068, 0.575949, 0.618525, 0.67353, 0.676211, 0.655962, 0.717559, 0.714814, 0.748312, 0.738986, 0.750038, 0.777232, 0.812267, 0.890927, 1.07887, 1.09409, 1.0289, 0.936351, 0.953011, 0.950884, 0.949121, 1.02685, 1.02005, 1.00576, 1.07056, 1.08781, 1.07275, 1.03416, 1.04111, 1.06152, 1.21338, 1.04653, 1.04676, 1.10824, 1.09328, 1.08407, 1.07855, 1.08025, 1.11819, 1.15082, 1.14333, 1.21277, 1.19885, 1.22274, 1.15647, 1.1563, 1.16724, 1.16773, 1.20961, 1.28421, 1.27757, 1.2932, 1.28723, 1.27059, 1.28558, 1.28241, 1.28312, 1.27851, 1.27146, 1.27132, 1.27216, 1.42425, 1.27398, 1.28391, 1.30436, 1.30619, 1.35104, 1.25681, 1.19195, 1.18922, 1.19197, 1.23263, 1.19248, 1.2029, 1.1026, 1.10094, 1.08823, 1.08848, 1.07977, 1.06293, 1.06372, 0.992293, 0.998651, 0.997644, 0.990902, 0.985583, 0.913904, 0.908502, 0.904824, 0.80909, 0.809151, 0.792082, 0.772889, 0.706862, 0.708171, 0.687153, 0.625228, 0.586508, 0.586861, 0.539635, 0.518677, 0.494703, 0.470491, 0.468401, 0.46018, 0.449866, 0.439939, 0.389562, 0.397681, 0.39615, 0.371765, 0.350611, 0.386387, 0.354918, 0.35463, 0.275839, 0.274414, 0.275039, 0.237919, 0.249884, 0.307396, 0.314039, 0.279843, 0.332461, 0.318938, 0.320063, 0.317677, 0.317443, 0.317848, 0.318447, 0.318773, 0.317954, 0.317739, 0.328317, 0.327734, 0.33229, 0.329197, 0.27199, 0.271211, 0.25881, 0.258709, 0.257983, 0.255417, 0.255886, 0.257737, 0.258248, 0.258759, 0.258267, 0.257991, 0.35122, 0.34911, 0.341479, 0.207304, 0.20993, 0.211698, 0.21227, 0.216666, 0.216403, 0.217527, 0.223102, 0.224131, 0.224669, 0.221835, 0.221082, 0.219461, 0.380057, 0.196402, 0.1973, 0.21313, 0.216903
0.337602, 0.345614, 0.580041, 0.584611, 0.375796, 0.376183, 0.376082, 0.375362, 0.37385, 0.368511, 0.367716, 0.367111, 0.365453, 0.365395, 0.365473, 0.366091, 0.36452, 0.366354, 0.366415, 0.365996, 0.363078, 0.360758, 0.359704, 0.361506, 0.359683, 0.362587, 0.36727, 0.366342, 0.365982, 0.373297, 0.366585, 0.372974, 0.375221, 0.374011, 0.373588, 0.669876, 0.366218, 0.364424, 0.363745, 0.36289, 0.366213, 0.36734, 0.375585, 0.376369, 0.376031, 0.378035, 0.376761, 0.375789, 0.375447, 0.377982, 0.382829, 0.384436, 0.39102, 0.392219, 0.394827, 0.394964, 0.394499, 0.395458, 0.396068, 0.403404, 0.404321, 0.828392, 0.493125, 0.501573, 0.456814, 0.49031, 0.489856, 0.48754, 0.480909, 0.504727, 0.560589, 0.540958, 0.623742, 0.662452, 0.645265, 0.65572, 0.697718, 0.721878, 0.740893, 0.739546, 0.78145, 0.805451, 0.839185, 1.10971, 1.11635, 1.08774, 1.03337, 1.03292, 0.978008, 0.954135, 0.956552, 0.959643, 0.9929, 1.08564, 1.00269, 1.08053, 1.00625, 1.08185, 1.0469, 1.03812, 1.03736, 1.04455, 1.05837, 1.13775, 1.08111, 1.08761, 1.08428, 1.12002, 1.12974, 1.19262, 1.19355, 1.45456, 1.20643, 1.1633, 1.17075, 1.15809, 1.15028, 1.15699, 1.18361, 1.27877, 1.25648, 1.25813, 1.26894, 1.26892, 1.33678, 1.2783, 1.27888, 1.27488, 1.27478, 1.27224, 1.27192, 1.33664, 1.28826, 1.22313, 1.2222, 1.24608, 1.22299, 1.22404, 1.19332, 1.22261, 1.17991, 1.30438, 1.26504, 1.17666, 1.11581, 1.12535, 1.08518, 1.07839, 1.1043, 1.04268, 1.07225, 0.991252, 1.00554, 1.06825, 0.994432, 0.92289, 0.987934, 0.904997, 0.905493, 0.773928, 0.775005, 0.773858, 0.774066, 0.725221, 0.691105, 0.686653, 0.674687, 0.677373, 0.566911, 0.52902, 0.525718, 0.491315, 0.451712, 0.479339, 0.428607, 0.417692, 0.455241, 0.387337, 0.357996, 0.366493, 0.348741, 0.347707, 0.377855, 0.355269, 0.276591, 0.27629, 0.276256, 0.273622, 0.339035, 0.234569, 0.306381, 0.314515, 0.314429, 0.334011, 0.334016, 0.315113, 0.3172, 0.317555, 0.318346, 0.317738, 0.317632, 0.317864, 0.318324, 0.316844, 0.327513, 0.325489, 0.888626, 0.270106, 0.271027, 0.269651, 0.256981, 0.257753, 0.253401, 0.245421, 0.256551, 0.257977, 0.257886, 0.258132, 0.257996, 0.348497, 0.345531, 0.67645, 0.210082, 0.210623, 0.212138, 0.212239, 0.214045, 0.215313, 0.229668, 0.230584, 0.223878, 0.224652, 0.224259, 0.220895, 0.218805, 0.379773, 0.344572, 0.228367, 0.213227, 0.213909
0.336223, 0.347776, 0.346332, 0.34604, 0.375576, 0.376203, 0.376503, 0.375619, 0.374177, 0.367688, 0.36778, 0.366609, 0.366915, 0.366289, 0.365013, 0.363708, 0.365628, 0.365521, 0.365623, 0.363468, 0.362146, 0.358549, 0.358943, 0.359365, 0.360286, 0.366308, 0.367732, 0.36589, 0.364161, 0.367113, 0.367795, 0.366478, 0.366301, 0.373025, 0.37238, 0.370591, 0.369134, 0.368345, 0.363637, 0.363571, 0.36269, 0.367685, 0.366688, 0.375916, 0.375598, 0.375776, 0.376043, 0.376025, 0.375171, 0.374613, 0.379201, 0.3794, 0.381869, 0.393375, 0.394801, 0.39449, 0.396475, 0.396673, 0.396787, 0.397853, 0.759966, 0.450173, 0.483488, 0.511885, 0.560594, 0.568546, 0.488757, 0.494961, 0.500713, 0.500338, 0.57782, 0.552527, 0.594257, 0.633038, 0.632022, 0.693385, 0.722659, 0.721752, 0.724195, 0.717618, 0.776025, 0.77692, 0.987647, 1.29447, 1.48832, 1.03815, 1.0387, 0.928716, 0.95099, 0.950405, 0.95388, 0.979615, 0.981192, 1.01279, 1.00846, 1.0076, 1.08048, 1.06611, 1.04954, 1.04114, 1.04219, 1.03044, 1.03578, 1.03097, 1.06671, 1.07122, 1.08372, 1.11995, 1.13731, 1.21242, 1.16393, 1.20525, 1.20489, 1.24676, 1.22575, 1.22053, 1.16014, 1.14561, 1.14317, 1.18133, 1.27161, 1.32663, 1.26684, 1.26825, 1.29626, 1.2769, 1.27718, 1.2747, 1.27605, 1.27151, 1.27206, 1.27324, 1.34268, 1.22106, 1.22126, 1.25657, 1.22994, 1.24332, 1.17374, 1.25657, 1.30565, 1.3049, 1.22712, 1.15425, 1.14219, 1.08408, 1.08515, 1.10713, 1.11345, 1.07403, 1.01172, 1.01109, 1.01127, 1.00134, 1.05022, 0.923111, 0.906357, 0.936736, 0.89021, 0.777229, 0.773673, 0.773317, 0.719372, 0.710647, 0.681582, 0.689775, 0.672323, 0.670212, 0.576702, 0.531005, 0.538395, 0.486468, 0.469938, 0.453592, 0.444853, 0.438613, 0.413623, 0.401113, 0.359942, 0.360094, 0.362066, 0.386648, 0.35859, 0.299203, 0.297556, 0.277159, 0.384109, 0.385629, 0.234548, 0.234535, 0.314826, 0.264443, 0.263674, 0.295705, 0.286686, 0.286108, 0.31628, 0.331077, 0.3174, 0.316912, 0.316882, 0.317231, 0.316435, 0.316417, 0.316394, 0.420233, 0.325678, 0.293374, 0.26902, 0.270219, 0.255174, 0.25496, 0.239482, 0.240066, 0.240321, 0.25728, 0.258305, 0.258345, 0.346602, 0.366344, 0.359821, 0.211084, 0.211906, 0.212771, 0.212238, 0.21218, 0.210888, 0.22852, 0.230791, 0.231707, 0.231859, 0.22358, 0.223723, 0.222988, 0.411553, 0.336174, 0.342271, 0.300649, 0.214651, 0.214178
0.345197, 0.351035, 0.349879, 0.354459, 0.354913, 0.376118, 0.376787, 0.37609, 0.374677, 0.36931, 0.367726, 0.367096, 0.364416, 0.365839, 0.363046, 0.359084, 0.365589, 0.366613, 0.365597, 0.361, 0.359821, 0.358679, 0.358206, 0.358084, 0.358123, 0.359763, 0.365973, 0.363329, 0.362949, 0.363377, 0.368593, 0.366873, 0.36779, 0.371244, 0.371807, 0.37197, 0.370907, 0.370875, 0.371957, 0.372353, 0.371844, 0.370614, 0.369657, 0.369341, 0.375147, 0.376131, 0.375257, 0.376019, 0.37621, 0.375732, 0.379706, 0.379661, 0.380425, 0.384675, 0.386505, 0.397179, 0.396841, 0.397827, 0.396453, 0.396537, 0.397581, 0.396769, 0.465949, 0.563523, 0.562927, 0.508068, 0.687706, 0.68814, 0.557755, 0.536501, 0.580619, 0.569706, 0.630355, 0.629981, 0.623264, 0.642449, 0.651772, 0.715981, 0.716374, 0.775218, 0.7766, 0.804962, 0.926135, 0.925659, 0.919592, 0.91809, 0.921162, 0.920416, 0.921484, 0.963624, 0.945599, 0.997124, 1.05476, 1.00855, 1.00325, 1.00757, 1.00775, 1.03929, 1.03414, 1.0341, 1.03513, 1.029, 1.0174, 1.02928, 1.04792, 1.1112, 1.11214, 1.11003, 1.13558, 1.13467, 1.19528, 1.19305, 1.19825, 1.19809, 1.21997, 1.22285, 1.1291, 1.12922, 1.18035, 1.16821, 1.18828, 1.2736, 1.38142, 1.30624, 1.31456, 1.27611, 1.27669, 1.27858, 1.27712, 1.27727, 1.27112, 1.42369, 1.33108, 1.27155, 1.27527, 1.22845, 1.18429, 1.23552, 1.1576, 1.24253, 1.25531, 1.31159, 1.24014, 1.14624, 1.13097, 1.08723, 1.0916, 1.09202, 1.11533, 1.08445, 1.02139, 1.01222, 1.01384, 0.949401, 0.909132, 0.90593, 0.907915, 0.908898, 0.898276, 0.777048, 0.800802, 0.738725, 0.739629, 0.742398, 0.681269, 0.680077, 0.67276, 0.668391, 0.591271, 0.531476, 0.623048, 0.51096, 0.490426, 0.489987, 0.451916, 0.452395, 0.405141, 0.404111, 0.36031, 0.362957, 0.351706, 0.363878, 0.331616, 0.348239, 0.300668, 0.292769, 0.283107, 0.241376, 0.241669, 0.242836, 0.243511, 0.313126, 0.3148, 0.341333, 0.314985, 0.282687, 0.310037, 0.313993, 0.315293, 0.316842, 0.316683, 0.316239, 0.316983, 0.316965, 0.316969, 0.889864, 0.897712, 0.735858, 0.316106, 0.411119, 0.342524, 0.238236, 0.240056, 0.240999, 0.25123, 0.251235, 0.249451, 0.248989, 0.248819, 0.214616, 0.216543, 0.213362, 0.214226, 0.214276, 0.213854, 0.211296, 0.898337, 0.229219, 0.231366, 0.232178, 0.232463, 0.237105, 0.237768, 0.237984, 0.238742, 0.237952, 0.341817, 0.341706, 0.212254, 0.212854
0.342671, 0.342532, 0.353001, 0.355315, 0.353435, 0.376309, 0.376782, 0.376129, 0.374716, 0.371043, 0.367511, 0.366863, 0.365559, 0.365442, 0.362859, 0.361213, 0.357459, 0.367568, 0.36689, 0.36192, 0.360137, 0.35959, 0.357971, 0.356503, 0.358589, 0.356991, 0.36178, 0.363084, 0.362227, 0.363278, 0.362691, 0.368532, 0.367639, 0.367944, 0.372323, 0.371439, 0.370904, 0.372808, 0.373176, 0.372682, 0.37232, 0.372209, 0.372071, 0.370357, 0.375476, 0.375469, 0.374503, 0.372932, 0.372885, 0.376333, 0.375806, 0.37774, 0.378102, 0.385185, 0.38582, 0.396487, 0.397117, 0.396055, 0.393324, 0.392088, 0.398943, 0.397901, 0.397472, 0.46651, 0.549944, 0.563751, 0.506963, 0.689012, 0.507237, 0.560247, 0.634415, 0.580927, 0.629642, 0.627719, 0.627736, 0.627667, 0.634621, 0.717448, 0.715466, 0.721786, 0.82585, 0.964284, 0.92856, 0.928348, 0.963946, 0.917985, 0.917662, 1.02678, 0.946403, 0.956038, 0.986331, 0.951383, 1.02096, 1.03911, 1.00734, 1.00789, 0.991696, 1.01872, 1.02621, 1.02388, 1.02776, 1.03701, 1.018, 1.01922, 1.04572, 1.07571, 1.10822, 1.10832, 1.17368, 1.19082, 1.18723, 1.16118, 1.18725, 1.19234, 1.18007, 1.14364, 1.13065, 1.12914, 1.14943, 1.1709, 1.17821, 1.21142, 1.26086, 1.36476, 1.34114, 1.33071, 1.3964, 1.28044, 1.27946, 1.27916, 1.38618, 1.40487, 1.35328, 1.37496, 1.25836, 1.17893, 1.25165, 1.18456, 1.15443, 1.22933, 1.16236, 1.32628, 1.24649, 1.17562, 1.14567, 1.1325, 1.13259, 1.06431, 1.06301, 1.06523, 1.02242, 1.05471, 1.03704, 1.03044, 0.927278, 0.905123, 0.905222, 0.904674, 0.866689, 0.875032, 0.881371, 0.741612, 0.741559, 0.741466, 0.663654, 0.645076, 0.610503, 0.611165, 0.591431, 0.509373, 0.52005, 0.505237, 0.510275, 0.490494, 0.438746, 0.405343, 0.406832, 0.382608, 0.353399, 0.352872, 0.316946, 0.380137, 0.310821, 0.310126, 0.301491, 0.292875, 0.267168, 0.267541, 0.24313, 0.243092, 0.245166, 0.341084, 0.341354, 0.343127, 0.301949, 0.300202, 0.312179, 0.311549, 0.336085, 0.335676, 0.315049, 0.315844, 0.317615, 0.316765, 0.31696, 0.316927, 0.73555, 0.736101, 0.735874, 0.321778, 0.320819, 0.380048, 0.239082, 0.239779, 0.251465, 0.251777, 0.249716, 0.24951, 0.249328, 0.216959, 0.217933, 0.21762, 0.214641, 0.217165, 0.218276, 0.218419, 0.389322, 0.379872, 0.704737, 0.234559, 0.23719, 0.238512, 0.238778, 0.239808, 0.240346, 0.240796, 0.240825, 0.300775, 0.211466, 0.213287
0.343342, 0.344051, 0.351358, 0.350242, 1.13375, 0.375729, 0.376213, 0.376254, 0.375848, 0.374178, 0.368872, 0.366797, 0.366521, 0.365348, 0.362197, 0.359237, 0.363853, 0.361542, 0.362541, 0.36133, 0.360033, 0.358675, 0.358041, 0.356958, 0.357684, 0.358461, 0.536915, 0.36173, 0.364264, 0.364255, 0.363723, 0.362897, 0.365586, 0.368176, 0.371081, 0.371319, 0.37378, 0.373256, 0.372891, 0.371989, 0.369871, 0.372916, 0.373231, 0.370822, 0.368924, 0.375145, 0.37393, 0.374471, 0.373549, 0.376291, 0.37677, 0.373931, 0.376077, 0.383334, 0.385421, 0.384411, 0.396176, 0.393254, 0.392435, 0.393078, 0.398328, 0.39653, 0.395402, 0.507181, 0.565141, 0.563531, 0.507784, 0.508325, 0.50711, 0.708677, 0.708786, 0.708278, 0.743216, 0.668418, 0.628323, 0.627841, 0.626669, 0.647157, 0.707567, 0.6879, 0.839124, 1.01992, 0.977628, 0.917562, 0.998099, 0.852109, 0.785105, 0.874777, 0.816913, 0.855357, 0.930663, 0.937029, 0.952702, 0.966592, 1.07081, 1.03975, 0.990618, 0.991848, 0.987604, 0.986685, 1.01865, 1.03668, 1.01705, 1.01833, 1.04065, 1.04554, 1.0615, 1.23327, 1.2192, 1.19941, 1.20987, 1.20301, 1.18276, 1.19297, 1.14845, 1.15481, 1.12342, 1.15416, 1.13997, 1.1705, 1.27377, 1.19862, 1.22596, 1.47769, 1.47932, 1.42106, 1.32084, 1.33086, 1.3021, 1.34806, 1.37751, 1.49318, 1.31919, 1.23639, 1.24433, 1.20127, 1.17749, 1.12904, 1.14784, 1.12594, 1.12766, 1.13043, 1.09819, 1.09774, 1.09232, 1.12961, 1.12916, 1.05786, 1.0125, 1.00223, 0.994917, 0.9766, 1.04383, 0.966133, 0.96746, 0.960514, 0.908477, 0.897601, 0.86599, 0.866035, 0.770655, 0.752686, 0.742974, 0.700831, 0.698188, 0.650458, 0.61492, 0.523496, 0.523278, 0.51194, 0.514218, 0.508293, 0.504307, 0.450051, 0.439598, 0.406693, 0.408091, 0.408097, 0.35871, 0.361654, 0.345868, 0.320331, 0.310969, 0.311393, 0.291382, 0.291093, 0.290981, 0.268373, 0.242765, 0.242621, 0.244597, 0.31166, 0.311275, 0.301091, 0.301655, 0.301317, 0.314787, 0.313847, 0.324749, 0.312598, 0.313479, 0.315077, 0.314895, 0.317504, 0.316714, 0.315611, 0.310326, 0.735153, 0.312517, 0.590972, 0.321106, 0.320499, 0.321894, 0.363556, 0.248233, 0.248867, 0.251208, 0.251631, 0.34599, 0.216751, 0.21875, 0.219694, 0.218075, 0.217749, 0.219387, 0.219237, 0.218, 0.390601, 0.390831, 0.23719, 0.23837, 0.240539, 0.241395, 0.240887, 0.241364, 0.242603, 0.242728, 0.242399, 0.388602, 0.211879
0.343699, 0.343111, 0.342429, 0.350162, 0.349612, 0.521275, 0.376239, 0.377123, 0.377192, 0.37686, 0.364402, 0.365499, 0.364463, 0.363549, 0.360838, 0.360903, 0.359547, 0.362336, 0.364855, 0.359947, 0.360727, 0.359335, 0.357585, 0.355658, 0.355025, 0.355005, 0.353792, 0.353433, 0.363663, 0.363792, 0.363552, 0.364008, 0.363282, 0.368368, 0.366482, 0.366024, 0.375794, 0.376436, 0.373384, 0.37193, 0.369815, 0.367343, 0.372518, 0.372296, 0.369382, 0.367683, 0.372606, 0.373131, 0.373846, 0.375139, 0.37501, 0.373917, 0.375323, 0.373034, 0.372583, 0.383559, 0.392164, 0.391806, 0.390897, 0.519552, 0.388138, 0.473645, 0.39501, 0.616002, 0.61746, 0.61832, 0.611163, 0.514706, 0.547245, 0.709353, 0.709442, 0.708978, 0.739855, 0.766163, 0.626527, 0.629089, 0.604012, 0.613391, 0.631747, 0.665628, 0.8105, 0.998456, 0.954319, 0.960342, 0.843792, 0.78338, 0.785479, 0.874442, 0.81897, 0.850316, 0.918983, 0.988322, 0.978567, 0.956886, 0.978067, 0.983878, 1.0321, 1.02156, 0.987255, 0.986184, 1.02696, 1.01219, 1.01921, 1.01884, 1.03909, 1.08833, 1.15088, 1.10208, 1.10491, 1.15463, 1.12266, 1.13678, 1.21, 1.12237, 1.14706, 1.14717, 1.12501, 1.12581, 1.15469, 1.19078, 1.18941, 1.19659, 1.24429, 1.4867, 1.47329, 1.47324, 1.45165, 1.30856, 1.37413, 1.36222, 1.55298, 1.4991, 1.34734, 1.29246, 1.23032, 1.36494, 1.19999, 1.13727, 1.12434, 1.12462, 1.12619, 1.11116, 1.10574, 1.10106, 1.09935, 1.05255, 1.03507, 1.02502, 1.01813, 0.991014, 0.94646, 0.934018, 0.893925, 0.901392, 0.879753, 0.883963, 0.884455, 0.895188, 0.897804, 0.889692, 0.843166, 0.776276, 0.767546, 0.656776, 0.690867, 0.697769, 0.604106, 0.523329, 0.521726, 0.510121, 0.48361, 0.484678, 0.447126, 0.45669, 0.414159, 0.412561, 0.413026, 0.408182, 0.349601, 0.339923, 0.346277, 0.345805, 0.384864, 0.311686, 0.294303, 0.292415, 0.279377, 0.269456, 0.241925, 0.242302, 0.310742, 0.346431, 0.346743, 0.286768, 0.300391, 0.315331, 0.316333, 0.317261, 0.324967, 0.31431, 0.314174, 0.314768, 0.316356, 0.316247, 0.316757, 0.31574, 0.309722, 0.31073, 0.434109, 0.4347, 0.320204, 0.319078, 0.269102, 0.36137, 0.362303, 0.248682, 0.249233, 0.248644, 0.347423, 0.229663, 0.344505, 0.217886, 0.223852, 0.224595, 0.220748, 0.219168, 0.335855, 0.320779, 0.337755, 0.23794, 0.239501, 0.240963, 0.242015, 0.242777, 0.242291, 0.243698, 0.243547, 0.243011, 0.241599, 0.234576
0.342501, 0.34224, 0.348794, 0.349437, 0.354971, 0.356024, 0.521118, 0.378786, 0.378742, 0.378444, 0.644487, 0.365837, 0.365084, 0.364109, 0.361757, 0.360926, 0.358893, 0.362062, 0.362792, 0.360217, 0.360066, 0.357875, 0.355819, 0.355376, 0.355631, 0.355004, 0.354674, 0.353545, 0.352594, 0.364244, 0.363348, 0.363152, 0.363206, 0.365117, 0.365545, 0.364673, 0.376866, 0.376997, 0.375815, 0.373572, 0.371556, 0.373584, 0.373037, 0.369459, 0.369204, 0.368541, 0.368403, 0.368567, 0.366956, 0.370762, 0.369513, 0.369344, 0.376516, 0.373562, 0.372718, 0.382417, 0.390017, 0.391706, 0.392529, 0.391435, 0.389283, 0.389175, 0.389566, 0.616576, 0.615403, 0.563555, 0.562742, 0.516771, 0.521675, 0.521749, 0.521647, 0.521061, 0.55007, 0.587391, 0.598048, 0.543075, 0.530235, 0.570806, 0.597823, 0.61881, 0.642151, 0.850889, 0.803032, 0.826617, 0.801641, 0.770138, 0.76998, 0.780891, 0.907247, 0.850401, 0.946463, 0.911762, 0.977256, 0.956198, 0.964511, 0.95825, 1.00413, 1.00248, 1.00023, 0.991233, 0.99249, 1.01461, 1.01325, 1.01298, 1.03007, 1.13601, 1.0612, 1.14155, 1.14169, 1.11018, 1.17753, 1.08882, 1.09364, 1.11681, 1.11577, 1.10723, 1.10674, 1.1309, 1.17685, 1.15737, 1.18977, 1.19872, 1.23263, 1.3193, 1.28883, 1.47892, 1.33054, 1.33719, 1.35727, 1.45168, 1.75861, 1.50358, 1.47483, 1.45316, 1.36031, 1.2292, 1.16968, 1.19641, 1.15987, 1.12917, 1.12521, 1.1252, 1.11546, 1.10867, 1.10637, 1.02649, 1.02584, 1.03762, 0.979497, 0.936262, 0.99858, 0.919478, 0.887715, 0.909935, 0.880909, 0.888789, 0.853639, 0.894688, 0.892754, 0.874005, 0.833042, 0.796127, 0.766007, 0.684271, 0.638591, 0.631577, 0.624593, 0.567658, 0.548731, 0.497656, 0.487622, 0.487815, 0.474398, 0.435794, 0.442541, 0.460426, 0.409329, 0.44941, 0.351917, 0.352027, 0.345376, 0.350888, 0.308888, 0.310028, 0.359833, 0.280805, 0.279537, 0.293256, 0.291335, 0.288176, 0.299326, 0.300047, 0.300135, 0.307037, 0.383849, 0.315262, 0.317295, 0.319364, 0.324224, 0.31394, 0.314934, 0.315261, 0.31727, 0.316474, 0.315858, 0.316312, 0.310849, 0.309749, 0.435626, 0.434597, 0.434749, 0.313675, 0.272196, 0.867068, 0.249063, 0.250817, 0.250656, 0.239397, 0.226756, 0.228812, 0.22935, 0.226897, 0.225365, 0.226342, 0.226188, 0.225153, 0.297114, 0.321839, 0.235756, 0.237637, 0.239753, 0.240847, 0.242305, 0.2429, 0.242696, 0.242915, 0.243299, 0.242792, 0.235426, 0.23446
0.342803, 0.341356, 0.340887, 0.354847, 0.355513, 0.354392, 0.374285, 0.379524, 0.380671, 0.380326, 0.379348, 0.365534, 0.365347, 0.364145, 0.361878, 0.361595, 0.360298, 0.357533, 0.361764, 0.362085, 0.360201, 0.35948, 0.357631, 0.358391, 0.357641, 0.355509, 0.355031, 0.354464, 0.353333, 0.363818, 0.364131, 0.362385, 0.361628, 0.361573, 0.365033, 0.363691, 0.364737, 0.3778, 0.377319, 0.37593, 0.373969, 0.37426, 0.373044, 0.370681, 0.370294, 0.369188, 0.367953, 0.3683, 0.367733, 0.369004, 0.371387, 0.370587, 0.375285, 0.534982, 0.38482, 0.384193, 0.382979, 0.391062, 0.392106, 0.391356, 0.390962, 0.389892, 0.390172, 0.390712, 0.811271, 0.612981, 0.528265, 0.556695, 0.522965, 0.522552, 0.521922, 0.501069, 0.501052, 0.502611, 0.520908, 0.527257, 0.517106, 0.539541, 0.589693, 0.583305, 0.623111, 0.904227, 0.804383, 0.804313, 0.804597, 0.770145, 0.77847, 0.79088, 0.909339, 1.00431, 0.885321, 0.918056, 0.979234, 0.980162, 0.95965, 0.95956, 1.01641, 0.998374, 1.00262, 0.98946, 0.981341, 0.980319, 1.01261, 1.0368, 1.03546, 1.05199, 1.05127, 1.102, 1.10857, 1.10918, 1.0717, 1.12423, 1.12487, 1.12326, 1.19285, 1.09721, 1.12328, 1.13278, 1.20184, 1.19114, 1.19163, 1.25422, 1.30994, 1.37221, 1.28453, 1.26097, 1.3231, 1.24678, 1.30642, 1.33446, 1.3987, 1.44505, 1.45481, 1.45366, 1.25956, 1.38895, 1.15063, 1.11545, 1.11521, 1.13884, 1.14869, 1.10533, 1.12639, 1.12548, 1.02935, 1.01782, 1.01277, 0.991127, 0.962357, 0.963528, 0.93976, 0.946179, 0.873514, 0.85047, 0.83996, 0.836773, 0.814213, 0.846031, 0.921306, 0.926348, 0.840098, 0.768505, 0.732119, 0.649886, 0.632326, 0.632012, 0.565501, 0.565993, 0.506735, 0.483345, 0.490779, 0.48802, 0.475115, 0.480752, 0.412787, 0.477252, 0.359723, 0.352054, 0.353074, 0.352883, 0.35836, 0.313492, 0.312384, 0.37679, 0.298128, 0.293185, 0.29488, 0.294393, 0.293709, 0.29968, 0.299801, 0.339196, 0.339793, 0.340564, 0.319498, 0.317067, 0.31865, 0.31861, 0.327392, 0.313781, 0.31548, 0.316787, 0.315068, 0.31655, 0.316578, 0.315192, 0.311425, 0.31049, 0.309897, 0.436149, 0.308945, 0.515275, 0.31185, 0.343458, 0.249746, 0.25142, 0.251302, 0.243981, 0.229309, 0.230452, 0.230952, 0.230567, 0.225743, 0.226817, 0.226907, 0.226136, 0.29803, 0.611204, 0.612453, 0.369497, 0.238594, 0.240763, 0.241482, 0.24138, 0.241666, 0.241284, 0.241611, 0.302534, 0.215893, 0.216476
0.34008, 0.344129, 0.344608, 0.359651, 0.358745, 0.359409, 0.423447, 0.372967, 0.382234, 0.381598, 0.381119, 0.794208, 0.360929, 0.36044, 0.361009, 0.358356, 0.358249, 0.357928, 0.356334, 0.361354, 0.360694, 0.360185, 0.359165, 0.359199, 0.358162, 0.355636, 0.355497, 0.356321, 0.355142, 0.355774, 0.363365, 0.364565, 0.362073, 0.359506, 0.36263, 0.361779, 0.365616, 0.365198, 0.380004, 0.378978, 0.374802, 0.373531, 0.372695, 0.369917, 0.369348, 0.36668, 0.36774, 0.368707, 0.367961, 0.366036, 0.369695, 0.368767, 0.370406, 0.56796, 0.384923, 0.385667, 0.384102, 0.384305, 0.389321, 0.389535, 0.389802, 0.390006, 0.391181, 0.469487, 0.807761, 0.455517, 0.558918, 0.556842, 0.521843, 0.520283, 0.516826, 0.516007, 0.500863, 0.503643, 0.501634, 0.497071, 0.496527, 0.53251, 0.557031, 0.608529, 0.61729, 0.618063, 0.778342, 0.773705, 0.756642, 0.831875, 0.795141, 0.792276, 0.80845, 1.00328, 0.922791, 0.920344, 0.932437, 0.937875, 0.941074, 0.959416, 0.983522, 1.00773, 1.00238, 1.1217, 0.973946, 0.980634, 1.06329, 1.0649, 1.0569, 1.04028, 1.07086, 1.10035, 1.11408, 1.08011, 1.05406, 1.06098, 1.07674, 1.09532, 1.15999, 1.13721, 1.10584, 1.10898, 1.13965, 1.19495, 1.22933, 1.26112, 1.31641, 1.36313, 1.30656, 1.28434, 1.28319, 1.31936, 1.32613, 1.27892, 1.30272, 1.44582, 1.44722, 1.26336, 1.42866, 1.19088, 1.12488, 1.11218, 1.11091, 1.08128, 1.11868, 1.1744, 1.16744, 1.08691, 1.0921, 1.00119, 1.01558, 0.966434, 0.9891, 0.929291, 0.890948, 0.879873, 0.887085, 0.833142, 0.815083, 0.81174, 0.814502, 0.818162, 0.8448, 0.858194, 0.833266, 0.745094, 0.733723, 0.640306, 0.653547, 0.586379, 0.566818, 0.54692, 0.534205, 0.475608, 0.504417, 0.487347, 0.445084, 0.447559, 0.411651, 0.475342, 0.361267, 0.358637, 0.406678, 0.405248, 0.318816, 0.314083, 0.310445, 0.296184, 0.296816, 0.29591, 0.295502, 0.295313, 0.297783, 0.300702, 0.301016, 0.312251, 0.340983, 0.31985, 0.320293, 0.320622, 0.32477, 0.328096, 0.32901, 0.330532, 0.314765, 0.315065, 0.314943, 0.315794, 0.315605, 0.31105, 0.310185, 0.309818, 0.309132, 0.441015, 0.441334, 0.268615, 0.268913, 0.381562, 0.249445, 0.250512, 0.252118, 0.2518, 0.230039, 0.231533, 0.230572, 0.230314, 0.225341, 0.226214, 0.2265, 0.225146, 0.418788, 0.611877, 0.708013, 0.331756, 0.458453, 0.238225, 0.239867, 0.239648, 0.239208, 0.410641, 0.23498, 0.215667, 0.216826, 0.216792
0.340909, 0.339407, 0.56621, 0.361528, 0.36085, 0.359977, 0.359332, 0.940386, 0.382746, 0.383074, 0.382431, 0.735976, 0.427075, 0.359406, 0.359718, 0.357196, 0.355601, 0.355191, 0.355691, 0.35921, 0.360782, 0.360538, 0.358994, 0.358242, 0.358223, 0.357597, 0.355193, 0.356105, 0.356226, 0.35647, 0.357541, 0.363919, 0.361369, 0.360204, 0.359868, 0.360328, 0.362938, 0.3794, 0.379719, 0.379111, 0.378123, 0.78201, 0.372255, 0.369759, 0.368549, 0.368322, 0.367216, 0.366116, 0.367043, 0.367293, 0.366964, 0.36716, 0.367242, 0.381013, 0.38534, 0.385998, 0.38577, 0.384508, 0.386839, 0.387354, 0.518024, 0.520311, 0.511806, 1.06066, 0.398653, 0.403594, 0.455782, 0.557259, 0.557266, 0.517184, 0.517227, 0.508375, 0.501297, 0.500659, 0.501398, 0.503985, 0.498134, 0.520628, 0.576358, 0.559754, 0.564505, 0.604537, 0.620363, 0.754133, 0.752795, 0.794404, 0.793462, 0.838232, 0.807445, 0.891653, 0.883625, 0.883596, 0.916812, 0.983216, 0.981206, 0.970796, 1.01135, 1.00833, 1.00847, 0.976501, 0.976304, 0.972068, 1.01816, 0.977526, 0.993277, 1.00073, 1.06045, 1.09722, 1.03914, 1.04246, 1.1372, 1.02198, 1.05751, 1.06058, 1.08744, 1.09897, 1.09942, 1.11898, 1.1376, 1.16841, 1.29738, 1.28851, 1.29903, 1.23274, 1.30956, 1.23127, 1.26041, 1.25877, 1.31404, 1.25025, 1.23258, 1.20103, 1.21218, 1.24395, 1.32789, 1.18847, 1.12936, 1.14013, 1.14749, 1.08671, 1.09224, 1.17707, 1.16667, 1.06817, 1.0604, 1.04592, 0.998217, 1.01158, 0.93653, 0.934538, 0.897925, 0.882062, 0.865645, 0.836386, 0.836573, 0.842498, 0.78997, 0.828754, 0.95436, 0.954844, 0.810858, 0.830074, 0.639604, 0.640169, 0.53884, 0.539308, 0.53965, 0.548976, 0.531544, 0.49596, 0.471566, 0.475774, 0.469447, 0.455739, 0.46569, 0.440558, 0.359174, 0.358767, 0.334204, 0.408501, 0.313576, 0.366644, 0.306496, 0.295811, 0.295829, 0.297, 0.295758, 0.294626, 0.294021, 0.301427, 0.300666, 0.306665, 0.319806, 0.320655, 0.321231, 0.321697, 0.324878, 0.328488, 0.330498, 0.332747, 0.331913, 0.314749, 0.315224, 0.316212, 0.317345, 0.312658, 0.311797, 0.309862, 0.306907, 0.303703, 0.442205, 0.27016, 0.270864, 0.270044, 0.317573, 0.250326, 0.240801, 0.241107, 0.230114, 0.230449, 0.231352, 0.224574, 0.224678, 0.224752, 0.224402, 0.214271, 0.442639, 0.611757, 0.70747, 0.708892, 0.707698, 0.697299, 0.393919, 0.651118, 0.651639, 0.410289, 0.635007, 0.216272, 0.216979, 0.214322
0.341362, 0.340561, 0.342015, 0.361001, 0.360748, 0.360551, 0.359502, 0.359135, 0.383544, 0.384574, 0.384029, 0.383353, 0.427885, 0.362899, 0.362716, 0.356978, 0.355868, 0.356674, 0.35657, 0.357369, 0.360335, 0.36078, 0.358448, 0.357954, 0.357728, 0.357229, 0.35712, 0.353798, 0.35482, 0.358122, 0.357275, 0.359694, 0.358988, 0.360205, 0.360515, 0.359091, 0.361683, 0.361648, 0.379003, 0.377836, 0.780481, 0.653031, 0.369207, 0.368849, 0.368759, 0.368915, 0.367255, 0.36667, 0.366449, 0.366913, 0.367421, 0.368427, 0.369801, 0.379017, 0.384191, 0.38406, 0.385858, 0.385017, 0.38702, 0.386572, 0.386232, 0.741716, 0.469376, 0.482993, 0.484036, 0.398013, 0.598403, 0.562349, 0.557152, 0.51643, 0.510057, 0.510195, 0.500072, 0.500531, 0.490399, 0.503967, 0.50317, 0.502099, 0.66947, 0.547862, 0.564715, 0.612017, 0.644099, 0.662378, 0.735959, 0.799239, 0.702548, 0.753241, 0.794388, 0.891649, 0.887125, 0.886843, 0.912198, 0.930006, 0.946019, 0.957154, 0.959687, 0.998495, 1.0077, 0.98526, 1.02516, 0.973318, 0.946834, 0.958268, 0.997329, 1.02315, 1.05765, 1.09565, 1.03416, 1.03393, 1.01546, 1.00902, 1.01987, 1.02532, 1.06533, 1.0882, 1.11395, 1.12341, 1.12545, 1.27801, 1.28096, 1.23594, 1.26278, 1.21078, 1.28154, 1.24521, 1.23299, 1.2915, 1.30167, 1.17385, 1.18156, 1.24355, 1.1996, 1.19634, 1.34484, 1.21939, 1.15108, 1.08106, 1.10606, 1.05481, 1.04783, 1.20224, 1.18193, 1.03678, 1.01219, 0.970857, 0.980734, 0.943774, 1.05987, 1.06039, 0.953912, 0.891045, 0.853865, 0.84193, 0.836825, 0.840852, 0.743689, 0.757761, 0.725344, 0.80622, 0.759889, 0.819438, 0.792074, 0.660322, 0.633144, 0.62545, 0.625587, 0.457275, 0.462453, 0.47407, 0.438689, 0.458808, 0.462016, 0.421327, 0.462926, 0.441824, 0.342366, 0.340612, 0.390851, 0.314322, 0.409836, 0.367008, 0.307787, 0.30779, 0.296049, 0.296675, 0.306603, 0.30755, 0.311634, 0.445362, 0.301095, 0.320469, 0.32021, 0.320406, 0.320023, 0.323573, 0.324836, 0.318735, 0.33082, 0.331375, 0.330643, 0.317073, 0.317095, 0.317496, 0.316473, 0.310819, 0.310612, 0.310017, 0.303681, 0.366918, 0.269232, 0.270538, 0.270492, 0.383811, 0.262685, 0.242411, 0.242395, 0.242015, 0.241824, 0.241631, 0.225664, 0.227352, 0.225658, 0.22421, 0.216278, 0.214856, 0.214848, 0.201673, 0.597982, 0.707578, 0.707853, 0.380971, 0.340905, 0.341586, 0.689248, 0.255194, 0.408505, 0.214385, 0.214612, 0.215164
0.341363, 0.340073, 0.338794, 0.360831, 0.36129, 0.361466, 0.360112, 0.358843, 0.380141, 0.385837, 0.385803, 0.384593, 0.563313, 0.363897, 0.362666, 0.361631, 0.356605, 0.357055, 0.357437, 0.356398, 0.356217, 0.358619, 0.359319, 0.357902, 0.358278, 0.357351, 0.355941, 0.354327, 0.353658, 0.350941, 0.356793, 0.357941, 0.357914, 0.358091, 0.346393, 0.359551, 0.370021, 0.371116, 0.371138, 0.37099, 0.370528, 0.369567, 0.369582, 0.369185, 0.369294, 0.369159, 0.366781, 0.367099, 0.367214, 0.367058, 0.365981, 0.363894, 0.363607, 0.364878, 0.378986, 0.384095, 0.38528, 0.385143, 0.385605, 0.38737, 0.516661, 0.515156, 0.518992, 0.521403, 0.39795, 0.397154, 0.457374, 0.456987, 0.559499, 0.559471, 0.505205, 0.504887, 0.584488, 0.597539, 0.598472, 0.506805, 0.505952, 0.505701, 0.517744, 0.518155, 0.582852, 0.594105, 0.649057, 0.661262, 0.665864, 0.677616, 0.77409, 0.765001, 0.795263, 0.92178, 0.887136, 0.897997, 0.895087, 0.926653, 0.931176, 0.998249, 0.976569, 0.998827, 1.00506, 0.983439, 1.00483, 0.945939, 0.946647, 0.971259, 1.02681, 0.98675, 0.9991, 0.998336, 1.00914, 1.00761, 0.992807, 1.03889, 1.03554, 1.03313, 1.06989, 1.08992, 1.20179, 1.19253, 1.15828, 1.18112, 1.25334, 1.25123, 1.16134, 1.20912, 1.17387, 1.13617, 1.19261, 1.23286, 1.2127, 1.15227, 1.17695, 1.18851, 1.17191, 1.24264, 1.14329, 1.15648, 1.15362, 1.08135, 1.07928, 1.00554, 1.0044, 0.966453, 1.00176, 0.93992, 0.939786, 0.922733, 0.932596, 0.933445, 1.09753, 0.953383, 0.890046, 0.890402, 0.846459, 0.839791, 0.843442, 0.774609, 0.745896, 0.712749, 0.721621, 0.694955, 0.707754, 0.819331, 0.781031, 0.661415, 0.612541, 0.539474, 0.511452, 0.448291, 0.477007, 0.441416, 0.440692, 0.439123, 0.430809, 0.420106, 0.435419, 0.364225, 0.355827, 0.366194, 0.403908, 0.314916, 0.310528, 0.308339, 0.309622, 0.310585, 0.287128, 0.286397, 0.297948, 0.30748, 0.315311, 0.313048, 0.309857, 0.320768, 0.321115, 0.318384, 0.32237, 0.323863, 0.320798, 0.320537, 0.320345, 0.320125, 0.320206, 0.320049, 0.318299, 0.317968, 0.316895, 0.311707, 0.310276, 0.307578, 0.361938, 0.293363, 0.344994, 0.350679, 0.346523, 0.506977, 0.338161, 0.23805, 0.245316, 0.242036, 0.241852, 0.241062, 0.228137, 0.226547, 0.225994, 0.224943, 0.211909, 0.208079, 0.204775, 0.203005, 0.204025, 0.706922, 0.712164, 0.391234, 0.341118, 0.341525, 0.341753, 0.348196, 0.4799, 0.211793, 0.213529, 0.21438
0.339926, 0.339529, 0.336961, 0.358396, 0.358797, 0.359867, 0.360551, 0.362259, 0.462239, 0.385964, 0.386392, 0.385996, 0.978437, 0.362195, 0.36204, 0.361246, 0.359131, 0.358149, 0.357645, 0.35595, 0.356012, 0.35761, 0.355809, 0.357953, 0.356855, 0.355991, 0.353046, 0.353371, 0.353292, 0.351284, 0.350682, 0.350048, 0.349751, 0.347989, 0.34808, 0.347005, 0.345518, 0.37189, 0.37192, 0.37201, 0.370985, 0.370611, 0.369455, 0.36976, 0.369911, 0.369397, 0.366834, 0.366429, 0.366338, 0.367078, 0.365425, 0.363184, 0.364199, 0.363919, 0.369495, 0.380516, 0.38171, 0.384881, 0.384297, 0.384435, 0.51779, 0.517345, 0.51868, 0.520136, 0.472477, 0.391073, 0.494396, 0.532455, 0.456767, 0.500848, 0.505226, 0.572191, 0.57177, 0.576524, 0.507963, 0.51029, 0.507913, 0.506067, 0.520972, 0.5148, 0.578126, 0.587421, 0.607367, 0.630388, 0.625779, 0.666473, 0.742143, 0.742136, 0.773485, 0.920366, 0.871092, 0.88496, 0.987294, 0.925384, 0.932953, 0.963864, 0.938947, 1.02563, 1.02357, 1.01043, 1.00205, 1.00278, 0.938797, 0.959244, 0.987698, 0.998409, 1.06792, 0.987054, 0.995956, 0.99796, 0.987089, 0.987419, 1.01607, 1.05027, 1.25483, 1.12354, 1.19433, 1.19408, 1.22181, 1.16279, 1.18504, 1.17396, 1.16482, 1.16851, 1.27406, 1.19935, 1.17666, 1.16968, 1.2487, 1.13623, 1.1573, 1.18013, 1.19596, 1.1958, 1.15261, 1.13273, 1.0992, 1.09803, 1.07881, 0.99187, 0.985055, 0.949594, 0.921619, 0.923341, 0.898909, 0.900946, 0.898425, 0.898418, 1.01844, 0.949209, 0.944219, 0.890566, 0.886903, 0.819014, 0.797838, 0.728518, 0.723275, 0.697235, 0.670911, 0.656102, 0.70773, 0.728265, 0.781403, 0.649006, 0.64689, 0.537193, 0.504987, 0.44957, 0.448888, 0.44224, 0.440007, 0.468704, 0.448441, 0.443885, 0.375654, 0.353442, 0.366553, 0.327888, 0.316234, 0.313924, 0.313427, 0.30772, 0.310625, 0.310729, 0.292819, 0.299721, 0.297657, 0.2938, 0.317113, 0.317718, 0.324324, 0.321913, 0.320615, 0.31776, 0.318415, 0.322606, 0.32276, 0.321336, 0.320877, 0.320702, 0.321063, 0.320659, 0.321336, 0.316291, 0.314965, 0.309216, 0.309203, 0.308946, 0.308441, 0.345153, 0.296023, 0.432487, 0.345861, 0.361433, 0.384406, 0.254822, 0.241612, 0.241899, 0.241729, 0.240916, 0.227945, 0.227092, 0.224318, 0.354953, 0.211158, 0.208938, 0.203795, 0.191593, 0.191463, 0.192124, 0.33868, 0.379743, 0.215273, 0.210984, 0.212284, 0.210938, 0.390252, 0.210213, 0.213543, 0.214315
0.341002, 0.339093, 0.338043, 0.337782, 0.386882, 0.362223, 0.362422, 0.441071, 0.606261, 0.603541, 0.386944, 0.387069, 0.386831, 0.976964, 0.771031, 0.770654, 0.360111, 0.358428, 0.357832, 0.35718, 0.356704, 0.356435, 0.35601, 0.356617, 0.357787, 0.35703, 0.35437, 0.354924, 0.352426, 0.352181, 0.35064, 0.351486, 0.349683, 0.346564, 0.347896, 0.348565, 0.347455, 0.373301, 0.373761, 0.372062, 0.370945, 0.370446, 0.370129, 0.370478, 0.369752, 0.369845, 0.538272, 0.538199, 0.369425, 0.367186, 0.365204, 0.363989, 0.364102, 0.363514, 0.370493, 0.379756, 0.381124, 0.383958, 0.384387, 0.383102, 0.386246, 0.517969, 0.516338, 0.522845, 0.473313, 0.388967, 0.389737, 0.543393, 0.545184, 0.540234, 0.507497, 0.573108, 0.57186, 0.536424, 0.602514, 0.514211, 0.50895, 0.513836, 0.513822, 0.513494, 0.545662, 0.563249, 0.611123, 0.617745, 0.619139, 0.639059, 0.674706, 0.709934, 0.709259, 0.932189, 0.85309, 0.860794, 0.868678, 0.933042, 0.945244, 0.949229, 0.948341, 0.941183, 1.00515, 1.00541, 1.0118, 0.934587, 0.939631, 0.945394, 0.987818, 1.03945, 1.06766, 1.03868, 1.02148, 1.0271, 0.990927, 0.991275, 0.991184, 1.01505, 1.04176, 1.23072, 1.19444, 1.24642, 1.23435, 1.21515, 1.2609, 1.11958, 1.11756, 1.11819, 1.17388, 1.1948, 1.17173, 1.1636, 1.14827, 1.12996, 1.1365, 1.15406, 1.17175, 1.1536, 1.15684, 1.09952, 1.05323, 1.03962, 0.999639, 0.992128, 0.933935, 0.939224, 0.897793, 1.00684, 0.90552, 0.944967, 0.866592, 0.837312, 0.956932, 0.912785, 0.914494, 0.917527, 0.916998, 0.858725, 0.769414, 0.759943, 0.699932, 0.697589, 0.702064, 0.701427, 0.725537, 0.686858, 0.68617, 0.645253, 0.64603, 0.648307, 0.469905, 0.449124, 0.420038, 0.41898, 0.420836, 0.43834, 0.445513, 0.350612, 0.400212, 0.399104, 0.352462, 0.340191, 0.320617, 0.320582, 0.310187, 0.310531, 0.302188, 0.299017, 0.297431, 0.298595, 0.295915, 0.291033, 0.317525, 0.340611, 0.327744, 0.331203, 0.331807, 0.319997, 0.319574, 0.322901, 0.323567, 0.322922, 0.320979, 0.320999, 0.320283, 0.320968, 0.31769, 0.317277, 0.313024, 0.311331, 0.309885, 0.309282, 0.308285, 0.352318, 0.296322, 0.349594, 0.343164, 0.341799, 0.359727, 0.343458, 0.240527, 0.24087, 0.240895, 0.240209, 0.351477, 0.226135, 0.186533, 0.187949, 0.188406, 0.189169, 0.193182, 0.19389, 0.193348, 0.193069, 0.376358, 0.369335, 0.188546, 0.211965, 0.210713, 0.209858, 0.20883, 0.207196, 0.208188, 0.213847
0.34103, 0.339146, 0.338315, 0.336834, 0.395125, 0.361974, 0.362108, 0.365261, 0.603684, 0.516533, 0.614012, 0.549623, 0.428305, 0.654266, 0.978408, 0.379551, 0.359912, 0.360516, 0.359639, 0.358724, 0.356116, 0.356333, 0.35817, 0.357273, 0.358211, 0.356279, 0.355009, 0.353957, 0.352343, 0.351445, 0.351359, 0.351557, 0.351183, 0.347221, 0.34603, 0.351311, 0.35381, 0.37287, 0.374182, 0.373483, 0.372203, 0.370292, 0.370223, 0.369903, 0.370276, 0.371637, 0.372283, 0.538453, 0.374034, 0.369394, 0.367519, 0.366576, 0.362558, 0.359616, 0.363129, 0.369835, 0.381563, 0.383475, 0.384485, 0.38242, 0.382387, 0.387347, 0.811491, 0.811465, 0.389277, 0.389661, 0.389052, 0.387684, 0.532244, 0.556005, 0.55661, 0.571438, 0.570983, 0.539302, 0.538686, 0.621599, 0.509242, 0.514106, 0.511978, 0.540344, 0.542028, 0.597784, 0.606727, 0.602485, 0.686973, 0.685862, 0.677566, 0.676344, 0.725586, 0.74341, 0.809158, 0.802944, 0.885148, 0.933823, 0.949755, 0.929761, 0.910041, 0.963495, 0.929186, 0.992444, 0.905067, 1.00643, 0.945553, 0.945663, 0.942471, 0.941449, 1.04132, 1.04443, 1.04591, 1.05798, 0.999045, 0.975577, 1.01454, 1.02685, 1.02815, 1.22954, 1.29922, 1.10844, 1.09589, 1.11192, 1.14018, 1.1319, 1.1322, 1.1181, 1.12217, 1.12594, 1.17819, 1.10398, 1.1027, 1.12749, 1.18407, 1.1534, 1.1197, 1.13332, 1.13289, 1.05317, 1.06068, 1.08514, 1.00026, 0.981038, 1.02163, 1.02143, 0.891594, 0.902087, 0.879531, 0.832644, 0.83446, 0.821963, 0.826701, 0.913149, 0.914624, 0.919518, 0.866101, 0.825871, 0.82255, 0.76062, 0.673798, 0.673133, 0.697398, 0.663645, 0.63879, 0.629098, 0.622362, 0.582412, 0.629494, 0.470131, 0.549158, 0.444891, 0.458523, 0.419382, 0.429391, 0.445946, 0.444879, 0.35154, 0.334474, 0.33028, 0.331023, 0.342886, 0.32725, 0.32733, 0.313247, 0.31222, 0.304726, 0.29835, 0.2976, 0.296772, 0.291887, 0.289542, 0.336207, 0.336881, 0.334206, 0.332181, 0.333243, 0.32369, 0.323457, 0.323748, 0.324582, 0.322353, 0.323496, 0.322817, 0.319462, 0.328983, 0.318406, 0.317086, 0.312935, 0.310355, 0.309969, 0.304044, 0.305027, 0.304114, 0.335626, 0.525768, 0.527034, 0.504728, 0.268199, 0.260518, 0.23826, 0.238781, 0.338078, 0.504499, 0.352512, 0.350781, 0.351948, 0.189022, 0.190481, 0.18981, 0.189726, 0.198221, 0.195818, 0.189449, 0.189271, 0.189915, 0.190144, 0.189952, 0.189643, 0.210661, 0.208222, 0.207805, 0.208022, 0.211456
0.341337, 0.339547, 0.33784, 0.336399, 0.337328, 0.398842, 0.36261, 0.363029, 0.361457, 0.602844, 0.601544, 0.396082, 0.389747, 0.584953, 0.979108, 0.726477, 0.776974, 0.361138, 0.359085, 0.36139, 0.357129, 0.35797, 0.356501, 0.356341, 0.355126, 0.354803, 0.354049, 0.354421, 0.352261, 0.352753, 0.35219, 0.352536, 0.351625, 0.350435, 0.34991, 0.353597, 0.354409, 0.372947, 0.37367, 0.373624, 0.37228, 0.371163, 0.370294, 0.37023, 0.372984, 0.372753, 0.37355, 0.373977, 0.374005, 0.369301, 0.368316, 0.366903, 0.362772, 0.361961, 0.366744, 0.367967, 0.373674, 0.382013, 0.38313, 0.382577, 0.38047, 0.387817, 0.51751, 0.81141, 0.389841, 0.38913, 0.389194, 0.387873, 0.484538, 0.52386, 0.524933, 0.509381, 0.508546, 0.542054, 0.54164, 0.541892, 0.51397, 0.510059, 0.508938, 0.507174, 0.537341, 0.545896, 0.553503, 0.581342, 0.59219, 0.686104, 0.680089, 0.677625, 0.675041, 0.724661, 0.709358, 0.806205, 0.834667, 0.881197, 0.936487, 0.926768, 0.933932, 0.951965, 0.950549, 0.963978, 0.962995, 0.901914, 0.958293, 0.913996, 0.945021, 0.936677, 0.936728, 0.954137, 0.996391, 0.996153, 0.990806, 0.975353, 0.976081, 1.02901, 1.01902, 1.08253, 1.21861, 1.09525, 1.08618, 1.10623, 1.11901, 1.1276, 1.13211, 1.13203, 1.13182, 1.13219, 1.17528, 1.1009, 1.15029, 1.09502, 1.07169, 1.09442, 1.09231, 1.18187, 1.21633, 1.04952, 1.09573, 1.12337, 0.984192, 0.994488, 0.917522, 0.916542, 0.911536, 0.914333, 0.880424, 0.821913, 0.792826, 0.794472, 0.826162, 0.766722, 0.801471, 0.832216, 0.833353, 0.83241, 0.764465, 0.672394, 0.674055, 0.698757, 0.696856, 0.697146, 0.647093, 0.588188, 0.605543, 0.513437, 0.513541, 0.456384, 0.450202, 0.428996, 0.44199, 0.459829, 0.420321, 0.396929, 0.345114, 0.351207, 0.345109, 0.330599, 0.330359, 0.34166, 0.328413, 0.321077, 0.320438, 0.312152, 0.311233, 0.296636, 0.293331, 0.295046, 0.291807, 0.282981, 0.335417, 0.472449, 0.337948, 0.332686, 0.333543, 0.324399, 0.326784, 0.326917, 0.328105, 0.327899, 0.328452, 0.328258, 0.328839, 0.328937, 0.316627, 0.317324, 0.308304, 0.310818, 0.30479, 0.303769, 0.303594, 0.303028, 0.351302, 0.330886, 0.330879, 0.842356, 0.374127, 0.375715, 0.376072, 0.326975, 0.331938, 0.331778, 0.349002, 0.350564, 0.18798, 0.189259, 0.190555, 0.190774, 0.191252, 0.192984, 0.193159, 0.191468, 0.190268, 0.191131, 0.190999, 0.192035, 0.191241, 0.190912, 0.206684, 0.20654, 0.192347, 0.192366
0.339046, 0.338717, 0.33772, 0.336246, 0.335543, 0.414916, 0.362926, 0.363036, 0.362266, 0.366899, 0.670169, 0.384206, 0.670505, 0.393275, 0.390665, 0.774749, 0.776421, 0.369657, 0.365613, 0.360644, 0.357576, 0.358994, 0.357252, 0.357289, 0.357036, 0.355662, 0.354905, 0.354199, 0.354634, 0.353473, 0.352883, 0.352124, 0.3514, 0.351286, 0.349972, 0.352553, 0.354099, 0.355068, 0.372457, 0.372082, 0.371321, 0.370452, 0.36962, 0.372213, 0.375109, 0.375604, 0.374605, 0.374704, 0.374283, 0.373017, 0.367822, 0.366068, 0.364704, 0.36418, 0.368371, 0.368632, 0.369469, 0.373172, 0.37425, 0.374665, 0.377611, 0.381423, 0.518951, 0.762513, 0.387607, 0.388112, 0.387552, 0.387558, 0.51054, 0.494044, 0.568728, 0.539047, 0.608498, 0.54378, 0.542223, 0.540824, 0.538962, 0.510525, 0.509193, 0.506101, 0.505662, 0.529202, 0.534138, 0.582438, 0.687443, 0.684808, 0.679746, 0.676664, 0.687462, 0.726086, 0.717808, 0.714983, 0.794749, 0.874217, 0.83359, 0.928465, 0.892726, 0.89399, 0.873925, 0.868637, 0.870758, 0.947484, 0.913528, 0.895251, 0.928885, 1.03722, 0.996251, 0.959496, 0.99958, 0.999132, 1.01179, 0.982105, 0.970574, 1.0059, 1.00186, 1.12374, 1.12513, 1.12941, 1.05758, 1.0334, 1.09197, 1.04411, 1.04435, 1.11917, 1.13822, 1.14748, 1.14428, 1.14769, 1.11205, 1.05437, 1.04545, 1.0949, 1.03985, 1.0429, 1.06791, 1.07426, 1.06705, 1.00047, 1.00225, 0.949229, 0.911091, 0.907791, 0.895212, 0.859555, 0.880468, 0.79003, 0.770056, 0.756826, 0.740756, 0.739073, 0.704567, 0.936262, 0.936942, 0.832568, 0.793475, 0.745677, 0.663385, 0.698918, 0.621746, 0.621681, 0.63869, 0.639056, 0.583156, 0.515385, 0.514614, 0.452463, 0.438179, 0.408645, 0.405721, 0.404691, 0.404907, 0.346693, 0.34596, 0.347382, 0.345797, 0.331718, 0.324764, 0.319805, 0.321745, 0.321957, 0.313716, 0.436738, 0.43728, 0.43761, 0.293567, 0.379725, 0.372094, 0.379236, 0.347849, 0.348024, 0.34717, 0.335877, 0.334184, 0.327857, 0.327828, 0.329157, 0.328677, 0.328563, 0.328452, 0.328009, 0.329543, 0.329015, 0.316869, 0.307283, 0.307679, 0.308597, 0.304513, 0.304924, 0.302078, 0.301607, 0.341634, 0.341596, 0.308193, 0.308937, 0.310505, 0.370728, 0.331023, 0.330825, 0.337898, 0.335195, 0.233478, 0.348454, 0.187335, 0.354598, 0.189982, 0.190299, 0.190451, 0.190883, 0.192271, 0.190706, 0.190075, 0.191213, 0.191095, 0.192375, 0.191469, 0.191643, 0.192458, 0.193663, 0.194723, 0.193609
0.338926, 0.338973, 0.339239, 0.33589, 0.334997, 0.336289, 0.567343, 0.365642, 0.368891, 0.367674, 0.366872, 0.5101, 0.596976, 0.395036, 0.663352, 0.783234, 0.779753, 0.378534, 0.776816, 0.563726, 0.562956, 0.36231, 0.358821, 0.356021, 0.358711, 0.358372, 0.357199, 0.35757, 0.357564, 0.357937, 0.354622, 0.352899, 0.352181, 0.351386, 0.35193, 0.35273, 0.35313, 0.356719, 0.356963, 0.369576, 0.368907, 0.368787, 0.369385, 0.375034, 0.375965, 0.375948, 0.374966, 0.374817, 0.374283, 0.373424, 0.366071, 0.365218, 0.364157, 0.364392, 0.366417, 0.372123, 0.372417, 0.373435, 0.375397, 0.376681, 0.379286, 0.379175, 0.762758, 0.763687, 0.522684, 0.387451, 0.382884, 0.38337, 0.526223, 0.550487, 0.548768, 0.608459, 0.608323, 0.543713, 0.542916, 0.552606, 0.745814, 0.545969, 0.504842, 0.546097, 0.514256, 0.508103, 0.553607, 0.55751, 0.687213, 0.687674, 0.679199, 0.648834, 0.64869, 0.70168, 0.701637, 0.733589, 0.711093, 0.747277, 0.877613, 0.8214, 0.893138, 0.889112, 0.85488, 0.867297, 0.866829, 0.868056, 0.868218, 0.904239, 0.911929, 1.03544, 0.959026, 0.959388, 0.9989, 1.04632, 0.987263, 0.970647, 0.977307, 0.998581, 1.00988, 1.11491, 1.11508, 1.04685, 1.10909, 1.0194, 1.0163, 1.06382, 1.06664, 1.07812, 1.14002, 1.10454, 1.14437, 1.10194, 1.06299, 1.0468, 1.05008, 1.12039, 1.07557, 1.02402, 1.033, 1.03009, 1.0314, 0.988186, 0.917186, 0.917368, 0.906173, 0.905095, 0.879957, 0.85984, 0.859453, 0.784271, 0.772868, 0.711236, 0.70712, 0.697865, 0.723488, 0.711965, 0.731954, 0.828969, 0.825896, 0.722984, 0.681244, 0.68241, 0.603726, 0.614586, 0.64946, 0.542501, 0.548548, 0.507308, 0.462335, 0.438701, 0.437858, 0.409022, 0.407857, 0.407556, 0.442829, 0.349086, 0.348334, 0.347903, 0.344922, 0.335632, 0.314868, 0.318584, 0.321376, 0.323965, 0.321203, 0.315931, 0.315157, 0.437636, 0.352351, 0.353139, 0.333992, 0.333952, 0.348109, 0.34976, 0.349808, 0.335134, 0.328712, 0.328075, 0.329543, 0.329458, 0.327974, 0.326731, 0.32468, 0.327239, 0.32837, 0.327619, 0.308669, 0.308613, 0.309131, 0.30868, 0.307308, 0.303864, 0.302842, 0.301586, 0.318501, 0.317651, 0.310992, 0.310422, 0.309626, 0.37563, 0.37529, 0.328833, 0.452188, 0.32433, 0.23524, 0.234106, 0.349154, 0.345841, 0.188143, 0.189049, 0.190057, 0.19045, 0.188839, 0.189176, 0.189733, 0.189899, 0.190082, 0.19117, 0.191482, 0.191603, 0.192412, 0.193387, 0.194482, 0.193014
0.327285, 0.337982, 0.337931, 0.337806, 0.336486, 0.335646, 0.381072, 0.352104, 0.352793, 0.366861, 0.594752, 0.455972, 0.597771, 0.396093, 0.394845, 0.780666, 0.783875, 0.729031, 0.373458, 0.373214, 0.563603, 0.363352, 0.362078, 0.362199, 0.361538, 0.361778, 0.358544, 0.35832, 0.358047, 0.357239, 0.356935, 0.352833, 0.35152, 0.351551, 0.351246, 0.354863, 0.35349, 0.356101, 0.356173, 0.550593, 0.366963, 0.40393, 0.403515, 0.637281, 0.375446, 0.37862, 0.380561, 0.379163, 0.376805, 0.376065, 0.365398, 0.36191, 0.359088, 0.357079, 0.371982, 0.372059, 0.372926, 0.372535, 0.374821, 0.379813, 0.380831, 0.38028, 0.381457, 0.382299, 0.381666, 0.382721, 0.384072, 0.383276, 0.386573, 0.384988, 0.446572, 0.546353, 0.617705, 0.542179, 0.532532, 0.531585, 0.476599, 0.479023, 0.478671, 0.548519, 0.545923, 0.499897, 0.55946, 0.556774, 0.578319, 0.688357, 0.636844, 0.649807, 0.651051, 0.658704, 0.660155, 0.674753, 0.691611, 0.736503, 0.843561, 0.818125, 0.818115, 0.85068, 0.826556, 0.826216, 0.891387, 0.865714, 0.930109, 0.929996, 0.918422, 0.929977, 0.940185, 0.93992, 0.949195, 1.00562, 1.00573, 1.0193, 1.01896, 0.97128, 0.983785, 0.992167, 1.00082, 0.997514, 0.999659, 1.02005, 1.08109, 1.08228, 1.06967, 1.04428, 1.20887, 1.19889, 1.13744, 1.10889, 1.03252, 1.00897, 1.01425, 1.0737, 1.01334, 1.01287, 1.06393, 1.0768, 0.991818, 0.997352, 0.969508, 0.947051, 0.904233, 0.870764, 0.87745, 0.888311, 0.798888, 0.760788, 0.797274, 0.707982, 0.708127, 0.697964, 0.652791, 0.643727, 0.622555, 0.681386, 0.759307, 0.683919, 0.620571, 0.635563, 0.595257, 0.556194, 0.551421, 0.521207, 0.528297, 0.468402, 0.439614, 0.451867, 0.445886, 0.379388, 0.37755, 0.456043, 0.350369, 0.343125, 0.343185, 0.342667, 0.331038, 0.318304, 0.318409, 0.317262, 0.323173, 0.323016, 0.325183, 0.315986, 0.315604, 0.329022, 0.354762, 0.354583, 0.336588, 0.336291, 0.335558, 0.349177, 0.349634, 0.331264, 0.331563, 0.330642, 0.329892, 0.330242, 0.323451, 0.323944, 0.323949, 0.324875, 0.325115, 0.324472, 0.307816, 0.309579, 0.309902, 0.309462, 0.30537, 0.294923, 0.300784, 0.29633, 0.2951, 0.322317, 0.320544, 0.310821, 0.310938, 0.269297, 0.35775, 0.329103, 0.448837, 0.324754, 0.293717, 0.525054, 0.283343, 0.280126, 0.330807, 0.770919, 0.463248, 0.345022, 0.338005, 0.0681756, 0.295805, 0.296975, 0.290283, 0.189413, 0.189769, 0.190107, 0.191784, 0.191861, 0.192812, 0.190013
0.338038, 0.337676, 0.337817, 0.337783, 0.336591, 0.336563, 0.355018, 0.354633, 0.353508, 0.352902, 0.595892, 0.51029, 0.396724, 0.397268, 0.396827, 0.396628, 0.773555, 0.387658, 0.380017, 0.379352, 0.376779, 0.362641, 0.367511, 0.368548, 0.363351, 0.36344, 0.362232, 0.359348, 0.359014, 0.358009, 0.357921, 0.35552, 0.351361, 0.350564, 0.343917, 0.343358, 0.356854, 0.357807, 0.357385, 0.356844, 0.547444, 0.400829, 0.425617, 1.26567, 0.516844, 0.380058, 0.380224, 0.379738, 0.376844, 0.372747, 0.72508, 0.364678, 0.358455, 0.357066, 0.372893, 0.373751, 0.372998, 0.372296, 0.618729, 0.379999, 0.383061, 0.381611, 0.382101, 0.382323, 0.38245, 0.382584, 0.383589, 0.383333, 0.380452, 0.383015, 0.447981, 0.552254, 0.572316, 0.535093, 0.535038, 0.536365, 0.535517, 0.480261, 0.479431, 0.476965, 0.476175, 0.545106, 0.525152, 0.560396, 0.592045, 0.590959, 0.66909, 0.652445, 0.651945, 0.682773, 0.673319, 0.646258, 0.693182, 0.699212, 0.798483, 0.818653, 0.82918, 0.809073, 0.889306, 0.890099, 0.890502, 0.923117, 0.924312, 0.898797, 0.887579, 0.930628, 0.912973, 0.939489, 0.930705, 1.01869, 0.975884, 0.99132, 0.990484, 0.937167, 0.944078, 0.970471, 0.980828, 0.974779, 0.992564, 0.985529, 0.990775, 0.99114, 1.05865, 1.03611, 1.06394, 1.08011, 1.03185, 1.03504, 0.95715, 0.956587, 0.97271, 0.993039, 1.0189, 1.06854, 1.0005, 0.999694, 0.987027, 0.957777, 0.863688, 0.852097, 0.838877, 0.847025, 0.857547, 0.862597, 0.793694, 0.7609, 0.796984, 0.67051, 0.611255, 0.630199, 0.636227, 0.610007, 0.592592, 0.607034, 0.684089, 0.61114, 0.598736, 0.63055, 0.600832, 0.479842, 0.482395, 0.528992, 0.47036, 0.462049, 0.449124, 0.451947, 0.4539, 0.3938, 0.376522, 0.515464, 0.347917, 0.341169, 0.34138, 0.322821, 0.331372, 0.331222, 0.318154, 0.326922, 0.325786, 0.327893, 0.317553, 0.314217, 0.435195, 0.331351, 0.354532, 0.354817, 0.336634, 0.336839, 0.335946, 0.348095, 0.333073, 0.333956, 0.33122, 0.330739, 0.329915, 0.330725, 0.331504, 0.322856, 0.3245, 0.324767, 0.324537, 0.32658, 0.310848, 0.311303, 0.310617, 0.306144, 0.306616, 0.297142, 0.297444, 0.297358, 0.296076, 0.32176, 0.324236, 0.37757, 0.510185, 0.267583, 0.358136, 0.356607, 0.256392, 0.443061, 0.00448076, 0.254539, 0.00436242, 0.304061, 0.28537, 0.77175, 0.314689, 0.697985, 0.769478, 0.314958, 0.296412, 0.297296, 0.338399, 0.476087, 0.00392878, 0.00422083, 0.324075, 0.322519, 0.314064, 0.297145
0.337944, 0.337554, 0.337478, 0.337884, 0.335753, 0.335718, 0.355788, 0.35508, 0.353378, 0.352835, 0.527721, 0.510579, 0.397246, 0.399012, 0.39893, 0.398077, 0.773851, 0.707895, 0.384489, 0.380058, 0.379085, 0.373133, 0.369542, 0.36901, 0.36849, 0.363063, 0.36247, 0.361317, 0.359529, 0.358689, 0.357384, 0.35665, 0.350714, 0.348669, 0.344676, 0.344206, 0.355471, 0.357201, 0.356173, 0.360782, 0.362607, 0.605558, 0.426684, 0.590242, 0.556001, 0.372816, 0.373707, 0.37291, 0.374702, 0.373015, 0.371453, 0.365705, 0.364337, 0.365758, 0.375477, 0.375537, 0.375252, 0.37471, 0.384683, 0.383693, 0.382923, 0.382372, 0.382408, 0.384714, 0.382513, 0.382648, 0.383332, 0.382671, 0.382215, 0.383481, 0.537508, 0.551247, 0.551855, 0.536014, 0.536502, 0.535401, 0.478466, 0.478178, 0.478945, 0.477685, 0.476665, 0.475608, 0.555876, 0.563087, 0.589562, 0.591108, 0.629392, 0.651943, 0.614805, 0.621502, 0.62141, 0.663472, 0.701718, 0.776376, 0.809206, 0.814105, 0.790793, 0.809869, 0.812127, 0.818286, 0.889369, 0.870915, 0.881452, 0.887452, 0.888188, 0.890935, 0.888772, 0.900238, 0.911721, 0.98097, 0.951928, 0.975088, 0.954216, 0.907331, 0.92298, 0.929603, 0.9293, 0.953921, 0.9465, 0.988704, 0.989047, 0.985238, 1.05593, 1.10201, 0.95735, 0.94672, 0.921106, 0.929549, 0.932057, 0.961536, 0.955955, 1.05344, 1.06216, 1.0496, 1.04957, 1.005, 0.957495, 0.937535, 0.83616, 0.928168, 0.922578, 0.886281, 0.849663, 0.867333, 0.799786, 0.798865, 0.763222, 0.642971, 0.628646, 0.603574, 0.559361, 0.55905, 0.586476, 0.59145, 0.597427, 0.594765, 0.604351, 0.541672, 0.505789, 0.481532, 0.48139, 0.542399, 0.461739, 0.450649, 0.473549, 0.401387, 0.42941, 0.443391, 0.374287, 0.352203, 0.351252, 0.340625, 0.33508, 0.325149, 0.331883, 0.324618, 0.323783, 0.327719, 0.330968, 0.330078, 0.319806, 0.322884, 0.323462, 0.324202, 0.353764, 0.328794, 0.314677, 0.315391, 0.470319, 0.53721, 0.333281, 0.335603, 0.338034, 0.334873, 0.332868, 0.333609, 0.333209, 0.331231, 0.323703, 0.324865, 0.324164, 0.324764, 0.313443, 0.313228, 0.311806, 0.309512, 0.306589, 0.29643, 0.294069, 0.293366, 0.292613, 0.291547, 0.276531, 0.276904, 0.276793, 0.270151, 0.269982, 0.26001, 0.259869, 0.261179, 0.510804, 0.289481, 0.287362, 0.753107, 0.285686, 0.284352, 0.282626, 0.00439379, 0.319571, 0.531792, 0.305192, 0.303391, 0.328971, 0.470121, 0.47049, 0.321165, 0.234829, 0.236074, 0.236711, 0.00430108
0.338223, 0.337414, 0.337096, 0.334714, 0.335095, 0.340532, 0.355525, 0.354064, 0.362618, 0.552631, 0.372332, 0.51209, 0.455749, 0.400035, 0.400272, 0.399647, 0.399439, 0.778723, 0.778056, 0.384131, 0.780449, 0.38057, 0.370087, 0.36955, 0.365451, 0.36212, 0.361916, 0.36144, 0.361985, 0.361693, 0.359295, 0.350761, 0.349605, 0.348505, 0.347579, 0.347112, 0.352281, 0.35318, 0.359869, 0.359227, 0.358594, 0.759888, 0.556084, 0.3676, 0.36773, 0.367606, 0.374139, 0.373136, 0.374502, 0.372167, 0.368919, 0.368759, 0.366841, 0.36855, 0.375504, 0.374931, 0.371255, 0.376189, 0.374575, 0.617479, 0.383288, 0.382733, 0.383837, 0.382402, 0.382884, 0.383361, 0.383549, 0.382829, 0.383143, 0.383987, 0.580806, 0.581098, 0.497282, 0.576858, 0.534908, 0.536233, 0.637227, 0.532377, 0.478507, 0.476707, 0.476937, 0.476787, 0.555156, 0.553536, 0.566424, 0.599904, 0.647998, 0.640243, 0.62398, 0.622097, 0.621558, 0.63308, 0.661196, 0.776339, 0.812098, 0.814041, 0.770272, 0.759118, 0.783016, 0.774485, 0.913519, 0.957111, 0.885176, 0.888236, 0.880438, 0.880893, 0.888362, 0.895986, 0.95885, 0.943265, 0.966863, 0.963211, 0.969786, 0.919886, 0.874917, 0.889275, 0.899274, 0.968738, 0.917427, 0.941779, 0.947555, 1.03225, 1.00875, 0.993351, 0.971041, 0.915946, 0.894427, 0.90219, 0.894225, 0.892112, 0.9186, 1.0077, 0.999542, 1.05517, 1.03521, 1.025, 0.991031, 0.872036, 0.930011, 0.930528, 0.801099, 0.89412, 0.892926, 0.816858, 0.817028, 0.696708, 0.685006, 0.632912, 0.608344, 0.605115, 0.538083, 0.537784, 0.549725, 0.539434, 0.541328, 0.49451, 0.584011, 0.480018, 0.479813, 0.500323, 0.445387, 0.483212, 0.497893, 0.429039, 0.399837, 0.402245, 0.430493, 0.3735, 0.373511, 0.350675, 0.34997, 0.441291, 0.440357, 0.33545, 0.315773, 0.324287, 0.308372, 0.3243, 0.313211, 0.307371, 0.319138, 0.32406, 0.324296, 0.326743, 0.3232, 0.321427, 0.316299, 0.317122, 0.317965, 0.332201, 0.334138, 0.335277, 0.3359, 0.334971, 0.334157, 0.333216, 0.334354, 0.333466, 0.327688, 0.325573, 0.324913, 0.31047, 0.310623, 0.311251, 0.308694, 0.307526, 0.302721, 0.301281, 0.300307, 0.295029, 0.293153, 0.277183, 0.278107, 0.27882, 0.27828, 0.275334, 0.262856, 0.263792, 0.262858, 0.263713, 0.263611, 0.260936, 0.259345, 0.258578, 0.257178, 0.256166, 0.282844, 0.445375, 0.445464, 0.666564, 0.258435, 0.252179, 0.294095, 0.24893, 0.247568, 0.247317, 0.236192, 0.237343, 0.238747, 0.23901
