0.315734310609373,0.322808681821332,0.322941367916472,0.323717663322121,0.323461110037623,0.327078988244759,0.328111581808899,0.328229787427387,0.32841774614924,0.336355188743614,0.34193037306698,0.343395018612517,0.345214591692347,0.346214245865589,0.347863624753403,0.348192529774429,0.348416534435367,0.349068601844427,0.349001516322238,0.350768053530225,0.352055249107268,0.352600048302528,0.352702258935242,0.353848107398396,0.691338104516523,0.447720990250343,0.475812369361763,0.42153654393158,0.375493428901675,0.382027442127704,0.3819305003857,0.38319728561465,0.38336589485625,0.383583423809037,0.382586496670584,0.383794832955909,0.393853938637421,0.393794243518073,0.393509403569382,0.429623962952929,0.435504957229782,0.435631708707474,0.434035125124292,0.443217926078439,0.436660640311735,0.475530093156511,0.476210544877733,0.565373681258796,0.580043652038842,0.598777832744139,0.650028260448497,0.667614176867487,0.731693896565558,0.729703048119865,0.727237341881158,0.821045535676874,0.820389380101678,0.819762860319286,0.782320129239589,0.827761308625244,0.895421301828792,0.822533199805008,0.792619803299974,0.809324012169427,0.812539723374862,0.859936035511994,0.879841082878144,0.881694351386895,0.883527565669955,0.87242496464774,0.870332427841858,0.865104419838805,0.854658640702612,0.854975238916139,0.854856285192675,0.899665913504814,0.943722608308779,0.936818832596257,0.94456565987107,0.944867633015034,0.903220412675951,0.978087934699504,0.983745623583285,0.998448894645313,1.08357697841673,1.02026315702818,0.981732709388964,1.00920568309946,1.00862892655592,1.01578101505666,1.01694413969671,1.04247994108782,1.04540445262777,1.04921575183749,1.0611974021745,1.05123034394587,1.04919015848802,1.05126734978936,1.05265799122452,1.05605479969507,1.05608085603332,1.07370163475075,1.07416861674766,1.08121310296384,1.08808350972707,1.08976319030793,1.09086842534732,1.12673366264141,1.14899875073131,1.13673663373861,1.12821672672821,1.1748454500281,1.17606815599129,1.17425318469109,1.17214543213287,1.19778098565293,1.21297523978914,1.22055674561425,1.22891743664031,1.25384107765093,1.34100409062732,1.29948462945485,1.29878699398703,1.33437330268278,1.68136601388326,1.64863165373797,1.64928078463016,1.6291708451434,1.6166350978468,1.61224704931063,1.60162403167811,1.52484388510073,1.5748177694891,1.44637457802901,1.44119805193867,1.44219280385859,1.50918503208427,1.24932131916514,1.23556610933823,1.1976583479198,1.14523285226697,1.14874247853269,1.22563500573831,1.11913359183345,1.11564233434571,1.11762871238633,1.11842754151989,1.11931095046894,1.11978485589507,1.08467586318559,1.05522980208852,1.05704126595668,1.10328472927553,1.03316346063692,0.960915229499455,0.959732451208016,0.91172172784989,0.908896421628378,0.887167670283359,0.888028918209724,0.8872947085364,0.896578335299482,0.923044781994765,0.920772421320072,0.947094482679643,0.896541229314054,0.906033171691502
0.324134226483717,0.323483604904094,0.323805870022602,0.324638209619391,0.325621354469547,0.327404837726189,0.329701990464008,0.333548198268074,0.336052177382705,0.337406230032385,0.340201727062943,0.342204447930639,0.344169275689141,0.345699218907502,0.347438675363807,0.348316598068099,0.349296674750998,0.349651523579518,0.350102223711364,0.350603922841718,0.351442799535076,0.352236599754311,0.353298655198823,0.353923099210979,0.407295321171695,0.433214002170157,0.451935414168879,0.436825425867969,0.419286211610287,0.380614542991488,0.380932613997639,0.381372797106413,0.382249924388804,0.382324464380063,0.382840028538358,0.382868346665976,0.394821553305854,0.396086708666768,0.398389160650339,0.423341762281427,0.42641890411202,0.437032305254805,0.440144981625099,0.445753660091655,0.450369192912965,0.474835815224317,0.474730821366598,0.559662786223823,0.58130714074752,0.593150807930529,0.624530703499576,0.66926092792127,0.725437219906057,0.732034623815137,0.73343921418353,0.820918459707991,0.820108984906393,0.818911028194542,0.814947769162206,0.81222661761905,0.808361637563117,0.805231124161905,0.802358140596022,0.806293911559443,0.815110005914945,0.843591813816131,0.855753120157419,0.867630230053278,0.873705208897218,0.870578240301281,0.865604310820543,0.861334313979993,0.85499727946934,0.855462870860998,0.855368999560203,0.887045133303839,0.899226229386004,0.915224143468058,0.925275754812349,0.944845167641023,0.952567632467118,0.96774660976864,0.971883244928445,0.974561679816105,0.975967768155508,0.982340980080785,0.981898539346046,1.00933689222358,1.01674424164487,1.01899271722048,1.0272652243884,1.04266837449768,1.04503535753682,1.0460433091955,1.04714604484364,1.04897711121662,1.04980143997657,1.05035286322322,1.05629396833826,1.05669750762863,1.05696498116965,1.07842250527598,1.08832009818197,1.09602607815193,1.1071027192993,1.11863417540213,1.12641515981146,1.13341779764675,1.14475411517919,1.15024801895308,1.15147086845438,1.17818944341553,1.18406909522231,1.19202432327942,1.20415082295686,1.21318440785151,1.22446834026672,1.238376903019,1.25210040402233,1.27000905561319,1.28451776333644,1.2598225501919,1.25982255019794,1.2598225501919,1.63973213374669,1.64460572956088,1.64250801334256,1.63359733925694,1.6243050085111,1.4976156834293,1.48899813740024,1.47842009141318,1.46513848469682,1.44490355292274,1.43940108223502,1.43787013368632,1.43696968125145,1.24307767195137,1.20514689042566,1.18328887981634,1.14405724465238,1.14329866628422,1.13002515870288,1.11748302460942,1.11645405266676,1.11742923479305,1.1184090758673,1.11900905848027,1.11947592371293,1.08250559264763,1.05317453455884,1.05121400423765,1.04920410475719,1.02760655852259,0.960380373579704,0.958929936485707,0.908896627083585,0.906455633235766,0.894078584251523,0.889266134576533,0.888130554137727,0.887711471191265,0.887065888982272,0.886788210781037,0.877552166878197,0.872959710530295,0.866022908110721
0.543039439052199,0.399270416236342,0.640743254624022,0.399213877533243,0.539969596770823,0.376605310491076,0.41156171464621,0.33541455063438,0.337170687191927,0.337891198543514,0.338516404708515,0.341416689158189,0.342792855222251,0.345448005889736,0.34697750718651,0.348774942916964,0.350218912196371,0.350480436729923,0.350598678441882,0.350685271056265,0.349969364919208,0.352138082283854,0.353701103985061,0.354441024362845,0.355499568662676,0.418814268568581,0.479361453329934,0.479280318351471,0.479338788288458,0.379293601133057,0.378436709275882,0.38014517818129,0.380142272695263,0.381578213239144,0.381761207261586,0.38207462840448,0.455546116252158,0.396845646427983,0.400234109101755,0.416286220342455,0.408874425512308,0.437574600181481,0.45172348980452,0.448732572113428,0.455720193547312,0.474211975937905,0.473125040359281,0.553645174239046,0.58245619493672,0.587061955655002,0.588234857736635,0.671122009478079,0.71721178435288,0.732983644532893,0.734237964538893,0.821162865714744,0.819686289400278,0.821130941669128,0.823712239759126,0.81038206029437,0.79949743298389,0.799724815572978,0.799179536284516,0.803574429441444,0.817506638387858,0.82586229864112,0.82731096208579,0.854018289970271,0.909443158773167,0.862746466054049,0.849727710047625,0.856119467997794,0.857194492914864,0.856043098135736,0.855741844229373,0.867981383352017,0.876178867550727,0.906855516332663,0.90770108985749,0.944452783686084,0.988179803450076,0.956357744020004,0.934857508628724,0.97353747461478,0.96157589288019,0.982248374017913,0.981386229650007,1.0090435505544,1.02811610866211,1.02349298583718,1.05160401201386,1.04166221987827,1.03472153981787,1.03954152399643,1.02135012799868,1.0484336553338,1.04873542140033,1.05024799144195,1.05981484547083,1.05788561648384,1.05853812833745,1.07935421006718,1.11972497962206,1.12346187698621,1.12801385429936,1.12779939658342,1.14154151694177,1.14149085625842,1.14133706514076,1.15128091511829,1.16018025802085,1.18181751240136,1.1920115822832,1.19884867347961,1.21491791504118,1.24066079735308,1.29188717045759,1.29251572095392,1.29057733062519,1.30489170450639,1.38128751577014,1.25982255019794,0.00404669176487559,1.25982255019794,1.62799177221187,1.640567982376,1.63432615815382,1.62705079624685,1.61009867380502,1.48054474173072,1.43048269323737,1.44642098523493,1.45430724854479,1.43903399426732,1.40099688754253,1.41880428618613,1.42668257175824,1.23570247391377,1.16291360755994,1.16272512090633,1.14369748037577,1.14283899381725,1.11681636698283,1.11737109885777,1.11522026695937,1.11775156452428,1.11816616528034,1.12745369111369,1.17118164015334,1.08041722706254,1.01456781588481,1.03551153244824,1.04679717299989,1.02725526960804,0.9528872593266,0.956344959462714,0.900963345539171,0.899343398753884,0.900729946242688,0.891853507615503,0.880118159382651,0.887701823381807,0.886588703740741,0.887126864862437,0.85428925201208,0.852369752589699,0.84562171775526
0.325887691630159,0.327094889836538,0.328709450809481,0.329703279410174,0.33123905123618,0.332635732838217,0.334561215613841,0.335395648919708,0.337047127068128,0.337783390383592,0.33925778830202,0.341153522666893,0.343525997874521,0.345135405748423,0.347093547372018,0.348927597099055,0.350637952679954,0.351267587408454,0.351660115004233,0.351487448181862,0.351274676181752,0.352204649895392,0.353280075236841,0.354131068061334,0.354951848679811,0.404487260961181,0.478956023776194,0.479035337982521,0.479046349538033,0.378623022318252,0.378615730239713,0.378735257709903,0.379412431045136,0.379962840439932,0.380952868131397,0.381228145241827,0.390770787523386,0.394099915869944,0.40127093578543,0.42152194755323,0.422205852438496,0.437367908202012,0.441719982586922,0.448040141691644,0.452857260369225,0.474612079672719,0.474427734215359,0.547779988162016,0.580240004911318,0.586112934250227,0.59073909331462,0.673185327274733,0.715774202931907,0.743626748252031,0.746373822694592,0.822395057754061,0.82148693436885,0.821735442670594,0.822406130303304,0.809422356723528,0.799748487260991,0.799923979055549,0.800091746290827,0.8011215437944,0.80986856661437,0.824205774124983,0.825852102776057,0.845736627719201,0.851692831120212,0.856987364852787,0.857230531592834,0.856974956499749,0.856931093583964,0.856899732746096,0.856493408159903,0.863259289612558,0.868024103462574,0.905540366777578,0.907155859647216,0.943786491982475,0.944800182910994,0.944618197634081,0.936593315992351,0.980508547473312,0.981186451732522,0.982531617311739,0.985901880134164,1.00865109564625,1.01723547139665,1.01926696581983,1.04256448462454,1.04236835205603,1.0433394307688,1.04261973394973,1.04511566835825,1.0471020956767,1.04762121926042,1.05017096084156,1.05234386150096,1.06950881307655,1.07699168857654,1.08147615857444,1.12360528683407,1.12527816659868,1.12755960099743,1.12775343706906,1.13791219565407,1.1535708764842,1.16295300518247,1.17524938203511,1.18364607086591,1.18856943030657,1.21871263148723,1.23159191930176,1.24748569268832,1.26218063999595,1.29397147961541,1.29547435655211,1.29694066963017,1.30546388455093,1.33868079194697,1.2598225501919,1.25982255019794,1.2598225501919,1.638725498685,1.64240744513843,1.63898222744045,1.62844245413879,1.61638835022666,1.47524174387699,1.43053952712711,1.426961294662,1.42499568425421,1.42370525084054,1.40090965264814,1.40191280068919,1.40433474928002,1.22772718264904,1.16807989575319,1.16257663981078,1.14348435696235,1.14171705309604,1.11882625306988,1.119249862196,1.12036226912145,1.11935245811646,1.13055788342661,1.13914502299653,1.14634765079591,1.07857858655143,1.02967005248633,1.028994265105,1.02829507599484,1.02678317175221,0.959252291005808,0.95809314165851,0.900070960077937,0.898687356944029,0.89842301644511,0.893255917741048,0.886390854819977,0.887325583404097,0.887314378599694,0.887804696271015,0.852664430423758,0.85090626026619,0.849219418790031
0.325335641444087,0.327156780418617,0.327646584988838,0.32943544718057,0.329391067942656,0.332691403741506,0.334456587487295,0.335868568494843,0.336348507548341,0.338101025917296,0.338280761974824,0.341367383544057,0.343386959354045,0.345319308165401,0.346626293512832,0.349553564200092,0.351753199476969,0.352356904165781,0.353455245696487,0.352196009591336,0.351651912982638,0.352149784084182,0.352814854099929,0.353855352941584,0.355152251694045,0.390064067880145,0.478365895988943,0.478722057238112,0.478659575106264,0.378283852679553,0.37761550820708,0.377535084327142,0.376771443653957,0.379093937249833,0.379598017620229,0.378402326534198,0.376105900844936,0.391745525719669,0.401605982094107,0.425237570905859,0.438231005173331,0.436763778589827,0.406972002718755,0.447249814533857,0.450029909380577,0.475096970907316,0.475480285707136,0.541706777073307,0.577807339572789,0.585386590158341,0.59325681428327,0.675383446275789,0.714309426426477,0.752735385993846,0.756380539600816,0.823791646299124,0.838098091285801,0.82165605942117,0.821387073855416,0.808631611912223,0.799716331069206,0.800237742760255,0.79951548464501,0.799838076047439,0.798782696710674,0.820604216291808,0.816652221165253,0.8377281277367,0.824242151415793,0.857075119847428,0.857594511277134,0.870585213468166,0.898089958723407,0.87033674792373,0.85109687594767,0.85695654802954,0.85215411976041,0.902508213044482,0.900740351514492,0.942134162158772,0.945879298138256,0.94500736990992,0.911465775203284,0.989286390110545,1.01419632154464,0.996500401052907,0.991463898795855,1.00839326174103,1.00784228037928,1.01595705120097,1.04272823047281,1.04303656676858,1.04241202074237,1.04304748638093,1.18539874769856,1.0465633013263,1.04610544489921,1.04972113169656,1.04908439558569,1.07566457352379,1.0887290014466,1.08944171629802,1.12845683723397,1.12885274383439,1.12950867563157,1.12837704637732,1.10370922016745,1.16734004080441,1.19938859500348,1.20080639824173,1.20579392722747,1.20355350487819,1.29734328279567,1.28225293372956,1.29944022106664,1.29132760193792,1.29520055439666,1.29595815077184,1.29954908366377,1.30660540798026,1.40155178919664,1.39923334695841,1.75313088860492,1.43463907573254,1.63268977213861,1.64382409401495,1.63629952163332,1.62275477812993,1.60529014985317,1.46576035963632,1.43090782434976,1.41736623214963,1.37910657711331,1.36706337933772,1.35539598486237,1.40127194564248,1.40709219761522,1.21986135000378,1.17401349476161,1.16213858490424,1.13570915007257,1.13824731817165,1.12030588545451,1.12093505583118,1.12249347900782,1.12045623923719,1.16077549627496,1.148031202951,1.15674646776732,1.07717914382355,1.03034781933188,1.02896030723987,1.0275064013219,1.02489946811265,0.963516988537194,0.958843084848004,0.893963875336543,0.895520209995557,0.894669117703113,0.894260835816939,0.8861277117846,0.888138031412903,0.970547524112244,0.889347300005325,0.847935686650401,0.848991459189732,0.852022303103098
0.326276441443426,0.326402961786133,0.327719580275348,0.327686002653747,0.329448336877161,0.331471585738455,0.334082230915014,0.335081303485279,0.337159359250425,0.337971327818076,0.339532217044652,0.34065140835723,0.342615404483327,0.344012426477651,0.349757841748629,0.350628908950156,0.352373660055534,0.352910009610849,0.353314559792156,0.352635444991523,0.35203827229421,0.35225646741203,0.352584054929188,0.35339584144607,0.354115727529625,0.357075636094267,0.359918613872513,0.368147221248684,0.368258102697244,0.369209457040319,0.372018356174974,0.375709329907146,0.37718147486714,0.378120167302096,0.37924919294816,0.378513594561661,0.377792824027373,0.389194175959056,0.403829108534917,0.426879727174084,0.430930269522419,0.434371914021761,0.434819121514943,0.446634157948497,0.473403900443331,0.486882213336212,0.495489547274413,0.535845355536936,0.557377108783425,0.584704854894984,0.593446398816433,0.677623418952216,0.715474372297675,0.762422884846069,0.77176441794203,0.823847973482517,0.821466997753651,0.817352220609048,0.811975949493367,0.808552101066283,0.802755200816599,0.801862269701379,0.800339886291528,0.799782287994874,0.799174719624927,0.824962513763908,0.832315988646366,0.846877400854109,0.855931560334715,0.864252140820264,0.871756590390274,0.876958992745472,0.883308183956323,0.877904809632229,0.87275433019094,0.877829874223374,0.890897469268109,0.910348617575272,0.911507425239575,0.940016189774908,0.940790203277139,0.959263332769734,0.973283207192156,0.996057273270705,1.00178272298265,1.00535228837169,1.00700672122418,1.00949023297672,1.00943790412082,1.01357560184566,1.04395972134821,1.04361922071101,1.0432939317197,1.04345606533274,1.04480856326237,1.04621076533669,1.04621156770257,1.0516106877352,1.07332651024061,1.08165193896105,1.08854419144314,1.08933858689811,1.13521691019467,1.14094634306545,1.14773696703715,1.15389830167205,1.16711715202196,1.17626314066615,1.20079855685138,1.20144306814893,1.20180293591315,1.20130424848706,1.23796676837167,1.2682164764189,1.28761248647106,1.28955138141318,1.29230800520469,1.29794508232956,1.29841729119468,1.30842536735037,1.37338246436923,1.38515085043867,1.39438769943171,1.42534700137286,1.63185818148636,1.63103805769782,1.62912240607652,1.58375249672603,1.56762781749051,1.45822912714929,1.43123083686905,1.4086503596899,1.36990813710873,1.3647960438885,1.36105515234864,1.27587718403981,1.247249324109,1.21353931588214,1.16798870301919,1.16130803951321,1.13722364497067,1.13812456024616,1.12655922035915,1.12129983753845,1.12120774707008,1.12016811727986,1.13772611944375,1.12417121019286,1.11209788592203,1.07612287475794,1.02626336762212,1.02292347700076,1.02175790674496,1.02104195294031,0.961158386312861,0.95885539443497,0.92863132811921,0.922038649983045,0.91201554758919,0.900311067114995,0.892323239333018,0.89092104486839,0.891071666689378,0.890917190483566,0.846735992397842,0.846822976298093,0.845653443201891
0.326585965995908,0.327042648970422,0.325892823555776,0.327579500389047,0.325983878474723,0.332452505811152,0.332657045401109,0.335497437124258,0.337215914728532,0.338489409828599,0.339347064811841,0.340341655143841,0.340146904235013,0.344297187373412,0.351970835936173,0.351502679745138,0.354778155791116,0.353463845095101,0.354561707997208,0.352733206954226,0.35198950389652,0.352073887476105,0.351860381045946,0.353158644076826,0.354125476525978,0.354658771170897,0.355071477795284,0.367268447153169,0.367581876290019,0.367584569290038,0.366597596903006,0.377023090209073,0.376348972645616,0.378463647684244,0.378232836347168,0.379061479183555,0.37826683681976,0.386682158773466,0.406058871060951,0.428212135764652,0.427318880224849,0.434790507781006,0.434930348925023,0.445923066548585,0.524533604210333,0.508299918780941,0.516031425317933,0.529924663241811,0.534403273173997,0.583883688247299,0.593702429850372,0.679814760233341,0.716694587217657,0.77186010411101,0.838198091072983,0.82445742443055,0.771042756752153,0.793876537120753,0.811057928139154,0.806586647568036,0.804584259810965,0.803610473606069,0.834944302754286,0.81196921187741,0.79883448766456,0.829915676899851,0.891778906910865,0.889929068989,0.894161501849381,0.880919860914712,0.875790725170811,0.884257027394304,0.917924389891576,0.884753406172425,0.85985536104855,0.880266039721506,0.902530290474002,0.913569289148837,0.918335969695067,0.936910295825352,0.934869973608587,0.972804535573633,1.02699150471985,1.00206611386607,0.997221217233061,1.00751646290939,1.0103282894101,1.01019117970206,1.01192418897951,1.01193204761275,1.04534296491783,1.04466390306383,1.11219047332782,1.05277776431778,1.03246383534124,1.04039374990209,1.03538359972141,1.05406542425262,1.09389056002167,1.09080193161688,1.08801840062884,1.09010554743961,1.18868181009257,1.14715173846108,1.16316305515893,1.17089684434869,1.20323750322785,1.19368729417086,1.29225831598727,1.19112918132398,1.17904394709547,1.19821733007297,1.20710778048018,1.26131874224925,1.28511878311131,1.28635360280982,1.28393324134628,1.29838168209979,1.29840304284367,1.31093250572167,1.33896950215506,1.33608876847606,1.33801028248537,1.41962825777567,1.68439434631203,1.63329901826443,1.62987492853677,1.58664036852566,1.52611447187462,1.45164413246513,1.42938201516101,1.40583530640093,1.32824933708073,1.36219473522254,1.41089158792429,1.25482282312389,1.22176704318993,1.20729298132768,1.16262673011836,1.16002722397803,1.13838953342194,1.13867393771446,1.15597144436562,1.11261097993055,1.10568941238608,1.11742541138594,1.15450210047719,1.10992007806152,1.09394190304461,1.0751196184689,0.98424575752908,1.01975727491511,1.01160435415749,1.00928512630696,0.958468591958686,0.95824001198479,0.93624018790763,0.938181895561535,0.938180705344917,0.90533923318427,0.89354682697117,0.891962905629608,0.89170020228677,0.892222054057094,0.838086051697673,0.845652448145536,0.844314680375632
0.327379938497548,0.326884653259513,0.32742112904377,0.326913358790657,0.328171847293048,0.331372345618283,0.33368202794091,0.334620317652059,0.336367830900515,0.337770629914893,0.339493228129687,0.340057117202838,0.340902334284896,0.341914117529939,0.34664836771785,0.350987379264684,0.352389585955465,0.352662470474112,0.352283746265098,0.352026178596939,0.351821629055665,0.352131198756436,0.352664128195667,0.35307749592879,0.353620195231235,0.354222314138638,0.354629735584315,0.366171987552488,0.366784756500725,0.367256060019537,0.366920023904847,0.377986490800648,0.378549459844681,0.378744322878916,0.379585897396427,0.379173720628453,0.379335790917518,0.384531681530808,0.414795610259402,0.431810455240946,0.433122992449438,0.434857357607755,0.434911197453987,0.445166102765746,0.495422243205004,0.500822705358744,0.505460587841996,0.523391097052406,0.555133607354334,0.582885881695836,0.634805567020736,0.681879287895823,0.705165472411149,0.78351160203069,0.822378648684595,0.82346240912861,0.777356612058983,0.782697155950443,0.787730590202981,0.791019833290097,0.793936181702903,0.796989491569417,0.810952768409125,0.818229665263186,0.825638411979586,0.834786641996071,0.867053647248166,0.887721492810285,0.887303210916271,0.88974271042435,0.891307728193379,0.892518624565769,0.893086905889063,0.886078242704386,0.881204460317964,0.882860754837076,0.894145252681645,0.916058127384509,0.918887691693986,0.941972598841943,0.967086517819333,0.987445852379893,1.01148164780964,1.01076909377985,1.00982630553277,1.00900972789008,1.00982242760095,1.01029261749724,1.010411573221,1.01109240507655,1.0306695179457,1.04407885390794,1.06529473043751,1.06573363382263,1.06637770655017,1.06733540518937,1.06713572748563,1.06714547048208,1.09288564622404,1.09219636873346,1.09165974775695,1.09119659650859,1.1179843328269,1.1336363805286,1.14847773270576,1.17468462497318,1.19428255668544,1.19292320533157,1.19039336123423,1.18689083186347,1.18319626585135,1.19449931746675,1.20182188345454,1.25352057432345,1.27317717171717,1.28708484435444,1.30234908032329,1.31228142315089,1.31303374153556,1.31385751461754,1.32644819321275,1.331010446067,1.37487844336645,1.41199062499915,1.62660175870037,1.62334237102292,1.61972504450158,1.58228570463898,1.56551105579803,1.42142096419423,1.40393256334287,1.39817313511872,1.36927699775109,1.30951192039548,1.29894851830697,1.23957002782704,1.20533211154216,1.20444627084492,1.17756863735864,1.15832268181488,1.13903891614702,1.13906399276531,1.13933656200165,1.11013528676938,1.10441461488822,1.10289257266188,1.10119207045933,1.09949392845884,1.09707909034452,1.07383643606911,1.02474189497373,1.02388441105808,1.01230281424846,1.01070302455961,0.956644748871928,0.957363110462903,0.943776976095805,0.939773947907987,0.929890286798157,0.909817249300918,0.899441758578188,0.895904436545178,0.895305434154075,0.894464810437347,0.844943117139686,0.844848205714656,0.844333329104773
0.327912411010896,0.327739754335663,0.326896208809105,0.327535797615065,0.325861327898364,0.332959738457956,0.333683405261422,0.334724251970488,0.334509981554433,0.337416786121731,0.340070572802883,0.339894288690067,0.340488754341673,0.340673913725216,0.339752718260696,0.349980501598176,0.353550445556868,0.351671878300022,0.350698435634041,0.351072794983831,0.351198910928165,0.352102100018417,0.352984741164131,0.353020215174721,0.352553874198392,0.353791615604221,0.354465806084041,0.363861945316613,0.367248059851667,0.367345531412088,0.367672570236326,0.378170834672896,0.380291415216268,0.379781694345901,0.379303806996803,0.380105588203954,0.379779796255136,0.382761259953459,0.471089670521497,0.433165467080086,0.436621757769727,0.436386970011075,0.435726341259835,0.444445811996591,0.48888938405303,0.489345291261807,0.488596291751746,0.51702490896007,0.577360676954448,0.581780534623821,0.686761133802138,0.683749914121073,0.693958618703624,0.793948629013315,0.836763897914358,0.823128857410904,0.754034002145546,0.773039348331932,0.753543421476781,0.775800315160925,0.784789373325788,0.79315935430174,0.775681621728439,0.819240142090599,0.831025445371265,0.839496391637058,0.847793409794131,0.885669198600191,0.884321802033075,0.889916357595127,0.916928749021818,0.906386726183438,0.897953126394974,0.890597332028374,0.879757493388199,0.884729076008488,0.887082357095589,0.918032493115427,0.920075693828062,0.943899568964211,1.00724145165329,1.00648703361485,1.01316214691227,1.0099459955638,1.01021753325394,1.00926387933193,1.00993947556517,1.01005969090855,1.0092304554031,1.01092389967899,1.02310035728773,1.04136466863713,1.06445294870512,1.06531089879788,1.0695574725586,1.06866442494697,1.07026316960849,1.0666337977005,1.16072870058092,1.11393780128931,1.10431938608602,1.09241478480862,1.09390789895294,1.09421732893521,1.09429350301284,1.1761037809979,1.19524552099276,1.18626591698523,1.16804629329813,1.16975288089305,1.16015447502069,1.19026331930157,1.19619189664664,1.24577977371566,1.25658814150649,1.28729328760329,1.32724643587405,1.32134330072283,1.32420771612651,1.31961286065076,1.32461879028566,1.32750927255644,1.37497121864133,1.40384080815594,1.66098844987659,1.62115334416534,1.60970243485939,1.57522220036893,1.56677523610827,1.40647299587156,1.3656998245982,1.37244468986289,1.38207320740409,1.29897245502151,1.27759777434437,1.22364987694931,1.19582128601365,1.19633707185832,1.19754961881421,1.15632196493821,1.13916874376151,1.13888933753366,1.13906490407828,1.10671787971922,1.08264312494008,1.08333021479298,1.08443823728129,1.09372559113064,1.10300862233705,1.072144892577,1.02558003575444,1.02474119519845,0.99471253787677,1.00415280333171,0.954284400982911,0.957193300175475,0.960061819362264,0.940587185951677,0.921073299920181,0.915571363885601,0.906356392459119,0.930295375823892,0.962432453532255,0.895402865884916,0.846512313317644,0.853229517776843,0.862544913783555
0.32835853670144,0.327936158016463,0.328053242718185,0.327988280720195,0.328787094986763,0.33223826656139,0.334303777067743,0.334714223824281,0.335558613060243,0.337059190405543,0.338478555592974,0.3392352577969,0.339761288705944,0.340398727216795,0.340414367546134,0.350683350490828,0.351395761310121,0.351270073901165,0.350575009911194,0.350824113006404,0.351023683526824,0.351577130950547,0.352441429950544,0.352530434582127,0.352934283408306,0.353212860153498,0.353758270365532,0.361746389585254,0.366780993339219,0.367830700226708,0.367867451342264,0.378104226203142,0.37991976857314,0.379805636345608,0.38037021298687,0.380030788064918,0.380579863154396,0.3812261074995,0.407703348513965,0.426496885287854,0.43788215655139,0.438531031260277,0.44089132662951,0.443773949113298,0.471515323648123,0.482881052257559,0.494316478317623,0.512251270596035,0.553837858122495,0.580645876336583,0.665302241740987,0.682363953842789,0.732411438904633,0.804512204729055,0.820360765125173,0.822596920238292,0.796951747113764,0.773433300137814,0.768293977537253,0.771579565401675,0.775824852237276,0.80068399553411,0.816057647085794,0.821464131801603,0.841878848508999,0.844282455020657,0.862998322556296,0.884917013793424,0.886081740880968,0.888858463283202,0.918111649816474,0.918902672079692,0.919466837355332,0.920010464124047,0.921110384795655,0.922979455370155,0.924311841106503,0.929148433806935,0.936628992194657,0.945525817988132,1.00647890393448,1.00582764765605,1.00561594635304,1.00829270481376,1.00860844218678,1.00882583826062,1.00962597047577,1.01022199738931,1.01109445014908,1.01123046030916,1.01730627084409,1.03753900918917,1.03785924609876,1.0437689648487,1.05092341950656,1.05973402277515,1.06041795047513,1.06195510741709,1.14629902193274,1.11962369740152,1.11160737502318,1.0927960182777,1.09372202089096,1.09434447870548,1.14331270275529,1.18192592639101,1.18517028664244,1.18205886907665,1.17018264663422,1.17008855541707,1.1769179889557,1.18753297260643,1.20758515354838,1.23705380503778,1.24296830565981,1.28713374189571,1.31379047761281,1.31569511890321,1.31792522201576,1.31992838899689,1.32231928435963,1.32466700991156,1.38474194280612,1.39415924723489,1.40648319819494,1.41456394167639,1.45834080181517,1.45039300996088,1.44159120855128,1.28302933003152,1.27131056494454,1.25657337964591,1.24072776958119,1.22529242428383,1.21365862891092,1.20058134440321,1.18630248099089,1.17863117871261,1.16581675147225,1.15406957562792,1.1372712119311,1.13790810935679,1.13346738030381,1.10213529478883,1.07802576789932,1.07490129333418,1.07282906291058,1.07175162708846,1.07088586248752,1.07016497851692,1.03740156769644,1.02894154021373,1.01513786363033,1.00685673719716,0.991874841786832,0.965485868569805,0.959723278884159,0.940484516106338,0.940179867328987,0.94030359893899,0.942725068139522,0.943436511067281,0.95053071457578,0.896029145542728,0.875130316271388,0.856622328496964,0.853785768410106
0.328312709531428,0.327888005960082,0.32806685745921,0.329187916356506,0.326624018422677,0.333757044002261,0.335236094347125,0.33526238847642,0.335605625864329,0.336638489589801,0.33835033747128,0.338304977680119,0.33961196556954,0.34115362639305,0.34242449706265,0.349930686659222,0.350689125811419,0.350506569298001,0.350545851323705,0.350428915260841,0.350254916897896,0.35120332963266,0.351492915565725,0.352303459374141,0.352447099777552,0.353235345934496,0.353741289050536,0.360119673488382,0.365143265141967,0.368786258581066,0.368416579961766,0.377781876415558,0.381114182539742,0.379841403624853,0.379652158292048,0.380568679714682,0.380237987434082,0.38064192350655,0.379777658826116,0.421838267172519,0.437438090519034,0.439958179005009,0.446871071500402,0.445766399347496,0.429164711226012,0.481006765348418,0.502075759596588,0.508688060321991,0.535071442388643,0.579526328902778,0.648207471551978,0.680534957568064,0.923105536325969,0.837804143444792,0.92280081627161,0.858049296154123,0.856087658551574,0.773846667676589,0.765205921661703,0.767879152498451,0.765483443910946,0.807697584119188,0.833008745993936,0.829548855451758,0.855094943136108,0.854860406400351,0.882472395355629,0.883807710200125,0.893266171302892,0.890994786939573,0.977641938054826,0.922365934202082,0.918610399451978,0.919817845369166,0.919280995224389,0.924045659774444,0.925410632732762,0.934342275252937,0.955059450866538,0.95498455045787,1.02951983573753,1.00451039232432,1.00337200379981,1.00158120051853,0.989885827879118,1.00624899588455,1.00933288838805,1.01002418080947,1.01371683001007,1.01165952005606,0.993814351478958,1.0310423221427,1.03207328449815,1.03142861608031,1.03130405395191,1.05868514745812,1.06013706320041,1.05962000953078,1.16743631611669,1.12948034918556,1.14152907851371,1.09107622203507,1.06197295394006,1.09493203396847,1.20503103581411,1.18639300001923,1.19263458430978,1.17665224338623,1.17057058056114,1.17096288424822,1.1826245971989,1.18531340763042,1.22437315303684,1.2246454396029,1.22888383897395,1.28652842739812,1.31204596191698,1.30986379511355,1.30734449808942,1.30836022570938,1.30810851077556,1.32336198949083,1.61789367562543,1.38374386933129,1.35138648332663,1.39178837462313,1.56013837615837,1.44166211749207,1.41460990560868,1.26335528784783,1.20984913438134,1.21022803376172,1.21039284757594,1.20238504348446,1.17014738041988,1.1762516518241,1.16712612995124,1.16682403496613,1.14867973594939,1.15151339405174,1.13471924931972,1.13769951482874,1.12396486967225,1.09689806157155,1.07597467536691,1.07357064679832,1.07214739550604,1.07090940382058,1.06454830549534,1.06715252851868,1.05103818922694,1.04761144276546,1.06245384552292,1.03435332299299,1.06210506607264,0.967318398921567,0.960575801972535,0.940024916999738,0.939064651664511,0.939910364672934,1.09407707196494,0.991035620910753,1.04688791680712,0.896429423507477,0.896605723407423,0.860752254404564,0.844550507996647
0.335237087514674,0.335356536203481,0.333542419931237,0.332414447887776,0.333081392459945,0.333618654949289,0.334778768023224,0.335093073486675,0.335625155486622,0.336183757966062,0.336564262563829,0.336930661676237,0.340965792649391,0.342592165330136,0.344379931244541,0.34807237128693,0.349662577054157,0.350290463193229,0.350328546807189,0.350282964333465,0.350408160478016,0.350534148084576,0.351070052335124,0.351356903928325,0.352033751593835,0.352842902564714,0.353633406629681,0.358962931818584,0.36660504679969,0.369778946042625,0.371393450029641,0.378144402441865,0.378612454008044,0.379459894746369,0.380145806532583,0.380400208604946,0.380748188082775,0.380893362826335,0.38071733704386,0.41802008944756,0.439859310397315,0.441851485763217,0.444843773542927,0.445754903689137,0.44696230586627,0.477819821905118,0.496261085198946,0.505254680338903,0.514087655111753,0.578462610616877,0.619511938660273,0.678218281318531,0.750823580676109,0.804299997212183,0.862236301453543,0.860113003354327,0.858049001360435,0.774975242764106,0.772817606012049,0.796765901924807,0.806570389530646,0.813851465206112,0.822700984310258,0.824851204819691,0.843023805315891,0.854807729925469,0.864905739972304,0.871862405685527,0.874756019564486,0.878524896643126,0.92579595126944,0.925506140120322,0.927822496140824,0.929637107571904,0.930104510054744,0.933971021659794,0.937920281694342,0.944559757687373,0.955057759257778,0.955271881901504,0.98392398479148,1.00083308071756,1.00159362694653,1.00117126556642,0.998156672899132,1.00346738273009,1.00909364417628,1.01016110568906,1.01058626659568,1.0102428726003,1.00901588161733,1.03006365214856,1.03102451853076,1.03091266564486,1.0310144989457,1.05023598987515,1.05242070017263,1.05551221245581,1.09333802713725,1.09240467476353,1.09126909620416,1.08954707089824,1.08697350223796,1.09550884266448,1.13675349319802,1.16163667895705,1.16961108718568,1.16998107843691,1.17070459325996,1.17186013055744,1.1830706728777,1.1837887740264,1.20764595230656,1.21938004521272,1.25618343196685,1.28525879215738,1.28915198905286,1.29568295806479,1.29966655986628,1.30172492315515,1.30385484849969,1.32567896822879,1.35946660865936,1.35008940740246,1.33415297832973,1.31998570013132,1.29696783438617,1.27923085470237,1.26435713445483,1.2485256914053,1.21701668697592,1.20286775274749,1.20127762808887,1.1981109817926,1.18245994746761,1.18107166996624,1.16683209084204,1.16671659951633,1.16239965540582,1.15718983367349,1.14190098940108,1.14056575879127,1.10791639858011,1.08676714668602,1.07369157998591,1.07183008300672,1.07001734906432,1.06945989605387,1.06604873670615,1.06675658651008,1.04757538896596,1.04653221597361,1.04317200240619,1.01651466685433,1.00224255983827,0.97041781903029,0.967349556925126,0.926761126120348,0.92397167705816,0.918154352963293,0.909433863491454,0.901028971746331,0.896744504817038,0.896376873457021,0.895775160165807,0.866360996489125,0.862262911737383
0.337526323776566,0.336540303093209,0.337790624817065,0.334492907818995,0.333354077961776,0.333965646820893,0.33489561498882,0.335086375476383,0.335796107608047,0.335485740643732,0.335648097863647,0.335610563362079,0.779114461475278,0.469968876786631,0.522230431654199,0.529314252964203,0.54207229960347,0.541632093304713,0.540944419097873,0.349930533314282,0.34991891220904,0.350177783760009,0.349314567829945,0.350827855528217,0.350184914458016,0.352714030302174,0.354506996102709,0.358019525224889,0.463378258126128,0.395017524702609,0.413887901917866,0.382485647010254,0.378533476514588,0.379256651557206,0.379765716502706,0.380671057538208,0.381162818452847,0.381278779772768,0.381413120619875,0.414021817172052,0.475771807589818,0.443171363686374,0.444125697091153,0.445013629769717,0.448901435567283,0.47308989183013,0.490859970496569,0.50061399320448,0.502466207163016,0.577546266737807,0.579635090854133,0.675628192156166,0.717782717281877,0.776846748900893,0.864465565238635,0.862236301462818,0.918792285277889,0.779746417539763,0.77078533115789,0.804092945564239,0.815241771332825,0.818559005224279,0.821815422028948,0.823280650992732,0.806813770877388,0.85502533177154,0.855838666692465,0.854073184974462,0.84981255852557,0.871498960878111,0.925624005116136,0.925810266206437,0.93069246462872,0.930804917167411,0.930677620019052,0.935862104018031,0.958512303441757,0.956342841940197,0.955024256306532,0.955751094676748,0.947439822696858,0.99964125794964,1.04927475777538,1.00123047110285,0.970787234941804,0.990910878595632,1.0071810211793,0.998567376761186,0.98517480574692,1.00928397406688,1.00762972553833,1.02829528681281,1.02491465674788,1.03090031602994,1.03072725649047,1.04595110686439,1.04399023824634,1.05159131652974,1.09430976930038,1.07790235959978,1.06725132584703,1.07546182733948,1.08360667902115,1.09607260823419,1.09684621794228,1.15460691137109,1.1696299957004,1.16767465608013,1.16452379478006,1.1732657477218,1.23432379530179,1.17695683642238,1.17594153564952,1.21540626397412,1.33326816653673,1.28321519446245,1.28058145775185,1.29074934421204,1.29844557442257,1.29757240121764,1.29831557590514,1.31647301228648,1.40137262399709,1.33150357762578,1.31498502840912,1.31301515618054,1.25881462245033,1.2709225435575,1.22568521185944,1.22788663928527,1.2306212090733,1.19891147420189,1.19215269367389,1.19180863954513,1.19166453247089,1.18570693715035,1.1447285002952,1.17702256792669,1.3030697457797,1.16368613638221,1.14356082178776,1.1419385828383,1.06170881450748,1.07831971729309,1.06255484253834,1.06978221532422,1.06720561570555,1.06758844686219,1.06640078705305,1.06650479630607,1.03665583117587,1.0376275837322,1.03962554355115,1.00080199862327,0.987349559896089,0.978437260975547,0.987560611291388,0.919363749497432,0.907050157356676,0.895981822671182,0.878349359326371,0.879405859927912,0.880958897292056,0.887448635888347,0.893733775258341,0.877823702452086,0.876506743920148
0.337531653590328,0.337330037108111,0.336658071875798,0.335468031133263,0.33415769848082,0.334092620729475,0.334368141833614,0.33463451056809,0.33484367059276,0.33476883722544,0.334494700119208,0.334479830462481,0.390199378400695,0.442585382290304,0.528445591914263,0.531872507472312,0.541973320546873,0.541758291984282,0.541469121527991,0.349377761818076,0.349622097548309,0.349668225055733,0.350156702584017,0.350858756238652,0.351873614070241,0.352607986847497,0.353121093829423,0.356983352221856,0.371215826035473,0.386520995939666,0.403538051320641,0.393225975050393,0.387512551087593,0.379571391681933,0.380713327480676,0.381344003363752,0.381763482707345,0.381815368042037,0.382347082842018,0.409067415853649,0.443767632335496,0.443764569207493,0.444120766667701,0.444906789257412,0.446160085396307,0.468163057786027,0.483020388833984,0.499309837098951,0.512748196789402,0.576925031618134,0.629272019807082,0.673236360863655,0.703436721021427,0.749659670238863,0.773479528832333,0.782176371763902,0.792416573457042,0.792397014724061,0.803188748763744,0.811257086247302,0.818655300406473,0.826068273879868,0.83245055904025,0.840629525058032,0.847911537408676,0.854651473787823,0.854546234510765,0.853261714811679,0.851958688561414,0.867814090850897,0.879007915644344,0.898314972840274,0.932031460405873,0.931985580374574,0.935753239938192,0.938968933684613,0.954873818589461,0.956125951247578,0.956029412278833,0.958988719277722,0.974606209300491,0.998229937356117,1.01636199491432,1.00071872289153,0.977038016838664,0.981317118615105,0.984715693781887,0.992494232677497,0.992838363853107,1.00971114520301,1.00929801138001,1.03555495021251,1.03693224685218,1.03958786123297,1.04335206279569,1.04821780584353,1.04985982034166,1.05111385851675,1.05119331311858,1.0552525940316,1.06023541179593,1.07055118835632,1.07527734305312,1.09755584408422,1.12006242682974,1.14034861584956,1.14787407389917,1.15655938168338,1.16909092119675,1.17406941860533,1.17536695533998,1.17516577334554,1.17563079535761,1.21006797983861,1.26223213709659,1.26805639904591,1.27603337206809,1.28169462989383,1.29661836324675,1.29675231324283,1.29644617685803,1.29454372889496,1.2945843188387,1.29535170833407,1.29763090422711,1.29478516756621,1.28432722491497,1.28014909985903,1.25540113483104,1.21704848638195,1.21583022894882,1.19588362080319,1.19393935950188,1.19116459572877,1.19059525747719,1.18940719186359,1.19061797041512,1.19099133955519,1.19933674564104,1.17171415902385,1.16445584118914,1.15006290345323,1.12313903189737,1.08634003276579,1.07869234610964,1.07446683764782,1.07066631775991,1.06884367224137,1.06769991116691,1.06592158940967,1.05159206834703,1.02705103936052,1.02026025623673,0.988100656091704,0.967023538396022,0.949539242100962,0.932291838756132,0.911370243115414,0.896600836856491,0.889209488363341,0.878965266630115,0.8795049695263,0.879865583425986,0.879673925675901,0.879166911670433,0.878265473659246,0.877113846875824
0.338570853786315,0.337689906337915,0.337602692406124,0.3356805870755,0.33397598926854,0.334006368508077,0.333924238314252,0.334036400813306,0.334556954052957,0.333910906573238,0.333501948618907,0.333168761538513,0.332161060757612,0.41561523677265,0.779115404881019,0.574539685576311,0.874434290739468,0.576482199442993,0.86259171847207,0.349091428987365,0.348920885987935,0.349562589639899,0.349178380466509,0.351357030778258,0.352528909456827,0.352687949233308,0.352496961129981,0.355595355504621,0.361958786984242,0.377086809632717,0.413304843707155,0.400069450944293,0.471281168170398,0.380280153583099,0.381988547978485,0.382747776551959,0.382380805460139,0.382532449439435,0.383592494989138,0.404129724124756,0.443773821565921,0.443854412381725,0.443816962071566,0.444131099261722,0.442753377086503,0.462975020227806,0.472948783982707,0.497394902641047,0.524799955597318,0.576720295410715,0.668170593023781,0.671536786800444,0.693825869793153,0.726583408852167,0.743272598324936,0.774081142555311,0.79370717094172,0.792389364239961,0.864300175345209,0.836420219044873,0.835411976548738,0.836398084547764,0.854808960081126,0.844312195591076,0.869480899663604,0.864730610524615,0.871748511944721,0.82799144198337,0.785655388476833,0.837602309754037,0.837525169387245,0.882751855413292,0.933180812079162,0.932762701698208,0.965773905215044,0.944184834770281,0.952367646254395,0.95728835558412,0.956948981402182,0.967186300125769,0.990789598157721,0.996579963580035,1.07256742324298,0.999505836141689,0.965841659116354,0.976292082741938,0.966086538703429,0.992194837950767,0.993062909328675,1.01019235399135,1.01032290933869,1.03970842510439,1.05877071387969,1.05994615676614,1.09241670635659,1.06953567169631,1.11845469128386,1.04648242117093,1.03859362183291,1.03839279961292,1.03583187286732,1.06495707429687,1.05894794962311,1.10012220938778,1.1881534964179,1.1273331628093,1.10937686751326,1.14515246432476,1.17315990534233,1.17416638418579,1.17507590907292,1.17448917201492,1.17040718796972,1.20447350687896,1.25565055004017,1.25499242375573,1.25254283832435,1.27029039635429,1.29470510481932,1.29585361316918,1.34578716792435,1.2932165935079,1.28769907188839,1.29448847515965,1.3012989372337,1.29375720762681,1.29297649577149,1.28496963517548,1.36810813756768,1.21376088447908,1.17053836355642,1.1854662844465,1.28242802816554,1.16870438448013,1.13775795970372,1.16544245927945,1.22190856780566,1.2032024448375,1.21992741967508,1.19268972710735,1.18362753149113,1.15543745568817,1.17125641765841,1.08909626473568,1.08416461073323,1.09446952220154,1.10758528936713,1.09327892080484,1.09175165269563,1.06450795585045,1.06272356975168,1.01562410917282,1.00595353795619,0.968945840063684,0.93888683998082,0.923796872700861,0.89030736201161,0.890263052390111,0.871745613659671,0.87539770513909,0.87903829152485,0.867363419075431,0.82592089838493,0.836080574935183,0.814480829654653,0.846184344620451,0.876393199510528
0.338177320950567,0.337676486000972,0.337085349965956,0.336023160059451,0.334918209223687,0.334145416868308,0.333392110339142,0.333402179991624,0.333241889081743,0.333227348647065,0.332908147568248,0.332686681817221,0.332231441599396,0.388972050477214,0.416564778049915,0.5490375067046,0.575372805986095,0.476732467982733,0.408945881459547,0.348989051838106,0.34877965519796,0.349453434117534,0.350758545788095,0.351529862493066,0.352512501236859,0.352344517422872,0.352143472331597,0.354989365798805,0.363357191314947,0.364548170206898,0.364834621914529,0.365859783750534,0.369566903479055,0.374692649696978,0.38387928550343,0.38467334549376,0.387914011154415,0.39169824212626,0.393472866662932,0.399484787532125,0.417726013068946,0.432681622161908,0.444209281650266,0.443938776617637,0.443901783261904,0.45747878672432,0.482929192413212,0.495667531604156,0.499377845063339,0.576907787866475,0.669234388439304,0.670422098231194,0.681238977716846,0.710330551942721,0.729801898793078,0.758404218640983,0.779097723735704,0.781477412029534,0.853053048299834,0.837454482028846,0.837476094176318,0.83760657225983,0.837998524025979,0.837294539980902,0.836631956292706,0.830256995803452,0.822851713274304,0.813473504041145,0.802025802872164,0.837958795306743,0.837834657266791,0.86918071981164,0.887591435292562,0.906020648577776,0.917387663061861,0.939457436835912,0.94289585022968,0.95815075100581,0.966345246603501,0.974909596080228,0.982869833521726,0.99470629095068,1.0002128270123,0.998430724297303,0.992466867554798,0.98813536844881,0.985620032000467,0.991526744000698,0.991878647224524,1.01922135965115,1.03230237128833,1.04683837756484,1.05994793289441,1.06173537022732,1.06411301999763,1.05306509341965,1.04930373917235,1.04607607056543,1.0379020778078,1.03868867995011,1.06697361493052,1.07550525763756,1.10271893397378,1.10374236623283,1.11055928506527,1.10958736957136,1.10914331286936,1.13326294547408,1.14901281809088,1.16792928465886,1.17520725377199,1.17551108113465,1.1733255892116,1.19955337058055,1.25626322584437,1.25634332916652,1.25703177828476,1.26444937012405,1.2691849177569,1.27359420233947,1.27753643297641,1.28195634417846,1.28652796451746,1.28380077736195,1.27798605873935,1.27632530239776,1.25944225666213,1.24745935858317,1.23915375343995,1.20740256926155,1.16337627120045,1.15830012492553,1.15424095326304,1.15142705087273,1.14794535902532,1.15821469991195,1.16764682703751,1.18147493006062,1.19979167572175,1.19670637481768,1.19266144162952,1.13460041326387,1.12666669637755,1.10178836905189,1.10208017459851,1.10355470794595,1.10616379777278,1.09543076346321,1.09330838493824,1.04056643125277,1.01854306398645,0.994069052551772,0.970768728262913,0.948066521504334,0.92529053764475,0.910712555056109,0.88989145223236,0.890392170793592,0.869888670442868,0.869312905457328,0.865386559532012,0.859686252625856,0.853007165478831,0.844296323302176,0.834968776074897,0.827193126088396,0.82229969287877
0.337745890398833,0.33776775465168,0.337067180168721,0.336343791379086,0.335635034144946,0.334033824706762,0.33254565545915,0.332537368337728,0.332303541023353,0.332513042419512,0.332441679213706,0.332343822869149,0.331793696178246,0.331905065777845,0.331539094871398,0.526532370076861,0.878540935930258,0.449347822607811,0.343815358033596,0.345292766928808,0.347308340955513,0.349432400844741,0.351595417363002,0.352060630919689,0.352706518859462,0.352510064002342,0.351881591955897,0.354293897526398,0.363023778224278,0.363627110080946,0.363766187545931,0.363991637605017,0.364423514669704,0.370595889633881,0.476109518753421,0.395703412362476,0.395237787388343,0.394445082544496,0.394673837210187,0.394262791088462,0.393700392425851,0.422675288028761,0.454199252814358,0.443107904244393,0.405297451084122,0.451897357317954,0.492111553393999,0.494852210154784,0.482775008849385,0.577260979272395,0.682160739107536,0.66667255790495,0.662276796194367,0.694513395779466,0.720504440153574,0.743648174825685,0.76626297245783,0.77708968082588,0.880526818681718,0.838487630321343,0.839490777095534,0.838774084014134,0.839319815134381,0.83756987575301,0.836279633792091,0.801743622702098,0.757708920029401,0.757849182208868,0.757639328812251,0.839083485110468,0.838229381549931,0.848641045902937,0.850012062672088,0.893011757424653,0.894736086209612,0.929600534115915,0.931895385817799,0.959043811968239,0.993093045305147,0.979281845525455,0.975229669192973,0.992624017970239,1.0097714098066,0.99764262304834,0.996128335959027,0.98858703990973,0.983493845477818,0.991260245503882,0.991502437630097,1.02701590954423,1.04955048397838,1.05492386321562,1.08184913201878,1.062534720494,1.06481345259034,1.05209513927099,1.03903136882348,1.03782342429451,1.03758960166867,1.04090833244429,1.08226554434051,1.08419883573491,1.20584235010711,1.11253564708733,1.1110720697462,1.1095002321735,1.10866016988247,1.10824510615964,1.10905550787379,1.16295459603711,1.1808391957343,1.17887630195945,1.15358851427498,1.19421897698715,1.25695361773514,1.25702837994659,1.26063952997449,1.25086928638105,1.23276809386262,1.2395778849261,1.24214016310863,1.27910695720028,1.28936124206936,1.28179402043602,1.27385392872693,1.27273691768315,1.23514436587783,1.23008922695164,1.22551280313326,1.20018030327942,1.14712311643952,1.14718879138341,1.13104226057696,1.13095175799623,1.13089972776505,1.13659651956116,1.14994403136623,1.17017641602075,1.20211015554202,1.19978484503024,1.2648712473246,1.12567149782898,1.10174752476826,1.10208543398089,1.10188906159265,1.10300697816816,1.12123761995572,1.11056247040697,1.116925703787,1.0193562902342,0.989925087594315,0.971890670071906,0.928867077551427,0.929399773484991,0.864688887860951,0.894227949382514,0.889699417975215,0.89101949311548,0.868313099906966,0.868270411815006,0.819873335417164,0.844403223637615,0.866722593993715,0.852374092109543,0.860751126330111,0.822570763357658,0.814016107326464
0.338937794686236,0.338295508706614,0.33765498417733,0.336684891652911,0.335619454970511,0.334271830958935,0.332822666967678,0.332538215398546,0.332117588187037,0.332437218910614,0.332500211579094,0.332408653520083,0.332220460141385,0.332425690792706,0.395207892863399,0.512682040710213,0.527892384348699,0.422326144762521,0.344626638214862,0.34516292610912,0.346435105861644,0.348636336867426,0.350808560783218,0.351448248652508,0.352270033458645,0.352342649942585,0.352341035326809,0.354073451564448,0.362936997950419,0.362977595630208,0.363511703305193,0.363720597319685,0.364111791120648,0.36779899023605,0.379112569760751,0.395504004669364,0.395185762033002,0.394821700998923,0.394903526853769,0.394395433155579,0.394077445205519,0.41375613944996,0.422399348866365,0.441672154347494,0.440821225636977,0.446579609758518,0.469515153549149,0.495285933798022,0.502901585913817,0.577431132126613,0.636009190927314,0.644423009473532,0.653911232321472,0.681559399242013,0.702525364809177,0.728937143250897,0.762713354729366,0.773444775455881,0.842671202725419,0.832932662044275,0.823250122387763,0.814009471002887,0.803911655812335,0.793175888368113,0.782506709154638,0.772570091776915,0.757975299371707,0.758125744059059,0.758152213290259,0.841703291368182,0.842861186998614,0.847616100425717,0.848199072762703,0.891163511495573,0.892998274855372,0.926048590490399,0.947892017129497,0.959795980044472,0.983885914957804,0.982898297674773,0.987983025699818,0.991096653966265,0.990028050232313,0.990273326700883,0.989344390253035,0.987868848976481,0.99438033095875,0.997792281480794,1.01066524101212,1.03478387739208,1.0559761008918,1.06009460017126,1.06420639557693,1.06150077621694,1.05620490978039,1.04750349365544,1.03795136481193,1.03696241907679,1.03740403754099,1.04383271441383,1.06257872109122,1.09453926505483,1.11455188067203,1.11302643217455,1.11084745293808,1.1085478482485,1.10748869262004,1.10715227789731,1.10782465953912,1.15730879421909,1.16319151461111,1.18016714230846,1.18059364333849,1.18923117427586,1.21934123127455,1.23391948312269,1.25108340111598,1.24661564607775,1.2350187454952,1.23723675061037,1.25707422178944,1.27649847572142,1.28161712671557,1.2807865997267,1.2770308500894,1.27095573710578,1.24976165860311,1.22405772324703,1.203928977432,1.19279232862234,1.1491283901994,1.1468005655286,1.13104338257133,1.13115516463424,1.13149741713042,1.13225263462827,1.1332049159601,1.13438837094159,1.13579141272326,1.12043657487105,1.11562290326582,1.11102361964621,1.10256676829265,1.10297405350534,1.10394784700089,1.10423495908485,1.10466058362098,1.05904613729718,1.02520590712982,0.996583435234943,0.972747028739085,0.957738348316453,0.930057308733304,0.930124996489445,0.901227854167321,0.899221482470855,0.896543130597506,0.893748160181392,0.880950125707348,0.86699236994221,0.844930480308548,0.833371044869701,0.822927923338511,0.813852290375295,0.803884593426128,0.795086105247951,0.787146302176051
0.340113456008837,0.338992401513536,0.338421746997259,0.33698244740533,0.336318500886274,0.334126152291823,0.33275254288029,0.332088500597436,0.331820807780869,0.332285186988399,0.332745333672382,0.332671832222779,0.331996888153938,0.333405502296013,0.491004948090351,0.502522230490898,0.577658659999313,0.395772754833303,0.344587668985129,0.344640906755762,0.343252667378504,0.348899715885233,0.350492514563175,0.351253160571963,0.351841541281983,0.352210865962139,0.352091969007012,0.354456147833711,0.436289306331972,0.362417533880261,0.363206003844665,0.363676394230415,0.363901358055298,0.364465029218,0.364965119166119,0.39532794792709,0.395025250789397,0.395251672074845,0.394829746388488,0.394659409422206,0.39387964421867,0.403603326113654,0.392326120141549,0.440853019110591,0.439472551949005,0.441667427732654,0.442116057199343,0.496074528639765,0.522058100723758,0.577142326580103,0.626335916242518,0.626203944970281,0.626275148057782,0.670040614064416,0.675271125178934,0.713800787156629,0.759159774298908,0.769231070302582,0.85731997157345,0.821430329467051,0.806282656282592,0.783979130399525,0.756789631667395,0.756463114039813,0.756902737835613,0.758765688038976,0.748135454249958,0.758420835933382,0.758623157320934,0.842556238631413,0.847055581011689,0.846397154585078,0.847232266855308,0.887387728896955,0.885097883205992,0.918404496488204,0.961039514866035,0.96041627862237,0.984431083173382,0.984300053373558,0.991493755872243,0.990608045890315,0.98908335129087,0.98610773059774,0.980396996361987,0.984919112911788,1.00460111720272,1.0063052163355,1.02252904690217,1.04303809737808,1.0893223251456,1.06706484233923,1.07344582632297,1.06100972531801,1.03230399769119,1.03220342763927,1.03115998212549,1.03509677071986,1.03344897635034,1.04731424239885,1.05118948489854,1.1030034530548,1.11728321077936,1.1146315633839,1.15508716354265,1.10701624314305,1.10575116560765,1.1057090689768,1.10510060704568,1.15080085333639,1.15464742824102,1.18115927444962,1.18094165838775,1.18082408801879,1.1798076816156,1.21921280950391,1.29479608529737,1.22224460160522,1.20475966220499,1.23275629453072,1.27034338636981,1.27406835519256,1.28285304220313,1.28162418719319,1.29541852952231,1.2676586389894,1.26232744779217,1.2100111941273,1.18601566442587,1.1840085751644,1.15110435373836,1.14574033025459,1.11722691666,1.12335863340503,1.12583254453457,1.12352305025636,1.12148755206567,1.12623640039937,1.13751245902794,1.11887967896644,1.07620350435505,1.07728346994947,1.04473900267247,1.07703381557548,1.10653094444296,1.10524120258079,1.10474042824645,1.03219106833824,0.965508255544343,0.95624529957046,0.931762326204521,0.931403353612394,0.931154785249194,0.931181892992088,0.903465804582574,0.903255347674395,0.902397755315668,0.899382959858019,0.907494755306375,0.865854254988624,0.864987731458698,0.82110739079322,0.795601424308755,0.784943988307048,0.7771213466473,0.759289333254508,0.743025607749548
0.33940886791482,0.338743983363851,0.338009464328485,0.336747357112635,0.335288453412223,0.333992517914289,0.332480462796499,0.332110169943688,0.3316935137055,0.332464501549596,0.333155159985963,0.333203752804204,0.333429729424763,0.333655481490636,0.33714345347107,0.341603742977996,0.342176217524544,0.342784657067012,0.343768290259249,0.344069241955311,0.344806587199452,0.347034214326827,0.349534649044478,0.350443934151374,0.351480718972498,0.352120042707458,0.353123921825519,0.354733098171791,0.357663613896211,0.360572308319925,0.362422174211597,0.363060965414282,0.363864330105357,0.364144167400069,0.364674958089899,0.395256099147041,0.395233939916897,0.394964253442178,0.394701918606137,0.394254835278726,0.394094933321126,0.416639992318381,0.424613262367742,0.440748710264665,0.440577179099397,0.441128981707505,0.441118836813537,0.497503170451969,0.542239196574731,0.576350900880556,0.617073086827533,0.620247550950525,0.627301533056838,0.652184614787392,0.681879662675586,0.702749278210934,0.710290275660317,0.717079651195913,0.719577907626292,0.724637835448758,0.740920900993068,0.743322295906826,0.745518346624834,0.751669859862623,0.753546697661296,0.760923316740411,0.761827091361629,0.782146610227891,0.795175961146489,0.843717857653647,0.844778009700229,0.845750372898166,0.846505553462462,0.886000887971853,0.894950601904604,0.910747431982805,0.928947913024982,0.949168086091672,0.961197813623513,0.979264419224017,0.992203995407593,0.99195261390718,0.990700757766639,0.982696503533054,0.98165177700509,0.982210997072884,1.00644703501693,1.00688883182017,1.0351818541308,1.05216702624626,1.0702847601354,1.06495581169171,1.06314424272256,1.06061226367525,1.04662916516347,1.03219468144891,1.03195879941195,1.03565026551982,1.05456359608365,1.06132185718206,1.09703096734671,1.10574336052434,1.1129277761944,1.11094552139947,1.10870218860115,1.10707821709095,1.10586728567645,1.10452585142138,1.10436896285988,1.14303007352685,1.1554415086943,1.18212504254163,1.181698520247,1.18107352353124,1.18028454556998,1.20199299571488,1.20808680227697,1.20614121686893,1.20506958075486,1.20664532073454,1.20910868208362,1.21183508821904,1.2187998053937,1.21185836424493,1.20833716632684,1.20558480237554,1.20378551543688,1.1967563374892,1.18400861985532,1.18272592218946,1.14533378423239,1.14385125943532,1.12066762663117,1.12096047412198,1.1159922425795,1.11289009954631,1.10916425202699,1.10657359180351,1.10412310094568,1.10126777866048,1.08802336654251,1.07875235640989,1.05056789629234,1.04763240297151,1.04393496090498,1.02987628328467,1.02019391402035,1.00767985003761,0.958480206557628,0.951362690908862,0.931423879688118,0.931235245638056,0.931560892947405,0.931902170176425,0.922983228932082,0.914920182874374,0.908041885238422,0.891933769437093,0.868978522147363,0.853198217928049,0.848179996163899,0.81180262150628,0.782993696274774,0.774510517224196,0.76291916895967,0.749735951202955,0.737665039266285
0.339469309597042,0.33865786903812,0.338131941950658,0.336472621132944,0.334775653576066,0.333416909708413,0.332135733157096,0.331464780634333,0.331115178280831,0.332343603343847,0.33421236978364,0.333690925293631,0.333601177099048,0.334223743833641,0.334005439991063,0.341013567125866,0.342533266566614,0.34278921222767,0.343011384326252,0.343564215872902,0.343305725184165,0.345140107832244,0.350919157534546,0.35003729352566,0.351137380583019,0.352167079546264,0.353165798586509,0.353828905263526,0.353959651422104,0.359683094483616,0.363908410121903,0.3627583573214,0.363352183708268,0.363915460112195,0.36472628073988,0.417695293455546,0.474211229814758,0.431946320164605,0.393435612972709,0.39393515267918,0.393811359040416,0.437498225163212,0.502774896233774,0.444251287938046,0.440212350416678,0.441540370741108,0.439921770748236,0.498797774840465,0.573942048772312,0.575218147315481,0.608645872434523,0.615752494173914,0.628563304526582,0.635414245279533,0.688523426581302,0.689822993298835,0.690523856680854,0.698972713602087,0.710165570348311,0.718911251522227,0.737513981560634,0.735699958742034,0.724271312863648,0.748323919045631,0.743966838773828,0.761832745682225,0.762351454792411,0.797795657309579,0.811816112978012,0.859979364473832,0.867317419680579,0.855702681315425,0.846827138680344,0.885098507381118,0.905215753556419,0.89924022049812,0.897199499070462,0.934134385285319,0.933417548013942,0.975833678079899,0.994049798456884,0.993702394485074,0.995004188424788,0.980428682449489,0.973214547456375,0.980003462722603,1.0078500028512,1.00730167503762,1.09208650237548,1.06134479876036,1.07814757119104,1.0590591083198,1.05545428568958,1.05774337050197,1.0868694838463,1.0312673377557,1.03091782371565,1.03802297661384,1.07070296915992,1.07188260386401,1.16360609522056,1.13941326129991,1.17487978505793,1.10332224269085,1.08039895766567,1.09565263358687,1.10161319116982,1.10336675324687,1.10336293493144,1.13444130760791,1.15605884717134,1.18312374629874,1.1820908129399,1.18102408953137,1.17950270532292,1.19971692437414,1.21073739634481,1.20473780114759,1.19968575707854,1.20681808750439,1.20998359445687,1.20975065717426,1.23239211097431,1.20942138919891,1.18617596898799,1.18542639451126,1.16893662475802,1.17867876377465,1.17653902310164,1.17862432914771,1.13916967397379,1.14105367166797,1.12300520887933,1.12135584314729,1.10774246879602,1.11226680328907,1.09459610956872,1.10253801863545,1.09523528077218,1.09786701369592,1.09548253639708,1.08089012125906,1.05608125565063,1.04588784004355,1.01210273211758,1.01215342819163,0.996329527064905,0.994539167176619,0.954924228336812,0.944825006593555,0.925076315399612,0.930779824934201,0.948542737186132,0.934778916182563,0.937791112373843,0.921706692866086,0.933465305608884,0.885505141668216,0.827887929757551,0.840254592769459,0.839291021210097,0.800932060157726,0.697992802416731,0.701183763819668,0.698967591483264,0.707926665972122,0.720061284461013
0.33897430330355,0.338464422250956,0.337806014961378,0.336668336831303,0.335254789730392,0.333721436817599,0.33192759978059,0.331491374419866,0.331021728805204,0.332032485249303,0.333042640481964,0.33334903252538,0.333874685991979,0.334724025392058,0.335171099023281,0.340106359534858,0.341782954586625,0.342538295556072,0.342852406724899,0.342910596826785,0.343498862410573,0.344831320271355,0.347728627423727,0.349004044275524,0.350530586239962,0.351910436815879,0.353151895100718,0.353803858918062,0.354997957586582,0.357650722971845,0.359524591964297,0.361506929348501,0.362780484708095,0.362686540850587,0.409065733796479,0.431500571684769,0.471048474739135,0.468043929568513,0.462618610258587,0.45436414131965,0.455370293671456,0.45735783697976,0.459118767385844,0.449097806109197,0.447554832693867,0.444533333485548,0.441454169005429,0.499876572312422,0.539669908929249,0.557930673493609,0.605867970840521,0.613198169218413,0.619029947810856,0.62775681747454,0.644258202653755,0.659026676705794,0.674594461649894,0.687859590577459,0.706343605153945,0.712240902183335,0.723368369923555,0.733699981448724,0.739644527694214,0.750711102078014,0.753008861448775,0.781771504644027,0.793984742233441,0.805784513290997,0.816234723021097,0.861612051150912,0.871283447837541,0.876470285684142,0.883758064935193,0.884968340888915,0.894025414376346,0.895670011442116,0.918366132804547,0.934658558887559,0.943348546698322,0.969854693146178,0.994291984418369,0.994924454845291,0.994790923759536,0.978102222964444,0.975545817593872,0.978082806822446,1.00716003985652,1.0072020544147,1.0306733848662,1.04597830175973,1.06124272088221,1.05740473429509,1.05378203172887,1.04856320317647,1.04440138592855,1.03017318429933,1.03009611210136,1.04122416586707,1.05448286354895,1.07852270802703,1.12698457207737,1.12269026831232,1.10938492458594,1.10050994980233,1.08772888534613,1.09137043369644,1.09425883878978,1.09682660713889,1.10643084239906,1.12578314022016,1.17190195996968,1.18492267210409,1.18675571402985,1.188431284656,1.19135917964591,1.19775434066642,1.20031533719221,1.20233154460424,1.20308533699501,1.20557123041843,1.20317185998518,1.19836414803763,1.19525769766844,1.19253639123308,1.18838747950044,1.18597402867992,1.18504303661322,1.18088578195528,1.17753106664769,1.17810976484654,1.15167420835655,1.1401606086359,1.12203389239951,1.12170172035593,1.11959081544121,1.11657470821656,1.10985962833881,1.10685847639474,1.10391217867026,1.10105443032127,1.097903831578,1.08410265536745,1.07632321979081,1.04375226025454,1.01187947763788,1.01216366367702,0.994510434088633,0.992988532169529,0.943942599151422,0.93624845228397,0.927739011372554,0.930135527094276,0.931591127691467,0.932214138376621,0.931862366754747,0.912052339302011,0.892007755420419,0.878567137401441,0.859293427033004,0.840580296603762,0.829458210052082,0.790254425597117,0.716323480667936,0.705536733601153,0.697269948753331,0.691079202254457,0.684957433210305
0.33981657054895,0.338005247647995,0.338365338173885,0.336777899158659,0.336510739300797,0.333691591706244,0.331379582243208,0.330856396406161,0.330248630342145,0.331283773835983,0.332714264297375,0.332807516937313,0.333145550590215,0.3348886863479,0.336305818913221,0.337688312094543,0.344036323112633,0.342211506961822,0.342293970455451,0.342302152233661,0.341843591495295,0.342600435473123,0.341256305092861,0.347123397184241,0.351355662861636,0.351367625056443,0.353376177699823,0.353862568599112,0.354195240127427,0.356244880107895,0.35508224542262,0.361497410632879,0.362143675964234,0.362022231401066,0.488595503210002,0.447139660182678,0.493739908460697,0.469666537706913,0.626203485342962,0.454683893894102,0.454469519186601,0.456614583844571,0.461591054925537,0.450188641914756,0.448621381209169,0.44747017158547,0.440245410457304,0.500904324614322,0.520229288263973,0.550637236453828,0.594130060655411,0.587395718483331,0.581085869723998,0.60978911232538,0.621755705203306,0.626311281326193,0.638979718828567,0.678303071555432,0.700651130416871,0.695985754837507,0.691330535001811,0.731230485154428,0.768022424600944,0.754248858617468,0.755868140936962,0.796967342056115,0.811222582811839,0.815528357247801,0.830673477313951,0.878556118518142,0.935534922723182,0.909893743457197,0.918292082711638,0.885522539663423,0.885877373173983,0.892830860076385,0.93571680309515,0.935020950690286,0.953458112499355,0.963364047058157,0.998858990054674,0.99647153383873,1.00223072969081,0.975375982372451,0.964456139822251,0.976473906356971,1.00651981920699,0.997927880471487,0.990951190813304,1.02851220875546,1.12770948663337,1.03338909861915,1.00993152686496,1.00861694801919,1.00718359692021,1.01808295093542,1.01682988426579,1.04481874584202,1.04639616094631,1.08923206896922,1.13283707777299,1.11899714066406,1.08587895645413,1.09565793128645,1.08264056563534,1.08158540085312,1.08261606901325,1.0935854196529,1.10987924964567,1.11768368202262,1.20338939519209,1.1981648149724,1.20921798725438,1.1939127919662,1.19465652973943,1.1949676980924,1.19307456215894,1.19943109044539,1.20716371469598,1.20649163250485,1.20765606740567,1.1962537329237,1.19210628003425,1.19295932454308,1.33356061933043,1.25434709067055,1.33281532879501,1.18297338026457,1.17807644434078,1.17790561743566,1.22862560571954,1.13936268483498,1.12227769948811,1.12248564905377,1.12354521956253,1.11889045269884,1.11380125781503,1.11609567900422,1.11968487886642,1.11774437314725,1.11133594503118,1.0881365311143,1.0915172251622,1.04192022109845,1.01120819644888,1.01242376480328,0.986333931939731,0.989828275849752,0.919900640908034,0.92695320948463,0.919687290064662,0.931002522590868,0.930695410762893,0.931588976260135,0.932200461553456,0.902591227660443,0.852148388103821,0.871381417491105,0.89759681021979,0.840930580183027,0.811071384196181,0.780240990050684,0.734508887225397,0.710002612186805,0.694979571959208,0.688116319402302,0.656918313754396
0.334586907303953,0.335653455794042,0.33649758652151,0.336062976319361,0.335473109503676,0.333852830379627,0.332048345274959,0.331174313378762,0.330152840297155,0.33066031207866,0.330892833018065,0.331677811943949,0.332752867409715,0.334979995002591,0.336860224792729,0.338308548615069,0.340308391527934,0.341043021215544,0.341259114488657,0.341114200703706,0.341188023135964,0.341002752461005,0.341951161538019,0.345885860422602,0.348284482609419,0.350299920991221,0.351916499935038,0.35311411063431,0.354707174169062,0.355448878954696,0.357112325611769,0.359104025241507,0.360497512941214,0.360523409079176,0.401131284759796,0.419763206945654,0.438412347892243,0.449477275391254,0.512147773764994,0.455340296733697,0.455134105040047,0.456900025277642,0.458796747971518,0.451938411809449,0.448856297664371,0.448504058825534,0.448694982599128,0.502028388010335,0.519404344635752,0.543604176916578,0.553813433885577,0.572372200230336,0.576500566889656,0.599515931358838,0.606772928986355,0.615470144945107,0.624025762206485,0.666055598229696,0.675895347553729,0.678641932260892,0.684330793398942,0.728579434158276,0.748550018131447,0.753457646042333,0.764907159007761,0.8075735222436,0.834875841798667,0.857194606499901,0.878764605532721,0.899985486589559,0.914519672408384,0.902990530413067,0.898460780676948,0.88591663321383,0.886567033925134,0.890203212495238,0.915738501428701,0.934672430907607,0.958133466317038,0.96087826992633,0.963343896694399,0.965598711936673,0.96848174328674,0.97575248279622,0.976824347266459,0.975788371302313,0.979902249940101,0.983407817865664,0.986791215965538,0.990551717451127,0.995007292967258,1.00033869187882,1.00980009199209,1.00851891999226,1.00705265957634,1.01989871463615,1.02955041963811,1.04706934832683,1.08160502782402,1.09909497538491,1.11677721965457,1.11639493452148,1.10661955557386,1.10051345752115,1.09577631704396,1.07969070632953,1.08047869924388,1.08976873695306,1.09759253729251,1.11063669768849,1.19294122177866,1.19276185787352,1.19271545108252,1.1927113159764,1.19286371417373,1.19397583995172,1.1951748950046,1.19717242860815,1.19730916593409,1.19705152937323,1.19675422637247,1.19564079754915,1.19434884017421,1.19341831426448,1.19322621508924,1.19377480920002,1.19463585883487,1.18463374046521,1.16624889534728,1.15881865842343,1.1515392663325,1.13949577762788,1.13496768896388,1.13222048266389,1.13034393356187,1.12877649951154,1.12801093786308,1.12739100952577,1.12445912243245,1.12132914305863,1.10832746288843,1.08242186351043,1.06402156550201,1.04035275167076,1.01385490174101,1.01375216561476,1.00323030091855,0.989836697442179,0.969202658616842,0.951434046656524,0.943216456084971,0.940897097387158,0.936672989700764,0.929814324373096,0.929454734858668,0.891229074452202,0.862118639092115,0.863448286017666,0.865280161494263,0.841829909936132,0.792546654044571,0.770831103316441,0.72646870734597,0.714269520021356,0.708842564702832,0.684825201556902,0.664506722880051
0.33056020798565,0.333544303677765,0.335932378581514,0.335469019612857,0.335674875235303,0.333896706409749,0.33241728572508,0.331143139587889,0.329239537486779,0.329891519768063,0.32803785653443,0.330809330080845,0.329757379711921,0.335482530632747,0.337805026348091,0.337977168059719,0.33900717197324,0.339748517342358,0.340234403999168,0.340069614968294,0.339303877617098,0.34012783610777,0.338571968965967,0.345156553098198,0.347671191341018,0.348575607587249,0.35207541335264,0.35228787210933,0.354832197144612,0.355391683137867,0.356667112874142,0.358403776368141,0.358578283255913,0.359730951664647,0.35947645219577,0.36474473427138,0.366766678440396,0.435893039649799,0.709507155683401,0.455346562577713,0.453712127178,0.47950333758759,0.512689660108108,0.486350947495134,0.449124709615971,0.448895516755222,0.449032328527328,0.503427781446332,0.518729115755091,0.53269680003879,0.534187587456224,0.567266984929031,0.557484648532242,0.589232870829139,0.592766246011846,0.602643766728284,0.610052786562393,0.653332201917752,0.671290863983753,0.672824788799916,0.67405558714835,0.726081021312636,0.732576484661273,0.753080487335802,0.782087139012661,0.82437910246932,1.03765197459275,0.931875714797158,0.970292827385566,0.941658767644777,0.965000312463698,0.897848099307885,0.884240096747807,0.88585135177309,0.887666368867879,0.887368742001505,0.895949603138488,0.934402141424666,0.996991217461138,0.948709368941402,0.936271911358278,0.937924945645679,0.938222652938236,0.973667423779648,0.980405449708594,0.974923218488777,0.969467015911885,0.980579413340751,0.981724679138301,0.98558013753875,0.990341423417936,0.996591261208088,1.01031090605689,1.00868897867698,1.00471307366114,1.02238951440311,1.03680200993687,1.04960914270741,1.13008688074704,1.10617072171044,1.11601765593132,1.11633586690593,1.15751170506837,1.11528512275621,1.11297134913469,1.07737383761481,1.07225476759136,1.07971260009896,1.08110723536475,1.10502756960025,1.19297051871477,1.18772478126899,1.17581579624807,1.19119930066207,1.18999903331151,1.19303625716703,1.25308813950423,1.19722801938973,1.19744039760433,1.19738510843544,1.19583761756681,1.19606184858277,1.19413252503593,1.19388892867945,1.1927050423595,1.19388813535183,1.19535159507947,1.18654090431973,1.14475797489881,1.150733801704,1.14303249251797,1.14141276861006,1.20468197719795,1.15144821446943,1.17099227519523,1.1401660521528,1.13828876068657,1.14209848193822,1.26801278844229,1.12225489855645,1.10622816300826,1.08183401704778,1.03948955554399,1.03888994408578,1.01605062530463,1.01511663180823,1.0140223830365,0.997229156291628,0.997340906887574,0.959413799480496,0.945813442923933,0.945203418261638,0.944457449952054,0.928538996694823,0.927543071202748,0.880160291068419,0.860765840690189,0.862164457270641,0.867719377871083,0.843001269051215,0.773439880952406,0.76206853576754,0.719806404377563,0.719194733286561,0.720427858694096,0.680950496389104,0.675380548787212
0.330649140752938,0.331886069652823,0.333090084140891,0.333886968427674,0.334448995290227,0.33379542811805,0.333006678161989,0.332255236793039,0.331420060507255,0.331545199947442,0.331980117015566,0.332043964212311,0.332854656330659,0.334467915542314,0.335613722871785,0.33672411916769,0.337926511471968,0.338597347688041,0.339110660730847,0.339209450107959,0.339248444051526,0.339378870822119,0.34032210024895,0.342734071879565,0.344515863255129,0.346362636145782,0.348566766088154,0.349820697685967,0.351816790179936,0.35384051123634,0.356923125136145,0.358062962470613,0.358998937342738,0.359505017921405,0.360309701163554,0.362897461656098,0.364495709555989,0.414270400324153,0.440658790893176,0.445068897311553,0.473657532824826,0.489186937195549,0.512236882197274,0.511262120826088,0.509552932389325,0.507214067950641,0.506519711411934,0.505285146832578,0.510113918328908,0.531203879630769,0.53266922056353,0.573690560666809,0.576467346841412,0.587045944484622,0.589263549023292,0.599209470348005,0.604554470379908,0.63668585705674,0.671636357347141,0.672014556743831,0.697803065902362,0.723941931466118,0.727303769147394,0.752928369218979,0.814292054440018,0.841024696123465,0.892912373358772,0.915288617457487,0.937031912447831,0.923568076337547,0.90709219857579,0.892732505995987,0.884652598333164,0.885451096279802,0.886327235195058,0.885558255221779,0.913085968912255,0.934162698246426,0.938511494206567,0.938060571142076,0.937329896111488,0.937513415543342,0.958191730126267,0.971682342276173,0.971478796064215,0.972975059301439,0.971753254728718,0.979672158266243,0.980388384802703,0.985019028039034,0.986775716145235,0.99460085400155,1.0100155813065,1.01715330496397,1.02227932388811,1.02530037956757,1.04480703114514,1.05286411133692,1.07713658639663,1.10173721685597,1.10369266879668,1.11281858308919,1.11900197586717,1.11725817261126,1.1153041058192,1.07548932888367,1.075013612458,1.07811774167275,1.07965130791476,1.10109099324587,1.13717349012515,1.15800866940863,1.18390257474619,1.19081203057078,1.19099148043759,1.19224782971846,1.1944485278983,1.19630871297494,1.1973703767344,1.19723174000709,1.19729381584237,1.19650766450659,1.19593471406817,1.19428603293688,1.19330646312374,1.19338528649523,1.19375361491972,1.18938959896988,1.18401450960696,1.15613862279037,1.14397771724102,1.14253048909939,1.14252161236978,1.14227141717473,1.14222811940492,1.14198162766745,1.14680236397139,1.15017481404546,1.1928453354968,1.12703616987951,1.1132372675872,1.08035407012201,1.03843083910391,1.03670368307364,1.01740884598193,1.01665285729886,1.01559087787109,0.996414988581601,0.99648114763372,0.970491651440928,0.959177732843351,0.945401582318409,0.945312216672322,0.921344645243578,0.893627746802225,0.870609039327854,0.854001108136903,0.850571750356262,0.849428588614966,0.84395947975698,0.757282058617651,0.748834047250094,0.721511956505648,0.716915507485371,0.695589444516768,0.677258937174738,0.658348714071146
0.329995072812006,0.330712325988263,0.330568206718976,0.332758507506702,0.334116448941319,0.333883640917115,0.333695534434358,0.333223009245917,0.333135802284802,0.333048520336532,0.333867658047841,0.333520449102428,0.334044141320091,0.334095725962759,0.333440517471969,0.335649327925749,0.337232381405588,0.337686839806405,0.338323588346032,0.338427639007841,0.338677985090754,0.338895794564239,0.339097218903129,0.340932825918832,0.342011016780448,0.343402573745487,0.342241987972387,0.347523297064772,0.347343829441393,0.35203425247875,0.358352474731546,0.358067956378979,0.359250553467396,0.359196249875056,0.359815919051344,0.361589208465784,0.363896709528168,0.363481956043953,0.365167170554148,0.442491189629608,0.589960666989052,0.512542877137947,0.516489822110573,0.517394164058507,0.601401352010555,0.505547815576053,0.507131564370806,0.506220741952638,0.497205379078711,0.528257347491326,0.525304125900888,0.577302714474765,0.58353301498151,0.581899413921594,0.577021548416615,0.595069488173729,0.600688441954724,0.621406637231283,0.671251734327275,0.671696099244673,0.720982079641443,0.722208735407065,0.722369274667517,0.752854907115401,0.861758742788933,0.86216060575842,0.862565160960748,0.900925623637019,0.970528667816981,0.908155243960699,0.856804310589043,0.867343233568389,0.86738098556061,0.877205944838947,0.881416802939523,0.882959811548785,0.933419138455571,0.933845573077125,0.938984354968376,0.938307224242604,0.937641140367509,0.937316303765107,0.976624250089423,0.970403118666039,0.970017327421406,0.972056459490269,0.972941641577952,0.96746156603008,0.961471727471165,0.959531940808294,0.954487102416571,0.988241909948283,1.00946544437236,1.02242307140342,1.02925834261178,1.0282790085461,1.06146130492946,1.05653212469031,1.06202525622456,1.09617661623774,1.09513946699336,1.11020621883665,1.12038696440656,1.11901696570836,1.13653035132905,1.07116218044556,1.0630140991847,1.06058253730042,1.05544054816585,1.09738328975034,1.10811494845202,1.1426760229053,1.1899720506419,1.19059803305711,1.30631506152892,1.19089194894379,1.19007897341063,1.19643479633602,1.19677999115903,1.19790129529025,1.19714840226657,1.19811996246934,1.19744975744532,1.19534300375483,1.19227620930566,1.21857616862239,1.25087811608366,1.21203686270763,1.20309939354075,1.161190538072,1.14628592457035,1.1418818093398,1.13566718745868,1.13831640156195,1.08529395171215,1.14324404527204,1.16307325793944,1.15563187112579,1.27712608790084,1.13492825397275,1.11981273338775,1.07790531675691,1.02940705796339,1.03269747660643,1.01953533897932,1.01803138237211,1.01995585799178,0.996200700877283,0.996284724789183,0.980905976206629,0.997263368678659,0.945619036824835,0.946257508439434,0.914927429118904,0.846585900678419,0.861359976827782,0.84581429074868,0.84616024114583,0.847490928880339,0.844323919952635,0.722593411858206,0.737740584993424,0.723295305857784,0.715454924172051,0.674158856906642,0.672819225858528,0.632242324840547
0.328762246102085,0.329474803760224,0.330391181271189,0.331840632947335,0.333358812485227,0.333646977376764,0.333926758968671,0.333966907359153,0.334050979110223,0.334133416252815,0.334197982887411,0.334299718790151,0.334380740179199,0.334455836075149,0.334480511280458,0.33518220375938,0.335814819577685,0.336643949664084,0.337395450118122,0.337625193792102,0.337830121889563,0.33809531556897,0.338509384230116,0.339643093973399,0.340765174631024,0.341778300666915,0.342610225075796,0.344690949886715,0.347857464282984,0.350072339147212,0.352665138865375,0.356287759283825,0.357994998527789,0.358290498524478,0.358679373204863,0.35983258377842,0.361710825877546,0.36116086584973,0.42475479416332,0.44134172633569,0.475015076359958,0.510882048017995,0.518266315127646,0.518109750562361,0.551187125525885,0.503413418644651,0.50491873753877,0.505756896985463,0.509189926918095,0.546063388490797,0.559463848906065,0.580183955707348,0.583280755905131,0.58225327313099,0.581303307858437,0.590504031983245,0.59337422348014,0.609363559285251,0.63612115462154,0.655056411063581,0.677294013223314,0.697906123857206,0.736427832815158,0.752859138037592,0.861991440953227,0.862166996204453,0.862336672142848,0.884389779821008,0.902414159888295,0.902784614990252,0.876594914620169,0.867355261688959,0.867382606193956,0.874146976609676,0.881212515822432,0.881230374808261,0.913223141266755,0.918196966903914,0.938775184679862,0.938769180174866,0.938553560379437,0.937412007326126,0.94654180855485,0.949969247234987,0.952687520416571,0.955966001095692,0.965102239490408,0.964422558122979,0.964218947387783,0.957237154814597,0.955792778838543,0.981439585169519,1.0215106158916,1.02454832246143,1.02972499399233,1.03020763387221,1.04614292811281,1.04975884468023,1.06478941485437,1.09700855950834,1.09728912582848,1.10699237181724,1.10807075365341,1.1076612742422,1.10705134293652,1.07079610227202,1.06714509355765,1.05816026108572,1.0570791621302,1.09137607977505,1.09499877104154,1.12654211595394,1.14708562580651,1.16569445728842,1.18418798436502,1.19059467775066,1.19232245361638,1.19549837293569,1.19699095609213,1.19790272197441,1.19932615673689,1.19975132901608,1.20105978597985,1.20884381508756,1.21437620045229,1.22212099659887,1.23322024314225,1.22614913937006,1.2043224813117,1.16268670572299,1.14331669853064,1.14108862170752,1.13836791303595,1.1398775854147,1.14200073726691,1.14375214468746,1.14503991551926,1.14853416143316,1.15327921508588,1.14596426829273,1.13548052826484,1.07551222795548,1.04375691192225,1.03878471789752,1.02866718769196,1.00622530479399,1.00306556201012,0.996574935571195,0.997342208036587,0.972216838367906,0.96683821080386,0.931800637563939,0.925179022781118,0.909368973082805,0.880673693658632,0.871404359705684,0.860211259624409,0.845145153574498,0.845459084781104,0.843926246772977,0.776409910653609,0.742469581047703,0.730908682866962,0.714359284298395,0.681850380610525,0.668876113161674,0.638722446125723
0.32711755794405,0.328426082112413,0.329081888419333,0.331204160838747,0.333374532770935,0.33368229019853,0.334216146327887,0.334646011870281,0.335277865193919,0.334893039312318,0.335101347611843,0.334698896131071,0.335117031912394,0.334724260613064,0.335029706400555,0.334714440626142,0.334258402189358,0.335654535162294,0.33706403985619,0.336831349099009,0.336966111059958,0.33714494389859,0.337100067702608,0.338414349693703,0.339657070117568,0.340173077868184,0.340521848774577,0.342506203973484,0.347891223672527,0.348504858242823,0.348631423743059,0.356203644057632,0.358372332237715,0.357239634662762,0.357006626266156,0.357179602783673,0.355888804642866,0.35811502658271,0.734296084935225,0.435501386094337,0.424592923876568,0.509347152764811,0.520053164449813,0.518545449157683,0.602016452143967,0.498163225488329,0.46601788658049,0.49803351431134,0.517285125249024,0.567062047624088,0.656221724041971,0.599882779596354,0.583588183993807,0.582774948196004,0.582044172168934,0.581942206383479,0.58146981497229,0.597582114015286,0.603319169067457,0.623424356470394,0.636451703987965,0.681161168799233,0.750764297024529,0.75303799422452,0.902639311553451,0.868777594591378,0.853654997040598,0.874518730729349,0.901451916130175,0.902415496854911,0.955141708361817,0.853842055994696,0.808199133690954,0.863098321818196,0.919946096864958,0.879900995489022,0.879730991393713,0.911340139180832,0.962849350659503,0.939773981012698,0.94073876036162,0.933472071960656,0.924815639831141,0.947802371657608,0.950071790408891,0.955089938225744,0.964231550561501,0.965199587369977,0.967403784665337,0.954356352902058,0.950765902873936,0.974871974888354,1.08486944476846,1.04975235316814,1.12483209912317,1.0325444594393,1.03476037063425,1.04598196748919,1.0675950909642,1.09775636760806,1.09873889129955,1.10369008209363,1.10923009800898,1.1077695681346,1.10630497345359,1.07093034662671,1.07210292519887,1.05704674156062,1.05435551285201,1.08155272897625,1.08502627860337,1.10884641665029,1.11212523739574,1.137695733636,1.13724527570188,1.18889538206269,1.27510721116325,1.2523455257939,1.30655091310625,1.20781181151624,1.20095850524104,1.20090476216769,1.20178786712423,1.24034264735906,1.29400361241961,1.31441011821337,1.40397642384239,1.24055261156033,1.20556734224453,1.1649880924145,1.10261594461629,1.10778578165537,1.1052845678435,1.1145714520553,1.26034289976756,1.11126925633415,1.06949999569099,1.11418334062236,1.1674526376378,1.15687433045284,1.17367222336562,1.07239806682458,1.06783707899962,1.04194565244278,1.05376470117506,0.998628027746321,0.994156900854212,0.996638034124429,0.99936423579858,0.966730071736566,0.95530208183603,0.921568983742442,0.91164409888943,0.903499454540194,0.896481103099065,0.883265734557475,0.895423252241696,0.843841278337496,0.843753738429566,0.842858086343155,0.806896809639728,0.746901622206336,0.740004787056211,0.713392051673256,0.689635715077956,0.664381856420189,0.648666326297074
0.327098272006889,0.327730283652796,0.328504193391179,0.330109823016464,0.331975603616459,0.333141869209,0.334539921426603,0.335092168664774,0.335703267165737,0.335549016642176,0.335112272935402,0.33495208830238,0.334515838866556,0.334795452289788,0.334817918553246,0.334593049215937,0.334262848793496,0.334678803646901,0.33516124813802,0.335618650495645,0.336183299188209,0.336390058958491,0.336790561558192,0.337607728314182,0.338344747645428,0.339298527651419,0.339610036258999,0.34146832300655,0.345580089324103,0.347591601718191,0.351895590901759,0.354892038644715,0.355909596837409,0.355692230323791,0.355638906592421,0.355820176426132,0.355675765327902,0.356302002865079,0.431260056198919,0.428961020292441,0.426745944033736,0.508086097782572,0.514848869854318,0.517250848668451,0.518067399354266,0.494449105575491,0.489742385513121,0.494110135952756,0.556815612883579,0.588239904293337,0.637692422530655,0.616192749088304,0.597360859505707,0.58346339882976,0.583197572621578,0.582531694508573,0.58182789685398,0.592619214098542,0.604177814077132,0.617748132368785,0.621590421166481,0.662794662533854,0.753179594177753,0.753461093626292,0.881386928380438,0.875283387651718,0.867273027449356,0.862998073354179,0.858061316270332,0.8509650163244,0.842310674809744,0.832282177427104,0.820334665494041,0.85036306271446,0.863441047613401,0.874057521951161,0.875653581583556,0.905752983987204,0.907727377631683,0.91427504369953,0.921805942982051,0.928426215892685,0.934351576658333,0.944517336157893,0.945802589968556,0.946697996612304,0.947724593791631,0.94906853125004,0.951274950374004,0.952010336549403,0.950880796605306,0.969107457321199,0.992128837004901,1.00365677590135,1.01774886725181,1.02921678110307,1.03433638966629,1.04393592650715,1.0814605082774,1.09684083468213,1.0976717740592,1.09861534209037,1.09997249872813,1.08876874735851,1.07856296896847,1.06639173789316,1.06419463944691,1.05604059584359,1.05506071824153,1.07954833167134,1.08338583583225,1.10551383452842,1.11290253105287,1.13800978989511,1.13822611151688,1.18751533729042,1.25414891566428,1.24104012958797,1.22985352525006,1.2259871228907,1.22613278527831,1.22642772863945,1.24135421958025,1.24635836511822,1.31280163374336,1.32408587990271,1.33488896350693,1.25375218970618,1.222214845728,1.16828452045878,1.11445278264514,1.11023020367075,1.10770852103697,1.10651649804559,1.10132820876498,1.08905190872643,1.0602252575411,1.05442410450235,1.05030567480792,1.04777314946265,1.04586754027969,1.043275048077,1.0391640956538,1.03039172222753,1.01976081271305,0.992751856835602,0.981159779443904,0.965297696575858,0.950000336494918,0.935393861614469,0.91511923707548,0.902793749937567,0.893049356575549,0.882844687850202,0.871462189213332,0.861353845064298,0.851880921412496,0.842842196772304,0.842099345311796,0.840989439736272,0.824242516990035,0.751770592735901,0.721794290371817,0.712412350269273,0.703222855200727,0.65961322538176,0.635154646079989
0.326853424695623,0.326918753421742,0.32694791361674,0.328972877162107,0.33103654735199,0.332728127318513,0.33515570400826,0.335589232013173,0.33714437108446,0.336193930765563,0.33557907138421,0.334916754121338,0.334009690397713,0.334654530360133,0.335327245291356,0.334388657274643,0.333608647062488,0.333685439017695,0.333114381210484,0.334466392497327,0.335526938929249,0.335542805740069,0.33611351970884,0.336474444531851,0.337933749206586,0.337548878443185,0.338335040791866,0.338439301269219,0.337273421594428,0.34772541415949,0.48935493535776,0.355149142787861,0.355105079609854,0.354318651631347,0.354546240740515,0.354422150775525,0.354304710399096,0.35477995686395,0.433625383152998,0.404448474247034,0.358078199479833,0.506428035602506,0.511745077370798,0.517916632622373,0.518733031241617,0.490341468241709,0.474465722915161,0.49023919419267,0.658132113895448,0.609457259256477,0.657395331492728,0.630945190576059,0.687056929263639,0.584254603857836,0.584982926881334,0.58300272010714,0.581443359347932,0.588478940552452,0.605002820299716,0.612730219107551,0.616370217324517,0.642966200943127,0.7554162269355,0.754362812548504,0.890802407585136,0.881377671665866,0.926425382420533,0.807801636296114,0.728544421702909,0.728791767786371,0.729389085644962,0.802436595062756,0.808619139601108,0.836621537611839,0.812807243247235,0.87231079774583,0.872322234237729,0.89978561121568,0.901770415127101,0.90960375728128,0.911153942978981,0.923980924451966,0.95414942437224,0.942783577458679,0.921401307623771,0.925049991694737,0.918884633869809,0.948514220632269,0.952650800171324,0.950979081520347,0.948965729252734,0.965154459526922,0.966898754131617,0.972080099649061,0.970069956469893,1.02755182466787,1.03292383086914,1.04144087789685,1.09471266141919,1.09567842396237,1.09571630790044,1.09777574753676,1.10182830060755,1.08211477071827,1.07241647425663,1.0637182656056,1.04752188727671,1.05413204992217,1.05492966373902,1.07817377164995,1.08129678641507,1.10167251627333,1.11361177872056,1.138376329946,1.1393667247987,1.18669169881105,1.38249507511869,1.22468246925896,1.18757798809519,1.22606872601886,1.2259934897082,1.22641051713075,1.27782276048214,1.25491816331739,1.45488259762944,1.38004642916805,1.38072177392718,1.26537318574604,1.24117289099336,1.17253197910111,1.12383309404447,1.11306404125031,1.14502978478727,1.10237165147271,1.05016105568951,1.04923143016431,1.04980105649046,1.04903170305458,1.04880577192166,1.04578920025028,1.03304229959768,1.03251982870019,1.03126270137314,1.0199847163576,1.00768940877918,0.986674436846305,0.941583696429038,0.935102127422942,0.929352770538725,0.920585850840516,0.873307299311664,0.859797863692526,0.836155573048775,0.835014170281521,0.826360824224262,0.832140879369963,0.833405111083867,0.836699535251292,0.839867391007873,0.839820047282489,0.838865255603097,0.756873245309953,0.710184111409545,0.711322405663393,0.711279797447495,0.654498143583851,0.609253038469706
0.32608706635244,0.326365729224982,0.326634311726402,0.327833659401523,0.329241878048344,0.331086987567925,0.333994970347838,0.334630168669346,0.336933473347107,0.337111921418168,0.336505972039393,0.336034928064275,0.335236592233198,0.335299756351568,0.334986056214203,0.334378875566119,0.333574016565092,0.333227034519923,0.33295902348538,0.333245510926951,0.333634392788946,0.333928549108059,0.334298216474139,0.3350310138909,0.335473187222549,0.336709847199339,0.337017346398922,0.337618582792152,0.337431282178085,0.347833743721157,0.348156437530617,0.349047080358751,0.351508054158765,0.352440692798712,0.353176008647634,0.3534248826593,0.353393315927091,0.353502033044643,0.353239141179232,0.353872604487124,0.356050761289874,0.504094825265213,0.514263605347233,0.516413541027405,0.51750124196441,0.486738798933288,0.483907980013727,0.48671128998832,0.498377638636262,0.506496817047432,0.514233921150432,0.522312478433113,0.531116271881925,0.540075502865204,0.548590373183442,0.556107826252842,0.564812548314795,0.572927888917539,0.579531719697227,0.590610934884224,0.599747425140975,0.620028678081893,0.64882606554451,0.701450582732958,0.753803266936178,0.755926932571976,0.760147163215311,0.754834320012281,0.728455284453191,0.728502555982285,0.728608455326816,0.798033783380546,0.833357075272746,0.85000580477145,0.861010027773801,0.870571469235779,0.870400734820094,0.892910154147464,0.904983235168552,0.908057203662435,0.909608771570337,0.919813972754999,0.946018028143022,0.940339774465974,0.931315733395784,0.927689233739884,0.926748707055059,0.941464464668121,0.951312265042111,0.949770604715653,0.948693163306019,0.963505522000359,0.965124935255147,0.974115739073352,0.975824492879098,1.02643260654143,1.0342217912506,1.03919926676947,1.07746628212522,1.07488897397711,1.07214267472699,1.06909275865144,1.06584475375434,1.06247852109648,1.05913148571797,1.05610330011126,1.05224329878539,1.05309755890904,1.05875573602322,1.07643991910976,1.07700270634828,1.09760785818754,1.10006656501848,1.14714401746071,1.14897803705472,1.18653606833905,1.19930862432569,1.21010037074185,1.21730326689452,1.22648484991331,1.22634648309633,1.22654307425268,1.24078215987233,1.24560546613188,1.36222549054351,1.36432082632959,1.36683692776198,1.27757858417938,1.25531448710968,1.17547057201318,1.14689038272798,1.11010050854664,1.10859807862832,1.09560566874356,1.0654104375533,1.04760368318915,1.04726630371397,1.0454177305082,1.04427647149759,1.04253307479762,1.03603918269929,1.02656176733973,1.02646853314878,1.00951447125702,0.989072798202815,0.976251352355755,0.954884295706589,0.931441217456045,0.915728009945215,0.91079266325057,0.861301782200651,0.853511794705346,0.834999569134542,0.833722387531532,0.830541691620741,0.83142412482648,0.832613943660409,0.832984227886797,0.833329580822069,0.833749431225851,0.833894281041938,0.762461571723473,0.749353951472275,0.720158833297975,0.717446120674343,0.649248763499986,0.607660792859006
