0.3440569176977,0.343967025112943,0.344182025934216,0.344020775318262,0.350415196295782,0.349261420336794,0.341379601436242,0.339680909602649,0.336473505109432,0.331805577795842,0.32968707832416,0.499392230884511,0.745980565058923,0.318846217948068,0.318965765818517,0.319642277023386,0.322290864726828,0.320986958884021,0.326300815389108,0.328764984284648,0.627565155832029,0.342358225864106,0.343764071751483,0.344081939345003,0.547538513934525,0.354952455006787,0.356141446617535,0.362041921742734,0.359564778659703,0.363565462045204,0.691944000888166,0.379083517011664,0.74984594620345,0.387891136862439,0.403451821302083,0.396282655985837,0.395293837553516,0.395064009089397,0.55501720629519,0.758451539420443,0.514025260918575,0.506597538580194,0.541820604161873,0.585210920768898,0.689697612996933,0.795623513308749,0.713137336154095,0.806220644305552,0.84424428092985,0.770436908478743,0.841432589155097,0.98636260397443,1.09484534594958,0.937894746420183,0.935179434323931,0.991821029997269,1.04349536531706,1.08861773595408,0.941407044319429,1.02458085341109,1.03045630688898,1.0116808041347,1.03208734760209,1.03712874616987,1.14661235403715,1.14187677560308,1.05633054365599,1.0433007525047,1.04998245906237,1.13092285445028,1.05569110155824,1.13981944015813,1.12086785914505,1.09791281456343,1.14952227894576,1.23428079236663,1.15957727425099,1.20971324162546,1.15511971412029,1.27123869216134,1.28720621005158,0.00425369857612131,1.62398831547776,1.61203352843283,1.5084902449809,1.40825537933907,1.41528924241435,1.46107885697946,1.42535350499636,1.22910965192394,1.11137816772334,1.10795854259188,1.08146339828068,1.05284604758708,1.05354109334551,1.04598826277061,1.06584803690804,1.06609825338107,1.04066884589946,0.89438858885342,0.963852388678203,0.95719848395087,0.852188190584821,0.853903563516617,0.832114342353797,0.770673224036608,0.774446859141023,0.619181050530054,0.602667690037528,0.560796280094584,0.468682329094212,0.470212356490427,0.44482279829896,0.452979855319849,0.417618707314163,0.417471357613376,0.442902618550348,0.342625123435342,0.343615795323019,0.379194724333012,0.313498999246577,0.300678648550488,0.301052119804682,0.298124587070191,0.293768040256376,0.290758028758553,0.294472353291582,0.295665051813041,0.29651764127671,0.294060886202593,0.292415944574318,0.290846994615631,0.281365643743021,0.283509164862007,0.285110550289421,0.284825118164627,0.391324662909064,0.392909367238276,0.439290234061889,0.258080684108069,0.354691117801619,0.35532221935027,0.329966950082886,0.373708496479835,0.354979330109446,0.392751823533032,0.40180131930774,0.382239024754918,0.467198638081891,0.467668489014587
0.342639024350511,0.343028249975229,0.345621234017997,0.350758085536605,0.350914702514171,0.350990694183759,0.341347165967516,0.339857914589128,0.337389112055199,0.331502537845169,0.330330227332623,0.65944458795184,0.380835959050575,0.31943283656818,0.319463418581551,0.320391999714808,0.32167181063799,0.518414243201116,0.417256356792103,0.726513723456925,0.335697834043028,0.343062538899311,0.343662131706914,0.343512928550772,0.547550561394338,0.357525051040642,0.357466667196934,0.361348729439663,0.35910234154843,0.363631259710335,0.845321138491571,0.378049288923126,0.383644870642295,0.389733471486107,0.404902150117999,0.403403631462832,0.393798099081383,0.39416600996951,0.563253961896379,0.757984468670781,0.517601503027596,0.544017875486178,0.5830636927392,0.646043179001706,0.69048069788476,0.796884789678373,0.879311656261641,0.887978413505376,0.881421815184223,0.842922767261162,0.799092255007134,0.945577318869986,0.982664960539603,0.944279900120924,0.925851920245853,0.928479193212704,0.919281421009532,0.910138325739356,0.914906339642159,1.00759393507515,1.03043777233542,1.06831313253126,0.982868840628741,0.984296001252709,1.07657954341814,1.03681365875939,1.03697120246463,1.04820314192079,1.06577389869381,1.06417065981104,1.05594131803127,1.06419846164137,1.09553112443122,1.0991175605447,1.12156290490347,1.15926218684051,1.16043913099144,1.1452222625203,1.16561027143413,1.16840898902139,1.27141477042014,1.78021606741839,1.64948259389683,1.61353482727103,1.61564776637664,1.4080236974196,1.4131021650945,1.4146034639327,1.43025589441245,1.18296788084123,1.13672416971394,1.11195273888364,1.09406689470014,1.06033400722452,1.06607045155074,1.05245682196236,1.0531889368279,1.06578316597059,0.990458740310754,0.892462848738741,0.89278998360904,0.889740122821067,0.854432725020698,0.841321381833748,0.833908487138215,0.769358197461666,0.823126937333509,0.595224213328624,0.595897944350458,0.556319258682642,0.541590775697754,0.506554909107011,0.476701303691093,0.454354192466177,0.415824562529745,0.416803186957609,0.406586941036424,0.367038837381978,0.369628114514035,0.378862029096645,0.301805549406816,0.301610936594457,0.300524811755956,0.299429419640677,0.292972907908737,0.291635639869525,0.29309986960061,0.295676172545176,0.296946716191579,0.294303688854203,0.293619763827912,0.292213917940536,0.282716812697401,0.285647125614926,0.285953872476311,0.28554796575339,0.389942911941313,0.39303540220247,0.393759176518911,0.25826139600526,0.257517233679905,0.256614600921629,0.332917651009324,0.37512824328238,0.367216769096135,0.00427272429534862,0.402576063646466,0.00418071877148656,0.46704016764897,0.467528553135224
0.342449971904219,0.344078232434291,0.345433108299383,0.34990364261758,0.351230716652335,0.349427304591139,0.342129324127665,0.34138516180231,0.339268515785983,0.337653229443401,0.329306193248542,0.794762583295978,0.551301028306805,0.320764544241324,0.320792346071661,0.321213080437429,0.346525720231629,0.339412158576058,0.341428718003171,1.44447189699146,0.337109240296472,0.337367797318607,0.342510209203282,0.344405367304591,0.550247338937031,0.357281321661354,0.358190441513375,0.360513747801874,0.359074539718093,0.365102903262842,0.368837615804785,0.693173768516742,0.383189847352445,0.390591621315844,0.404670468198523,0.403151561534443,0.39239503337704,0.402007052852234,0.401393559129464,0.453648952703294,0.51234047000015,0.537677204713976,0.582274120757628,0.585036695965453,0.662108003298129,0.716728405905963,0.714120594220348,0.887452032184328,0.855096262038076,0.854647725841972,0.841948776471688,0.919216550072079,0.902723577588466,0.895163333192146,0.940952947757258,0.962981264660975,0.908902071017035,0.908530453218197,0.909472008538945,1.00212624177553,1.06927692931627,1.069749560432,1.04802706366199,0.988660888615625,1.03888952875788,1.03095673983505,1.08614337305408,1.03987186009646,1.0404278967032,1.05990771249269,1.05920339945748,1.0598613761088,1.09422443840538,1.09848738572373,1.11681805919262,1.14917938970494,1.14553734993079,1.14530566801131,1.15566648345025,1.29576917379539,1.29183984844109,1.75840089788059,1.6510394963957,1.608335884998,1.49795335128316,1.4475486328821,1.46079157139931,1.43222982436638,1.21223394090935,1.24755153271418,1.12058984084168,1.11124842584843,1.11164691874993,1.11904220561958,1.08875674510576,1.03038216867475,1.05412493178259,0.95785646060218,0.929276179015699,0.897193793534428,0.910787035113887,0.883846134789613,0.860894797118705,0.851255902540852,0.793026822355269,0.795465042875828,0.747437380968584,0.634732467692919,0.578976823679655,0.556939239499158,0.578808159242277,0.501863813601474,0.572769601693071,0.502298448882409,0.414829257003679,0.408523801883238,0.372180322538976,0.371771635633021,0.36375266103614,0.377428381378932,0.303187300374567,0.307154621563663,0.299530432957568,0.312866970970248,0.310613169257592,0.292752346721396,0.296563050932927,0.295332356576674,0.296446283245512,0.293613276734167,0.293518750511021,0.282151508813882,0.282859528759798,0.28523009815987,0.285018804249309,0.286420016498296,0.38197768754975,0.385350976297311,0.272204013919287,0.257905532576945,0.259054674897543,0.26036321437874,0.364836005691607,0.374259899448187,0.351177893174695,0.644077589596878,0.39672285163284,0.390886320717417,0.468551660491627,0.465584278466987
0.350181660920951,0.347588676878182,0.345351556263728,0.346191171539907,0.350852611759751,0.349317023997469,0.348330985748181,0.341390722168377,0.341350872878227,0.340973694713322,0.333319850821533,0.330446068292361,0.640353997787069,0.32425089376559,0.322681943806902,0.321465150365818,0.345796385549121,0.340173928727293,0.327434203339181,0.331317192309588,0.336535595863851,0.337729221112989,0.341074708030213,0.345962269803465,0.549537465535759,0.357955979410866,0.361002133288128,0.36092614161854,0.363424599438163,0.366462412766324,0.366584740819807,0.69243238637442,0.691195204924422,0.386994064470231,0.402720633164219,0.394118746857937,0.394454222277338,0.402539921267028,0.762589378502273,0.441723820944058,0.461195296184446,0.492389876550287,0.585407387036613,0.583800441243132,0.662739104846779,0.711344118097356,0.719336217591578,0.764743093625716,0.771199605357656,0.854681088038376,0.791519963151001,0.858826340941629,0.88288048454924,0.886352933158337,0.881975998335608,0.871659665825209,0.8801688793637,0.917266715037774,0.939127294231792,1.00104197039239,1.07819204957769,1.07437393154473,1.04030742210507,0.989754427275549,1.04335635616537,1.0344227013504,1.0357479219298,1.03342183545827,1.04714667236799,1.05084431580281,1.05285531486386,1.07292823636721,1.11164691874993,1.19815694748203,1.15444320291542,1.13931900721207,1.15005978099895,1.14911451876749,1.17536871388243,1.21412446537227,1.60016214687891,1.61860402766915,1.67860037753649,1.60790959026617,1.60069964893209,1.4465755688203,1.39494756988441,1.50387514114495,1.2078412517161,1.16384948884612,1.12500106458849,1.10510422134395,1.12334222204505,1.17771333490753,1.12591852498961,1.08755199912449,0.953547176899939,0.961563371313786,0.921973564913835,0.911818483019391,0.894687921893383,0.95325062404301,0.848940010073777,0.850768443782276,0.850743422134973,0.75024351237727,0.745029742461396,0.635686997201158,0.652863894711061,0.581944205704296,0.586593598464327,0.518189975103064,0.519278880124598,0.475465048968772,0.438350532196496,0.412138039827053,0.372714117681447,0.372044093570324,0.332315278018688,0.303683099682244,0.338900604897856,0.30438277907906,0.313935487982868,0.311781772859425,0.312444383149125,0.311976385671785,0.296594559673976,0.296475938531205,0.294905135117162,0.292870967864168,0.293718923689448,0.282031034215754,0.280995879399538,0.287462585135935,0.287568232091216,0.287437563488632,0.38541770069012,0.384563257771095,0.389615777071014,0.259638513334621,0.261349252628027,0.262035957837352,0.260854380048028,0.284810290521781,0.370936653995232,0.279094234204485,0.391730569631985,0.39224490349322,0.311207201699126,0.302416262946553
0.351116729147953,0.349045492787843,0.346004899276649,0.344970671188111,0.348968574390578,0.347057661918745,0.346339447968371,0.343188573863506,0.341010763820438,0.34125263974437,0.334594101378648,0.332648899982733,0.643270409789425,0.325815210085887,0.325305509863041,0.749366827993975,0.342143225042833,0.339007178580815,0.339728172714222,0.331046587827641,0.335257638396025,0.336419754904114,0.341695615574407,0.342474993551522,0.354952455006787,0.358852125075397,0.363717445384379,0.362995524523294,0.362354228970186,0.366355839083365,0.36747532611827,0.692261868481686,0.387149754720118,0.387429626478844,0.392515507975168,0.394347648594379,0.393349562885279,0.402414813030511,0.402693758061559,0.442124167300911,0.439872219043611,0.484131806212507,0.583915355475192,0.583174900060549,0.650266277029903,0.719964538957195,0.720389906961352,0.759439431125086,0.825964577483243,0.782104409943522,0.790906469428231,0.858171144473353,0.897952783502629,0.851268876728343,0.87793453893228,0.852870262155757,0.855529970591334,0.878014237512579,0.899822919956635,0.927811949284615,1.05556135968333,1.07268728717095,1.04573804629758,0.990393869373301,1.03029876318374,1.05357816245262,1.05304066039944,1.04041862942642,1.04331001978147,1.04790658906387,1.06634846985411,1.07950800288031,1.12286032365254,1.1200060024046,1.12038596075254,1.14609338653753,1.15807597541279,1.19396813837792,1.3041560592804,1.33015077064554,1.3314018530107,1.61807579289275,1.67935102695559,1.60714967357029,1.59487053183809,1.43337896668698,1.44619561047236,1.42269379656078,1.2236512259011,1.13883710881956,1.2161447317101,1.10423309732672,1.11050704370611,1.11420468714094,1.10717082406567,1.03674878782193,0.934289775753146,0.902205536816519,0.883577383763022,0.899575483666635,0.918234218733503,0.876190437442469,0.885638426118675,0.854144512712871,0.804928785922558,0.729670157927857,0.742752772556792,0.663504581908726,0.662017183985694,0.582025757739951,0.615766059036988,0.51894247797752,0.519040711111377,0.483318139311309,0.427972108931678,0.417291572443863,0.370441781415233,0.33325497988408,0.366751551801829,0.304101053864978,0.303997260365053,0.305653322725463,0.312754836921222,0.311375866136504,0.310605755436168,0.312625095046316,0.295776259134389,0.289207613353423,0.422114263279663,0.291228806418926,0.29136874229829,0.282136681171035,0.279173006057106,0.279111842030365,0.286549758373202,0.472461524564694,0.38449931356132,0.383586486798587,0.42823622631988,0.260261274334171,0.263148957778512,0.263932969394017,0.262904301671546,0.364188223044753,0.349178941573461,0.341026518190962,0.393381071626328,0.370128547460102,0.00400551163670251,0.479387887229329
0.350947137982897,0.34702429972234,0.34558045800017,0.344181099206539,0.347217059079344,0.347137360499044,0.346588737713727,0.342048698819687,0.342405488975679,0.340881021945531,0.335255784940669,0.333266100616215,0.643364936012571,0.326247065183789,0.325328678054989,0.749296396690455,0.338795884670253,0.33833808119737,0.547422672974788,0.330628633644907,0.641791352415495,0.642972003477141,0.342199755431185,0.34937818802421,0.351791386897465,0.360011461400451,0.361846382202696,0.363884256366402,0.363343974130185,0.362584984161984,0.36623443775756,0.367749637510929,0.484697110096027,0.38747132922435,0.39062869042296,0.39307525149262,0.393080811858687,0.401705866356917,0.762294679100701,0.456761830973365,0.465372057828748,0.459344621011676,0.59450136573986,0.590504389265071,0.651796304426119,0.700503257721264,0.756549894225389,0.815973526387787,0.822693228780251,0.890917993699679,0.791216923200327,0.803547034954807,0.841763430936107,0.857820841411106,0.851784137317256,0.853665394503396,0.85389336951216,0.871242638370153,0.89905188252862,0.929192773524688,0.956846327433268,1.03018755586239,0.977215801793542,0.991320597051203,1.04981564808034,1.05069603937435,1.05251242562304,1.04358803808485,1.05046435745487,1.04623847924364,1.06399458155224,1.07092650458294,1.0750504427496,1.12303640191134,1.13480584342069,1.16801976339668,1.16895575835136,1.36127955334625,1.31536946418301,1.36465284209381,1.63930712399347,1.61910446061522,1.68970257511775,1.60443436147404,1.58838343809278,1.44227555239484,1.38952621296869,1.49249492526032,1.39082363171775,1.1342683413675,1.1109518729915,1.1036677934432,1.11068312196491,1.10820875906491,1.10831069910948,1.04963956982154,0.910946432274486,0.903420476802248,0.883434667700625,0.897698860118884,0.921712227708667,0.858193385937623,0.840611508432476,0.856050791546314,0.756632372988723,0.742551672650688,0.711246811691176,0.66004047384873,0.659191591295773,0.585031135599385,0.584007101515304,0.517055660425312,0.544066992053107,0.485710950175651,0.421964133395843,0.418113579894162,0.334945331168573,0.364581155580184,0.36704254429269,0.305450369364002,0.331645253907565,0.297554649548282,0.311265585542834,0.309795795445682,0.307261195246622,0.294894014385027,0.295893026821805,0.295020976076899,0.880178146640479,0.284661087365639,0.284109684397287,0.27885791864662,0.279052531458979,0.279362985231076,0.283628712732456,0.284094856754441,0.278924643039429,0.00437317230835636,0.377969590342826,0.26049110279829,0.264680838630083,0.26461133405424,0.263612321617463,0.336858097095761,0.253108790116127,0.308325078620853,0.242573749873743,0.310801294976205,0.303306848245016,0.301386668496404
0.34634871524515,0.345815846830357,0.344721381442755,0.344907653706013,0.347246714365037,0.347718418753088,0.34648123730309,0.344481358974179,0.342880900274443,0.3413100968604,0.338787544121152,0.333494075624979,0.332347713487415,0.328205240767195,0.326159952782067,0.749032279302253,0.573844605799437,0.335758071342092,0.330894604488465,0.547373556407859,0.545149409980896,0.547393944416773,0.548111231639469,0.354147128654691,0.352299233664955,0.358707555557644,0.361355216533409,0.366671853221529,0.363045567817901,0.36369057028172,0.367290907310368,0.368202807345423,0.484574782042544,0.486353172456437,0.389149633049029,0.393067837671197,0.391830656221198,0.410646008265632,0.41011684676155,0.416910687368246,0.466596265091255,0.459037874150291,0.594973070127912,0.567200895076561,0.579348441478494,0.718195415820081,0.759426456937595,0.84598838241966,0.816914154980857,0.79902367715897,0.79820630334706,0.808055565107797,0.83007739491777,0.842296299350901,0.867493098185364,0.854134318708414,0.85325300068673,0.852244720973173,0.916900657605003,0.981043187103275,0.94788487078796,0.966947659122394,0.979161929917135,1.02075346810135,1.05559842879045,1.02900134443468,1.07195517230541,1.02151338479723,1.04893525678634,1.05032534830319,1.10858871741285,1.12992198855815,1.09375180728965,1.12652089798025,1.18103101999441,1.1877034592753,1.27348137314186,1.32888115372681,1.31840913096653,1.3694718260189,1.66846197674025,1.61913226244555,1.65831430866723,1.60585225482123,1.49878740619327,1.34918575714963,1.32621217801446,1.39271415618067,1.17001222790416,1.1124995082136,1.11069238924169,1.10694840942297,1.10965445424244,1.16556393505024,0.996723419413368,0.973017725412648,0.919211916433689,0.941555320747894,0.918464047197623,0.889986632383388,0.869993409460342,0.899462422889931,0.882901799285832,0.838842385295362,0.788270855912279,0.740083796844436,0.71115691910642,0.635877903102805,0.58919770323923,0.582920976676804,0.613467774395792,0.527799214395224,0.44533064506645,0.485752652921157,0.399899674112687,0.391088347351199,0.329080071695134,0.343298854457176,0.312536129189237,0.292978468274804,0.284516517847886,0.287633103028669,0.297708486342814,0.304482865668273,0.300370048233747,0.300733325483484,0.294724423219971,0.287360645091366,0.419943867058017,0.284349706865864,0.284244986638261,0.282265496318263,0.279813374882536,0.279821715431637,0.283320112415715,0.283003171549873,0.282082930965717,0.275543940470444,0.272433842383407,0.271563645093857,0.26435555721514,0.264592799500682,0.263120229220497,0.80331164612462,0.252783508701184,0.308509497428755,0.300014184805432,0.318571906555409,0.345969683624888,0.18002148507075
0.34623380101309,0.346881583659943,0.344838149130171,0.344550863550021,0.345127288165676,0.348152127306346,0.346566496249457,0.344986425558635,0.34446745805901,0.339955220995308,0.339480736424222,0.343185793680472,0.333078901625279,0.329582358096557,0.32780118749963,0.747741347646936,0.638627504123139,0.331092924211536,0.332092863375992,0.546717433211905,0.342337837855193,0.34243607098905,0.349092755899416,0.349565387015146,0.351667205388627,0.357968026870679,0.359847430601463,0.364772061481831,0.367429916462053,0.36414559357157,0.36757263252445,0.367857137921565,0.368374251965834,0.387829972835698,0.388748359964498,0.388329479054087,0.390917829458465,0.410930513662748,0.46175874661261,0.44672629694937,0.465630614850882,0.4322193018795,0.49774080216249,0.581586488820625,0.580917391437181,0.716984182745064,0.75635528141303,0.83542090670855,0.816216329039398,0.797797616441106,0.797073842124665,0.846172801227563,0.81416640741588,0.902214804093298,0.858000626580619,0.858576124468596,0.898653389627123,0.849129989247746,0.90392739684206,0.908762135137672,0.908205171803253,0.964232347026143,1.01581400957814,1.01818643243357,1.03373692286875,1.03603520750995,1.0304470396122,1.06536613851553,1.06655234994324,1.06223379896422,1.07328966016159,1.07181616315372,1.09359426358441,1.11365791781098,1.1578072243862,1.3519844747369,1.30049548495269,1.31898370212683,1.33170767314441,1.37365136784623,0.0052904658984968,1.62875169574217,1.70453948524095,1.56265747775424,1.39554067559827,1.36605220088744,1.34490427527773,1.42802248070871,1.15198737456898,1.13375864114466,1.10734690232447,1.10566952522746,1.1105997164739,1.02093881363693,1.02451598247363,0.95794913336997,0.935207236154268,0.891621380007206,0.905869818054942,0.963259282964346,0.877582382414677,0.912093721139728,0.855456759104779,0.845698316656477,0.739947567875785,0.711335777548254,0.710597175588967,0.638054786418196,0.587931793231217,0.572340526778202,0.570082091427157,0.460839432756131,0.511739023737192,0.413126858259374,0.403228479931709,0.474240841706265,0.340343519892349,0.331365382148839,0.330902945037566,0.294932010219821,0.325105336684615,0.286949178002377,0.29704309587008,0.307815378398007,0.300295910019514,0.301934364554044,0.302886113879249,0.281834567948039,0.880071572957521,0.283844640281408,0.283469315571857,0.279470485641713,0.279447317449765,0.28351657868343,0.281801205751635,0.280899499721037,0.28026191107864,0.277592008638606,0.272098366964006,0.272643282838612,0.264971831120944,0.263438096814017,0.26121117020402,0.252493442938001,0.252625038268263,0.330620293095806,0.311044097627816,0.310058059378529,0.349390235484023,0.179961247771686
0.347228179811479,0.346001192365937,0.345361750268185,0.343833576327325,0.345287612053953,0.34661375936103,0.34702893336073,0.345239422214702,0.34427747888504,0.33934914109396,0.339009958763848,0.338639267692688,0.333811943218499,0.329462810226107,0.64136505768366,0.748447514137497,0.412986922380011,0.329981777725732,0.332117885023295,0.33969388379014,0.339664228504447,0.344108814447662,0.349651572689191,0.351348411067429,0.351188087179152,0.358621369883599,0.366676486859919,0.368504920568418,0.36591193652565,0.364327232196439,0.366167713364751,0.365795168838234,0.371742907075006,0.387785489907158,0.387441673938657,0.386953288452403,0.388128379147982,0.386876370055137,0.412893322884543,0.418363796367195,0.44489786324087,0.444823725026638,0.487947144062427,0.582188861811262,0.647338744295413,0.726627710961307,0.835930606931396,0.941323638828418,0.864234723669862,0.806305903251919,0.796563215174141,0.793669971363733,0.811313939623299,0.835047435454355,0.856529909755789,0.892141274234509,0.847311749543703,0.847349745378497,0.913040836826543,0.912608981728641,0.918172127979084,0.981784569245596,0.986232862099523,0.996510272047451,1.03639663130433,1.03516408349272,1.02931643184516,1.03104941260284,1.03651710590246,1.15543480153077,1.12051570262745,1.12272131450085,1.13573257109859,1.25744898431417,1.20122441609589,1.25102676150631,1.30705671691223,1.2998282410246,1.3598431254455,1.38856241618367,1.34483940434028,1.64396856421331,1.64407977153466,1.51100167698801,1.35780432455412,1.33505316006164,1.29286851616356,1.38971155850427,1.15372035532666,1.13296165534166,1.12384265499111,1.11005294714394,1.1036677934432,1.02392287675978,1.02354291841184,1.02080907176203,0.945734862575229,0.935855945528799,0.906395272648312,0.902198122995096,0.848400654565238,0.846022671343743,0.845310017759436,0.816553657914154,0.85076659032692,0.71782935838731,0.650697205400128,0.634951175424904,0.579344734567782,0.58934783312305,0.481005027027267,0.502544031717053,0.444149067277126,0.371326806347628,0.403511131873469,0.474161143125965,0.329412766931501,0.303059411955017,0.348588616042638,0.294308322492593,0.323956194364017,0.311081166734932,0.319483806590464,0.308094323429055,0.299814011627006,0.300366341323035,0.30233378418322,0.27560325104183,0.338904311808568,0.280940275738864,0.280591826131973,0.278210135999767,0.277851492388419,0.281262776970774,0.280086759547517,0.279869905270888,0.279815228337892,0.339304658165421,0.320984178700987,0.272178065544306,0.256511734149382,0.256787898997396,0.258237301085634,0.252601870076315,0.252610210625416,0.33092796668487,0.327034783710006,0.348205877511665,0.179659134548691,0.180622931333708
0.347215205623988,0.345906666142791,0.345113387250507,0.343898447264779,0.344636122496388,0.347657254726347,0.34738201660601,0.345157870179047,0.345196792741519,0.339625305941975,0.339467762236732,0.341427791275493,0.334777593458872,0.333027931602994,0.330757448792136,0.747530980464052,0.639535697247482,0.636148507584752,0.362597031621797,0.340945892882984,0.340267528222761,0.344700066706163,0.346526646959307,0.350490261237692,0.353384431775778,0.358546304941689,0.36691002223475,0.369134168661714,0.370739260999839,0.364544086473068,0.364967601021869,0.366431830752953,0.367743150417183,0.378904658569829,0.386921779711354,0.387645554027795,0.388749286692176,0.38852223841109,0.415745790677124,0.441835954993084,0.44439001647338,0.472125122417615,0.52122130133748,0.53872626044536,0.589779688220952,0.708298890947771,0.835705412105666,0.783285061005169,0.857573405121106,0.796825479106987,0.831964212469977,0.799701115091516,0.809881218633263,0.815372080124829,0.867555188939783,0.861574088506607,0.899250202251692,0.899756195563826,0.916049921596689,0.931565196380116,0.964167476088689,0.990718224060567,1.00170921432048,1.01440538350773,1.03787939558897,1.05268850388184,1.02898280988112,1.03015975403205,1.15547187063789,1.07603277408818,1.16656480094237,1.14300738337012,1.17421957156184,1.22919305741495,1.17214370156334,1.17845471704985,1.29611206303622,1.28659456978417,1.28776224665832,1.31609231177177,1.35619181839457,1.68046310016907,1.63054028016052,1.56276868507559,1.39272342345745,1.32450699908712,1.28830901598829,1.17130037937645,1.15831692460905,1.13361036471619,1.11111868397353,1.09845958389339,1.08512397260839,1.08567074193835,0.980422279559081,1.01991941319124,0.93491068329734,0.940962215034037,0.900609711755173,0.890356396726871,0.848768565453365,0.8463683407676,0.855050852381859,0.881283732760216,0.748901610699669,0.759372706732277,0.7267454053764,0.668634946333588,0.562112233397204,0.518824783562426,0.482552662249363,0.453444145886478,0.426172403781193,0.403301691418263,0.404213591453318,0.423438557131384,0.333786921571196,0.299952094051013,0.300728691845094,0.314978983348185,0.368890439282425,0.368178712425797,0.319651544300165,0.307181496666322,0.309301849593361,0.300575781778241,0.326972692955586,0.427977669297745,0.336159344426623,0.339682763058005,0.278562292517369,0.270314416184046,0.27135049772794,0.271034483589775,0.334481040601944,0.35168759339754,0.277927484058007,0.442749708483495,0.271657244589325,0.262220376645255,0.262972879519711,0.255888046422154,0.253618490338973,0.252159820973956,0.243838733154079,0.33126344210427,0.315276462932792,0.329995678640901,0.180108597472473,0.18068409536045
0.348485749270391,0.34644138801294,0.345772290629495,0.343885473077288,0.341832771270736,0.34554060871002,0.346887144026011,0.345104119973728,0.343701980997064,0.34017948909336,0.339449227683174,0.342449045176541,0.336707040484263,0.335921175413403,0.3324867226391,0.748065702334201,0.413182461920048,0.634040202117527,0.794096266095567,0.341638158458377,0.339670715598192,0.338518793094561,0.347535853400542,0.353051736539411,0.35472169981499,0.353713420101433,0.364269775080409,0.368940482577032,0.369099879737631,0.365527344539321,0.366955431890967,0.366954505163289,0.419078303406857,0.379744273846007,0.378262436289043,0.390314529740152,0.389660259999553,0.390012416517156,0.414033197928362,0.443201951590311,0.443051821706491,0.473033315541959,0.524478749125303,0.540627905640414,0.574661979611346,0.71634566737499,0.836472742622968,0.780324166074274,0.769001407305673,0.780655007855285,0.831523090095296,0.794831161144143,0.88897464575912,0.884534693454294,0.906969843808611,0.950071948107808,0.873868984609326,0.940230100168495,0.905313781448201,0.935355512582733,1.01371960502608,1.01719483381821,1.00435965547928,1.01181981328638,1.03830569032081,1.05411566450581,1.02830629867625,1.0276668565785,1.08517957626906,1.08955373090876,1.14321126345925,1.15222832376523,1.16799196156634,1.29124674272723,1.1745439262491,1.17359866401764,1.31644446828938,1.31029099650811,1.33433957974965,1.39542020100014,1.70639294059676,1.61686177963469,1.58275820108792,1.48854706535246,1.42787420428025,1.28151610210927,1.38752448118442,1.17824156968393,1.20430115198652,1.13278557708286,1.11354671048963,1.0923153793889,1.08730178265146,1.08884015059677,1.02017889694105,0.95061871743777,0.96030302167184,0.928460658659146,0.936467585796214,0.88919520694646,0.887605868978859,0.856442797354067,0.88465146114171,0.812752220979402,0.740743626951102,0.759248525223438,0.760738703329504,0.673023001888452,0.550259386396844,0.504731109036901,0.451850174280487,0.453868587162957,0.394646981634341,0.425329081594303,0.402597378383058,0.324692942867949,0.335684859855538,0.298357195717345,0.297410080030529,0.338537327648119,0.365119584361044,0.30875044662501,0.308678161866133,0.308214798027182,0.309157280075608,0.290284470915145,0.637263360981268,0.428994289560403,0.314085617866688,0.736222122610621,0.385244402614353,0.269458119809665,0.271173492741461,0.271002974848727,0.273193759079286,0.272503346959249,0.443760768380085,0.270774999839963,0.262579020256603,0.263254604733793,0.263709628023642,0.25503731041384,0.252891009111821,0.255404294574289,0.243686749814903,0.330308912596031,0.200465097645256,0.200041583096456,0.184763550598572,0.180855539980861
0.354622539953454,0.347228179811479,0.347297684387321,0.345030908487174,0.343432303242794,0.344213534675265,0.346585957530693,0.345105973429084,0.343390600497289,0.340092376691637,0.339283343428829,0.340308304240588,0.337839501706659,0.336082426029358,0.334378173829697,0.74776173565585,0.401725327638152,0.399660578371788,0.339992290102424,0.342079280833058,0.340718844601899,0.338832953777369,0.347895423739568,0.347048394641966,0.354545621556189,0.354676290158773,0.357837358268095,0.366968406078458,0.362512699403108,0.364469948258835,0.366849784935686,0.367452157926322,0.370334281004596,0.378415346355897,0.390098602191201,0.390201468963448,0.389725130937006,0.389911403200265,0.477166520985399,0.444618918209822,0.44264591498357,0.471792427181249,0.515686883645052,0.559061445881552,0.646677987461069,0.695958585188835,0.841175885588318,0.753753956821161,0.783751205027153,0.787965962506249,0.774896322064805,0.828601117726873,0.844321199327115,0.885823771654255,0.918082235394327,0.883493051544333,0.876681603111757,0.887228690813954,0.927348585445664,1.00182968891861,1.02866772247063,1.00425771543471,1.00414650811336,1.00281202025718,1.03040997050509,1.05667343289681,1.06079737106348,1.06215966074999,1.14863262037498,1.09450245670875,1.08305736988667,1.14618605930532,1.16797342701278,1.15189470180119,1.14975396086524,1.20357830439776,1.29523167174221,1.31600890628076,1.402722815102,1.36256770481853,1.70614272412372,1.60010654321824,1.57466786845984,1.38169536409042,1.37650568909417,1.38025893618967,1.27601133970253,1.18798147757867,1.14870675858921,1.12754956570272,1.10490034125481,1.13455562694765,1.08579121653648,1.09554965898478,1.02034570792308,0.99012511834671,0.953658384221287,0.913562584509202,0.917503030595639,0.903864379359963,0.960265952564724,0.844052448300524,0.806564460274054,0.812514978693859,0.742097576088516,0.758420030679395,0.737337902734814,0.660480669495733,0.547467155903327,0.48024418360371,0.460921911519465,0.436131019407922,0.418942074438206,0.384136036311583,0.333659033151645,0.325945878688471,0.324161001180833,0.299219052457793,0.297806719476671,0.335571799078834,0.296894819441616,0.308023892125535,0.310098835396356,0.303564478539473,0.296918914361241,0.639024143569281,0.237075474560754,0.236919784310867,0.735416796258524,0.735655891999423,0.384722654931694,0.267845613650117,0.269895535273635,0.269187515327718,0.297006953490642,0.274061176185802,0.665118014795952,0.429897849046357,0.262474300029,0.263326889492669,0.263835662987837,0.253527671026539,0.253167173959835,0.252036566192795,0.243726599105053,0.00402559382548264,0.200802426520013,0.195642406809457,0.187463108324299,0.188153520444335
0.355118339261132,0.348800836680877,0.347110485396385,0.348141006574211,0.345307073335189,0.344797373112343,0.347033566999119,0.344292306527887,0.342208095980286,0.341538071869164,0.339849574040027,0.340425071928004,0.340118325066618,0.336685725747671,0.334414316209135,0.334936990619471,0.401467697343696,0.63406985740322,0.339955220995308,0.342211802890998,0.341003349999014,0.339514098620627,0.349030665144997,0.348624758422076,0.35428428435102,0.352660657459337,0.357759513143151,0.364107597736776,0.364181735951008,0.362191124898876,0.363274469554343,0.36621219629329,0.370205465857368,0.380520871640089,0.389965153405583,0.391488693708053,0.390824229962997,0.389121831218692,0.47974097047461,0.444951613446189,0.444643939857125,0.52938206526908,0.524121958969311,0.505684711817461,0.682007626725707,0.697752729973253,0.735903328289423,0.753226648772435,0.791035284575459,0.783020943616967,0.826324147822269,0.801539742804472,0.924952067670611,0.93566133271644,0.949590049715299,0.905766951282695,0.915698691806765,0.906714993697188,0.948199958198447,1.00079175391936,0.996222986467301,1.00572194516579,1.00438745730961,1.00553659963021,0.992154651961314,1.02120756466352,1.02072566627102,1.03330136086014,1.10990467071547,1.09530870978853,1.19285606516444,1.14745567622404,1.13632567681245,1.16281155384687,1.1899554075326,1.20950936153632,1.28918014000551,1.29943901539988,1.42489940843418,1.31952120418001,1.55764388101679,1.33063266903805,1.55884862699806,1.45981850733751,1.38573589676607,1.19101187708541,1.17533164477532,1.17285728187532,1.14735373617947,1.14386924011056,1.13335088096638,1.07896123355034,1.07214051784099,1.09060093318479,0.997594543430596,0.989763694552328,0.956837060156489,0.913780365513508,0.915956322101221,0.915549488650622,0.916559621819535,0.844050594845168,0.807060259581731,0.765859800477588,0.761949009676843,0.761611680802087,0.746786818138697,0.604528559214754,0.538957015637158,0.477908829855399,0.469184615495634,0.416263831449071,0.375852944326499,0.438497881897283,0.407343150821591,0.323582723109823,0.31732175091792,0.304984225342018,0.304511594226288,0.297575037557196,0.297202493030679,0.300633238894271,0.299194957538167,0.302482060611684,0.299169935890864,0.640897986933998,0.23715239295802,0.237965133131539,0.73334741335377,0.431437143719351,0.348465361261477,0.257291112126497,0.259424439241026,0.262011862917727,0.295735483116561,0.27234394979865,0.665829741652581,0.693675128190486,0.460410357841263,0.262513222591471,0.262479860395067,0.25331081674991,0.252123678594518,0.242848061266402,0.242536680766627,0.482219967012996,0.195771221956686,0.197182628210129,0.187919058341826,0.188452853484298
0.354412172770571,0.351265005576417,0.349067734252113,0.347335680222115,0.345101339790695,0.345932614517772,0.345139335625489,0.343385966858899,0.342446264993507,0.341988461520624,0.339451081138529,0.341008910365082,0.341507489855793,0.341867060194819,0.33682751508239,0.335388306998609,0.573592535871048,0.627534573818658,0.514927893676851,0.356488969496748,0.340777228445606,0.339739293446357,0.349799849117655,0.348529305471252,0.352398393526491,0.35231035439709,0.357472227563001,0.362394078260336,0.363949127303855,0.363477422915803,0.364249387071495,0.367218622551491,0.367074053033739,0.376907560423951,0.478837410988656,0.390925243279889,0.390361792851725,0.389826144253898,0.389805756244984,0.444823725026638,0.437946478928931,0.459213025681414,0.512017042040562,0.546287431569359,0.699950001297557,0.739184870996872,0.879787067560405,0.853811817476504,0.764592963741896,0.784377672937415,0.801967890991663,0.864547030897315,0.936782673206701,0.888479773179121,0.924271849555031,0.915366923298076,0.914682071544107,0.986761096875927,0.94835750190369,1.02443257698262,0.99651953932423,0.980885643398032,0.995194318744831,1.00186675802572,0.988253128437349,1.02672159434704,1.02295907997476,1.04804559821555,1.15641713286935,1.19331016172661,1.19270778873597,1.18959398373822,1.17625837245322,1.23550407290146,1.21042682193745,1.22870189174566,1.21977750420747,1.26425116546996,1.29623253763434,1.29565796647405,1.36980544798294,1.60146883290475,1.54092571370745,1.30579636727029,1.21570916970149,1.21094578943707,1.16417384353338,1.1584281319304,1.14593584283228,1.12625214695366,1.11514068209562,1.08441965957318,1.06523639664062,1.05532967776386,1.13048729244167,1.05609886173652,0.95315795127522,0.946022148155379,0.895289368156341,1.08676428059827,1.05111306682941,0.893915031010013,0.882121494581039,0.765534519062644,0.841045216985734,0.7561300865873,0.698532107950368,0.595849754511207,0.512242236866292,0.511958658196854,0.454584947657974,0.402981043641709,0.393970470429473,0.433445362597364,0.336820101260967,0.322935867190647,0.318744277903499,0.303917561784753,0.30761520521958,0.329283025056595,0.28846715793878,0.300511837568466,0.299081896761463,0.29922924646225,0.303089067240709,0.640866478192949,0.237168147328544,0.238227397064386,0.242273490106103,0.333433838325915,0.362110499590898,0.25883967407627,0.260426231860837,0.261566106904656,0.262180527355105,0.297196932664612,0.662552832583521,0.247805127615497,0.249552009288342,0.260675521606193,0.250017226582648,0.251489796862834,0.25180488427332,0.605150393486626,0.30680709868445,0.278658672195871,0.196844372607695,0.196430125335673,0.187608604569729,0.189631651090588
0.352957210316265,0.351303928138889,0.350019483577318,0.346968696061666,0.344684312335639,0.346846368008183,0.346418219820993,0.345305219879833,0.342341544765904,0.34266589945317,0.340857853753584,0.340579835450213,0.342259992730249,0.340349080258416,0.338661509156957,0.336790445975274,0.688490086832627,0.533968440547014,0.627719919354239,0.350780327000875,0.347984389596646,0.346306085771967,0.349566313742824,0.350222436938778,0.347685056556684,0.393570124072619,0.547376336590893,0.363338413764118,0.362278237300598,0.362964942509923,0.361648062479625,0.361680497948352,0.366974893172203,0.377642455472527,0.423178146653894,0.390042998530526,0.390407202507942,0.39033306429371,0.390115283289403,0.483316285855954,0.426059343004489,0.457018534540144,0.499444127634473,0.548047287429693,0.700508818087332,0.802826040821399,0.844692817125954,0.909048493990144,0.765266694763731,0.812486250135844,0.809509600834425,0.820994536946658,0.832017962675295,0.829831812083126,0.943325370612685,0.915401212222158,0.972952854475195,0.948561381992829,0.947245428690209,1.05640468187022,0.998187649144452,0.9678280504164,0.992553144862811,0.990727491337345,0.996538073877788,1.02811168586389,1.0323931677358,1.05592278347771,1.15580549260193,1.05535747959419,1.05572817066535,1.09152766086269,1.13377717569822,1.20975031073258,1.21658956099549,1.19023342583597,1.25873713578645,1.27071972466172,1.32026258632233,1.34524716451855,1.32674968006764,1.53404012706064,1.31149574248938,1.19732289257192,1.19698927060788,1.16276521746297,1.14045888225589,1.13768796649896,1.15890076304613,1.13034828328998,1.1081716899578,1.05837861182415,1.05947215048408,1.05332794597959,1.02865845519385,1.02970565746988,1.00345146235493,0.928785013346411,0.893260761269414,0.923398872082448,0.891256249302113,0.892256188466569,0.874037649046704,0.765883895397213,0.774395889118738,0.744928729144505,0.774878714238925,0.602474003952847,0.512578639013371,0.512791786379288,0.470120610450315,0.403014405838113,0.370418613223285,0.433168271021671,0.339413085303735,0.327524095923938,0.372909657221484,0.305117674127636,0.330034601203373,0.329788091641051,0.288443989746833,0.301120697652847,0.300386729331949,0.30039506988105,0.299080970033786,0.64089706020632,0.236415644454088,0.236963340511728,0.244381795573329,0.430469640023622,0.361370044176255,0.259011118696682,0.260662547418702,0.261656926217091,0.261883047770498,0.297033828593301,0.662343392128316,0.249576104207967,0.249962549649652,0.250214619578041,0.3989219764125,0.250434254037704,0.250562142457254,0.605029918888499,0.310690087654857,0.500542299932786,0.195193870613353,0.188335159069204,0.188545526252088,0.189967126509989
0.352795959700311,0.351913714950948,0.350898021415968,0.346939040775973,0.345070757777324,0.343853964336239,0.345342288986949,0.343419329055304,0.34284661135036,0.342628830346054,0.341622404087853,0.341695615574407,0.342864219176241,0.341607576445006,0.339913518249802,0.338724526639055,0.338872803067519,0.425268844295239,0.524835539281295,0.351413282004882,0.351585653352971,0.346421000004026,0.349333705095671,0.348853660158518,0.346323693597847,0.344638902679422,0.776945316960645,0.86858571011761,0.363664621906739,0.362718432947602,0.361879744399101,0.36194183515352,0.368061018010704,0.376477558781405,0.424073365590746,0.388679782116333,0.391343197462622,0.392298653698539,0.390382180860638,0.480010648228879,0.45163702691457,0.476884795771317,0.49275500725538,0.553961663470061,0.669104797266284,0.865039123294281,0.863887200790649,0.858697525794401,0.861651933631551,0.793201973886392,0.878236652155276,0.805859220511171,0.847314529726737,0.918017364456874,0.917808850729346,0.93425270664603,0.927515396427686,0.9482648291359,0.947393705118673,0.943733130790962,1.04656283393091,0.966854986354603,0.999661146152316,0.98070956513923,0.979625293756086,1.01720410109499,1.02550758108899,1.05760942785149,1.05060336660656,1.05675683838783,1.10458525384432,1.10350098246118,1.13389765029634,1.20247549846105,1.22599584692619,1.22738593844304,1.32234772359761,1.27097920841153,1.28721547732836,1.38985983493273,1.34129003733391,1.29237735049427,1.24819097481193,1.25154572900594,1.18252305155583,1.18415409226894,1.1841726268225,1.14705718332254,1.2031612769427,1.14293324515588,1.14055155502368,1.05894391570767,1.06595924422939,1.04455183486986,1.03042850505864,1.03423735581482,0.988874035981543,0.973360614653472,0.930156570309705,0.876025479915803,0.925144827027614,0.823935970596317,0.868561615197984,0.765580855446539,0.771623119906457,0.743241158043046,0.669070508342202,0.609284525657745,0.56679498835364,0.524834612553617,0.476682769137535,0.396240026512654,0.393084518769399,0.393802732719773,0.385481644899895,0.327104288285848,0.380985162206718,0.304691379395801,0.329542508806407,0.330389537904009,0.288784098804622,0.304361464342468,0.302660919053519,0.301712876639026,0.300546126492548,0.381021304586156,0.415378806516675,0.243658947984566,0.244442032872393,0.234905078339109,0.338781983755085,0.25808902465717,0.261305696427166,0.261593908734993,0.252827064902045,0.25334603240167,0.661733605316256,0.249814273221188,0.25101438556407,0.250403672024333,0.361912179867827,0.402659469137477,0.415891286922554,0.0037696965117837,0.307330699822464,0.521060977449203,0.188989428809803,0.189813289715457,0.190079260559015,0.190013462893884
0.351946150419675,0.351665351933271,0.35114453097829,0.349259566881439,0.345003106656837,0.345423841022604,0.345677764406349,0.3452227411165,0.342813249153956,0.343519415644517,0.341775314154706,0.340586322543959,0.342803981877177,0.34241846316317,0.341746585596691,0.339651254316956,0.339147114460178,0.55765838017721,0.351561558433346,0.352144470142746,0.351708908134132,0.347111412124063,0.348319865016047,0.348017751793051,0.346148542066723,0.345345069169983,0.942537652086469,0.869138039813639,0.859300825512715,0.362213366363145,0.36175185597955,0.362543281416478,0.473100966662446,0.375619408951668,0.424120628702319,0.423689700332095,0.392666564586666,0.391850117502434,0.477268461029969,0.451100451589065,0.451884463204569,0.424834209014304,0.479053338537607,0.550604129093024,0.670958252622087,0.72671482336303,0.845463854553968,0.780796797190003,0.818893645300855,0.896055771945965,0.896634976744654,0.79721748491474,0.868035233876936,0.917963614251556,0.884240920780399,0.927811949284615,0.960803454617907,0.948144354537773,0.950813330250129,1.09794061639377,1.0566363637897,0.972563628850477,0.962517900822025,0.982822504244846,1.00542539230886,1.01887221091521,1.02794487488187,1.08868260689153,1.03228196041445,1.05600618896873,1.16657406821915,1.09764406353684,1.1002667028653,1.10107295594507,1.12054350445778,1.12798512771133,1.25681880949319,1.24024891861232,1.31066168757927,1.34696161072267,1.28934695098754,1.29149695920027,1.26319469591716,1.2533713825314,1.16295983027533,1.27091433747408,1.14300738337012,1.34494134438485,1.2103156146161,1.14264595957573,1.09638371389489,1.07654247431102,1.10112855960575,1.08280715341364,1.02354291841184,1.00005037177703,0.949738326143763,0.982516684111139,0.876963328325839,0.876629706361794,0.825806107050322,0.918893122112491,0.876533326683293,0.783884653812771,0.779648581597084,0.731995317671712,0.683681296911997,0.59167947996065,0.539399064739517,0.526499942190806,0.463430563343544,0.458728347105872,0.397017551034413,0.412490196344656,0.386852275135512,0.310415776262199,0.374051385720659,0.345189378920095,0.305780284417335,0.331743487041423,0.307006345135199,0.305314140395351,0.30546890391756,0.302451478598313,0.297922560436409,0.40101545423688,0.411906357907578,0.244406817220633,0.243682116176514,0.2362516136551,0.236567627793264,0.361424721109251,0.261992401636491,0.249333301556357,0.253542498669385,0.254752805016725,0.2542338375171,0.250224813582498,0.25091707915789,0.25103199338995,0.346522013320918,0.416413034605213,0.435845587283129,0.390484120905208,0.390631470605994,0.196757260205973,0.190355425407029,0.192066164700435,0.191340536928639,0.191295127272421
0.351319682509414,0.350344764992261,0.351297441045144,0.349754439461438,0.347039127365187,0.345942808522229,0.346389491262978,0.346001192365937,0.3414778345701,0.34452491517504,0.344416488036726,0.340071988682723,0.340556667258266,0.339344507455571,0.342698334921896,0.339961708089053,0.339549314272387,0.662163606958802,0.35291087393237,0.352286259477465,0.351860891473308,0.346661949200281,0.346738867597547,0.347975122319867,0.34525795676826,0.344970671188111,0.345145822719234,0.871301948941539,0.867436567797012,0.361886231492846,0.364752600200595,0.365734931539171,0.366976746627559,0.374513822831932,0.375102294907399,0.479752091206745,0.482589731356479,0.394631227263817,0.40271136588744,0.478504715752289,0.450797411638391,0.42400108083187,0.562492191745144,0.563999050949411,0.684823952138849,0.924743553943083,0.918278701662042,0.768811428131704,0.861472148462038,0.842065544159103,0.915739467824592,0.869812697563151,0.867954608568959,0.790457006504448,0.832421089215183,0.927608069195476,0.927552465534802,0.945790466235903,1.01747285212158,1.02122609921708,0.972517292466582,0.963722646803297,0.962480831714909,0.99209904830064,1.03761064456238,1.038926597865,1.09465073313722,1.03337549907437,1.03170738925415,1.03858370862418,1.03934362532006,1.10421456277316,1.09845958389339,1.09960872621399,1.09225050845145,1.12369437856265,1.21819279987826,1.23314091732281,1.22510618835541,1.34774932924889,1.34388487483204,1.42144271419561,1.27919928291452,1.2550950960123,1.18125343463711,1.11376912513232,1.14626946479633,1.20599706363708,1.27498267198006,1.20037182663222,1.16142146233002,1.16442406000642,1.08618970943798,1.10744884236904,0.975510622866203,0.991292795220865,0.867147428761507,0.86679249206087,0.86439041391975,0.84533503940674,0.819049335550742,0.81133988799828,0.872697600824458,0.843741067800749,0.76351795963553,0.704415901977364,0.657661563899557,0.54977100091059,0.524444460201221,0.524838319464329,0.439002948481739,0.458652355436284,0.39548659691052,0.394200298893593,0.385743908832742,0.311785479770137,0.394354135688124,0.307918245170254,0.397997102189955,0.356794789630455,0.332758253848725,0.307506778081266,0.306350221939245,0.30059802324251,0.300632312166593,0.397503156337633,0.552184199783846,0.246031370839994,0.23747489418993,0.237765886680791,0.23651202413259,0.227949987116458,0.248940369020927,0.249863389788116,0.254168039851969,0.254847331239871,0.253970646856576,0.249136835288642,0.250508392251936,0.250523219894782,0.3537986790478,0.364579302124828,0.417059890524388,0.210782356883334,0.210651688280749,0.196764674027396,0.197620970401777,0.191472132258901,0.1894676202916,0.189413870086281
0.327099654647459,0.351330803241548,0.351366945620987,0.350148298724546,0.347345874226572,0.346876950021554,0.347031713543763,0.347828699346759,0.348819371234435,0.347908397927058,0.345600846009084,0.340553887075232,0.339584529924147,0.338326960465235,0.340694749682273,0.34170766303422,0.340344446620026,0.556645466825263,0.352565204508513,0.351700567585031,0.35039388155919,0.349098316265484,0.345042955946987,0.346822273088558,0.345801945915188,0.345177331460283,0.344459117509909,0.912739650331225,0.35673084542068,0.36264429473337,0.366277067230743,0.365737711722205,0.365298442802879,0.374238584711595,0.37501332905032,0.480065325161875,0.393523787688724,0.403913331685678,0.403564882078787,0.402655762226765,0.460762514358866,0.470760052548067,0.46768517011279,0.515324533122993,0.685516217714242,0.679850204691552,0.805460727609673,0.852223406236581,0.848335783627785,0.847144011834003,0.946485511994329,0.869705197152515,0.762300239466768,0.787477577019995,0.864925135789899,0.874231335131385,0.943677527130288,0.947671723422043,0.964992263722022,0.958829524663977,1.00500836485381,0.960265952564724,0.976307608669199,1.01403469243657,1.04413480741481,1.09485461322635,1.05360596428296,1.03216148581632,1.02723129456988,1.07888709533611,1.05909219213614,1.10318589505069,1.09921950058927,1.12879138079111,1.16925231120828,1.1681402379948,1.19394960382436,1.25088775235463,1.23599523857075,1.25139745257747,1.28690038991788,1.45721440256261,1.26204555359656,1.19850910399963,1.21067703841048,1.12652089798025,1.13960629279222,1.13369377020721,1.30292351146879,1.2061638746191,1.09264900135295,1.16406263621204,1.11742043218326,0.981886509290165,0.959348492163602,0.953278425873347,0.862083788729453,0.863905735344207,0.866002920079298,0.819794424603775,0.857710560817436,0.812706811323185,0.780649447489217,0.806463446957163,0.74270087580683,0.68925278371154,0.585228528594778,0.626759829479933,0.473783964961059,0.451940993592921,0.484302324105241,0.419268282580827,0.395045474535839,0.365338292093029,0.320521741589714,0.312949449733581,0.296024622152067,0.304145536793517,0.396966581012128,0.355298124430645,0.358150592223225,0.306468843082016,0.308844046120478,0.306619899693514,0.30174623883543,0.397180655105724,0.427999910762015,0.244510610720558,0.245175074465613,0.235614025012703,0.230656958663608,0.23963416967944,0.248344483124036,0.249463970158941,0.252146846786466,0.254368213030395,0.253181074875004,0.243377222770484,0.248664204172912,0.411801637679975,0.353267664088362,0.420751973593147,0.415843097083303,0.212278095355467,0.213215017037825,0.197238231870804,0.198272459959342,0.197715496624923,0.18856684098868,0.188436172386095
0.329080071695134,0.350594981465295,0.351847917285817,0.351518002232484,0.347155895052602,0.346419146548671,0.347742513672714,0.346500698584326,0.348628465332788,0.347935273029717,0.345172697821893,0.339911664794446,0.339179549928904,0.338589224398081,0.340899556499089,0.340354640624483,0.34165020591819,0.591863898768553,0.351026836563197,0.353104560017052,0.349952759184509,0.350251165496793,0.345258883495938,0.345084658692492,0.345998412182903,0.344928968442605,0.70430284120066,0.873905126988764,0.357638111817346,0.357927250852851,0.366893341136548,0.366790474364301,0.365385555204602,0.374641711251482,0.375432209960732,0.376636029214326,0.377361656986123,0.404587062707512,0.404889175930508,0.402845741400735,0.460994196278341,0.44733145012304,0.471061239043385,0.499822232527057,0.621259700711587,0.701071341787818,0.725053200636552,0.764749580719462,0.857768944661144,0.850862970005422,0.809967404307308,0.799070013542865,0.756925218934939,0.75772869183168,0.844728959505392,0.844236867108426,0.926559013464092,0.927209576293979,0.973258674608903,0.952092214445633,0.985936309242595,1.00246913101636,0.966688175372581,1.03445977045752,1.02984466662157,1.0658665714616,1.12090492825217,1.04769344169795,1.02968712291632,1.0441811437987,1.10045204840088,1.10488180670125,1.10237037469414,1.22913745375428,1.12590925771283,1.17066093727869,1.19316188529814,1.17985407584348,1.2249764464805,1.25216663655013,1.32567467596127,1.41503902594131,1.24599463021531,1.17316310200903,1.11957970767277,1.14057935685401,1.1217297158855,1.11963531133344,1.14024573488997,1.10694840942297,1.08333538819004,1.10083200674882,1.10208308911399,0.964269416133259,0.942880541327293,0.857996919669907,0.858669723964064,0.900198244666185,0.838374387818022,0.820566388759467,0.864782419727502,0.814112657210561,0.77023951548335,0.758290288804488,0.723441621204681,0.689935782010154,0.586687197959795,0.626834894421843,0.498971496518743,0.453499749547152,0.403309105239686,0.38479493969057,0.376712020883914,0.368396493430104,0.30761520521958,0.308649433308118,0.296237769517984,0.30014763359105,0.35132987651387,0.384374205324803,0.290684817271998,0.306314079559807,0.306750568296098,0.302470939879549,0.301444125612434,0.29990483093944,0.406274633808971,0.245328911260145,0.245611563201905,0.234523266535813,0.234429667040345,0.240622988111761,0.241205899821161,0.249091425632425,0.251525012514594,0.251460141577141,0.240616501018016,0.242593211154979,0.580009198312837,0.412501317076791,0.409945402141138,0.361661036667116,0.361549829345768,0.21289900289966,0.21341611694393,0.197722910446346,0.199111148507842,0.199109295052487,0.185814459785312,0.187085930159393
0.326190534795437,0.351729296143046,0.352435462633607,0.351787679986754,0.348757280480016,0.346162442981892,0.3461411282453,0.346709212311854,0.347809238065523,0.3481372996635,0.345438668665451,0.339517805531338,0.339211058669953,0.339661448321413,0.34151768386025,0.341684494842272,0.343403574684779,0.594914686284204,0.354278723984953,0.354642927962368,0.352834882262782,0.350059332867468,0.345646255665301,0.344912287344403,0.348216998243799,0.345589725276949,0.500506157553348,0.357994901973338,0.358354472312364,0.35765849982626,0.365604262936587,0.365641332043703,0.364719238004191,0.374940117563766,0.375060592161893,0.375361778657211,0.377172604539831,0.404284949484516,0.404359087698748,0.402968996181896,0.402070070334332,0.447954211122589,0.449866977049778,0.539610358650078,0.633945675894381,0.634103219599624,0.679995700936983,0.81318129589427,0.85720549423298,0.806391162198286,0.809258457633713,0.746044509268698,0.747661649066636,0.884617172217627,0.889864304329905,0.846748299115539,0.884008312133246,0.956457101808549,0.975047259027253,0.986093852947838,0.982386942236232,0.975251139116391,0.982989315226868,1.01555452582833,1.06925839476272,1.06689523918407,1.12721594373867,1.02607288497251,1.02684206894517,1.04408847103091,1.16771394326297,1.14275716689708,1.09921023331249,1.22565295768537,1.13507459444728,1.17342258575884,1.19226295945058,1.28527861648155,1.19648883766181,1.25520630333365,1.26108175681154,1.23191763678798,1.26752251417296,1.17629544156034,1.17905709004048,1.10848677736829,1.11696633562108,1.13062630159335,1.12967177208511,1.0686930908792,1.03923241799871,1.11138743500012,1.11171178968738,0.956132747121284,0.928868418837422,0.902163834071014,0.896938016695327,0.898553303037909,0.864083667058364,0.861800210060015,0.813539939505618,0.754777990905242,0.728333816616323,0.734996988620435,0.722838321486368,0.696860291219434,0.585500059804403,0.524096937322008,0.483430273360336,0.476440893213603,0.410691417921849,0.383572585883418,0.378227220637283,0.379560781765783,0.380296603542037,0.307100871358345,0.295217442344614,0.300930718478877,0.324469601497574,0.354459435882144,0.29124919442784,0.331734219764644,0.305395692431006,0.300674941639776,0.300435845898878,0.796830112745377,0.390859445614758,0.243686749814903,0.244979534925576,0.234596478022368,0.240307900701274,0.241938941414381,0.242209545896328,0.248778191677294,0.250170136649502,0.240359797451237,0.241388465173707,0.241532107963782,0.641278872009615,0.412138966554731,0.428656033957969,0.202311139179636,0.205141365507947,0.213291008707413,0.208333942358318,0.209217113835358,0.199239963655071,0.198940630615109,0.186638320690967,0.187479789422501
0.324896822957087,0.531471836182748,0.352803373521734,0.352788545878887,0.351386406902222,0.34685656201264,0.347299537842677,0.346960355512565,0.345145822719234,0.346269016664851,0.335290073864752,0.335804407725987,0.339343580727893,0.339159161919991,0.341107143498939,0.341927297493882,0.343876205800509,0.364907363722805,0.354404758949148,0.35434174146705,0.353933054561096,0.348950966564697,0.344783472197174,0.344469311514366,0.347250421275748,0.346942747686685,0.34595114907133,0.35772893112978,0.35928768708401,0.358736284115659,0.363949127303855,0.366015730025575,0.366051872405013,0.374148692126838,0.375672232429308,0.375065225800283,0.376980771910505,0.403741887065266,0.403088544052345,0.403696477409049,0.403163608994256,0.474493838362332,0.448047810618057,0.576952850431118,0.643729139989986,0.62962712491536,0.71104200487436,0.743073420333346,0.733946079433695,0.739873429661552,0.739508298956459,0.742008610231437,0.747723739821056,0.813493603121723,0.834884331383045,0.852658041517517,0.892420219265558,0.925330172563195,0.987428340804016,0.942065020970739,0.983471213619377,0.986779631429485,1.06647821172901,1.01965066216465,1.02365412573318,1.04395872915601,1.04431088567361,1.03703607340208,1.04505226781593,1.04993612267847,1.16887235286035,1.14488864055625,1.11021049084918,1.10086907585594,1.16780661603076,1.20736862060037,1.1711891720551,1.19779552368765,1.19620155208166,1.23589329852618,1.21658029371871,1.22703378192544,1.35480172687772,1.20097419962285,1.12290666003643,1.17813962963936,1.08895135791812,1.09668026675182,1.10427016643383,1.08388215752,1.03863004500807,1.01108769842084,1.09497508782448,1.01805669055866,0.928627469641168,0.926142912736714,0.929341049953152,0.860608438266234,0.821233632687556,0.862568467304995,0.793679238640512,0.719549364957495,0.733015644845082,0.748495703976748,0.674611413128375,0.6234356572993,0.523125726715567,0.524817931455415,0.41760202621596,0.442771023220086,0.383431723276377,0.383257498472932,0.384227782351695,0.418447201858207,0.380452293791924,0.306870116166547,0.280797559676468,0.268905790113636,0.324323178524466,0.353622600788999,0.320587539254845,0.291124086191324,0.300874188090525,0.299939119863522,0.300246793452586,0.308310250978006,0.608709027769768,0.450504565692174,0.233236041791208,0.233556689567762,0.243839659881757,0.243234506708087,0.242600624976403,0.242300365208763,0.248592846141714,0.24131247350412,0.242482003833631,0.241759156244868,0.642603165861336,0.409549689422675,0.00408482099137732,0.203226746125403,0.205151559512404,0.210577550066517,0.211554321039025,0.21000668581693,0.197810022848069,0.187624358940254,0.187446427226097,0.187636406400066
0.325534411599483,0.324391756372631,0.352892339378812,0.353634648248811,0.352148177053458,0.346760182334138,0.346669363021704,0.345964123258821,0.345215327295077,0.34640617236118,0.335884106306287,0.335936003056249,0.338768082839916,0.336843269452915,0.34050199032527,0.344671338148148,0.344680605424927,0.598977460424125,0.353967343485178,0.354443681511619,0.35295072322252,0.352034189549076,0.345459056674365,0.344103254081595,0.349353166376907,0.348100230556384,0.501861960146118,0.357731711312814,0.356996816264238,0.355312025345813,0.363742467031683,0.365055640151269,0.367265885663064,0.367364118796922,0.375221842777848,0.375346951014365,0.376805620379382,0.37755256288777,0.401577977937366,0.40368257649388,0.423016896037939,0.447790180323601,0.446791167886823,0.542046725715281,0.620122605850802,0.631423123155133,0.758891735067446,0.681836182105295,0.684815611589748,0.717430865485812,0.740149594509567,0.739672329755448,0.757100370466063,0.820127119840142,0.835697998284242,0.86405030486196,0.896641463838399,0.894854732875405,0.990189989284163,0.987604419062818,0.990347532989406,1.00166287793658,1.09529017523497,1.08542052546532,1.06609825338107,1.04847189294739,1.03397787206501,1.03470071965377,1.06486570556946,1.15504557590606,1.16527664947009,1.07166788672526,1.0950121569316,1.1305614306559,1.13119160547687,1.17598962142663,1.17103162834986,1.21478244202358,1.2059877963603,1.21041755466067,1.21426347452396,1.18526616548242,1.35532996165412,1.16283935567721,1.13299872444878,1.11677172280872,1.08780221559752,1.08848799407917,1.08903476340913,1.09173154095183,1.01434977984705,1.00609263623695,0.98983783276656,0.944743263959875,0.921137656548368,0.936467585796214,0.930888685175248,0.881267051662013,0.825647636617401,0.800208961859005,0.698916699936697,0.699848061252988,0.71767922850349,0.71523266743383,0.640837749634934,0.566828350550045,0.523403745018938,0.524462994754779,0.450972563169514,0.422834330685392,0.40738763375013,0.38141701730462,0.377122561245224,0.4191478079827,0.36755039106018,0.362054895930224,0.432959757294144,0.418540801353675,0.234267489696713,0.259512478370427,0.266057955959445,0.315898297204664,0.300859360447679,0.298316419699517,0.298787197359891,0.579644067607744,0.371026546579988,0.445742112155439,0.315459955013016,0.258407818978368,0.330419193189702,0.246394648089731,0.242723879757564,0.242464396007751,0.244761753921269,0.244203863859172,0.242552435137152,0.241951915601872,0.319251197943311,0.409620120726195,0.201193505600087,0.203267522143231,0.204133085794391,0.211703524195168,0.21158304959704,0.209362610080788,0.209212480196968,0.185985904405724,0.187888476328456,0.202139694559224
0.325399109358509,0.324592856278735,0.353339948847239,0.35374122193177,0.352567984691547,0.348158614400092,0.346737940869869,0.344141249916389,0.343714028456876,0.347815725159268,0.335965658341942,0.335788653355463,0.341467640565643,0.338065623260067,0.337463250269431,0.33751236683636,0.340711430780475,0.346185611173839,0.352850636633307,0.354384370940234,0.353384431775778,0.350589421099227,0.344067111702157,0.343380406492832,0.348595103136383,0.34785001408335,0.351167699170238,0.358359105950753,0.356734552331392,0.355284223515476,0.355196184386075,0.36405292080378,0.368099940573175,0.367817288631415,0.374763112577287,0.375497080898185,0.374712142555002,0.377816680275972,0.488821974990366,0.421807516418277,0.640173285889879,0.456765537884076,0.447439877261354,0.583172119877515,0.572912317755468,0.627855221595212,0.678666773446872,0.713458910658327,0.685155720647538,0.702058306764783,0.75223505015708,0.758617423674788,0.765639239290247,0.828612238459008,0.86150643738612,0.923108806319265,0.905294320166965,0.895194841933195,0.940563722132539,0.98917985611525,0.989828565489781,1.00556440146055,1.06525493119418,1.15040267023977,1.18160559115471,1.00289542574819,1.00371094610475,1.02494227720547,1.09958092438365,1.1000442882226,1.0978386763492,1.07144547208256,1.10708741857465,1.10480766848702,1.20356903712098,1.19482999511837,1.2259495105423,1.19488559877904,1.20229015292547,1.20836948649251,1.24567954280482,1.32478501739049,1.16049473465212,1.15271022215774,1.14158022274615,1.13007026498661,1.111350365893,1.1041960282196,1.11448270544431,1.09546625349377,1.06860968538819,1.01397908877589,1.00164434338302,0.93472533776176,0.927311516338548,0.927672940132929,0.988697957722741,0.922187639007431,0.825624468425453,0.81000632686978,0.752154424849103,0.700339226922276,0.690877337330902,0.662250719360525,0.641594886147779,0.568790233044162,0.493371281161185,0.482774150164381,0.420356260874684,0.435176489899684,0.391115222453858,0.389360000231913,0.370277750616244,0.327864204981727,0.332874094808463,0.432030249433208,0.432653937160436,0.25726331029616,0.294188774622144,0.295232269987461,0.270805581853334,0.272202160463931,0.300249573635619,0.296992125847796,0.297792818561503,0.298469329766371,0.593527374950386,0.309374134352237,0.313989238188187,0.269396955782924,0.274498591649771,0.245436411670781,0.242927759846702,0.242325386856066,0.244374381751906,0.245083328425501,0.242722026302208,0.241344908972846,0.314758422160845,0.323798650658774,0.199716301681512,0.203751273991095,0.205079274753528,0.209956642522323,0.210420933088952,0.210378303615769,0.20705691161817,0.188906950046469,0.187628992578643,0.201886697903157
0.325223957827386,0.324965400805252,0.352964624137689,0.35367079062825,0.352607833981697,0.346679557026161,0.345801945915188,0.344963257366687,0.337726440929955,0.342593614694293,0.342598248332683,0.344133836094966,0.343126483109087,0.338093425090404,0.338958062013886,0.337908079554823,0.34252874375684,0.342562105953245,0.352698653294131,0.353298246101733,0.35285341681634,0.351776559254619,0.345588798549271,0.343642670425678,0.343933662916539,0.348778595216608,0.35168759339754,0.358464752906034,0.356154420805026,0.354377883846488,0.355610431658097,0.362404272264793,0.368100867300853,0.368477118738081,0.369434428429354,0.369242595800028,0.374736237474628,0.501633058409676,0.460393676743061,0.477963506788395,0.457738601945873,0.458208452878569,0.44749455419435,0.472248377198776,0.548491189987408,0.628465008407271,0.627239874417086,0.662973566949288,0.684617291866677,0.688946963577833,0.732520772265082,0.748585596561504,0.825924728193093,1.01750065395192,0.870285328678881,0.885963707533618,0.882964816767929,0.92908156620334,0.934790208699213,0.995379664280411,0.995546475262433,1.00296956396242,1.15614838184276,1.02906621537213,1.1616068078656,1.01137498400099,1.01106916386728,1.02428430055416,1.05219733821255,1.12648382887313,1.1010173522844,1.07474462261589,1.12349976575029,1.12749396204204,1.19279119422698,1.1947280550738,1.19439443310975,1.18233770602025,1.19959337538278,1.1884541086944,1.18076226896782,1.1811700291461,1.31132893150736,1.20796172631423,1.21941608041309,1.11473292191734,1.12413920784804,1.10472426299601,1.14666795769783,1.10893160665368,1.06693230829118,1.01755625761259,1.01219050435754,0.934215637538914,0.919475107094213,0.927033498035177,0.921675158601551,0.849818547912427,0.845369328330822,0.752290653817754,0.752881906076255,0.676361074984253,0.690281451434011,0.639445804662726,0.582884834297365,0.546605299162879,0.492284229595006,0.441874877555556,0.439318035892226,0.41658633268098,0.393622020822582,0.363307831750747,0.34668882430294,0.358610249151464,0.331827819260112,0.258696958013873,0.257697945577095,0.257773937246683,0.293712436595702,0.295002441523341,0.26982695742547,0.272973197891945,0.299391423805883,0.297571330646484,0.299283923395246,0.298891917587494,0.29778077110169,0.308031305946958,0.313030075041559,0.27253392897262,0.254820456137211,0.244074121984266,0.240990898999888,0.241144735794419,0.24356442176142,0.243705284368461,0.243316058743743,0.328868777784573,0.320212214545295,0.197823923763237,0.201060983542147,0.203814291473192,0.204646492927948,0.210502485124607,0.211185483423221,0.209619313647567,0.207402581042027,0.191667671798938,0.187611384752763,0.202372303206378
0.316638752619307,0.325214690550607,0.543727809722995,0.353391845597201,0.352550376865667,0.351039810750687,0.345321900978035,0.343527756193618,0.341340678873771,0.343686226626539,0.342314669663245,0.343786313215753,0.344500820255415,0.338966402562987,0.338425193599092,0.33766249672018,0.344491552978635,0.343268272443806,0.350875779951699,0.350956405259676,0.351872938933121,0.350730283706268,0.342949478122608,0.342124690489275,0.340544619798453,0.349918470260427,0.349890668430089,0.352131495955255,0.354983963747836,0.352116668312409,0.354718919631956,0.358845637981651,0.367685693301154,0.368289919747145,0.369868136982612,0.36980697295587,0.370088698169952,0.377833361374175,0.377019694472977,0.481226514942286,0.475813498575663,0.458328000749018,0.451489677213783,0.518331764437783,0.557304370204251,0.604651813995915,0.614120190681035,0.611202851951001,0.675236954310959,0.69076334982652,0.726168054033068,0.777420728259408,1.07370668761664,0.956086410737388,0.87621638581745,0.886477114667175,0.889589992937246,0.92593717919222,0.931639334594348,1.00460060467553,0.960182547073713,0.995157249637714,0.989532012632853,0.972276343270327,1.06522712936384,1.01316356841934,1.00558293601411,1.02834336778337,1.07010171694961,1.10183287264095,1.08000843582637,1.07579182489192,1.06881356547732,1.08237159140502,1.16963226955622,1.16704669933488,1.17839911338917,1.17932584106707,1.18718449177568,1.18429310142063,1.18357025383186,1.18117929642288,1.22576416500672,1.17258853084873,1.19789746373222,1.21953655501122,1.14740007256337,1.13653882417836,1.12728081467613,1.10409408817503,1.03117915447774,1.02049398435154,0.990551413078544,0.956957534754616,0.92168905951672,0.9227047530517,0.922998525725594,0.855561479332382,0.842083151984983,0.841455757347044,0.720983012675209,0.719655011912776,0.657815400694089,0.638209549940405,0.579330833652613,0.547344827849844,0.49023338124381,0.441655243095893,0.422855645421984,0.406949291558483,0.425214167362243,0.335449471025351,0.369980271031638,0.356999596447272,0.298943814337456,0.259539353473086,0.258757195312937,0.315866788463615,0.293902415769672,0.291575402570462,0.316164268048221,0.300740739304907,0.297265510512777,0.297209906852103,0.298607412190378,0.297659369775885,0.298075470503263,0.297096846075399,0.306125027113515,0.284353413776575,0.255023409498672,0.243190023779548,0.242419913079212,0.240508073879701,0.242634913900485,0.243734012926476,0.242975949685953,0.325743852054689,0.313163523827176,0.198467072771701,0.200280678837354,0.202976529652369,0.205402702713116,0.210881516744869,0.211853654078988,0.21176005458352,0.20716719221184,0.354658682332893,0.282653795215304,0.205134878414202
0.316201337155337,0.323903370886376,0.543540610732059,0.353351996307051,0.353010960521584,0.351411428549526,0.34509021905856,0.343980926028112,0.343683446443505,0.340512184329727,0.342379540600698,0.344510087532194,0.343970732023655,0.337210253613364,0.337208400158008,0.337896958822689,0.344826101670358,0.343815041773767,0.344430388951894,0.344701920161519,0.348866634346008,0.349271614341251,0.346200438816686,0.344926188259571,0.341653912828901,0.34480293347841,0.351846063830462,0.353867256895965,0.353202793150909,0.352809860615479,0.352443803182708,0.355916251791805,0.358884560544123,0.369733761469316,0.369744882201451,0.369763416755009,0.371364802182422,0.377350536253988,0.37731439387455,0.476581755820644,0.523053441956691,0.456541269786024,0.465928094435488,0.521305633556169,0.537998779218208,0.586120040620919,0.61064218170587,0.672808927794857,0.672469745464745,0.722748428901611,0.722853149129214,0.916082357065416,1.12234135615291,0.964760581802546,0.961016601983824,0.874336055358988,0.887489101291444,0.912946310603397,0.937746469991719,1.00438745730961,0.934688268654644,0.973879582153097,0.964417692561723,0.952981873016419,0.959200215735137,0.992738490398392,0.999114376822354,1.04374558179009,1.07970261569267,1.10165679438215,1.15776088800231,1.13914292895327,1.06272496463351,1.06968468949455,1.16281155384687,1.16824217803937,1.17616569968543,1.17808402597869,1.25763432984975,1.18379266847456,1.18354245200153,1.182096756824,1.24664333958984,1.13424053953717,1.14976322814202,1.19778625641087,1.15376669171055,1.13340648462706,1.21302165943557,1.05273484026573,1.06038034360842,1.03749943724103,1.05050142656199,0.995685484414119,0.94008182374003,0.939924280034787,0.879791701198794,0.856194434336389,0.870527204602813,0.722437048401836,0.720608614693337,0.720295380738206,0.640718201764485,0.64206288362512,0.569094199722514,0.503826622823269,0.501624717860575,0.448335096198207,0.422449738699063,0.400894052911075,0.384190713244579,0.33575899806977,0.336575445154001,0.358571326588993,0.279617835342499,0.25921963242421,0.357754879504761,0.223504474445565,0.294507568943342,0.29416375297484,0.275969308474601,0.276985928737259,0.297164497195885,0.297278484700267,0.29715801010214,0.297874370597158,0.29843411411461,0.296371218303602,0.304756250333254,0.825777378492307,0.253637951620209,0.240929734973146,0.224675858230432,0.225747155426087,0.241603465994981,0.243363321855316,0.243458774806139,0.325926417407235,0.199423455735295,0.20022970881507,0.200256583917729,0.200103673850875,0.217050742896659,0.218352795284111,0.211128026307191,0.211274449280299,0.210316212861349,0.318619169666982,0.346873243110842,0.201686524724731
0.324140613171919,0.328681578793636,0.546191978618535,0.353615186967576,0.35336589722222,0.35151985568784,0.3448075671168,0.3435620451177,0.343661204979236,0.34130546322201,0.344523988447362,0.343187647135828,0.341134945329276,0.336758937234226,0.336556910600443,0.338427973782126,0.344305280715377,0.340378735544109,0.339682763058005,0.344786252380208,0.344296940166276,0.348216998243799,0.347548827588032,0.346170783530993,0.34066509439658,0.347660034909381,0.345798239004477,0.352017508450873,0.352136129593645,0.353173137865217,0.352640269450423,0.356172028630906,0.355522392528697,0.361825067466105,0.369061883902837,0.372505603953919,0.37257140161905,0.378389397980915,0.37695667699088,0.438756438919417,0.522369516930399,0.643047995146729,0.465578718100919,0.548278042621491,0.524974548432981,0.583807855064555,0.601541715908878,0.600787359579066,0.673861690436953,0.668155828124113,0.721416721228467,0.860765981971477,0.860803051078593,0.96603946599805,0.857751336835264,0.877053220910595,0.921259057874173,0.928219709462891,0.934957019681235,0.983230264423123,0.969069865504788,0.967753912202168,0.968254345148235,0.950572381053875,0.958069607968098,0.991793228166932,1.00858553369051,1.06044521454587,1.07906317359491,1.08608776939341,1.13944874908697,1.14689037234052,1.0731506510099,1.04937081879495,1.07958214109454,1.18481206892025,1.19761017815207,1.17873273535322,1.18514569088429,1.18514569088429,1.18535883825021,1.1803730433431,1.24773687824976,1.20309640600525,1.13361036471619,1.12322174744692,1.07910024270203,1.15631519282478,1.21334601412284,1.07321552194736,1.04805486549233,1.01506336015904,1.01488728190024,0.999633344321979,0.93998915097224,0.942936144987967,0.844624239277789,0.843900464961348,0.844423139371685,0.723014399745169,0.723419379740412,0.677907783478671,0.642085125089389,0.640354924514747,0.625053723824916,0.499069729652601,0.578430054349693,0.447995913868095,0.421761180034382,0.41389696895971,0.372233146016616,0.336138029690032,0.336519841493327,0.341960659690287,0.32915235645401,0.276001743943327,0.359299734543823,0.226999164518931,0.227417118701665,0.295284166737423,0.304166851530109,0.295020049349221,0.299952094051013,0.310067326655308,0.296905013446073,0.296920767816597,0.296806780312215,0.29674283610244,0.296411994321429,0.303776699177712,0.435114399145265,0.2383358242027,0.225476550944139,0.227380976322227,0.236335019146111,0.233397292407163,0.233978350661207,0.336237189551567,0.200723654667391,0.201506739555218,0.200257510645407,0.199859017743909,0.217667943530141,0.218328700364485,0.219053401408604,0.210413519267529,0.223280206347513,0.320151977246231,0.318156732555709,0.201427040974918
0.323197204395816,0.331935319670749,0.332176268867003,0.353412233606115,0.353622600788999,0.351746903968926,0.345773217357173,0.344775131648073,0.342391588060511,0.33836866321074,0.340252700579914,0.344386832751033,0.339177696473549,0.336711674122653,0.336051844015987,0.335249297846924,0.342157125958002,0.341246152650625,0.340803176820588,0.344160711197625,0.344589786112493,0.348404197234736,0.348209584422376,0.348602516957806,0.349154846653836,0.348600663502451,0.347693397105785,0.346632293914588,0.351621795732409,0.351922982227727,0.352134276138289,0.355258275140495,0.356150713894314,0.361591532091273,0.361629527926067,0.371662281767029,0.370115573272611,0.372279482400511,0.371852260940999,0.434969829627512,0.51219034011633,0.49561674232474,0.471449537940425,0.544110548253968,0.54132295139884,0.587225626740656,0.582199055815718,0.60850514768063,0.666948301959808,0.67449464544096,0.748970188547833,0.861360014413012,0.861090336658743,0.854330784976129,0.855625423542158,0.895599821928438,0.88927027188837,0.915240888333881,0.932269509415321,0.936421249412319,0.944493047486841,0.999475800616735,0.963815319571087,0.94478033306699,0.94497494587935,1.03155911282568,1.03141083639722,1.04150290080957,1.1092744958945,1.09497508782448,1.1145290418282,1.13720606810645,1.04979711352679,1.0496117679912,1.0962910411271,1.10505788496005,1.28347149750964,1.21590378251384,1.1847471979828,1.18773126110564,1.18756445012362,1.18525689820564,1.22270596366964,1.18143878017269,1.13405519400159,1.10075786853459,1.07322478922413,1.14896624233902,1.27804087331714,1.14985590090981,1.11501094022071,1.0120792970362,1.01616616609574,0.949803197081217,0.950192422705935,0.940155961954262,0.844711351679512,0.84388193040779,0.845608424071721,0.819868562818007,0.724226559547864,0.688856144265399,0.634044835755916,0.620824138702974,0.556974455150918,0.550414149919054,0.498163389983613,0.476470548499295,0.458233474525872,0.414499341950346,0.368349230318531,0.350573666728703,0.339458494959953,0.340129445798753,0.326974546410942,0.282133900988001,0.380202077318891,0.227888823089717,0.22838184221436,0.229745058628553,0.268241326368581,0.268432232270228,0.282539807710922,0.291304798088514,0.296076518902029,0.29687535816038,0.296839215780942,0.297518507168844,0.295879125906636,0.684494037085516,0.684266062076753,0.300428432077454,0.225460796573615,0.226701684934325,0.237484161466709,0.234980143281019,0.235123786071094,0.204001490464128,0.202806938487314,0.202418639590273,0.203523298982331,0.833443269843908,0.218150768650328,0.219162755274597,0.220811403813583,0.224520167980545,0.225166097172042,0.226197545077547,0.281221074225268,0.200842275810162
0.322337201110723,0.329577724458167,0.332162367951834,0.353251909717838,0.353341802302595,0.35195263751342,0.347937126485073,0.34345176452403,0.342196048520474,0.339603064477705,0.337473444273888,0.345808433008933,0.338594784764149,0.337047149542053,0.335687640038572,0.336588419341492,0.337894178639655,0.339980242642611,0.340832832106281,0.340676215128715,0.344381272384965,0.348368054855297,0.348134519480466,0.349797995662299,0.35001855684964,0.349451399510764,0.349570020653536,0.34717906324455,0.351567118799413,0.35054401144301,0.350023190488029,0.353169430954505,0.352492919749637,0.361689765225131,0.370967236008603,0.371343487445831,0.368700460108456,0.372917071042907,0.372379568989724,0.567127683590007,0.525621404352156,0.473862736813681,0.570566770002699,0.659552088362476,0.659942240714873,0.58636284327253,0.584784626037064,0.584183179774105,0.667234660812279,0.691793871004346,0.896231850204766,0.863541531366792,0.863698148344357,0.852900844169127,0.951128417660616,0.844031133563932,0.921365631557132,0.9131307294113,0.957087276629522,0.936032023787601,0.921480545789192,0.953612047837392,0.957078009352743,0.946318701012307,0.9467635302977,0.976437350544105,1.11526115669375,1.08284422252075,1.06243767905336,1.09714363059077,1.10386240625556,1.09594815188628,1.06584803690804,1.04789732178709,1.08845092497206,1.10146218156979,1.1705682645109,1.3641709437013,1.30387804097703,1.25287094958533,1.18805561579291,1.29551895732236,1.39704197443647,1.19847203489252,1.09643931755557,1.09825570380425,1.07289116726009,1.07167715400204,1.15989236166148,1.1591324449656,1.060565689144,1.04957469888409,0.98879989776731,0.998094976376662,0.95023875908983,0.963444628499926,0.890969890449642,0.84143536933813,0.833386739455556,0.813216511546031,0.707556582077772,0.689791212492401,0.64922556184762,0.605865827253966,0.564088943534168,0.478445405180904,0.474101832554579,0.477015464373902,0.415787493422629,0.380302163908104,0.380512531090988,0.358545378214011,0.327349871120492,0.294797634706525,0.291441027057166,0.339092437527182,0.272824921463481,0.228431885508967,0.229237211861063,0.230841377471511,0.269529477840864,0.283932679410808,0.280636309060513,0.292651333404505,0.314297838504928,0.294829143447574,0.296528762008845,0.297041242414725,0.297314627079705,0.68522985886177,0.685152940464504,0.302382900750149,0.224713854065226,0.225894505126873,0.23663991255214,0.236113531231092,0.235073742776487,0.205196969168621,0.206195981605399,0.202731873545403,0.206766845854986,0.206286800917833,0.355425086122517,0.220328578693397,0.224616547659047,0.226330993863164,0.226446834822902,0.228096410089567,0.228000957138743,0.200813547252147
0.322244528342933,0.330445141564683,0.329508219882325,0.592830475736604,0.353451156168587,0.352749623316416,0.347807384610167,0.34373905010418,0.342852171716428,0.339218472491376,0.336157490971268,0.339827332575757,0.338634634054298,0.337370577501641,0.33596195143123,0.335410548462879,0.334785934007973,0.339525219352762,0.341620550632497,0.340909750503546,0.342494454832758,0.348130812569755,0.349485688434847,0.349956466095221,0.349048272970877,0.347833332985148,0.350407782474358,0.346372810164776,0.350797008099077,0.351220522647878,0.350325303711025,0.352417854807727,0.352056431013345,0.359359045115209,0.360865904319477,0.370866222691711,0.366758965623252,0.373346145957776,0.37108771060673,0.369191625777743,0.515469102640745,0.474514226371246,0.474036034889448,0.660931059147194,0.660291617049442,0.623433803843944,0.585481525250845,0.5839737393189,0.603176463532696,0.659804158290865,0.759483914053625,0.909077222548159,0.925912157544917,0.730281798195272,0.813531598956517,0.760861958110665,0.827272190236762,0.895272687058138,0.919718836473501,0.926100283263531,0.921475912150802,0.917638332836612,0.932853347852399,0.944548651147515,0.946884004895827,0.968041197782318,0.99613958097629,1.1326373006544,1.06610752065785,1.12421334606227,1.11004367986716,1.06690450646085,1.0415770390238,1.05952775414475,1.08707010073198,1.18265279343074,1.15968848157234,1.37283584748968,1.22692257460409,1.22493937737338,1.21002832903595,1.27894906644148,1.27045097363513,1.16061520925024,1.15769601706485,1.09446538760164,1.04818460736724,1.04634041928821,1.05039948651742,1.02035497519986,1.0150818947126,0.976326143222757,0.940804671328793,0.925413578054206,0.96011767613626,0.96905133095123,0.8980630640963,0.847668539699696,0.835396811788924,0.805084476172445,0.784573212477452,0.652390336867654,0.651892684104621,0.655031510749673,0.57605114440052,0.487666345576023,0.480022695688692,0.472636676095817,0.455256825224453,0.380953653465669,0.381188115568178,0.335535656699396,0.323627206038362,0.356860587295586,0.290796951321024,0.273250289467638,0.272521881512807,0.227871215263837,0.229261306780689,0.292449306770723,0.326379587241729,0.283002244822195,0.282450841853844,0.29516647232233,0.304451356927225,0.294575220063829,0.296075592174351,0.297138548820904,0.295829082612029,0.684238260246416,0.29172182554357,0.301684148081011,0.300345953314121,0.339876449142686,0.233825440594354,0.23634428642289,0.234542727817049,0.205761346324463,0.209986297808016,0.207362731751877,0.207130123104724,0.206943850841466,0.365382775021568,0.223821415311407,0.226309679126573,0.22814367320114,0.22764880062114,0.229496695610876,0.229379001195782,0.220668687751186
0.322588344311434,0.322106445918926,0.328924381445247,0.572947533407228,0.354331547462593,0.354775450020308,0.349982414470202,0.342265553096316,0.341361066882684,0.339050734781676,0.338400171951789,0.340748499887592,0.339259248509204,0.337603186148794,0.335010202106026,0.333678494432881,0.332975108125354,0.339931126075682,0.341625184270886,0.341532511503096,0.340931991967816,0.34493545553635,0.352295526754244,0.353178698231284,0.349235471961813,0.346564642794101,0.34981096984979,0.347942686851141,0.345927054151705,0.351323389420125,0.351526342781586,0.351661645022559,0.351117655875631,0.349931444447917,0.359249691249216,0.367154678341716,0.366624590109956,0.484849093435203,0.370718872990925,0.573932644928837,0.528426609033164,0.502656165766079,0.481117161076293,0.661039486285508,0.660492716955546,0.691677103316931,0.58395149785463,0.502116810257541,0.595753374832705,0.619079110485485,0.754244195762771,0.890484285146421,0.765237966205716,0.731397578319466,0.731063956355421,0.791152052262874,0.848647164127559,0.910070674618869,0.908040214276587,0.912416222371638,0.916114792534142,0.91798400226047,0.944159425522797,0.940711998561003,0.946967410386838,0.965316618409287,1.06875796181665,1.02518322640172,1.04233695571968,1.06860968538819,1.12335148932182,1.08239939323536,1.04189212643429,1.0459048572796,1.10557685245967,1.10503008312971,1.12361097307164,1.39806137488216,1.22078763737639,1.22595877781908,1.23990602937149,1.44292426176937,1.38720012649715,1.24125905178123,1.24958106632878,1.06608898610429,1.04481131861968,1.04471864585189,1.03368131920808,1.02320929644779,1.02113342644929,0.963713379526518,0.952815062034396,0.92159638674893,0.868462455336449,0.849270851854787,0.818552609515387,0.822114023981563,0.835274483735441,0.835567329681658,0.784442543874868,0.713647036376941,0.611281623803622,0.649234829124399,0.562401372432709,0.475578109745476,0.451099524861387,0.45071400614738,0.418734487438356,0.386781843831991,0.38500716032881,0.326892067647609,0.322668969619412,0.297145035914649,0.292086029520985,0.275836786416661,0.262343631426416,0.252846526183281,0.313940121621258,0.293380668087014,0.320198313630126,0.281723360626691,0.296064471442216,0.297286825249368,0.305225174538272,0.294949618045701,0.296647383151616,0.296854970151466,0.296753030106897,0.291877515793457,0.406007736237735,0.301154059849251,0.254517416186538,0.320463357746006,0.233722573822107,0.234801284839184,0.325697515670794,0.322880263529973,0.206019903346598,0.21194076648071,0.208764870728542,0.00416038636623341,0.300244013269552,0.224164304552231,0.226756361867321,0.228523631549079,0.22891656408451,0.229573614008142,0.229474454146606,0.221783541147702
0.321454956361361,0.321732047937053,0.328865070873861,0.333495929080335,0.351338217062972,0.355592823832217,0.349261420336794,0.343174672948338,0.341833697998414,0.33860312531325,0.337265857274038,0.340448240119951,0.33876622938456,0.33583406301168,0.333840671776514,0.334252138865502,0.332927845013781,0.331779629420861,0.341518610587928,0.341139578967666,0.341487101846879,0.342822516430735,0.341728051043133,0.353503979646227,0.352320548401547,0.349376334568854,0.350441144670763,0.346842661097472,0.345943735249907,0.345560069991256,0.34403467623343,0.346598004990506,0.352793179517277,0.350570886545669,0.358031044352776,0.366689461047409,0.367162092163139,0.365100123079808,0.364586715946251,0.365745125543628,0.428888642605122,0.441481945020125,0.486072373970033,0.48659041474198,0.486153926005688,0.54738189695696,0.556988356066087,0.493446346103095,0.522626220497178,0.57542838340097,0.733316831340399,0.747130634107199,0.768227589694626,0.716524525816825,0.726285748448161,0.799685360720991,0.880574786086621,0.847491534713216,0.896141030892332,0.89152685378406,0.932742140531051,0.925218965241846,0.921750223543461,0.942092822801077,0.94187040815838,1.05555209240655,0.985917774689037,1.06039887816198,1.07467975167844,1.01523943841784,1.11132256406266,1.03148497461145,1.02800047854254,1.05205832906086,1.09238025032636,1.10524323049563,1.11793939968288,1.18316249365359,1.19467245141312,1.24333492177973,1.17220857250079,1.43658544445252,1.3892111255582,1.18014136142363,1.22496717920372,1.11078506200948,1.05887904477022,1.04576584812791,1.03698046974141,1.02494227720547,0.999105109545575,0.954084678953121,0.964111872428015,0.871196301986258,0.869162134733264,0.851388424598792,0.814258153455992,0.825724555014667,0.82975952732425,0.829829031900092,0.739979076616833,0.713923201224955,0.610467956902425,0.588174595882827,0.580624545490964,0.511609281862285,0.453894535537938,0.442976756764581,0.407096641259269,0.430456665836132,0.387379583184238,0.328859510507794,0.330208826006818,0.291036047061923,0.289784037969078,0.263080379930347,0.262736563961846,0.275371569122354,0.270780560206031,0.281545428912534,0.282552781898413,0.287939849890054,0.295578866138996,0.298625020016258,0.294759638871731,0.296373998486635,0.297170057561953,0.296514861093676,0.296714107544425,0.291417858865218,0.406880713710318,0.293494655591396,0.294346318327387,0.538466776695548,0.234768849370457,0.23432587354042,0.213562539917038,0.216228735446361,0.214960971982991,0.213407776394828,0.213448552412656,0.436466494827323,0.220598256447666,0.340182269276394,0.226697051295935,0.228697856352525,0.228917490812187,0.229507816343011,0.229462406686793,0.221190435433845
0.321115774031249,0.320473551750463,0.333004763411047,0.332453360442695,0.354543768100833,0.356745673063527,0.35724332582656,0.341873547288564,0.341726197587778,0.339564141915233,0.338427973782126,0.338146248568044,0.338489137808868,0.337020274439394,0.335434643382504,0.335497660864602,0.3330696343485,0.332312497835654,0.341210010271186,0.340931991967816,0.3397290994419,0.340816151008078,0.340991302539202,0.354313012909035,0.352329815678326,0.351235350290725,0.350025043943385,0.347883376279755,0.345990071633802,0.345552656169833,0.346071623669458,0.34810208401174,0.347348654409606,0.349463446970577,0.359959564650489,0.358866025990565,0.367282566761266,0.366191808284376,0.365147386191381,0.364888829169247,0.524930992232119,0.524938406053542,0.487447637844038,0.487104748603215,0.528548010358969,0.467590643889644,0.493283242031784,0.515292097654266,0.503088947591659,0.544215268481571,0.580331699544747,0.748418785579482,0.767612242516499,0.716894290160308,0.838156606813715,0.845832692169773,0.868115859184914,0.909670328262015,0.910553499739056,0.891603772181326,0.928581133257273,0.929609800979744,0.919061786549869,0.940684196730666,0.9416850626228,0.949812464357995,0.977030456257962,1.02915888813992,1.07388276587544,1.04429235112005,1.04486692228035,1.01877953814742,1.03728628987512,1.05124280870431,1.08332612091326,1.10531736870986,1.15068068854314,1.19186446654908,1.17128184482289,1.21080678028539,1.22285424009811,1.33062340176127,1.36458797115636,1.35077046147885,1.16947472585098,1.06399458155224,1.03660051139347,1.05395812080056,1.02724056184666,1.04694279227885,0.945141756861372,0.916687510239085,0.909247740440892,0.895753658722969,0.880160538814599,0.81284118683648,0.790139138910928,0.778111140379445,0.828101611508484,0.86087070219908,0.781115591511202,0.681698099681288,0.611465115883847,0.58834974741395,0.527525829730243,0.450658402486706,0.45769597247269,0.455090014242431,0.447566838953227,0.444595750017874,0.442974903309225,0.330145808524721,0.330392318087043,0.397916476881977,0.291469755615181,0.276276982063664,0.275462388434789,0.277019290933663,0.281123767819089,0.281211806948489,0.317849985694324,0.298316419699517,0.2966103140445,0.299080043306108,0.303579306182319,0.296591779490942,0.297337795271653,0.296807707039893,0.296184946040344,0.291133353468103,0.290859042075444,0.408223542115598,0.289128841500802,0.531801751236081,0.2360041773651,0.235873508762516,0.216510460660443,0.217488158360629,0.218033074235235,0.213475427515315,0.213921183528386,0.278447378285309,0.57003204813255,0.223713914900771,0.226078923934775,0.227738693205897,0.228385549125072,0.228358674022413,0.283056921755191,0.204044119937312
0.321414180343533,0.323122139453906,0.33869579808104,0.335672812395725,0.485950972644228,0.358158932772326,0.357872573919855,0.64003149655516,0.339355628187706,0.338382564125909,0.33566632530198,0.335538436882429,0.337211180341042,0.337599479238082,0.336559690783477,0.335216862378198,0.333531144732095,0.333637718415053,0.339865328410551,0.340816151008078,0.339451081138529,0.340742939521524,0.341445399101373,0.342449971904219,0.354507625721395,0.351007375281961,0.349900862434546,0.34715682178028,0.343940150010284,0.343725149189011,0.344814054210545,0.3479695619538,0.345060563772867,0.359827042592549,0.360544329815245,0.359588873579328,0.365265080606475,0.365615383668722,0.365357753374265,0.366479093864526,0.752097894460751,0.425398586170146,0.487846130745536,0.481669490772323,0.481110673982548,0.469368107575859,0.468138339947283,0.46329526110257,0.496291400074252,0.544769451632956,0.578860982719917,0.721356483929403,0.781603976997456,0.773786102306679,0.738910559604213,0.932306578522437,0.858509400075787,0.855313116314705,0.871654105459141,0.891789117716907,0.960164012520155,0.931815412853149,0.912476459670701,0.906695532415952,1.00907669935979,0.982655693262824,0.979894044782677,1.0308918688976,1.00158873972235,0.989318865266935,1.00254326923059,1.10491887580836,1.02723129456988,1.05948141776086,1.07339160020616,1.14315565979858,1.17619350151577,1.14890137140157,1.17217150339367,1.19461684775245,1.20088152685506,1.17126331026933,1.34016869684365,1.16463720737234,1.33137405118037,1.05088138490993,1.0504087537942,1.03998306741781,1.04861090209907,1.08643065863423,1.02182847220772,0.941536786194336,0.897013081637237,0.870269574308357,0.851696098187855,0.80148321241612,0.779069376798395,0.755837240641083,0.784588040120298,0.800028249961815,0.714284625019337,0.681249563485183,0.609154783782838,0.535478079934316,0.525877181191256,0.443094451179674,0.467470169291516,0.444772755004354,0.433065404249424,0.44430197734398,0.336838635814525,0.329330288168168,0.335219642561231,0.292117538262034,0.351999900624993,0.277768086897408,0.277285261777221,0.276633772219656,0.281537088363433,0.281194199122609,0.277629077745722,0.300312591117717,0.30228930125468,0.306419726515087,0.3095937688119,0.296117294919857,0.294838410724353,0.295933802839632,0.293293555685291,0.291272362619788,0.290226087071437,0.411907284635256,0.252724198129798,0.357680741290529,0.236110751048059,0.237491575288132,0.226404205349719,0.218275876886845,0.217835681239842,0.213428164403742,0.213677454149098,0.284758393771818,0.569088639356446,0.662225697713222,0.224335749172643,0.226699831478969,0.226479270291629,0.226786017153014,0.203467695321657,0.204518604508398
