0.609877712156908,0.635616481996029,0.650399336197314,0.66175920278619,0.677463811835891,0.690706850837358,0.705288332801878,0.708539502232317,0.715179849577781,0.739115783337363,0.757713622725394,0.787836804134908,0.79478368299465,0.794028685811297,0.793975633973035,0.793501586697126,0.79374452752303,0.797003971254492,0.800414635279698,0.802251065881158,0.803562893157592,0.807847741711436,0.829078154675782,0.843205011826988,0.864426110777332,0.864568257851015,0.865720322002941,0.796690789823341,0.796803551472259,0.798153453693448,0.80108728512583,0.80542513378684,0.81084886048344,0.830487169003409,0.835739816501075,0.836751780165951,0.839324565136672,0.850587014589689,0.852467696335795,0.840583242953706,0.809791000523308,0.808980432277037,0.807675914719636,0.806056720264942,0.803703180954045,0.803360403144947,0.80262030210078,0.805642079391093,0.864289715560448,0.905992839130856,0.918426471357522,0.92406640766851,0.922408008366686,0.896982667868664,0.872673390616265,0.820432145835064,0.795347554721672,0.814940305627746,0.765746407467058,0.714721702394936,0.71210556660939,0.709394419832857,0.707318537922791,0.706492020451495,0.686206451429735,0.664755967619485,0.646545669806233,0.614731205594684,0.547469088948392,0.536386638958399,0.526742821573516,0.517759940929695,0.501996459566914,0.501896306738045,0.502074801008014,0.484152820991731,0.476481674679998,0.473458707416304,0.435881764293687,0.43381849439636,0.43241739848812,0.42897360236282,0.428525548686316,0.425801818805925,0.413437840736663,0.412740367447638,0.411645780494968,0.426684701731072,0.407365707336381,0.362975512702143,0.363303970290769,0.362572988782118,0.362001114749403,0.327192175729884,0.321946303269958,0.319164098483005,0.316347810390681,0.314629176842558,0.338826230079633,0.353748062464448,0.305395557576661,0.303531773044174,0.280261246624756,0.278797962236564,0.27746491288151,0.277801001699151,0.277740273091063,0.278483430098467,0.278165613383413,0.288913265474972,0.289489517805382,0.290428004792169,0.291046072731446,0.291092086954148,0.290631514017313,0.289313435983103,0.285873106613372,0.28369818565023,0.283388126214128,0.283823710312787,0.291325176946694,0.294706720203398,0.299061189303725,0.299758489469697,0.300552895882832,0.300086749588761,0.29948810801663,0.299262350599697,0.299143750246555,0.29931418180929,0.298450225100792,0.297948410965081,0.297590593773385,0.290143362879063,0.289710694589503,0.289572532613669,0.282189484299832,0.277524004063923,0.277233008559757,0.276416173494803,0.274787173412566,0.272756733479755,0.270945277429199,0.268174968800423,0.267045168571524,0.265809542338787,0.264644370982276,0.263819853977524,0.248129535288964,0.248550143574391,0.248727029632773,0.248835245761432,0.248373142432491,0.246153389005066,0.236565711641809,0.236952405463866,0.236532577741001,0.236153269596501,0.235918664023603,0.235600616759145,0.234903033295166,0.23394158172412,0.232939486919076,0.232128848755018,0.231486187351831,0.231302821154358,0.230980963125004
0.596903101437289,0.597942271345585,0.606382936313515,0.645431201260185,0.65165027644892,0.668575531090677,0.700594640688864,0.70089715180849,0.723696137795559,0.692900829018729,0.733573523272088,0.791436251053186,0.795185139965086,0.838258864625824,0.837908786845285,0.796396801078675,0.792092144193343,0.774104326441001,0.773343737340952,0.800297034726037,0.800318416575995,0.800261885910534,0.814079433145793,0.813989881009754,0.864435277632169,0.865020677806088,0.867278680558834,0.796353289883174,0.796722431183944,0.796999879936633,0.80126359583791,0.803707993589095,0.807790730328952,0.815879599608389,0.83484499673925,0.833738911149057,0.832514433184567,0.847834864565112,0.853568843514192,0.864643467463359,0.803498441990213,0.802019253610362,0.794121829410776,0.779555748877314,0.792970327000303,0.792451819478352,0.792480403570259,0.802990086513413,0.836175321477343,0.901925522936103,0.912994669881445,0.926038460060034,0.9210576164064,0.87380904520697,0.873230270071574,0.798405616122177,0.752585574521756,0.832641695748757,0.681209620302511,0.691343870036395,0.691869306334359,0.692580646048878,0.677684541537657,0.706813657108942,0.628326093575674,0.6519849167054,0.681827599038829,0.615244822692277,0.510933904396988,0.52081252778091,0.513696223358542,0.508174207921293,0.479747900349678,0.486342596488182,0.510592010982925,0.477708412283579,0.467236862569703,0.466927607446632,0.429872162739206,0.430925300669754,0.430749408772819,0.426940057838736,0.427591688125506,0.425686003663071,0.413674541480402,0.413453890121546,0.39895869630907,0.447243318160786,0.450814979438003,0.337008968186685,0.340640655195526,0.337066286169095,0.359594638864864,0.305736748605718,0.305611489128524,0.315241111425209,0.392429754140676,0.297966074572036,0.395374346461136,0.395882450804513,0.305132646133876,0.30237296790872,0.280757411860276,0.278674534123936,0.277359267925699,0.27766323094712,0.277511634183467,0.278653958062151,0.280264130933466,0.290563758840602,0.290521278949153,0.291456400132262,0.295419402790131,0.291230194938326,0.292299227319838,0.290547258775129,0.282688602464566,0.282145260214228,0.283082771442979,0.283021360098962,0.286044000663279,0.286030481855712,0.298683425327886,0.299208257630309,0.301353569185909,0.300238333837011,0.299678920779537,0.299120704652326,0.300165695359013,0.300532403389851,0.298675475059136,0.297790943331706,0.297983339023937,0.290043945034196,0.288830313607036,0.288930591216276,0.287419458947236,0.27735768194537,0.277488924587705,0.276686503415365,0.274990540181017,0.271436352685618,0.270467709637192,0.266666391115208,0.265900339845613,0.26591416255839,0.265134726159035,0.264181323541066,0.248182157703611,0.248951073896974,0.248945054794649,0.249247400989615,0.249133903062898,0.24766041915293,0.237378948523892,0.237417653769955,0.237295425110068,0.236974347501963,0.236658098673074,0.236102432518866,0.235282553877358,0.234488582954156,0.233505770698421,0.232567746286327,0.231828969107839,0.231857926830683,0.231285561029012
0.595493239931576,0.65494197606733,0.65532982616554,0.621513089634829,0.620373298167504,0.629319514671364,0.646181639898137,0.64556938756259,0.644570356274777,0.65420720955351,0.662878478756446,0.657188655852846,0.782755752273844,0.77084241814185,0.828204381138986,0.801222985968994,0.80689180869832,0.807624857359601,0.788442826972581,0.775813913227776,0.789692286159813,0.831730867949327,0.866283575025728,0.866095686098361,0.865596929497891,0.824790624872161,0.794511287357278,0.798847334848326,0.801693679470609,0.802429672225515,0.800491746584792,0.795525704473806,0.8041965431465,0.810769310072336,0.785504844749003,0.783603794147394,0.780981633804659,0.949679037681047,0.894246613119897,0.854454953123771,0.801949403227743,0.771688752765845,0.782134233911265,0.755554771014829,0.764479411001146,0.768994444576119,0.775758561067281,0.772040620916337,0.835360429974464,0.8349383362411,0.874813150144908,0.924486286414363,0.885434779488317,0.912413015449604,0.813040538215631,0.77436774307417,0.731322159426049,0.686991643367724,0.650408073624941,0.674137059781003,0.685848322380443,0.704284871453601,0.636427138128685,0.620261555798652,0.624512212737147,0.60725893141542,0.583533278006798,0.582167782840201,0.519982655185156,0.494778953511443,0.501409973800744,0.508053405906388,0.479287538711091,0.468032939403507,0.436067294844902,0.435811018242389,0.436238763837683,0.456546836712274,0.43009331313068,0.431557664947858,0.431237364324528,0.431046565446981,0.390257094368224,0.41815377539289,0.414985059780719,0.450395042687129,0.496444077791514,0.496262402534382,0.395987098448556,0.413241813104488,0.407793353672881,0.413893959008753,0.401016791355555,0.30613213376373,0.305954703031982,0.313147334550803,0.374488148075976,0.267804159740362,0.370628697530845,0.275073749335492,0.285495636674387,0.282889388742719,0.280489786595058,0.279422566127739,0.278600437835972,0.278135061108775,0.278069083040934,0.278970264566571,0.279782947911742,0.305026372284031,0.305282409701539,0.305068382580059,0.296992632168063,0.290940396326664,0.291419056667472,0.289914543147173,0.288986795643228,0.283091709714603,0.282938114474123,0.283602135066566,0.285474062855463,0.286751822380867,0.286691561150213,0.300555056245273,0.301490221769801,0.300232439007531,0.299328494254567,0.299815652875602,0.299062223746347,0.297776036843429,0.297621155086642,0.297145374188569,0.29647860241443,0.289701607365667,0.289256619844012,0.28911604908011,0.288307622922689,0.28756865332247,0.277745779098393,0.276104857555939,0.275378037030217,0.273618592848542,0.272179681853187,0.266417685906402,0.266509706955284,0.266249015480275,0.265921341334501,0.264745632862839,0.248083253582012,0.248736349570163,0.248649956646887,0.249203813630104,0.249117451061417,0.249012994810472,0.238627691620761,0.238152906025089,0.238006407577794,0.237836824904311,0.237079496381822,0.236369170468052,0.235268337308622,0.234640377843527,0.234065333481406,0.233597235772181,0.232888729260688,0.232637929767842,0.232702722031326
0.593940590013893,0.591885307731,0.653548868173511,0.607999493369267,0.607107593902783,0.60812550216375,0.608907581752268,0.609603492682683,0.746594889029183,0.696570112700688,0.666319911820291,0.668098234152042,0.697183600419668,0.706524737114749,0.827322313999375,0.797659683523446,0.794150247885921,0.803632217753605,0.74941812745056,0.750615845335297,0.775236589144908,0.79246952770801,0.792406069043506,0.835690600433824,0.840606911275764,0.801023039606449,0.763675618256495,0.800463480556399,0.765194762016309,0.801065398005067,0.800296370203701,0.800061474292995,0.792418377766271,0.78195093595806,0.781987332817894,0.77732891193421,0.773535683908831,0.848366685413526,0.818106066280055,0.805061615042565,0.790634857711735,0.767859898027152,0.767331829842509,0.754071938966069,0.762579149479918,0.764576889733862,0.766037328395768,0.752587364755495,0.785730033891818,0.834818431480759,0.849993595166519,0.869203774420129,0.883688354666304,0.838411159112403,0.725432048304548,0.728826021337823,0.732427063199422,0.665725560689564,0.646141194486638,0.643641257604252,0.640956151194924,0.637645749220157,0.632147012679664,0.631814767052646,0.594135960679725,0.582149351454918,0.567462735130122,0.515610035703914,0.49554977022016,0.494944189153981,0.486117848803645,0.474500958863743,0.45835825512449,0.458076987051196,0.44878288474413,0.43567529587902,0.436340944739344,0.425611699154356,0.424545704932195,0.400775926988607,0.398829629205715,0.39695050231431,0.397853759315739,0.376914334900945,0.495918268710571,0.496310556835532,0.496808086764065,0.391848581784037,0.391949188954157,0.391761965550697,0.401082343204046,0.415069501029025,0.314858929967203,0.432425573022591,0.30614034834116,0.312249717692718,0.340487492702939,0.26960098733288,0.370849614096254,0.275141444784648,0.287432011716161,0.287530564945142,0.287306353731544,0.286839016968782,0.27841015943955,0.278381142889889,0.27863078726383,0.280148911371499,0.277752701824453,0.305529072482938,0.305455099735993,0.305546963348964,0.290483502579964,0.291220125065402,0.292079175465335,0.287986187313331,0.285905375128749,0.283118601111644,0.28423135688959,0.284120885089605,0.285767716289339,0.286511906970811,0.286897881976109,0.28663972217739,0.298114058371734,0.298943717237493,0.299645428906525,0.29929059849548,0.300018335883926,0.296417523960918,0.297424197129209,0.297088430812251,0.296772689913489,0.291186970253751,0.290977040880014,0.289860002759295,0.288821542777548,0.28131809185774,0.28066089491728,0.277940159713401,0.277095246143264,0.27608424580928,0.274330882451291,0.266112020103663,0.266252304132045,0.266549809513808,0.266452090160954,0.482663502764441,0.260700948047866,0.2481369174222,0.247643089934024,0.24825899260949,0.247783720967672,0.237525437329341,0.238207059809158,0.238380427880299,0.238901347051434,0.237845912881196,0.237212940868597,0.23550142157436,0.234921030160266,0.234534053005367,0.234240673561994,0.233661351612013,0.233376591109208,0.233278578707173,0.233083489971031
0.59584962509913,0.58890590845492,0.657985057895271,0.609782082913233,0.59437197996347,0.603106580761776,0.609372437550519,0.60975495416828,0.631627284647416,0.602873068748287,0.624437382424336,0.626877865820872,0.634978630085216,0.707595873818055,0.795546325883062,0.796687062091585,0.79695228995899,0.71857506740372,0.734145889631312,0.735280266420894,0.75624457476909,0.792490255665459,0.792898820379512,0.76941934027956,0.762895828511728,0.762268517313261,0.761602155293702,0.759297921523415,0.790578827008663,0.761138402054293,0.765187170335441,0.768940484210719,0.758913879640006,0.762274301747775,0.754704492859952,0.765029326269389,0.838687908595693,0.745818222221169,0.747097482598205,0.753854662142312,0.772054582397135,0.760465161242333,0.761305979758328,0.742087252910623,0.741926188992913,0.736476235150803,0.712841760489229,0.712749730416683,0.702205239590878,0.817698567079206,0.832298665809406,0.860430904647235,0.861725935909837,0.851275610768809,0.736093056849173,0.702717975161682,0.669994002466724,0.638252802265322,0.637567966365504,0.595309621089452,0.597044413854267,0.598935321467429,0.55652010006954,0.55818538216056,0.603587369546927,0.570426122882636,0.555345232491714,0.508805244067933,0.496735711143289,0.446528894928637,0.465675321104889,0.488844077547121,0.458659487337286,0.419558871949082,0.418786722812999,0.426886874375262,0.436333330628551,0.424656226885506,0.425703151523125,0.399891302312876,0.393418464114905,0.382526494825062,0.384877717580504,0.398959593265606,0.495744815921935,0.496281684029951,0.496938163443705,0.509764197209806,0.392303547877808,0.301120978448549,0.301945413092411,0.302268239304723,0.366849553923997,0.277427089959543,0.277036625736434,0.274539430632223,0.26923254799806,0.271046393039278,0.272411042910993,0.298688858854449,0.294010450411469,0.289744072652868,0.292872287149556,0.293039460926225,0.278146344991242,0.278633557337334,0.280007459225683,0.279886506483491,0.274466555378538,0.30534268264798,0.305239399454823,0.305076087909292,0.289103688396612,0.289329764712319,0.28955157730687,0.28742943358483,0.285065894103195,0.285815244786358,0.285475957062441,0.285937147138808,0.286074898695217,0.286913296752839,0.286888714996847,0.286918566183734,0.2978769399977,0.298637130628747,0.298554073347818,0.299307373730953,0.298635329186057,0.297796488955191,0.297561830449135,0.2972932276394,0.296269769398834,0.292151913982021,0.291172207665927,0.29084777948954,0.290596276339024,0.281731300815234,0.281979015010862,0.281843420758052,0.27949301416676,0.276097072367913,0.275009851009951,0.265443862850566,0.265463613258144,0.27156805795392,0.277253149833091,0.277536242109199,0.276484603212374,0.256436099506319,0.245298108162794,0.237512866343888,0.474711447675164,0.280088056368658,0.238316562785302,0.238471632231195,0.238578792329218,0.237823680926479,0.236904587202629,0.234681380451491,0.234095901538543,0.234008518985142,0.233721590246332,0.233487708564537,0.233344143321779,0.233526312811046,0.234034573546393
0.597971618544691,0.598125114691708,0.625196708076663,0.582289523674267,0.581782890627834,0.580879424427438,0.578942150943237,0.586998781826523,0.586215754288865,0.630391358178547,0.620195976074389,0.609150740767907,0.620707534669268,0.695813328484278,0.737152848813745,0.759262689005759,0.800552022293187,0.687053087642271,0.733889575052832,0.673914791098946,0.674332976822149,0.674766348130317,0.705278951945179,0.733483267616511,0.753012720091575,0.751166214351776,0.750113234875107,0.753436236496927,0.748962854872445,0.742863045216151,0.742675127949846,0.742684393363888,0.730899452470356,0.745754813877816,0.83530521774276,0.761796555582735,0.730178494186123,0.816681908470415,0.818013968943526,0.767176731315184,0.782946586375549,0.793608648631089,0.808879494261971,0.732967339052493,0.730700446246917,0.729256076134418,0.728386842377829,0.692573038518581,0.673933758080301,0.722159268907746,0.78307533067818,0.833686714552414,0.834334533944686,0.746739518898844,0.746764290558923,0.646250682549514,0.615193873308314,0.585066821683104,0.552179102402946,0.595326647417315,0.587674788841501,0.578529690078709,0.551511555111044,0.55125209331732,0.535912381019544,0.523767046719658,0.495919322765424,0.492878662914815,0.494775877451319,0.448243531652834,0.447945225326644,0.447425541148966,0.420877666475874,0.413733704308993,0.418126677716719,0.411120470543441,0.391052548105586,0.39145539626074,0.426361047839206,0.351935968133379,0.351718755707173,0.347095908369538,0.347335272272809,0.358549125371218,0.323950409089162,0.395450279000721,0.499860416218328,0.503523327807673,0.312012862876099,0.302327840442386,0.302468659723627,0.302943760758846,0.303208065958951,0.278921321171187,0.277716597589128,0.272120688480752,0.269898575242795,0.271459247868673,0.273652102189904,0.299765928973062,0.297467782948971,0.29877166911884,0.29478577030058,0.295098412761243,0.294468131260528,0.293804913639606,0.29333402594003,0.272889430897615,0.305821245210688,0.304453091746804,0.30493501583745,0.303986709399255,0.289199526987937,0.288064388190168,0.287753608807949,0.286281567536785,0.285737312351576,0.285621937339796,0.286165549217802,0.28558779937159,0.286313894834599,0.287090104004498,0.287292754291077,0.287094340791605,0.298210032244449,0.29834472380082,0.299341098306747,0.299006869128526,0.301518957291365,0.298300120612459,0.298707284076842,0.297047326888037,0.296445111282116,0.29149542296129,0.291217136150784,0.290683460083639,0.281319859154708,0.281926718182388,0.283121236772655,0.283267420695158,0.282220347638896,0.283009791533893,0.274593227020269,0.273237901186588,0.272984234795805,0.275040722144754,0.277529876839793,0.277268484529704,0.277424589399277,0.271521617990351,0.242617944467824,0.238559475253466,0.238259953813617,0.23816991147592,0.283131313852989,0.255975809536494,0.237531926683042,0.237027664257638,0.29160192281581,0.233382240843538,0.23300263477674,0.2326445635395,0.23254468880598,0.232452902671117,0.233135322126092,0.233707143969878,0.233609692187023
0.598969250757479,0.599348333961774,0.625493452875219,0.583615814048592,0.599819960261581,0.571136901504532,0.567105389167792,0.587031359486589,0.585908601694077,0.596247579289513,0.60559468960989,0.617906724784816,0.619073443761402,0.672087921239622,0.741470849284239,0.708384061742282,0.686971408701195,0.687861261566014,0.668967458977367,0.668682214946179,0.672460246622683,0.675807233848514,0.663162344088963,0.696308628144373,0.771454130389699,0.750941811808483,0.751539920925417,0.724069043367854,0.742567365944563,0.731053515600067,0.725622207973153,0.720011602787604,0.708873900576255,0.690338510072655,0.726729551997395,0.721258848364225,0.71558552583357,0.703352496097896,0.711816864644698,0.844199446720456,0.793302401896417,0.80611876597317,0.810751113923536,0.751622801947819,0.732890772138928,0.701732557274741,0.678448939015497,0.679102727715505,0.655329380722251,0.66660416508728,0.71114616823504,0.742437501966631,0.783106814007275,0.745593933857824,0.597879189175246,0.587402686121738,0.575782053795279,0.584376895647601,0.556366393794979,0.548715725663261,0.550884447083445,0.553329501496462,0.553732232316105,0.53777953518361,0.5366964121531,0.51857187891504,0.507063322921826,0.488518029539334,0.470696461448897,0.464565167071667,0.439627249526218,0.429086125604921,0.434673299536569,0.414180528428663,0.412804227805009,0.405733944878493,0.394322578903084,0.392628335655652,0.464093183781281,0.352636292589956,0.351561667060904,0.350883349464874,0.347130389388115,0.331524302313732,0.322999703384659,0.323577127919492,0.309709699698514,0.3102199627827,0.312171936176521,0.302464500004998,0.302690559753516,0.303237659973378,0.302693677905686,0.253648351584443,0.253935276825059,0.2535324583718,0.253293063986185,0.250752976610433,0.259478210461101,0.259675508229182,0.26064056466688,0.26039623052463,0.295174266326921,0.295389327773196,0.294673941961835,0.293223795763737,0.292782446639401,0.307965271537658,0.307850009226684,0.306074224033051,0.305790850267268,0.304769677426566,0.287241915367745,0.287276868575869,0.285774767640535,0.284781889664137,0.283855301155744,0.284976439909801,0.285168653094217,0.28612197650627,0.285786309026088,0.286727488312818,0.28642832361675,0.286397889483612,0.297249368091325,0.297832153693876,0.297653278401538,0.30197532842526,0.302316542290011,0.302849378186721,0.301932473074066,0.302797684094378,0.296182433102656,0.296560423794169,0.290444803893979,0.289767269250029,0.289921265658356,0.282011104827962,0.283683775499642,0.283796037308327,0.28319916710727,0.283159009497429,0.282639114296135,0.272744831421774,0.61308920730282,0.290124583490318,0.278146787710995,0.278502286364941,0.611872083430049,0.238559616175457,0.239789947613208,0.238958581867354,0.239001164030393,0.23871074182764,0.452071958478771,0.264911647492842,0.284337690576482,0.717940980872082,0.314642198566047,0.3082520655134,0.231863622138538,0.231072120744486,0.23108347375363,0.231637225772016,0.232839572215878,0.23376113158169,0.233507906561217
0.598785887997885,0.598767148858906,0.558031852357457,0.55834613022246,0.622184051274284,0.569202831680995,0.554358278453226,0.610613761907457,0.573190106760361,0.592527782616394,0.598419544683757,0.607068966848499,0.61932842166155,0.631171873265446,0.652406454224844,0.636880473165095,0.628146088140778,0.61918735435969,0.671427489820962,0.593753106926595,0.600384243201603,0.606448348080791,0.655336571027608,0.692398806339081,0.6925170693902,0.72199884721104,0.772548555572233,0.733124220920137,0.72791844846352,0.700766906337416,0.687854300082902,0.678361463016375,0.679052293119381,0.671413939381556,0.673812432786044,0.66200689531054,0.652216396431273,0.653447045864427,0.654748090433886,0.704178256403027,0.744022253617372,0.730174015895402,0.721698928784797,0.652176885228661,0.688787327344846,0.679043860845481,0.668547494096114,0.667082653720333,0.672738885503645,0.642800822071079,0.671767208838472,0.69499743461323,0.657097325670275,0.591353828013989,0.555357771083512,0.537633262011731,0.528859550047712,0.522585547141995,0.520055557537964,0.627730517878278,0.541455108166394,0.51978679595067,0.519376206457457,0.491337982557351,0.497801303717275,0.47426693227757,0.429718939877613,0.442625391656831,0.437047096349812,0.425677404917952,0.425558422502033,0.425127688417257,0.421830439305772,0.445075063603619,0.407515235183856,0.400638471125348,0.392754719453821,0.392242274271184,0.385761058740468,0.351863807262819,0.350834274585264,0.350589583565278,0.528112215418862,0.52683937098498,0.322511964679915,0.322808446612232,0.309691071293816,0.310366574050417,0.311460413599218,0.414182148969368,0.302651029297833,0.302717053059771,0.377035241779603,0.253998904689628,0.2534783083239,0.253239863926316,0.252577605134462,0.280980076691807,0.258576129003447,0.259944347819368,0.2611522022062,0.260228023365306,0.293817099954802,0.291279933994895,0.290831238859821,0.291530505305947,0.290100139535756,0.308744311331249,0.308887770606661,0.308079283008082,0.307189829876627,0.301075107212509,0.284179733210087,0.284593273799397,0.282298503341807,0.282773477278465,0.282927041492393,0.281483689233674,0.28497036360485,0.285266805204538,0.284503485990521,0.722093889921409,0.722348241047139,0.288623789761151,0.296661392976644,0.296757021815842,0.297663490184423,0.302354225030553,0.303995591771563,0.303348755392268,0.303049888968099,0.303131374730845,0.295711295713443,0.295897386881451,0.295461855808221,0.287558588707837,0.285047908349217,0.284191131634942,0.284115821199321,0.28349833189868,0.283171324514378,0.282922131117466,0.280666726222509,0.271374350168215,0.290674974123704,0.296841754651419,0.312036887405361,0.359136624303968,0.271674765958493,0.238134796870957,0.238857436663535,0.238723888588689,0.238886794473693,0.23887318985343,0.453796889000445,0.253705038534806,0.213654035351608,0.718066365229836,0.204500494911199,0.205091987830357,0.215690025433013,0.228457583887271,0.389868550140575,0.390593288554271,0.395379194060856,0.234548186413683,0.233886291622768
0.567459873566303,0.539049743995875,0.559105919977766,0.559086277505459,0.523810281807503,0.536910335617552,0.542189042494082,0.541681402706849,0.60064665645092,0.577544968529659,0.57771361612566,0.577000514486696,0.619196962409222,0.633097413670473,0.652421985706065,0.615433487982919,0.578324552834861,0.586432114946308,0.589035198025657,0.566829544033246,0.579198130784354,0.593483510065353,0.585241403289619,0.646108542399375,0.646186427864425,0.705430771470413,0.712794873583769,0.704780076268209,0.696894320803288,0.676263220705421,0.665830490635632,0.656373766160069,0.664425953685739,0.635452747347964,0.640105712198938,0.635294812175622,0.630547786495396,0.655277752561308,0.657327678458099,0.769741737182873,0.756376125341474,0.78200432725971,0.806984473740393,0.636931397164737,0.637631487634988,0.640418318816233,0.643528950664744,0.60958523947278,0.623546826543977,0.620779183280073,0.657929411012422,0.659102564061489,0.63121067957483,0.607291077236719,0.530596456368754,0.536415935451252,0.541345896735907,0.52183482308948,0.520217240112441,0.499466211014943,0.510540907501729,0.520742899688264,0.484724276155272,0.477134121709398,0.433740085051191,0.43718746955901,0.432192917038888,0.430075361907375,0.430349656564533,0.423175594194232,0.421175580916513,0.419244810748026,0.40284436277763,0.40239056400898,0.394217376099905,0.381634198423934,0.359028530406585,0.365691826112891,0.343744459958857,0.343291370285772,0.3439800644019,0.343249182469046,0.527824990411099,0.313934986239199,0.410467189569625,0.321003458917147,0.310007228412506,0.310160066382011,0.289555010809549,0.289167805501335,0.291819084563799,0.293762739593069,0.278260839744561,0.254176964801676,0.252818382478367,0.253266112426635,0.253624004778763,0.252398480384291,0.297167644579993,0.25998385594822,0.264727999385516,0.321296521149197,0.277549712535011,0.278049850052515,0.290350250254618,0.291235220197851,0.290173907806103,0.308873734983821,0.309001911235966,0.30876553215117,0.36816108446583,0.417073154017934,0.590063713371501,0.282770758925877,0.281888009619699,0.28144470569112,0.28063696693105,0.280521383664917,0.278114083570876,0.278222035663959,0.28176416745261,0.528265793679499,0.287646240679489,0.723131893283158,0.294195673646178,0.295528820805239,0.296200857446325,0.30302126265614,0.303144948388266,0.303522035279757,0.303131240212347,0.303050849484416,0.295540728591171,0.295891461542367,0.295531287570358,0.27921264777689,0.275733748391151,0.274729613410867,0.272644557907737,0.282664608630982,0.282681807913038,0.281965546730493,0.279106131839691,0.271863855348639,0.308241322732834,0.353203860986297,0.856640411084214,0.365274360272058,0.365336536532236,0.260466300845948,0.246171630548425,0.238365874328677,0.238578812506847,0.228147611294966,0.214400976896359,0.215554952173002,0.215024551638942,0.215581297041702,0.205922980362397,0.206251182972388,0.206700235570376,0.206272345283624,0.20579411926978,0.38989434349417,0.222093015030679,0.222637840036484,0.22329451709057
0.514178773227321,0.515949348005286,0.559481414148643,0.521647093967729,0.523791882771888,0.533215594256556,0.541327861379633,0.541544228554495,0.606408852565878,0.577377117947037,0.578018992670844,0.652958446437803,0.654024813132296,0.600909125276753,0.600608217794998,0.58579795777085,0.566078996597126,0.585393938238526,0.566053952282999,0.541797198430009,0.556067743744492,0.559256916450202,0.578381921509499,0.647049072383812,0.690384185217003,0.699310189354516,0.733193534261973,0.733553578435124,0.658375350889209,0.643412624997972,0.643602545518908,0.644476527916779,0.645473205796967,0.620175215699398,0.605367207954016,0.607574909256472,0.611678596926255,0.663111531385469,0.656785611364199,0.58868941084536,0.611548580152611,0.609761568227042,0.609580348514249,0.628454966897304,0.627513982244365,0.626300838671961,0.625268403797187,0.608341286190387,0.600898549924559,0.659163987665559,0.657784954914539,0.658128102385787,0.631185006765486,0.58776514961673,0.513638119391422,0.513383189367611,0.514041552248735,0.502263433719044,0.501552034496739,0.506149661660707,0.49418213915396,0.484681588492864,0.500627525690367,0.485156741158406,0.464552624987968,0.440677021531352,0.454085637115407,0.418560567441773,0.416504263310991,0.433036268462294,0.417422494705152,0.409311257124923,0.410860005012456,0.381155019843482,0.360071696641708,0.360753312386168,0.360239341486934,0.366006264205096,0.344430163089114,0.344383418121532,0.344025371715794,0.343568727348203,0.528579579432599,0.315193862896255,0.315533127744939,0.317797369462333,0.292043802439163,0.291998084389591,0.292277296472753,0.290894516158625,0.291972159924059,0.279103149943102,0.279312190274139,0.253938087192817,0.253159063114341,0.253355188558221,0.253883747840168,0.252776733395466,0.299218575082208,0.269794444036433,0.269514391166347,0.269437829061145,0.278025188275906,0.278766165063655,0.278744630819394,0.292169072811064,0.289080946158445,0.308682380901675,0.308564647028659,0.589952571683406,0.587176886787436,0.669346481819476,0.591853127344161,0.280937077761688,0.279809167729643,0.279962082688829,0.279571909437102,0.278761311276767,0.278644265258703,0.278570492776167,0.279277521911183,0.277636640589198,0.288028377159288,0.290069983917932,0.291644570043821,0.29390907490242,0.29320710285802,0.302686765393678,0.302849268850505,0.30255537821186,0.329929843114027,0.555983797166266,0.295071712730816,0.29522319938536,0.274159513935347,0.273998964804606,0.274648041294078,0.272691472609145,0.272375371987049,0.272488785027075,0.273256981061048,0.275319055985792,0.00458490294333127,0.29179521650734,0.863944796258909,0.428492156850928,0.85702432604629,0.312445281080812,0.365037531275486,0.365648909188822,0.328216980358995,0.462733659099425,0.279892814797773,0.228694105858414,0.216173455445697,0.217209177854122,0.216616151805307,0.216234176891813,0.206399112012932,0.206921633174401,0.207814192560613,0.206543091469251,0.216545687893966,0.21697402884082,0.389835193501186,0.222696612755124,0.224440832943145
0.513896761540272,0.515451898998357,0.517147121694101,0.519842891092004,0.521624126759334,0.530359240637569,0.534704445859864,0.542956137743957,0.578495945974549,0.578095113427231,0.578136033183565,0.606941244395286,0.620911296206661,0.600926223174405,0.600848720507494,0.577502994160327,0.561556901303812,0.558577701879109,0.555940355668493,0.547769594601347,0.553417321173677,0.556364842963144,0.562781990176745,0.60022010622356,0.622406130943031,0.639170209397525,0.647113002610257,0.65382204829046,0.650967002186791,0.64294474806768,0.643432591083722,0.644553190625898,0.625391919016722,0.617689602293548,0.602810646115843,0.602240972470657,0.60372390561987,0.60671660719533,0.609932350735437,0.611890547799455,0.611720225926762,0.609944615096392,0.607421742375688,0.605783887555213,0.604588244844099,0.603700086739393,0.6029519364249,0.602255588311923,0.601561374248521,0.657939024826074,0.656981899909193,0.65676105270184,0.602148739401157,0.580132137353621,0.52613998610673,0.511791439173777,0.509207340487318,0.505978671757649,0.498228320341111,0.496551225852124,0.493670163028836,0.483881006361091,0.480918197557942,0.479547659858966,0.475785346956167,0.440298045375091,0.43572761336165,0.418128583096135,0.417836920155733,0.418105334167388,0.414462051107049,0.407099026329998,0.392912386565481,0.369185815985388,0.361308656942098,0.361521018836481,0.361601570836003,0.363439416272174,0.350383328171509,0.354798419219964,0.359573140452757,0.396931615798758,0.424738598028254,0.315250591003086,0.315614355683712,0.316517924607747,0.308385958991655,0.292499452492993,0.292469439311396,0.29227641394145,0.292425708830651,0.283587176109772,0.279036503955757,0.271328343256388,0.253155203658825,0.253168938381908,0.253200893678084,0.252658423272646,0.270872077908217,0.270746104937499,0.270733471601159,0.271161173467283,0.274166161271893,0.278814454157379,0.278730316084976,0.294592604283054,0.331244568854975,0.355198364019154,0.380440245217682,0.588870894372344,0.58745747636759,0.587668043390656,0.337371500418991,0.279275924430127,0.279174596686026,0.279233922801317,0.27904418051415,0.278911792048898,0.278528095135868,0.278487234442275,0.278575773183826,0.278364804406537,0.282252386050645,0.292003888372285,0.292430954366009,0.294854411552316,0.31805642686024,0.321922852406533,0.323077879818255,0.326095017874879,0.33231818035064,0.33676158975454,0.294323162844658,0.294381118439981,0.273420258294901,0.273456001909792,0.273406691641988,0.272943501311156,0.27251216761852,0.272416156844818,0.272591501175687,0.272905188820609,0.0602453967950294,0.291472881089798,0.428492166426738,0.401669697260649,0.376718040236384,0.364584275288594,0.364930000931774,0.324855462482149,0.31382120952528,0.300343077866905,0.290953815547444,0.22913876572489,0.221527686596051,0.220252205074984,0.219470786336646,0.218526213451931,0.206752964515582,0.207875938838063,0.211100296478612,0.214844327405452,0.216768729153587,0.218049939879638,0.219660946807514,0.221359936969711,0.22302576795122
0.511568373263364,0.486278541602033,0.473481488542502,0.473903015378823,0.522003984638853,0.519373305772602,0.517097064644817,0.544505339954809,0.578192969116736,0.577720691176015,0.577390234472923,0.575785807452418,0.654723978905645,0.601006018433373,0.600996383954327,0.557940671972083,0.526287407632701,0.557277940288326,0.520629341925697,0.515601644666943,0.535392742180375,0.55088969904419,0.550803478674733,0.575250894941027,0.588863569144076,0.621661980276545,0.643116963690804,0.6723503343896,0.628052044659772,0.633451545512895,0.641430368481418,0.646087378560506,0.569680246628553,0.584443421866667,0.576010701911567,0.5733882973985,0.566981793640923,0.547545429445866,0.555164048448895,0.654445446506605,0.592353609539109,0.582986214085895,0.606969471554239,0.602577054404853,0.599077244081988,0.593837552446272,0.585461389299502,0.563877610647605,0.571593290033226,0.658768939902964,0.657063864135749,0.701584591403498,0.569311954508637,0.569393858806812,0.544904298077268,0.501716790152861,0.478226686673185,0.51382975795151,0.476546537434995,0.457316158674975,0.47267992676661,0.485877145760769,0.478567198022737,0.475366072036892,0.485729220228379,0.439501631134785,0.417618090404096,0.4179355919393,0.418526713128273,0.418239611817313,0.411389944995967,0.405976027088827,0.379583160585631,0.363048485505344,0.361724800266238,0.361473369763216,0.36070392008312,0.362887377133982,0.346328189184566,0.365222422212293,0.363236430362844,0.52873001433743,0.529282899648288,0.315288215841449,0.334186082727458,0.334069670936369,0.333608507335828,0.29272187538652,0.292587722617667,0.292689627738718,0.292736171538174,0.302555822982052,0.279574430559625,0.290360022747156,0.253298328477004,0.253155498503702,0.253159046623753,0.252028629673193,0.270408028989084,0.271355493325447,0.271056993996807,0.270794703336986,0.269377279284833,0.279235758763422,0.278705615126378,0.294216509938797,0.395540827960119,0.391314082740571,0.41801443230572,0.591275579040849,0.589197912751286,0.590933265907327,0.276546313182224,0.277433104843122,0.278335882347926,0.278601863668373,0.278761417769181,0.278635254416285,0.278490528120664,0.277647675453667,0.277994105978801,0.27786132548695,0.278062076412867,0.513803243620116,0.290974009243201,0.296295707690659,0.582730071880218,0.65217061601222,0.563594479419361,0.564417834687748,0.377355792532103,0.344713945171412,0.293768097968016,0.293829825763418,0.272746372665368,0.273100235159457,0.272820416032484,0.273053556562752,0.272600220505436,0.27236025343555,0.272076478370539,0.271847100951796,0.00381034107332967,0.291223683896897,0.5877051440755,0.35523129815054,0.28848253911532,0.365462001997207,0.366003393677733,0.240444000964578,0.235385875137701,0.23165548717831,0.456640874915131,0.2287218789231,0.222545041120066,0.222426253757599,0.222363797359161,0.221879577292294,0.206519565016831,0.206859814882838,0.21383796990701,0.215976322887601,0.217319485286942,0.218216789268841,0.21911517984277,0.219734295555898,0.2198126261688
0.508198986279755,0.486348533401637,0.453721093167493,0.457469321134851,0.482749107055758,0.482603946073211,0.482711931142634,0.491924008636571,0.608441030047421,0.56433949728342,0.564627507287558,0.564788929675355,0.63176431178458,0.575390754793131,0.5448604134588,0.530933148129109,0.519818470357403,0.479565613522004,0.512885501049748,0.51274641027818,0.512370609637985,0.512193894067385,0.552375815307506,0.544228671932623,0.590706683651156,0.613071117732831,0.628394755971584,0.579696666022988,0.621755057630784,0.578715981560021,0.566636713465796,0.557656757468958,0.565556916196893,0.572561356430102,0.580108292008316,0.571009617435799,0.534407835898628,0.556315443026062,0.536025294184803,0.597248684910404,0.578855705392546,0.558714799795048,0.55998878572677,0.600327336025455,0.591035013760012,0.588776436823342,0.587180942166546,0.557603933609383,0.531613550436464,0.562288839255314,0.543183667751257,0.53051840346656,0.572089612935081,0.573043034859891,0.492153306196821,0.499051256390664,0.477216449063567,0.459153037677052,0.458121308257049,0.499086166837732,0.465419300767774,0.44153477035195,0.43374379454043,0.443011660669174,0.431314484229474,0.437538182875973,0.427947172120435,0.473212657257857,0.473776885951545,0.420131093224499,0.397696852165581,0.378212876554231,0.378118794688316,0.38848598715203,0.361410362187609,0.361133593678453,0.360226237820834,0.351933640298563,0.370636163508928,0.342948608532774,0.327870195095332,0.305071578647165,0.300156996568951,0.386159200073557,0.335759730808322,0.334271302883152,0.334045311672683,0.281392171807138,0.282358145899486,0.293618322586566,0.293145413578008,0.304752397116467,0.294673220950604,0.29277175225681,0.263472296321063,0.264176900965007,0.263953884763464,0.264235161416796,0.271863324509243,0.271492577777701,0.271100105757575,0.270467114516097,0.277640008306499,0.278090620799588,0.395340462409147,0.291207252159882,0.288438638857255,0.288919423775112,0.284890965592436,0.269382026665644,0.269390233589197,0.268955959310711,0.276798365247311,0.277146001873768,0.277380780508764,0.278033728858496,0.278478760657857,0.278803359754427,0.277603064460933,0.277569812817661,0.277266913242639,0.276676161478588,0.277458904180885,0.508286156266495,0.298752626504517,0.296760198525909,0.294567203930904,0.29445813782342,0.514505756018431,0.590556742616692,0.401557599864407,0.355283742521438,0.410743930759536,0.272823381465557,0.273248111513343,0.273350728758435,0.2739727178309,0.27353469283279,0.272754150508836,0.27219813098874,0.271800027987403,0.271588148887549,0.307159434954612,0.291065558982619,0.287743963332266,0.326998427619585,0.720526585449538,0.299625626109661,0.235002903793072,0.232935845038859,0.232816365577102,0.23164118179371,0.230057751950325,0.228702996872352,0.2244604658597,0.223991261245755,0.223456309630262,0.222975818055897,0.222692502525509,0.217332918384398,0.218367451420938,0.217778222267366,0.217858547791035,0.218639800096831,0.218836966842927,0.219120101945305,0.218536648003361
0.504301250849735,0.476414874404671,0.474504554300624,0.459407631988333,0.458136368656959,0.455003829027417,0.453608627281294,0.487732265371474,0.488265146477225,0.501750584419937,0.546547043894512,0.56283806022689,0.577361796561535,0.576072050253312,0.530854085091678,0.511415300689994,0.470613454313404,0.453907495708766,0.477031058319025,0.504951474294643,0.494629677290963,0.484898597940365,0.539138407556112,0.568294749986144,0.593830278865162,0.606380610476964,0.628049651396399,0.556981498426714,0.548715154803681,0.550667443126349,0.553330817280938,0.555950003463762,0.547774970900446,0.541864346539634,0.567031018063197,0.568895346828088,0.802531201979878,0.801748370712924,0.486580868324039,0.504968484440877,0.535869271607119,0.558497350984289,0.55952639850038,0.549896352725213,0.56948858687252,0.574458971087659,0.579621238455626,0.579089640627872,0.531683680462128,0.531075997540955,0.530711202767366,0.53025302873712,0.530104084262631,0.516474289639293,0.550422256470506,0.524002090974995,0.546160310044174,0.540144244763415,0.540491212468751,0.457825730527789,0.454157562813159,0.448147519913269,0.449000416273117,0.450097335953994,0.490285976121127,0.440938452237169,0.427948842282184,0.408509457848925,0.416069128038725,0.400059392303468,0.389518528640139,0.377630615004078,0.377723499857494,0.387397844322401,0.380021411788528,0.377653800428079,0.374159392090911,0.359707614630571,0.326040527874971,0.296125508006522,0.296170572579651,0.297542837816643,0.298998348234307,0.380255640948151,0.282574049048944,0.285157522534382,0.28206585739907,0.281054277557389,0.290681302870279,0.293770061014946,0.293999390650717,0.294208149749465,0.29475694527286,0.345209109372545,0.279868198143271,0.268784941149096,0.264047558745656,0.264041208444882,0.272394722053104,0.272677718229788,0.271058414202509,0.26917190809372,0.268006440222111,0.395313594332485,0.288833198301637,0.289837892867373,0.289013214930157,0.288322490582553,0.28416301885248,0.26937317687442,0.269738441719125,0.269919023180757,0.269896601797759,0.27564932678734,0.27712879002734,0.277696771113651,0.278262950675998,0.277722455715195,0.277601175974342,0.277100414267342,0.277008717490219,0.276377985265989,0.276467470723611,0.00354609353937121,0.507343174465719,0.529123620542196,1.11939572192669,0.296201098293608,0.00363000254278272,0.4142609693911,0.407195906343914,0.547951436381135,0.547626631187714,0.27198375323392,0.272650371712526,0.273233370478641,0.273830864458526,0.273969784985053,0.272555483116456,0.271596805697474,0.271365556675117,0.270784104887801,0.752439591305625,0.292882961029941,0.287468298474318,0.279642184815986,0.238059870006903,0.23813170391231,0.232173406575238,0.232264470036069,0.23262775749746,0.23186685182542,0.230828041324686,0.23003657644553,0.228839309190844,0.226343162326804,0.225097780333858,0.223178503420311,0.223850314464679,0.223523007730003,0.221269875388799,0.218064177290995,0.21898089352125,0.218743154552987,0.219070961729602,0.218598021542966,0.218215359976074
0.497581416989404,0.497459061684574,0.473802668747205,0.459067716658554,0.47108255229381,0.453694793699995,0.453033907352713,0.486956848901669,0.460781245463167,0.531740730896273,0.54182893571148,0.556273076764082,0.492854564241782,0.542345561457097,0.519260509955503,0.495877184110122,0.473306575215352,0.477767526314736,0.452486820419786,0.472321960689442,0.477088491699379,0.484616244316728,0.569937285095394,0.543876146140887,0.529897413307099,0.566143906958019,0.601298599670108,0.587894116211541,0.532327283420665,0.528399428777649,0.529137171350211,0.529992897547351,0.501385180786669,0.494656514385711,0.464215881326568,0.510199139037284,0.801990780471248,0.801855917653116,0.47361663659163,0.47276629096958,0.516240635943363,0.562077255737566,0.514638352233662,0.518639810302771,0.54119202549533,0.519321239014224,0.50579539345588,0.510435261859405,0.52552883272681,0.498066075567005,0.486010047106369,0.470270154558859,0.50219435663201,0.502393178116367,0.552733504328542,0.50027019399064,0.479562926749197,0.465592072132589,0.464820793512801,0.459869094101523,0.451090184978193,0.448064410480973,0.447762713014684,0.448673729729641,0.448689964964929,0.443285956190641,0.413788979001342,0.47335819221568,0.363590167857271,0.363899229776801,0.375593196277375,0.392745915867789,0.34680958796448,0.396455488667103,0.467254660803129,0.39006209964337,0.346522062744714,0.535050878639107,0.578584327652511,0.293172471136352,0.294302815039395,0.293762769524394,0.29186876151857,0.379648030441259,0.368546508940411,0.287796205171499,0.285617237712152,0.290955892130963,0.291361668976728,0.294012727984821,0.294460776061011,0.295270344994431,0.29521179604301,0.277187155246711,0.278022169339736,0.287833144065718,0.346850748855715,0.310521644986649,0.272454635684854,0.271244330616599,0.271154928122082,0.271391939177586,0.272405864426569,0.289451439750247,0.289771126607925,0.289892329976609,0.289594461151535,0.288324960649869,0.283470608128735,0.270181027318904,0.270612367948039,0.270947247240887,0.272265247923089,0.273346050146546,0.277372457567626,0.277351788659776,0.277970951869645,0.278156868320857,0.276669974842813,0.277277555673552,0.276884210939469,0.276588991759593,0.276591163536775,0.277363153386833,0.507337801082012,0.556027901022201,0.792110306496359,0.295769179427529,0.79819413465521,0.53850685966675,0.406429710702,0.398810991461126,0.398614040303671,0.364020345444505,0.272170327608739,0.272923351349372,0.2734301617364,0.272788217210768,0.272462444270374,0.283797751089428,0.284548453539946,0.285046968510444,0.286588959202171,0.640650434096622,0.649690738781795,0.273379932966346,0.23821962453721,0.237728919509948,0.236083133471595,0.233321074563565,0.233246375774951,0.232424199231924,0.231237152626532,0.230748704449692,0.230286932925672,0.230925431472021,0.436744616345887,0.43730884595578,0.225969779061009,0.224774497629905,0.223649913909734,0.224363624080847,0.220350383656975,0.219040737257825,0.218320552793555,0.218112607755085,0.217586631116894
0.497426491352478,0.497285688435408,0.473436753542018,0.470548714077655,0.404539202205632,0.412026882236212,0.423798234825857,0.507130689490228,0.505977610100458,0.479786514533726,0.482847943567227,0.485676816671838,0.478522818635542,0.477184816818822,0.476408370200992,0.483005998530951,0.489324010604943,0.444626313559455,0.452192733057345,0.462253659198727,0.463356899248195,0.461562468879006,0.471531162865705,0.594229011928117,0.528764101637404,0.532668468025868,0.536948480600208,0.538362820311389,0.54045385534276,0.523752843280753,0.516729342941851,0.505292692331358,0.488961379926559,0.458067570276598,0.444629131395137,0.444411476686606,0.44282954752624,0.600624210955214,0.474151489951225,0.473476910646652,0.489813859414787,0.500852479318898,0.488715045784185,0.590305973896343,0.515185265481757,0.514719044188313,0.514006217848589,0.423985273212903,0.510119990303367,0.454308788973728,0.453020551417631,0.451926629479336,0.466391300562162,0.431309746253099,0.455375370945723,0.461825132024596,0.466036589333595,0.426847758958484,0.446086200081031,0.396917039418101,0.39713803256037,0.396722401270973,0.44712890197446,0.449728220895367,0.449945264139766,0.44549481638004,0.40218049388208,0.40046914115451,0.364352524614666,0.364498583691672,0.365091676394525,0.348582569826403,0.347941299021504,0.346138977194559,0.438482531582569,0.403932799832052,0.333961238652799,0.327168985289846,0.54204911700583,0.294102234113606,0.294316098137945,0.293848807993803,0.292862655167496,0.379400841718976,0.368327955821566,0.291710168819379,0.290374427362534,0.2912058412391,0.291765834293169,0.2943716088865,0.295044076656442,0.295866210126351,0.295535646616859,0.278342474042936,0.279788647899531,0.294833501543977,0.426082050443781,0.311919647480309,0.311977233980645,0.271802008882805,0.270827347984386,0.269396909818401,0.288344397786096,0.289817289467929,0.290488513696569,0.290270487275701,0.290217267645531,0.287964472665711,0.284696389023563,0.271263136471042,0.271184526397048,0.272388496529337,0.27231821992533,0.273435123844996,0.275729631714239,0.276696248000496,0.277347807758881,0.276284481476461,0.276569905140313,0.277075624484632,0.277007222141967,0.276981112042891,0.276380780338553,0.676779113419436,0.683110971500185,0.583355015060515,0.678289073334846,0.290832889305406,0.293387409011068,0.538377295763406,0.404044418460037,0.39950445602639,0.399253389614502,0.408767345895248,0.475846176112728,0.334802529786957,0.27422187337186,0.272754141331109,0.27213435454691,0.760860046531369,0.292840565175254,0.293066670796626,0.639730696517644,0.695186406747469,0.493073986868032,0.267698031790037,0.23914711055296,0.23398865663556,0.234030483894485,0.23387825565425,0.234469755605154,0.233841139124524,0.231375886973682,0.230692346420713,0.231887095581301,0.231733655709639,0.230642913982948,0.229441309672537,0.227399021588419,0.225375559002067,0.224639031249574,0.225016755976868,0.224248449358772,0.218402095635229,0.216732269290061,0.217661776599622,0.216227469887694
0.497238019397632,0.496908819602609,0.496799066639932,0.400297608114873,0.413976212562369,0.39927127878149,0.390317975470064,0.507034418337207,0.506682886745219,0.442990140764848,0.455716154727213,0.456295000290163,0.457998155870352,0.451709891263854,0.467266284500271,0.465446656000069,0.463729776937992,0.435693631268172,0.446456071627712,0.466767872011204,0.46538909892851,0.525416733381071,0.483384463616356,0.596143212514485,0.5275530815125,0.515686765410587,0.504528794931209,0.497611063202815,0.505198549059401,0.486031864848413,0.475198907536691,0.470285812281185,0.457658279861492,0.448652992095805,0.443978890147998,0.444868039126091,0.591771513300187,0.575712937742279,0.591178353726164,0.453683595197904,0.482640268896624,0.506503391289448,0.4953777262985,0.499183995298884,0.505486365894846,0.477780429534496,0.457235555011049,0.426082109137477,0.427645781175121,0.397975325117773,0.443383907446278,0.441272178329488,0.432167672398911,0.432277265778611,0.432050076007045,0.435280029747235,0.443920715218544,0.457730832007768,0.420716465214751,0.39803088082279,0.397532170148185,0.39782465584397,0.466424762072273,0.4508909375866,0.449812444183115,0.448158610904591,0.403222875696869,0.402295726939354,0.483755242279457,0.364809298595766,0.365236996171466,0.349011436653314,0.347368519612302,0.34627510020627,0.438747633003048,0.415088616957389,0.474239465128475,0.287241091714055,0.287496892613245,0.287495356430163,0.286207927482088,0.28221863351124,0.290700007337204,0.276669456725118,0.367791280498689,0.29311411271316,0.291921611136435,0.29178408722123,0.292141332884408,0.288320174051417,0.283400662705663,0.280461799501608,0.279928172990315,0.27923171539181,0.279152200717247,0.304114916836323,0.418236511416499,0.333643350667433,0.312399048894717,0.334555717915848,0.295912179576672,0.288777647315799,0.289117618592857,0.289989812059259,0.290423514670363,0.290318845512176,0.290010444315713,0.287944361879306,0.285970786756427,0.271888448111134,0.271046164603603,0.271430131370327,0.272393502575351,0.272446392020383,0.276572001686977,0.276516028097255,0.276679065423844,0.276215834208232,0.275792978984151,0.277399623829427,0.2767202872779,0.27686736170812,0.276172059227752,0.275729729692568,0.503520295074171,0.354471931163442,0.290989230537561,0.291663963389646,0.295215202620479,0.294720551980543,0.364349535172945,0.545359264051716,0.276042754865324,0.321193526848552,0.542789780320312,0.379647906918114,0.716963878484211,0.272545149102499,0.765494789755494,0.289314327857477,0.291919356417262,0.292684958415126,0.735908559335963,0.283607774334908,0.27639906942984,0.259662682940635,0.239084024915607,0.239220764634527,0.237865355197683,0.236778827577381,0.237230488166251,0.237700727247827,0.238989647932387,0.355935741177252,0.252672766728396,0.233292319414064,0.23098132332311,0.229836824088362,0.226976796982469,0.225190126767728,0.224304654663444,0.223843092434209,0.223137290558569,0.314842172531374,0.315427141520216,0.219235703880644,0.19874570380727
0.365700815545214,0.379634553276827,0.378775125371903,0.410957044297435,0.39322977081723,0.393681757476888,0.393720360013032,0.475704819403031,0.474376343827457,0.435555646741222,0.454420619806918,0.458162908826404,0.459571802697638,0.451791782468937,0.449792821461898,0.444157138653201,0.439585885000927,0.430900882830179,0.430466354459807,0.441787770637181,0.451811192829236,0.5254340469725,0.4642012846708,0.469666880681396,0.488343945645114,0.489328319216262,0.490877555686527,0.497391313491683,0.495877742297285,0.464944597807975,0.467557938653106,0.470303591388384,0.401798738467557,0.399702727285845,0.433197582394448,0.435980957553976,0.591432530717113,0.591888306396241,0.569458657216715,0.575064089946612,0.474300619466835,0.464298276275219,0.480249853895969,0.500966267706776,0.451258303603625,0.435503818667562,0.408837336779039,0.438277452838434,0.44795874466962,0.442352223051114,0.443823395409442,0.444665721820667,0.430318882544353,0.432024357634611,0.455686163040893,0.430457923761507,0.426189872707681,0.433752935531192,0.390876611884915,0.391198453957001,0.396588536982065,0.468333952050772,0.467392271817947,0.459453932198895,0.453070885796313,0.450109108399577,0.403506458527242,0.374540683580808,0.365706836170138,0.365218350107022,0.365405190415941,0.349156393394103,0.414729392025882,0.41415369609671,0.414021055911956,0.407817242428648,0.392576632847425,0.288029587186057,0.288594965972688,0.288166735014992,0.286258360327361,0.285764204784868,0.281625894125143,0.280327588492286,0.279921841956338,0.280604946309034,0.28167714086912,0.291914732802918,0.291247636702335,0.279793555950265,0.280939737763205,0.280055682140222,0.28052143573516,0.280069174825594,0.314127087614299,0.313291211207925,0.312451358098914,0.334412396885863,0.334539707898224,0.33417359156583,0.303487112125406,0.289539207290181,0.290380529537981,0.291185068742001,0.291128280897286,0.290601345741017,0.290228482822879,0.289298698508527,0.28749908717099,0.394995655425323,0.268279289369341,0.267720991394486,0.269667892119315,0.269496466861266,0.27627805926458,0.275076656349714,0.275568053942494,0.275448182223207,0.276222534431144,0.275634482009384,0.275888116076456,0.275541347189183,0.275883130474224,0.27606450398489,0.275375832458573,0.281101096864347,0.291690509540887,0.292145304741695,0.292426474539209,0.597520052479981,0.335398359826408,0.275756937045892,0.276565911169723,0.276829836709719,0.300737068886513,0.343218312942997,0.346506705724322,0.35229238069821,0.352387424942136,0.288243559238187,0.346586394952707,0.516667740587244,0.766799682680919,0.304349929678258,0.23929107168374,0.240753787195237,0.240558866414298,0.240361950739629,0.240041478661337,0.24082870062189,0.240046417795911,0.240226124508128,0.239877201949655,0.239071243121202,0.23639022766666,0.236410353597079,0.228218036053017,0.219967273203774,0.220587804668829,0.22370075866815,0.223457466658531,0.224124599159223,0.221427580338333,0.220780654462041,0.316085356715921,0.219783066784554,0.199230995622799
0.340931203874685,0.340794114834183,0.538618064071414,0.525982006709172,0.492038670314116,0.386802240057904,0.382629020189165,0.407857403726822,0.459143189229298,0.448847318342984,0.452070615880012,0.502309440412864,0.525794826181338,0.439512350431531,0.440791521229427,0.425130336572798,0.402989441181984,0.415915134761708,0.585146109040521,0.439458697308153,0.438861953297921,0.43894544225638,0.469729234250663,0.47053250104585,0.463126305397433,0.461997731602039,0.45968972494637,0.485623469162642,0.670684409714077,0.451521597435053,0.454481869608379,0.457102261850502,0.413160315067433,0.399764786287147,0.382509473726534,0.383037747777508,0.383650192076138,0.39452725824671,0.513573135190589,0.513915852502115,0.461582475689229,0.423387148321908,0.421383686917919,0.430237650060106,0.435664043759226,0.418485541940809,0.409161257953726,0.378558654669993,0.44841625773861,0.429587586808055,0.429045462455671,0.427893295724665,0.421207728138324,0.612456016296161,0.411352940204707,0.424951007400179,0.426001992677203,0.442270916619458,0.391709351596928,0.392256750956274,0.394698175799676,0.471848109559215,0.364421712694328,0.357003295797736,0.452285949716857,0.477481565925922,0.526485781357623,0.375170008419609,0.365018195511373,0.379375494569907,0.371821738063635,0.364670483599168,0.42699734899402,0.419229631988761,0.416607225630406,0.369542620927859,0.309543528812471,0.288141146581721,0.288824479304013,0.288350672515639,0.285182271691562,0.283038064300265,0.282131396986309,0.281878357936438,0.279583503649769,0.279999083788873,0.390787219017562,0.306641776541131,0.278904439428289,0.280005918007954,0.281182843995277,0.281031979791758,0.280156085257393,0.324605010125357,0.314317511210542,0.319904009234695,0.334054317906413,0.33496748773284,0.335265044009686,0.334857778328419,0.315270311882851,0.31728652384118,0.29129447168715,0.291502547536375,0.291097562000247,0.290598685350318,0.28994765605151,0.289465237923958,0.28959075823014,0.265545723167465,0.266898742510779,0.266060193818858,0.267115170296736,0.268150626536668,0.269874231932971,0.272574787410188,0.273770737560193,0.274980278766652,0.275344195485539,0.275437795215238,0.275455689780173,0.275658704588859,0.275954010932351,0.27609311799455,0.275353396774663,0.277079928091263,0.496509070435828,0.37366150695324,0.291176413241233,0.275900045238945,0.27639631201238,0.27645589427678,0.27670686697668,0.277431591405093,0.277077555788703,0.338799100276818,0.344490991681455,0.537326642346068,0.532652417382058,0.479669503421673,0.378053207512807,0.478731807546183,0.284750434739105,0.284767836981261,0.284281138819456,0.242523104802222,0.240883567367076,0.240859008206234,0.240970794526461,0.241869760827337,0.24126677640508,0.241203917986163,0.239505531980219,0.238676250740928,0.237822141081243,0.238609080793714,0.425529881147337,0.220694790344137,0.221018182402312,0.221255149299096,0.221875994154555,0.221130417245972,0.221680725856437,0.221498608182456,0.316630322056958,0.218886315809053,0.198936158083117
0.341367440962034,0.634090191624077,0.473672548710694,0.315502868210238,0.38653048493359,0.383747400566317,0.380973498254758,0.380232576020325,0.399255440378244,0.398250920820298,0.433828484292857,0.535617230463642,0.537379173154242,0.530602675628056,0.374025994288697,0.394975613163941,0.402812859987425,0.429252458395934,0.585349112286408,0.437490225212699,0.438118953603077,0.457872195666586,0.460171518945333,0.457070455479484,0.456102671928435,0.462311037945668,0.466157728756234,0.455466769600463,0.671651250960906,0.671491168495969,0.443145639863527,0.436691328123736,0.396890247202865,0.397616744484655,0.40335275439575,0.383313867412068,0.384257038675159,0.383771443834234,0.383424999468716,0.60260438818691,0.441119693599636,0.404638520934548,0.404978289658874,0.400951852399201,0.410474518899085,0.40880356037802,0.400817357445132,0.389350801376972,0.448528987593044,0.43160287730423,0.430285176180031,0.431000094455325,0.420860806309168,0.393268933687194,0.477383925709341,0.424492448263111,0.41186415661012,0.41208444925282,0.392103375697488,0.392092920024767,0.394296625860435,0.361635402093817,0.36186803198104,0.449480532485033,0.527194391834964,0.525081379701617,0.526094266986643,0.473635861854822,0.473025681398484,0.473078543429803,0.476711041139148,0.514745777507768,0.349586031264835,0.350348860876268,0.417027451589846,0.342336803874365,0.282798416522818,0.282313717270032,0.281744469321177,0.28185906722069,0.283242467748188,0.283483820563334,0.282877824455823,0.280824504261257,0.278743018040124,0.280175991395478,0.302443191857213,0.391955980355325,0.313178779944122,0.282791737277118,0.282499069904553,0.281871067028492,0.325939890948543,0.325966490856453,0.326817935076433,0.326815166641007,0.327009917254461,0.334672766381992,0.334887473056153,0.309868747762987,0.311972025887018,0.310911916518587,0.318642776903199,0.291425527326018,0.291536326931216,0.290709538020096,0.289807963768293,0.288316905536909,0.286237611859823,0.266582193881898,0.26717611378849,0.267744840505542,0.26734198009895,0.267963448428705,0.27036093473774,0.271341131739979,0.272438210941128,0.273836945453235,0.274691473787543,0.274920787848851,0.274930181262546,0.275389627295397,0.27513977128382,0.274627624405851,0.266774522221355,0.275235815725969,0.495203281977073,0.684418577224021,0.275269501815189,0.2761870011202,0.276704246530201,0.276835010125181,0.27734554246289,0.277253952085655,0.276901037628377,0.321910047610925,0.323767132374582,0.701383080828152,0.321989576040052,0.249348397301303,0.25100444384428,0.251949368005592,0.250700202635986,0.249892809364614,0.266671931201016,0.244996988709152,0.240941309215655,0.241804818319617,0.243024894182848,0.243044962678459,0.242389389880377,0.242201720258392,0.239840376979484,0.239231873155457,0.238875997109304,0.239820271545871,0.426387868395397,0.221460866010158,0.221634779490514,0.221560247992612,0.221486096940141,0.221194975488035,0.221386949459525,0.22144715823709,0.214955201151103,0.21647523509484,0.214628233670007
0.341904292221735,0.352401120376296,0.363859805572126,0.377570176541203,0.385836268391099,0.382851999744912,0.381182826531746,0.380478653533126,0.38931214924871,0.393586610850694,0.412559870775146,0.441062858751419,0.530009729554664,0.530381490396645,0.382673210865237,0.390093847100605,0.394441484500257,0.410880165957105,0.428629991077325,0.430242971445914,0.432164983078441,0.45858454621306,0.459317530148887,0.458883971796499,0.458189089813913,0.461682175525569,0.464381985481853,0.50187562154714,0.530097896540092,0.475541276578791,0.435997199362104,0.42889537334323,0.39803682668864,0.398200670505215,0.391934352951709,0.383203652948591,0.383617154273239,0.383633208794453,0.383627576359645,0.406153993243639,0.405995835889053,0.405346101510186,0.404990910436262,0.404703968203336,0.408693655232852,0.406180457350535,0.397333062815971,0.394663786468536,0.406409436017598,0.430843288070644,0.430365053634682,0.430318518975277,0.424806576788405,0.435976065178319,0.450202893809521,0.424528481454803,0.418706027690581,0.416025461267257,0.395984349964346,0.394452460484537,0.395119162759697,0.38217720394447,0.370309776744928,0.409089650151674,0.524929078666594,0.523915245094755,0.524198339637356,0.474017158428618,0.47471195761688,0.477113745484564,0.480141220722076,0.482874087956808,0.339544372291996,0.333444886524984,0.324327093692339,0.309728908466161,0.282985540830348,0.282769320818107,0.282076410475149,0.282058523509624,0.282554473633778,0.282727835748429,0.283689081170301,0.282192572760621,0.279552602655978,0.281261833263246,0.3339691082954,0.348425304074337,0.294996357113979,0.284251987270451,0.284462358239942,0.285203192646862,0.3262369042266,0.325978934233603,0.326155974868215,0.326551375693108,0.327114129095689,0.329311579743572,0.332198631506469,0.31135734048553,0.31234983477099,0.312829885216782,0.316653875968685,0.291258415766574,0.291017326292719,0.290621105402889,0.289755588345317,0.288580611402394,0.287403385336554,0.267222466860185,0.267287112568115,0.267206717783467,0.267321125542791,0.267731231987535,0.268840816172625,0.270043772603701,0.271197478245267,0.272723961209474,0.27316326867398,0.273627137085284,0.273875726880781,0.274037155910637,0.27384443457311,0.271781728405023,0.269521299560675,0.273035466047425,0.337373907615086,0.367213479571299,0.276568156466354,0.276925255959631,0.277165883808928,0.277330397951751,0.277384343494613,0.277305048492709,0.315520712201662,0.321373577113701,0.322313428043468,0.322712084040805,0.322150333921696,0.250763767736907,0.251130926730793,0.251219171902365,0.250702785838141,0.250210798507312,0.249346425711427,0.247625218350878,0.247067562975155,0.244897965294302,0.243755143383422,0.243346628918813,0.24274832273367,0.242068780433838,0.240401114683525,0.239626230911484,0.239217083901461,0.240250170894288,0.229373415230732,0.222590086080777,0.222122581921216,0.221666998738056,0.221307975633483,0.220913227247758,0.220491143980944,0.218840150364117,0.216728201238382,0.216495427820878,0.215784828207819
0.326125513605538,0.325496196774957,0.350391065758504,0.388996464084289,0.388364186875161,0.381323707260959,0.380719106312388,0.380319327958537,0.328709892984877,0.33382899101835,0.382245574163278,0.362081365823347,0.530813670275864,0.531414108122175,0.353133850819669,0.35333301134001,0.353211449000767,0.394214689972621,0.424536205657758,0.412417794691997,0.4274628247825,0.458061724233981,0.438439540915331,0.460275437683785,0.455629856246145,0.456458165645986,0.454884207383986,0.671975970921926,0.671541603682564,0.433265649000026,0.426910033043997,0.419261109853916,0.398710828779633,0.39823715042094,0.383322964748267,0.383402119172959,0.383651314081371,0.383666360332992,0.383842593129062,0.405417791980193,0.405722973751627,0.405313306713643,0.404867517872256,0.404869317386541,0.410851044824458,0.40183830244291,0.365255511980353,0.377632602770602,0.381309960406122,0.431205967875652,0.43072579223374,0.431371192576362,0.384077364665585,0.467978359499207,0.477617322973101,0.424584140559876,0.424259516713408,0.446954933286224,0.404589394182841,0.395480786153237,0.395644877908806,0.396039538694231,0.347664752321354,0.347139230146873,0.525696191593793,0.524046038499345,0.524545756966725,0.47373030982195,0.474749397728696,0.764626055276769,0.482856013803276,0.487785067584948,0.323655538300243,0.296325330694233,0.282272290075125,0.282946751695665,0.283504268979419,0.283566174702825,0.282031148796163,0.281572727928785,0.281933635796133,0.282045146405232,0.2857729988324,0.285186758468234,0.277112532658034,0.283033045276177,0.392701718502131,0.392567975677561,0.28514556424076,0.285275533501745,0.285445233328101,0.286204779314288,0.326832822079318,0.325384424728503,0.325103630684132,0.325628257377304,0.325500140320721,0.327304020167807,0.597919491219683,0.311305932586108,0.311925911456451,0.312379286485364,0.317887621339933,0.291084183593237,0.290309252648806,0.290449162884462,0.289851224589794,0.289056267391568,0.287177647060413,0.267611078586958,0.267372524298375,0.266217124956742,0.267083969507978,0.266705601203818,0.267279059292191,0.268780081300572,0.269562741982144,0.272681128377883,0.271714481703058,0.272453338271134,0.272954592802972,0.273096973702447,0.273678932703922,0.269680975468287,0.269430758112832,0.270464317078597,0.278159747442658,0.496646246927449,0.277396974409598,0.277471019402178,0.277425833481465,0.277745652936852,0.277475477148792,0.27717138245068,0.524718712436706,0.521556174513258,0.622420490327391,0.32420214089044,0.340462422871706,0.251219944636951,0.250921924641279,0.250454555042265,0.250836459700148,0.250498694879521,0.250532985694926,0.248981135597418,0.249152534737923,0.246451107795278,0.244244175254659,0.243395556155187,0.243074587882808,0.242615182884895,0.239951155671328,0.23904108119765,0.237061278528289,0.239496555335167,0.225783501314624,0.224204836916957,0.222475119415457,0.22163104320328,0.221079964935405,0.220771794015895,0.220308918702847,0.216709485174991,0.215883390928884,0.215990787162538,0.215349982982499
0.326778719954696,0.326072946235821,0.337468422266256,0.29268381058486,0.38020666596131,0.380635987543484,0.380576840564131,0.379948827164818,0.378467464713061,0.336654436546299,0.39685309808638,0.40888121594207,0.407639966319239,0.353258216970395,0.353391294722278,0.353483161577929,0.353559623154644,0.469853699520682,0.451085452161335,0.491759242320239,0.424310165277529,0.415115363563682,0.479545581829248,0.47333159076011,0.442777918669126,0.443967849416646,0.445361372963307,0.670966626842005,0.671350840338266,0.411443396405286,0.395943760488253,0.378132780987528,0.378390331405609,0.390277596860176,0.383733720298723,0.383701759919524,0.384451250892878,0.383832255843138,0.383735718305625,0.405525568562279,0.405737663405966,0.406093320481411,0.406241229648894,0.402631026751717,0.40004193246185,0.398432625678045,0.365950836246194,0.365246783382575,0.371342736570753,0.36540179341191,0.418604113736868,0.420255179616599,0.460368150373733,0.45937950477045,0.472514895665776,0.417205381381109,0.366962997605817,0.618724671265175,0.420273141975447,0.3954220079705,0.395478590383732,0.395635118530954,0.35973488927419,0.425156011182444,0.429247713150894,0.429097904460798,0.429778317667781,0.430268707161855,0.47334708706149,0.382922792918679,0.382908045816679,0.383603384290471,0.302544466717025,0.430585109771272,0.282964707433212,0.283168416136709,0.283187389722183,0.284009773538001,0.283314690399938,0.282297507872854,0.282084664040302,0.282011831312166,0.284107578438809,0.286250529705844,0.287184981148566,0.285224843181152,0.283515017696297,0.304430570163056,0.285490793315922,0.285690719886267,0.285658794657167,0.285509278803614,0.33986302584745,0.340060908408947,0.325207792973508,0.324999997178187,0.324639986681583,0.3268013154111,0.328226997713542,0.311035249544956,0.311686771221971,0.311416324520385,0.311746002081264,0.305881158339759,0.29045063058717,0.290685171225727,0.289933841144702,0.285187397274649,0.268668644711955,0.268226355076358,0.268106240743821,0.267506014002738,0.267395994124116,0.267662479535072,0.267286504562043,0.268241262478486,0.268880326870578,0.270198125588171,0.270975987195775,0.271221009881706,0.272326045725189,0.272912764750086,0.272859371451443,0.270379177579818,0.268848383510274,0.269092300314627,0.268196434672178,0.494466947376009,0.277169775824497,0.277502999179553,0.277019853303604,0.27726341151408,0.276395927520906,0.275707368505591,0.519506239771191,0.519003010704708,0.516631762641127,0.800374031220889,1.00286887344535,0.250782168715146,0.250195363432267,0.250248034435366,0.250193108974989,0.251353595586948,0.250603573908693,0.249312902826051,0.248194938017306,0.247724213657948,0.245633289832857,0.243668142728215,0.243080243117377,0.2420081532765,0.238521682766856,0.23956523421449,0.237126869008373,0.239216002317159,0.225308424107426,0.224940098635576,0.221455020027583,0.220931922932204,0.220557857330593,0.220133524973106,0.219263022690174,0.216161546936847,0.215615466120586,0.215518794565765,0.215099480709671
0.32753370033224,0.32619357598516,0.319454830743536,0.319229751384158,0.291264453424595,0.291982974882411,0.291920193270523,0.291762016351656,0.312298362949761,0.499273347756638,0.407420688153811,0.407696824209335,0.40742524761978,0.479365721988373,0.478921784231943,0.406503532008836,0.354044059185963,0.355310041805575,0.430272545580024,0.419155011330937,0.416828309910681,0.417233824429731,0.43158370671064,0.482076049397063,0.451879772688207,0.442704709000343,0.426498018413454,0.429374443334841,0.382426760480831,0.380571000806043,0.379616669284293,0.379426086448675,0.379155442305924,0.378284443036556,0.372943143341078,0.381881260552347,0.384076725028161,0.383971943918666,0.383882528548317,0.405566662217343,0.405544460429459,0.405299473515495,0.404943265342193,0.384681088482872,0.39191378546855,0.39523508392479,0.365194459327773,0.365306411693085,0.371778554893724,0.388654789358383,0.419275801175961,0.420530745753633,0.459909463198021,0.458536925228431,0.460516022521221,0.401275824024944,0.365525255569612,0.618446573782727,0.619428973114731,0.394136204395781,0.394929787346181,0.467966664843559,0.33998685079772,0.426267026556223,0.4272739578129,0.428142719503872,0.506992695448552,0.506441601342804,0.373690639102455,0.379822637695152,0.382224189483497,0.383594716116523,0.301527688616244,0.30186915362253,0.283637416310733,0.283536535589435,0.284012101424048,0.284485756840946,0.284365042769888,0.281955102693125,0.28187118182047,0.281472017008066,0.297793076795394,0.297735070509826,0.288175849518508,0.287649186065306,0.289793907961472,0.295180794035202,0.296555867947774,0.296591822596283,0.305630688325279,0.313829431288251,0.341010986130837,0.341157247973665,0.324672513345297,0.32462232758252,0.324752115703989,0.327209495672979,0.320871070440095,0.31217842558632,0.311923709446462,0.311618413045992,0.307508645235003,0.306698959842792,0.471276811875146,0.294339816207182,0.290196339995495,0.28502367120414,0.284499137712281,0.270415607133924,0.269491397414279,0.268815028828206,0.267739586998497,0.266896631896743,0.267175527810443,0.267840921065679,0.268655146634252,0.270644381224649,0.271180827084641,0.271982470830354,0.272432629299609,0.272770240022903,0.273623295204002,0.270013301012424,0.269303494681938,0.268500751303595,0.268436111007155,0.267833637994268,0.276546261478896,0.276459747783869,0.276094405097347,0.276965654163099,0.275354783988522,0.275162052254179,0.384999679185255,0.419648071668818,0.711095890541208,0.823814637011062,0.33187896098622,0.248552337588054,0.248981663510907,0.248614755244741,0.250439446057495,0.249235073176016,0.248891547010616,0.248623130353376,0.248732831215091,0.248102815308221,0.246671928905989,0.245507205642401,0.246186788766815,0.420274783886514,0.4191528924188,0.00406570422993897,0.308274497600114,0.302566813377953,0.296881452967394,0.225116673356142,0.220600150794592,0.220898830713838,0.220033468558562,0.219410170825462,0.218293507971308,0.215531035942035,0.215021529048414,0.215098021182404,0.214565541496373
0.32943932852703,0.296592392755087,0.296191446258828,0.29461825990976,0.293086472966254,0.292726798000965,0.292757295422518,0.292267476990797,0.311984086072888,0.407570318237204,0.407469484651799,0.407645161441107,0.408139474032067,0.479357563456082,0.478761325589639,0.454377546253863,0.467414879388197,0.467934096477575,0.466636034967402,0.416392579115123,0.415552923654454,0.402195404352407,0.418084269488926,0.42156282933839,0.443167234355072,0.439069045747504,0.429564115816234,0.418035926677336,0.383870776057595,0.378550568630167,0.3791191663306,0.379812763835815,0.379335685026763,0.375057987290547,0.374057669410292,0.376869092856736,0.378602287223372,0.382649835962367,0.382969557506465,0.381923335865129,0.401744170240816,0.40526276051785,0.403919122072565,0.403280932338576,0.403932899304223,0.3965240182737,0.392471785861862,0.447787843658611,0.414087198198038,0.4234012158988,0.420577295286084,0.458909436193754,0.383222959837056,0.45756405878106,0.306510125683181,0.366632966726265,0.492285114643392,0.492636804688536,0.338192062684301,0.350109847217432,0.382909927832644,0.445210601216694,0.444767570248541,0.426335910192792,0.427174124482844,0.428019291897912,0.42953718909622,0.429578007133276,0.368938963182968,0.383074831812152,0.344050595001296,0.300741097959514,0.301728505611356,0.302488317586804,0.30216025428588,0.289096421012844,0.284180074558703,0.285038632123479,0.286051272646029,0.412643503798628,0.399669468118764,0.40430807093752,0.298997328321909,0.298981824467601,0.299204130190956,0.305201971297527,0.30931714761726,0.309793847285181,0.31508692127672,0.315258168450659,0.31542381087861,0.314961520698401,0.340825966167794,0.341198048376993,0.322592247304376,0.323702674883371,0.323094939004996,0.322018043217808,0.31295805286101,0.312951034651327,0.312713501386622,0.311648909671015,0.307836997715499,0.30617813991852,0.585829752324521,0.296328901680629,0.290289996310116,0.284410220240176,0.271509242744576,0.271622786020285,0.270263045320829,0.270446846245307,0.267687915718706,0.267939144157164,0.265596767102529,0.267551842219297,0.268725644015386,0.269299019298987,0.270335998147842,0.2718038840864,0.272348520634851,0.273423052792641,0.272958971325265,0.271049430166751,0.268262229947022,0.267993131502221,0.266713144531508,0.266688569473266,0.266049440395,0.274790153497946,0.272448935282744,0.270230524217983,0.591566086691771,0.387127445408507,0.386838103245474,0.386858948106477,0.386929718426817,0.333150123282974,0.319583726329548,0.247548108809311,0.24791233867778,0.248391783114556,0.248690617445774,0.249873221880947,0.248198279776997,0.248787705968718,0.248556275501177,0.248654368915688,0.246600505750443,0.247271651263249,0.247109411083536,0.287363035665726,0.291214127167015,0.418733601155731,0.353051900950831,0.333929094446561,0.299711604543164,0.721445473671365,0.22017548510204,0.219464173408241,0.219200705947752,0.218118507324742,0.279582891372447,0.27639261623129,0.538113584069252,0.494343109537229,0.537132258981112
0.329596287869607,0.31363143658044,0.297101784314803,0.296469399939173,0.294228254573112,0.293224993181106,0.292787755305437,0.29271370134982,0.303406087652765,0.30451063585316,0.365753702082214,0.407445360910307,0.407548693788366,0.479786944870467,0.478660026010866,0.439483561455144,0.408255051251942,0.612290329822141,0.462722201974223,0.456120529676765,0.427899978182423,0.386552810056529,0.466678271392551,0.466771322851589,0.445260670973584,0.433897278125238,0.427882404608247,0.38725228051195,0.382153905256108,0.37927141862055,0.377943064647772,0.377654332219607,0.369593581146323,0.373426129817476,0.37365528275859,0.374706023118527,0.373486981230433,0.383409556565172,0.382887154538202,0.382929007757504,0.395092550108296,0.394784909354413,0.42385644795166,0.402486982990514,0.41740184439706,0.401215351873933,0.404617204088814,0.324149606146424,0.323034686149989,0.321965241107904,0.321701430475712,0.321393614788659,0.378834505164518,0.375273593655771,0.299290877026477,0.301282500453266,0.30088258962261,0.493285323577247,0.435232391434226,0.491712671058873,0.368547899679008,0.312645915562004,0.312387952884069,0.49787531216757,0.426368350568172,0.426988798737545,0.43518952588544,0.330756770928524,0.301064538542797,0.301582467465052,0.301261339217397,0.301115926730222,0.301631530143086,0.301986829783773,0.300463440406002,0.294231595081524,0.283518877535952,0.286764872320214,0.287447700989297,0.391712604385711,0.3912417348,0.391934923796078,0.29938594001561,0.299671042395601,0.309951540374145,0.309750719425309,0.309442961686454,0.316345338596511,0.316376383247651,0.316159639801878,0.315871396691736,0.315681815581762,0.340490302295281,0.340559838921045,0.327991393656379,0.324385844589199,0.32294084999717,0.312820991506762,0.313074576859561,0.313349903519478,0.313354601373289,0.314126832858763,0.306801045828858,0.305490046107463,0.304181798031933,0.307021443630786,0.309099068364107,0.283829524675879,0.271359976394882,0.271296751329947,0.270070754104667,0.270005616394584,0.268195844248186,0.267423302564148,0.26766084821272,0.267697996984114,0.268173842779163,0.268414693224625,0.268977271495032,0.271650293210602,0.272071519042809,0.272894143198813,0.273204571721762,0.267557603640909,0.268165405132805,0.267521364755002,0.267178276711456,0.2663709200517,0.266982180195991,0.267975454191178,0.269706339652439,0.269133997911506,0.272598729685131,0.387935466007261,0.347414978447233,0.387338877520635,0.387279150536691,0.331904631141604,0.320531587353975,0.320518734354587,0.247352433572626,0.247384201240478,0.2490850387129,0.248520294268686,0.248875045009581,0.248410269886338,0.248708057484004,0.247661593583657,0.248355212209773,0.247427302617733,0.248283154640764,0.249227808006262,0.562169267652798,0.553567391791308,0.547249002367189,0.582669676726546,0.798607903035799,0.00387385720655567,0.297233470785363,0.296678199003311,0.281797644049727,0.289681827045802,0.279110225651313,0.538783494746631,0.538105394006708,0.480152257177093,0.45537359729474
0.327939525893158,0.314777946922311,0.29810190567269,0.298071606585149,0.292223971824356,0.292907866560873,0.292814578531291,0.292267053577145,0.300772386107557,0.304889563872191,0.304270491831233,0.305249462492552,0.406041541736973,0.481247045684249,0.40065560280528,0.430407147215225,0.621358305693191,0.645598684465359,0.369091247115107,0.439842076961309,0.433066625733546,0.472381767455386,0.472621271923957,0.462330924845549,0.378276266411585,0.379058676968011,0.378046776577893,0.402644101327194,0.477362945280236,0.374072902621934,0.375588988212125,0.374858140138805,0.368298963689487,0.365992175809891,0.365464397979438,0.365155943609216,0.364964531504053,0.37119407551445,0.383061091146592,0.398372810470874,0.396384752005095,0.397259401257746,0.390646360812548,0.384843077907147,0.383987795247612,0.401842904438472,0.399803060401265,0.324085449148776,0.323633242414181,0.322347569808033,0.321585293521777,0.31971308508908,0.309067945438803,0.39802118374113,0.300401475060575,0.30228230649072,0.415929337883566,0.416173682515995,0.412811525757466,0.477254958857544,0.347710269377799,0.305114144831767,0.304925477898739,0.637857842307441,0.278367119702723,0.278518567591824,0.278441921808502,0.371131429740757,0.287530041586011,0.301938383382419,0.300515815758149,0.301119147194193,0.300922285399371,0.330181305312182,0.32550682535869,0.325950438208907,0.332080129605667,0.287660625043812,0.312512132827323,0.313656063557359,0.314401432549556,0.313604314917346,0.299538991749633,0.300315019723065,0.300622599169729,0.30991607642053,0.310072033578754,0.316348300269824,0.317319740488339,0.31634143551031,0.316009041017999,0.315720702964499,0.313147896142929,0.413377002272122,0.324764089175071,0.324474539784207,0.324152276764943,0.312439579961971,0.313034492970788,0.313087575698846,0.313578864071392,0.31450620577428,0.314629448861629,0.304184107147671,0.30341661485747,0.307257154857492,0.309348826622511,0.269817426756968,0.268644275852093,0.267056661642755,0.26770353406167,0.267701861727039,0.267518131701527,0.268152297553062,0.267382408671493,0.267806809206167,0.267710695459212,0.268310107328803,0.268794497049176,0.269623038763239,0.271030878538335,0.271823021479688,0.271890603285122,0.266842131788868,0.267381849683138,0.267607235255785,0.267413961424629,0.267585970667274,0.266940741853837,0.26858017799276,0.268669574899035,0.268130015977889,0.268893042712589,0.269434682298379,0.389184650738361,0.388581735298922,0.389780276292086,0.265119514788005,0.264535947096648,0.245140665131836,0.246442449636681,0.247494569587384,0.247546260434563,0.24951642416595,0.248562495707061,0.248719284323946,0.247784862311553,0.249112703557071,0.248343707851005,0.249025596875708,0.248625342897119,0.248572469911445,0.559576567988221,0.567424164494662,0.711443384332809,0.642235431105216,0.711166642459625,0.711086372314267,0.00414973861770824,0.244973912742428,0.276907694888448,0.281573850677735,0.270752293870074,0.248790026453549,0.249978615122763,0.250854552872121,0.251461386522966
0.32708993423727,0.325869620309224,0.297900861714506,0.297252479723693,0.295782678108432,0.293446249011149,0.291921280639541,0.301872617725299,0.301819377939217,0.302101244980032,0.302539460885976,0.301007122375862,0.503481784164399,0.429905347430333,0.404047771148272,0.424297190689364,0.356518519183644,0.357155134352099,0.358293684556712,0.357862920929613,0.360357944357702,0.363303746356903,0.363909853119774,0.363627686346636,0.420888420911972,0.379816745526369,0.378722699923654,0.481353335394613,0.479441654432699,0.371560178058175,0.415725040473505,0.50794636292851,0.367451713038376,0.366380936989342,0.365682148824371,0.365349444813955,0.365593631726447,0.36563340027996,0.384021528328323,0.389628006777663,0.391093146907236,0.391160379019066,0.408417851864215,0.408458800867189,0.442616634511,0.404103596542713,0.390586542841588,0.429678759993206,0.323749343580799,0.322651839271366,0.322299051584081,0.418046674048097,0.398552815299605,0.398140106579899,0.300760913059721,0.302957979510287,0.417475328413278,0.417570778451093,0.417353788057915,0.305370594967963,0.305480598062227,0.305480485529756,0.305343049393793,0.640468822290577,0.278776636429079,0.278988457076941,0.279121754332857,0.288226776599188,0.288599490199502,0.290051779361564,0.297406877096649,0.292719565572647,0.298033892100914,0.303295809434198,0.325262878741212,0.325822350852865,0.342941444298322,0.402130920984087,0.314841622587845,0.315078428842366,0.31608172581594,0.315561900567421,0.315667980155565,0.569980273901846,0.315318922217685,0.315947686779952,0.316549229967705,0.316267336578547,0.316476076501957,0.315809337776914,0.315730998777434,0.314770059522096,0.312521991157184,0.323646053974024,0.324227727097352,0.324253882468546,0.32418730543259,0.323766497992769,0.312665450933045,0.31277950175708,0.313222643502134,0.313565208432178,0.314410711882057,0.303530795651333,0.660441505611214,0.445838616943065,0.43092812554987,0.312474835971796,0.26610677034106,0.266284607294025,0.267088216505934,0.267439374134059,0.269142052680386,0.267265495162583,0.268091158138132,0.268015523115008,0.268020475135853,0.268330004579896,0.268857313684451,0.269843962957959,0.27074529437801,0.271250334899595,0.54488190788948,0.267673742069716,0.267204176449361,0.267358301765854,0.267650704202747,0.267524568298116,0.26814251855161,0.268170643021831,0.268596277225131,0.268794210956725,0.268268283578361,0.269244087375736,0.269140307827572,0.268339004304208,0.267649864629658,0.2660116752564,0.265093901536442,0.263344823536769,0.253357608288264,0.246761973220357,0.247981638897566,0.248183648262572,0.249242235260687,0.248735409474742,0.248919056180846,0.248521371778143,0.249508353051121,0.248745028692925,0.249157276133848,0.24928825751224,0.548867338640035,0.561228214377946,0.561057153141217,0.615043255698217,0.712411192669409,0.71174899476025,0.711932962750749,0.247399448067065,0.266895873221627,0.268993810396911,0.248012939919928,0.24872754748261,0.250250162152113,0.251158468209508,0.252076007538608
0.327459688773043,0.326069363934575,0.296776581311908,0.296900448926049,0.593803301875127,0.303358669027945,0.302728329423857,0.302791692291923,0.302669185215754,0.302384238214665,0.302884553834957,0.302846673930003,0.303604874897633,0.547682457080278,0.655232681149086,0.438819976756834,0.358812819059726,0.359190351603205,0.359056624261772,0.358413744083612,0.358991985724753,0.35867477295496,0.363428264275836,0.363945679015071,0.687394664515571,0.380067384792171,0.378419174204781,0.47990837609253,0.491586396996038,0.476853728958004,0.43848027615302,0.4890115336514,0.367431826014741,0.366041780271846,0.365235612706677,0.365308449649665,0.365404491960616,0.36555541311122,0.365753647638916,0.389582419345443,0.390700644744457,0.611636539957983,0.40863015948463,0.407328231066057,0.402957745910635,0.404415637688621,0.458202805773904,0.379520509767188,0.324194320807635,0.323889122353926,0.305505488748875,0.276724314289471,0.276071941318329,0.276051089206096,0.300192622746385,0.303081077709566,0.425696851268045,0.418119722084155,0.417680951189584,0.473107722032596,0.29755556102175,0.290937351190096,0.291008763825827,0.291146717288413,0.28100112408834,0.279774978485701,0.27962420868054,0.39546405556179,0.29041978143457,0.290931056568289,0.325667069788724,0.365545556559632,0.38159567144129,0.399057213013649,0.446143517365528,0.326048049904276,0.325327495753154,0.325545225043823,0.318952941009906,0.320641431057549,0.318998090004141,0.317451987943567,0.317275206482108,0.327677332267976,0.328700509470767,0.322134686868208,0.317295727393661,0.316492648152762,0.315996987601288,0.303143373594588,0.303655695861193,0.304122070637635,0.306966970384555,0.307902847884996,0.324090878482334,0.323976752691679,0.324043404648969,0.323265715971483,0.312525732378857,0.312206227776883,0.313028526122844,0.31292653696691,0.313429694095467,0.312309597103705,0.559652137266008,0.4741179738926,0.312934280082483,0.470624813214935,0.318704647350651,0.266114759799534,0.266690213598171,0.266928500725479,0.271051624809464,0.268784204986592,0.268202048688364,0.268485098218798,0.268328180911859,0.268425275778841,0.268683151288958,0.55430185556725,0.28174840190089,0.299424115665699,0.578028125174562,0.266080725006668,0.265584691601422,0.267106211555058,0.267847865210514,0.267942559084481,0.267611697948419,0.268118210237545,0.268388625530908,0.268893344491176,0.268700391102875,0.268583916580652,0.268618022657919,0.268154162162835,0.267881487669096,0.266843064152321,0.265831894740673,0.410730496720909,0.261694808073367,0.260518273189548,0.24912618626461,0.249234798688936,0.249402064098756,0.249366599098368,0.249143473466039,0.24958506278714,0.248625772905764,0.249389727190296,0.249298083203664,0.249408884592774,0.249698186156777,0.559912310005498,0.562621232007805,0.588349302032386,0.713768480097902,0.532578845434224,0.526280241612362,0.250470743497273,0.265961621814652,0.268348657698456,0.249250963747833,0.249856831503968,0.250287524446487,0.251388145213518,0.252421607346588
0.328830732384252,0.370682732853823,0.516321094898654,0.516130826887176,0.315936335214943,0.318870130550557,0.494270511882249,0.30318158446669,0.303101872989051,0.30370342111342,0.303521907546836,0.304019513887337,0.303584550969274,0.302782434282337,0.522610063543956,0.450788966565709,0.359558357340525,0.360280057424422,0.359717720827759,0.35902738129047,0.359340820468647,0.359251556860189,0.36138470693555,0.36353727887185,0.365486749385247,0.367957754646925,0.352522514969281,0.352649046377871,0.347272972265687,0.347075879138703,0.347872830535547,0.347699171895482,0.34987710330088,0.350413977418031,0.36473693455433,0.358304810832806,0.345520635720851,0.345098827361924,0.344958389928294,0.346305838751556,0.350611216754478,0.351082443342937,0.352453268741176,0.406381003566853,0.39023599553718,0.390100080740325,0.390006800999537,0.386776214096792,0.379603069630977,0.276332703546366,0.27763847088038,0.277231544909905,0.277507697466101,0.277441984008122,0.277926449712966,0.278524320739452,0.278578591761605,0.417328248050108,0.417283490955515,0.474269617081118,0.293249749716739,0.291215088746319,0.291640007228782,0.291771483764327,0.291480398658074,0.293822340093164,0.362331239029148,0.320838868237767,0.290191290407937,0.290107223760902,0.344080439378475,0.381291736431515,0.381335790303578,0.469618155942681,0.326325615543336,0.326680505674012,0.326789482601954,0.326545795687716,0.326267831348754,0.323458563155169,0.323255704975068,0.323785785370796,0.327139798325884,0.328265870323268,0.328564828755359,0.326011266432145,0.315878431776029,0.315714065708231,0.367055542621326,0.303709610779942,0.303920921283615,0.304118892002699,0.304725333744226,0.304213682520283,0.323888116653308,0.323431558036684,0.322490559108548,0.322245181162097,0.321681488374303,0.311428277336061,0.313814258924198,0.313191941931863,0.3133113454786,0.581629376390708,0.560132348027247,0.559694437696067,0.560374665675162,0.317401545628861,0.280869842438738,0.278685851796753,0.273952129013434,0.273395692314995,0.272056219483114,0.268201123005785,0.268426627484048,0.268906483741447,0.269207691185896,0.268913309157185,0.353079664628125,0.253300891279025,0.255012546416662,0.256204647745035,0.584798051470697,0.256414671961593,0.256884539221657,0.256595370361809,0.25613158292408,0.267708433909938,0.268010945180722,0.268516648319272,0.268129031844207,0.26870428716823,0.268478329544318,0.26826774233555,0.268111291322857,0.267783461020216,0.267491918276168,0.267082495622083,0.503859728442772,0.261972434984081,0.261701370459864,0.26021638816581,0.259574836625622,0.248313976387558,0.249717867107283,0.24929947235959,0.249766725521388,0.249341657823586,0.249395750737153,0.249369402503662,0.249647279926291,0.24976288778148,0.250255944265929,0.253028856541764,0.254489275876777,0.255115929546693,0.254915693856964,0.531789265486031,0.393843975284107,0.380074913279014,0.264789979596192,0.248653424224105,0.249839712336935,0.250786925515332,0.251108586691191,0.251708483974804,0.252290405364217
0.329935748010949,0.392345067905996,0.515685937203825,0.516086558065789,0.317569870396078,0.318707197536995,0.3186761813257,0.302979736432064,0.302754878380658,0.302428098470169,0.303184547055112,0.303962412025644,0.303968816929882,0.366598350170139,0.488435415342171,0.467748707249199,0.359787822771196,0.360112164710558,0.35993413982472,0.359716135820416,0.359786424086625,0.360315989581667,0.362236709542536,0.364299522447216,0.366417993174005,0.368349988949116,0.352830203941388,0.352072425929968,0.349855563511656,0.348703023489454,0.34872988943865,0.348624261434452,0.34953794057491,0.350199931865868,0.350060383514858,0.349397640121378,0.346299150364828,0.345857986723225,0.345922964268344,0.347749243942639,0.349651750129255,0.352123096508392,0.35356770265232,0.398841477594768,0.390411099077547,0.390204785579093,0.390083596283522,0.383171880869637,0.380770720112237,0.277659695016174,0.278577114919057,0.278219595616118,0.278123226859079,0.278039720781385,0.278233552651901,0.278560510561645,0.278621533414899,0.314200161776454,0.341003932250353,0.33620602061805,0.291739592030592,0.291474514057107,0.291686555516511,0.292518071074432,0.29294394674892,0.293818382543682,0.293224758140996,0.291597036964304,0.290635057358846,0.290223530345476,0.362743023079206,0.38165090027342,0.381664090349211,0.36540994081232,0.327227703990296,0.327465413316154,0.327493730671437,0.327232206722398,0.326384368626108,0.324931661442484,0.324679836764588,0.32521792876725,0.327377466800001,0.328507248451894,0.329068266904071,0.329062921393244,0.329197286588264,0.335408596369324,0.347116277776769,0.332815586245965,0.30402201914749,0.304276252854053,0.304476140226954,0.304165987670273,0.323331739498928,0.323188839700841,0.322748201520317,0.322441982627839,0.321767201418578,0.320339631516046,0.317151650583646,0.313869046142693,0.313718936610211,0.441229584753603,0.559762023027365,0.559536327189958,0.560121488378961,0.362811640622212,0.281115581815055,0.275923812898129,0.274487079436141,0.27341255029536,0.272230232482796,0.269926030509596,0.269354725649036,0.269449927231764,0.269378646726193,0.269348677359436,0.259686221174592,0.254225311987846,0.255090171166891,0.255763330101975,0.256116525644629,0.257001873025596,0.257372334166876,0.257343643071823,0.257651611775105,0.260229169005253,0.263482011247992,0.265752389129333,0.266704620991155,0.267417723218924,0.267879564730589,0.267812851142279,0.267602694094549,0.26725851721732,0.266799482029127,0.265865494516314,0.263922066686352,0.262664260775034,0.262056676694139,0.261188138684337,0.260619756196351,0.248427577073892,0.248935569855002,0.249176837549121,0.249402802672046,0.249583560667687,0.249201496912489,0.24943949446004,0.24976174331711,0.250258698381772,0.251097260449887,0.252725596244902,0.254639552762673,0.255412621580752,0.255581724071447,0.432926663772708,0.394471244443623,0.38808898726378,0.263527763939805,0.249259858683406,0.250130287855053,0.250914785922875,0.251604568816374,0.251942117513804,0.252595204355668
0.317390710571483,0.426569227914659,0.628134434630757,0.517172258938505,0.316259732045423,0.317049153829481,0.31635027023872,0.302870532991134,0.302261197623275,0.299621210873262,0.302672759109821,0.304434026407035,0.304198034416367,0.553228923705676,0.850345967057921,0.49349046760902,0.359753899335083,0.360441694289981,0.360338955262276,0.360101778483367,0.35989921519122,0.35982979973804,0.362916307078893,0.364607540665586,0.36630305894068,0.368465311773114,0.35411657569528,0.353391491679438,0.351200425368758,0.349173465397232,0.349338954453156,0.348552547471491,0.349145915614835,0.351318380095514,0.35132062053821,0.350340988620178,0.347069445297709,0.345259117713887,0.345231924704828,0.34891188326608,0.349565868896903,0.360471051039434,0.356224097229352,0.456308606367082,0.391021824695922,0.390484048978167,0.457155846384478,0.320893499991619,0.393350433549453,0.277226332475315,0.279704782587868,0.278367280664271,0.278231773497192,0.278137136823611,0.277913499390236,0.27832210110861,0.278246630143993,0.254534056894504,0.34475498516362,0.328134484753472,0.286816253843563,0.282883072837698,0.285436709847908,0.293033027808335,0.292948398813019,0.293435759443276,0.292604256954058,0.289857353580592,0.290001822656036,0.289597920481555,0.387960371878589,0.460890720710532,0.460405585385042,0.326689767529144,0.327606182956449,0.328027524907351,0.328416956388226,0.328023047185296,0.327022602431149,0.324660055780986,0.324879141687063,0.324626281458945,0.328264027909775,0.329595860301684,0.329774710812644,0.329513441542336,0.32936162439851,0.49127113892426,0.368011662393725,0.367827116799494,0.303339385238753,0.304194511816532,0.304221906337823,0.303943999549034,0.322663623694862,0.322862282760593,0.322648866254863,0.322681708495291,0.322026241230289,0.321491030754888,0.32019973063873,0.309446619813669,0.304469349889314,0.41037852491642,0.560550529491654,0.560043842045656,0.56134591087246,0.571078360790757,0.280825357044421,0.274709433392133,0.274456882275812,0.273645594685971,0.272901587368844,0.270258565990055,0.269415146412018,0.269613174741377,0.269202406142499,0.269224356670155,0.252491923355303,0.25389395780287,0.254983064546802,0.254740855821926,0.255746009077815,0.257333401853225,0.258976105555831,0.258007906305749,0.257592315729361,0.257308504182717,0.262763519565933,0.264040229094851,0.26559906136193,0.266155867315245,0.267713210278218,0.267359150140389,0.267223913865894,0.26668390782546,0.266429511037077,0.265581815073308,0.262912472206182,0.262249111401879,0.261887444658875,0.261011271388015,0.260512178834561,0.248340110707154,0.249276802969389,0.249191214352833,0.249835830235875,0.249712415859176,0.249066436213105,0.248883867713211,0.249750527812979,0.250203123628,0.250890734953082,0.251925079210665,0.255585537132739,0.255733688064976,0.255868880006585,0.702239276871102,0.395143091864797,0.395368602523147,0.261988412015508,0.249243435334587,0.249917660880892,0.251435635068762,0.252038589195027,0.252294160623611,0.252184805970472
