0.00449362, 0.380741, 0.386035, 0.621526, 0.349323, 0.355608, 0.590766, 0.342457, 0.343307, 0.342845, 0.342891, 0.929781, 0.348185, 0.340948, 0.341186, 0.339962, 0.339478, 0.341093, 0.341607, 0.494266, 0.667218, 0.488621, 0.372961, 0.372723, 0.372612, 0.45233, 0.514057, 0.444903, 0.652998, 0.562998, 0.652128, 0.489616, 0.490031, 0.344928, 0.343438, 0.348566, 0.345573, 0.345201, 0.344439, 0.341657, 0.341246, 0.337463, 0.338882, 0.339497, 0.338591, 0.339588, 0.331875, 0.332175, 0.332618, 0.333008, 0.333744, 0.325833, 0.325743, 0.324171, 0.355756, 0.355229, 0.341354, 0.338769, 0.446073, 0.448305, 1.02672, 0.3358, 0.389659, 0.463728, 0.410182, 0.462531, 0.60429, 0.339891, 0.338806, 0.311126, 0.372737, 0.31121, 0.311226, 0.314345, 0.3156, 0.315615, 0.315734, 0.321886, 0.321962, 0.321733, 0.320295, 0.321002, 0.321546, 0.321863, 0.316521, 0.316298, 0.315206, 0.314784, 0.31573, 0.315554, 0.316961, 0.317116, 0.317374, 0.318628, 0.317914, 0.32344, 0.322503, 0.322867, 0.322073, 0.594525, 0.584858, 0.329149, 0.330345, 0.330683, 0.331378, 0.331235, 0.317133, 0.314878, 0.317293, 0.317203, 0.316869, 0.317141, 0.31087, 0.307837, 0.304596, 0.307202, 0.306261, 0.306545, 0.306119, 0.305503, 0.30814, 0.306789, 0.306322, 0.304546, 0.305567, 0.304939, 0.304262, 0.299735, 0.300701, 0.298583, 0.299428, 0.294468, 0.295517, 0.294863, 0.295223, 0.295509, 0.294731, 0.294371, 0.294351, 0.294327, 0.299096, 0.298378, 0.299801, 0.301966, 0.299246, 0.298528, 0.296621, 0.295691, 0.296236, 0.298431, 0.297892, 0.299039, 0.299138, 0.297537, 0.295865, 0.293403, 0.291098, 0.29038, 0.291037, 0.293074, 0.290355, 0.289562, 0.290474, 0.28901, 0.294747, 0.299511, 0.301217, 0.302674, 0.301337, 0.296294, 0.296593, 0.297998, 0.299332, 0.297613, 0.298538, 0.299193, 0.302132, 0.302047, 0.301088, 0.298706, 0.297423, 0.296345, 0.294589, 0.294458, 0.295813, 0.297156, 0.297268, 0.297783, 0.298231, 0.301026, 0.302924, 0.299952, 0.302223, 0.302899, 0.304764, 0.304517, 0.305405, 0.318179, 0.319794, 0.320233, 0.320776, 0.320911, 0.322644, 0.325274, 0.317648, 0.319007, 0.316854, 0.320365, 0.320686, 0.321655, 0.321149, 0.637781, 0.638121, 0.638247, 0.638256, 0.346712, 0.346307, 0.346626, 0.346581, 0.345297, 0.344937, 0.334189, 0.333346, 0.333919, 0.334576, 0.333495, 0.31579, 0.368466, 0.317757, 0.317288, 0.318632, 0.398336, 0.313825, 0.31245, 0.311645, 0.311258, 0.518046, 0.460298, 0.411985, 0.466003, 0.269144, 0.00439606, 0.00429971, 0.26941, 0.245604, 0.245941, 0.238531, 0.241297, 0.242382, 0.235241, 0.237647, 0.245368, 0.244167, 0.244402, 0.244195, 0.244581, 0.24541, 0.247167, 0.248065, 0.247315, 0.248813, 0.248142, 0.247909, 0.249152, 0.24755, 0.240706, 0.241169, 0.240602, 0.247906, 0.250615, 0.25088, 0.249654, 0.26025, 0.262296, 0.263941, 0.264632, 0.264802, 0.264785, 0.265519, 0.318056, 0.318272, 0.332115, 0.330529, 0.30521, 0.212569, 0.214198, 0.216182, 0.216644, 0.214028, 0.213243, 0.213005, 0.217326, 0.215082, 0.215477, 0.479776, 0.479498, 0.479625, 0.272965, 0.273878, 0.274571
0.370051, 0.380467, 0.377579, 0.37634, 0.355136, 0.355398, 0.496688, 0.351437, 0.353038, 0.354362, 0.353146, 0.352211, 0.34751, 0.340764, 0.338968, 0.338951, 0.339614, 0.343575, 0.342132, 0.496983, 0.490932, 0.489001, 0.463598, 0.37258, 0.371262, 0.425117, 0.450524, 0.490468, 0.620893, 0.638191, 0.6191, 0.617992, 0.425573, 0.438756, 0.345408, 0.34507, 0.344764, 0.344863, 0.343925, 0.341, 0.340004, 0.339482, 0.338738, 0.338992, 0.338827, 0.344261, 0.342824, 0.342259, 0.341105, 0.336525, 0.333583, 0.332351, 0.332981, 0.325, 0.329818, 0.701436, 0.376677, 0.510127, 0.337904, 0.445879, 0.447817, 0.335247, 0.462819, 0.462794, 0.387358, 0.459826, 0.458555, 0.338457, 0.310633, 0.31158, 0.311701, 0.311366, 0.311155, 0.313536, 0.314414, 0.314034, 0.313622, 0.321609, 0.323386, 0.323829, 0.322095, 0.321824, 0.321695, 0.321534, 0.317563, 0.316655, 0.317531, 0.316981, 0.316651, 0.316301, 0.315845, 0.315868, 0.31857, 0.31702, 0.320511, 0.3207, 0.324151, 0.657681, 0.56968, 0.590937, 0.801029, 0.330519, 0.330602, 0.331046, 0.332126, 0.330747, 0.330292, 0.330535, 0.317459, 0.316679, 0.317245, 0.318303, 0.317899, 0.309635, 0.310579, 0.307759, 0.306345, 0.306654, 0.306536, 0.307197, 0.306803, 0.306709, 0.306454, 0.303449, 0.302347, 0.3017, 0.300297, 0.30033, 0.298353, 0.298372, 0.297558, 0.299718, 0.297812, 0.294682, 0.294944, 0.296115, 0.296673, 0.29621, 0.293937, 0.295308, 0.296557, 0.303517, 0.303825, 0.302749, 0.301662, 0.300751, 0.29985, 0.300096, 0.299436, 0.296982, 0.297891, 0.298262, 0.2993, 0.299545, 0.298191, 0.35048, 0.350428, 0.292908, 0.290953, 0.291502, 0.288655, 0.288069, 0.293673, 0.296323, 0.297704, 0.298144, 0.302303, 0.302427, 0.302737, 0.296102, 0.296648, 0.298254, 0.298565, 0.298669, 0.298036, 0.301023, 0.300281, 0.300747, 0.301225, 0.297946, 0.29855, 0.29722, 0.295365, 0.295013, 0.29531, 0.297501, 0.297933, 0.297559, 0.298946, 0.302129, 0.301678, 0.302614, 0.303076, 0.303495, 0.304159, 0.303729, 0.30379, 0.316647, 0.317337, 0.318397, 0.323091, 0.322858, 0.324802, 0.318625, 0.3174, 0.318591, 0.318144, 0.315182, 0.321814, 0.324425, 0.323746, 0.325595, 0.637676, 0.639578, 0.358893, 0.35786, 0.344784, 0.34497, 0.345965, 0.333854, 0.33485, 0.335008, 0.332596, 0.337557, 0.336527, 0.315554, 0.316813, 0.3205, 0.30653, 0.307792, 0.307025, 0.310311, 0.311032, 0.312172, 0.312258, 0.311794, 0.312218, 0.311884, 0.452911, 0.371914, 0.369436, 0.355743, 0.306572, 0.304519, 0.00421405, 0.604091, 0.253034, 0.244823, 0.245471, 0.24457, 0.244731, 0.244275, 0.244813, 0.244764, 0.24412, 0.246307, 0.245298, 0.246477, 0.2461, 0.245333, 0.247462, 0.24766, 0.247693, 0.243508, 0.244891, 0.244374, 0.239104, 0.243791, 0.246688, 0.248651, 0.248664, 0.258818, 0.25945, 0.261505, 0.262378, 0.263205, 0.263086, 0.306348, 0.302533, 0.319773, 0.38507, 0.331434, 0.3172, 0.317146, 0.474139, 0.474663, 0.216971, 0.211195, 0.211607, 0.212036, 0.211905, 0.215126, 0.215686, 0.215314, 0.214308, 0.478029, 0.479272, 0.271132, 0.272383, 0.272921
0.370437, 0.369575, 0.369088, 0.590489, 0.608368, 0.491122, 0.353174, 0.353189, 0.353673, 0.355093, 0.354478, 0.353066, 0.348463, 0.341556, 0.341021, 0.340438, 0.342273, 0.342325, 0.339129, 0.340793, 0.340955, 0.488378, 0.474521, 0.411088, 0.422378, 0.438109, 0.465325, 0.618736, 0.617717, 0.563306, 0.391095, 0.641369, 0.642842, 0.370767, 0.348749, 0.347782, 0.344237, 0.347223, 0.346635, 0.342769, 0.342286, 0.338255, 0.339129, 0.337945, 0.338745, 0.34106, 0.342691, 0.342177, 0.341619, 0.73659, 0.337383, 0.335715, 0.334302, 0.333197, 0.335273, 0.443261, 0.442734, 0.439659, 0.437947, 0.332558, 0.441953, 0.317804, 0.319518, 0.317934, 0.460097, 0.459785, 0.605028, 0.819262, 0.315207, 0.312603, 0.313466, 0.312329, 0.483156, 0.361437, 0.311791, 0.312395, 0.315427, 0.321286, 0.321252, 0.32358, 0.321632, 0.320106, 0.32068, 0.321924, 0.321031, 0.319446, 0.320751, 0.317363, 0.316419, 0.31534, 0.315245, 0.315858, 0.320031, 0.321453, 0.321985, 0.321359, 0.320809, 0.32361, 0.322425, 0.587136, 0.327103, 0.327685, 0.328754, 0.328361, 0.330702, 0.330506, 0.330359, 0.331559, 0.329301, 0.31778, 0.317905, 0.318626, 0.317903, 0.31733, 0.309773, 0.309859, 0.30852, 0.306105, 0.306697, 0.307161, 0.306474, 0.305923, 0.304922, 0.303536, 0.301789, 0.301167, 0.299771, 0.299005, 0.298415, 0.29898, 0.298689, 0.296761, 0.296336, 0.294833, 0.295798, 0.296738, 0.296268, 0.296748, 0.296188, 0.296496, 0.29631, 0.303784, 0.303077, 0.302794, 0.30181, 0.301641, 0.30069, 0.299941, 0.297058, 0.298103, 0.299468, 0.300144, 0.299721, 0.299441, 0.664269, 0.666263, 0.473411, 0.669762, 0.348208, 0.508917, 0.508972, 0.293064, 0.291447, 0.297598, 0.298415, 0.298571, 0.303663, 0.303575, 0.30333, 0.295014, 0.297089, 0.297527, 0.297541, 0.297339, 0.297137, 0.302595, 0.304074, 0.302718, 0.30052, 0.296401, 0.296167, 0.296605, 0.295044, 0.297967, 0.299076, 0.297859, 0.298392, 0.298377, 0.297938, 0.300898, 0.3025, 0.302766, 0.301059, 0.302216, 0.302807, 0.303016, 0.30378, 0.441597, 0.324625, 0.325064, 0.325472, 0.327387, 0.326057, 0.32419, 0.318728, 0.319415, 0.319382, 0.323675, 0.322962, 0.323659, 0.322883, 0.533156, 0.357017, 0.359644, 0.359907, 0.360758, 0.359901, 0.359215, 0.358656, 0.33332, 0.335026, 0.335318, 0.33694, 0.336752, 0.336154, 0.314502, 0.314556, 0.313543, 0.308993, 0.307635, 0.306731, 0.306625, 0.310668, 0.311777, 0.312192, 0.313123, 0.313664, 0.313752, 0.313703, 0.313571, 0.370194, 0.338585, 0.30401, 0.00442092, 0.306967, 0.68482, 0.00459608, 0.615639, 0.243878, 0.246029, 0.244594, 0.244635, 0.245291, 0.246498, 0.247175, 0.247141, 0.247536, 0.24774, 0.247751, 0.247698, 0.247242, 0.247539, 0.245309, 0.243303, 0.243775, 0.244268, 0.245747, 0.245317, 0.24583, 0.255607, 0.255606, 0.258809, 0.258757, 0.260555, 0.261389, 0.261503, 0.261291, 0.305626, 0.293128, 0.292953, 0.325085, 0.315799, 0.331507, 0.319459, 0.216235, 0.217577, 0.217523, 0.21751, 0.208968, 0.208795, 0.213456, 0.213564, 0.213514, 0.21401, 0.387983, 0.369273, 0.49018, 0.266886, 0.270323, 0.270811
0.369554, 0.36871, 0.367864, 0.365528, 0.359806, 0.486056, 0.354536, 0.354542, 0.35408, 0.355834, 0.354621, 0.353085, 0.351316, 0.341081, 0.340322, 0.340083, 0.341087, 0.340452, 0.339636, 0.340474, 0.33913, 0.335698, 0.334228, 0.396632, 0.397545, 0.730742, 0.684709, 0.00493796, 0.617438, 0.784141, 0.769278, 0.642936, 0.640733, 0.37017, 0.346101, 0.347005, 0.348954, 0.347405, 0.346917, 0.342928, 0.343714, 0.341476, 0.34081, 0.338363, 0.339819, 0.338917, 0.341445, 0.337722, 0.341202, 0.33687, 0.335769, 0.334542, 0.334942, 0.337643, 0.335899, 0.335364, 0.441459, 0.438386, 0.417288, 0.437738, 0.454324, 0.435703, 0.441565, 0.323102, 0.324164, 0.322044, 0.459763, 0.603683, 0.314969, 0.310681, 0.444039, 0.442032, 0.46287, 0.463072, 0.434451, 0.462782, 0.319769, 0.321516, 0.322716, 0.322133, 0.321438, 0.324217, 0.320732, 0.320662, 0.319804, 0.32171, 0.320395, 0.320513, 0.31666, 0.314672, 0.316569, 0.31474, 0.317842, 0.320213, 0.321893, 0.3209, 0.320472, 0.321533, 0.575822, 0.596455, 0.588768, 0.587953, 0.327454, 0.328267, 0.328003, 0.328441, 0.330644, 0.329792, 0.329184, 0.319845, 0.317318, 0.316798, 0.318081, 0.318523, 0.309017, 0.308175, 0.308222, 0.308241, 0.304804, 0.305796, 0.306678, 0.305642, 0.3038, 0.303252, 0.301467, 0.299788, 0.300422, 0.299713, 0.298306, 0.297911, 0.297919, 0.30186, 0.302442, 0.300551, 0.301864, 0.300933, 0.296886, 0.295895, 0.29592, 0.294856, 0.296827, 0.297272, 0.303631, 0.302386, 0.299603, 0.301849, 0.301357, 0.301202, 0.298587, 0.29832, 0.298801, 0.299859, 0.299674, 0.29946, 0.658886, 0.658893, 0.47137, 0.346593, 0.434746, 0.345247, 0.338659, 0.432617, 0.299095, 0.297367, 0.297566, 0.297224, 0.304118, 0.306682, 0.306535, 0.305382, 0.295617, 0.295777, 0.295921, 0.296355, 0.299414, 0.302788, 0.303958, 0.30639, 0.308319, 0.307386, 0.296894, 0.298098, 0.298548, 0.298433, 0.29802, 0.297604, 0.298227, 0.298562, 0.298307, 0.298657, 0.300053, 0.298917, 0.299545, 0.301192, 0.303043, 0.30648, 0.306658, 0.306504, 0.323978, 0.325386, 0.327378, 0.324235, 0.325288, 0.319274, 0.319644, 0.32002, 0.320579, 0.321594, 0.321689, 0.322283, 0.322403, 0.960512, 0.359614, 0.360363, 0.361313, 0.361029, 0.360849, 0.359541, 0.359253, 0.332435, 0.333022, 0.335151, 0.336627, 0.336327, 0.335267, 0.313191, 0.307697, 0.30734, 0.307256, 0.306416, 0.306391, 0.307379, 0.310106, 0.311191, 0.309841, 0.313844, 0.314608, 0.315047, 0.314895, 0.314199, 0.313513, 0.342158, 0.349642, 0.304531, 0.304128, 0.307153, 0.307587, 0.30068, 0.245906, 0.246782, 0.247137, 0.243187, 0.245056, 0.24767, 0.243069, 0.246718, 0.24753, 0.247744, 0.248032, 0.247712, 0.245838, 0.248319, 0.247429, 0.24287, 0.243536, 0.24482, 0.244705, 0.244897, 0.252648, 0.256412, 0.256292, 0.25715, 0.258203, 0.25925, 0.260064, 0.259656, 0.303983, 0.310808, 0.290832, 0.290984, 0.389447, 0.332101, 0.211638, 0.212178, 0.212481, 0.216868, 0.21678, 0.216429, 0.204885, 0.205308, 0.208419, 0.212256, 0.211845, 0.387603, 0.369077, 0.36901, 0.306949, 0.373374, 0.283275, 0.00383594
0.367669, 0.365688, 0.365951, 0.365783, 0.360949, 0.360117, 0.357304, 0.355316, 0.354519, 0.355187, 0.354417, 0.353198, 0.341242, 0.338884, 0.341166, 0.339455, 0.339058, 0.338797, 0.337533, 0.338478, 0.336045, 0.335408, 0.334174, 0.333597, 0.425821, 0.67302, 0.591617, 0.653916, 0.784055, 0.768223, 0.913821, 0.913782, 0.639121, 0.643633, 0.350402, 0.347717, 0.344599, 0.345953, 0.346072, 0.343555, 0.343653, 0.343024, 0.341913, 0.340997, 0.339813, 0.338795, 0.338753, 0.337724, 0.33837, 0.337551, 0.336134, 0.335305, 0.335174, 0.3384, 0.337582, 0.333079, 0.332282, 0.331341, 0.435029, 0.459164, 0.453848, 0.443773, 0.444251, 0.323195, 0.323586, 0.322905, 0.323647, 0.46001, 0.605173, 0.477447, 0.314627, 0.313276, 0.314157, 0.346156, 0.463466, 0.466157, 0.322192, 0.321399, 0.327014, 0.327516, 0.327525, 0.324539, 0.3215, 0.320885, 0.322394, 0.319973, 0.319187, 0.32131, 0.320157, 0.320425, 0.316481, 0.317614, 0.31696, 0.317313, 0.319627, 0.31945, 0.321257, 0.321443, 0.32232, 0.321983, 0.324352, 0.325836, 0.326893, 0.328157, 0.326299, 0.327745, 0.328091, 0.32991, 0.329485, 0.3284, 0.314586, 0.317382, 0.318646, 0.319048, 0.318003, 0.30765, 0.309215, 0.310268, 0.307252, 0.304972, 0.304645, 0.303936, 0.303879, 0.300691, 0.300814, 0.298383, 0.299599, 0.300311, 0.296324, 0.296462, 0.300276, 0.300117, 0.29997, 0.300736, 0.301551, 0.302233, 0.301086, 0.29631, 0.296156, 0.296275, 0.298793, 0.297492, 0.300825, 0.300421, 0.299842, 0.301369, 0.301579, 0.3025, 0.301314, 0.300615, 0.299865, 0.298759, 0.300807, 0.306618, 0.369613, 0.313649, 0.369347, 0.477213, 0.362666, 0.29728, 0.299257, 0.299565, 0.300291, 0.29491, 0.297385, 0.305128, 0.305682, 0.306559, 0.305415, 0.304542, 0.303327, 0.302904, 0.29533, 0.295776, 0.317083, 0.301482, 0.309209, 0.309758, 0.309758, 0.309271, 0.306126, 0.298372, 0.298855, 0.299323, 0.299342, 0.297146, 0.297181, 0.298136, 0.298409, 0.298072, 0.297583, 0.296311, 0.298105, 0.304776, 0.305532, 0.306636, 0.306983, 0.3069, 0.306602, 0.325511, 0.325193, 0.322538, 0.327267, 0.318382, 0.319832, 0.320143, 0.319922, 0.321099, 0.322707, 0.628591, 0.536278, 0.957208, 0.615193, 0.361593, 0.361658, 0.361376, 0.360941, 0.358903, 0.358798, 0.332831, 0.334095, 0.334074, 0.335456, 0.335319, 0.334541, 0.303806, 0.303777, 0.30537, 0.306878, 0.306077, 0.304044, 0.303368, 0.306582, 0.306588, 0.311057, 0.313573, 0.314581, 0.315321, 0.315274, 0.314605, 0.313515, 0.312154, 0.0038426, 0.355744, 0.340559, 0.306172, 0.00462372, 0.583972, 0.245175, 0.246624, 0.247873, 0.246693, 0.247665, 0.247681, 0.247653, 0.248365, 0.24674, 0.247758, 0.247207, 0.249473, 0.250016, 0.249087, 0.240591, 0.242302, 0.242616, 0.242614, 0.24108, 0.243485, 0.245843, 0.253702, 0.25561, 0.256723, 0.257147, 0.258112, 0.258186, 0.259114, 0.311438, 0.310001, 0.310747, 0.313589, 0.352054, 0.210725, 0.211817, 0.213166, 0.212732, 0.21208, 0.215045, 0.208789, 0.206137, 0.204316, 0.202884, 0.201056, 0.193026, 0.20875, 0.367261, 0.366377, 0.312117, 0.00470797, 0.263384, 0.263971
0.363647, 0.363178, 0.361342, 0.360739, 0.360298, 0.359684, 0.356168, 0.355489, 0.354948, 0.353949, 0.354082, 0.352934, 0.338539, 0.338826, 0.338674, 0.33986, 0.337595, 0.339271, 0.336661, 0.334812, 0.335148, 0.335296, 0.334058, 0.333083, 0.433675, 0.407452, 0.636018, 0.67446, 0.628183, 0.892058, 0.613278, 0.760036, 0.6501, 0.640758, 0.641118, 0.345047, 0.347932, 0.34507, 0.344954, 0.343733, 0.342797, 0.341217, 0.342095, 0.342095, 0.339437, 0.338855, 0.340891, 0.337961, 0.337493, 0.337954, 0.338054, 0.338342, 0.338251, 0.337163, 0.337192, 0.335312, 0.332828, 0.331966, 0.331455, 0.330416, 0.330738, 0.330477, 0.330687, 0.331635, 0.32438, 0.451787, 0.474447, 0.476216, 0.467438, 0.312076, 0.313387, 0.345479, 0.319866, 0.320426, 0.321587, 0.322376, 0.322265, 0.322993, 0.325661, 0.327193, 0.326666, 0.320997, 0.322528, 0.321568, 0.321246, 0.321529, 0.321749, 0.322044, 0.321537, 0.320401, 0.318381, 0.317387, 0.31671, 0.315969, 0.317486, 0.319959, 0.320976, 0.321777, 0.321509, 0.379063, 0.517902, 0.585442, 0.327853, 0.326574, 0.327753, 0.328494, 0.329172, 0.330074, 0.329877, 0.321971, 0.323398, 0.319171, 0.319013, 0.319127, 0.318599, 0.311011, 0.311015, 0.311284, 0.311227, 0.309915, 0.306753, 0.302934, 0.30269, 0.303183, 0.29602, 0.299562, 0.302783, 0.301771, 0.29993, 0.294793, 0.297168, 0.29752, 0.299993, 0.300499, 0.3017, 0.300275, 0.297397, 0.2973, 0.29485, 0.300006, 0.297927, 0.297029, 0.299858, 0.299578, 0.300911, 0.299754, 0.301363, 0.300578, 0.300414, 0.300181, 0.299265, 0.299454, 0.30899, 0.308958, 0.308177, 0.314926, 0.314634, 0.346521, 0.377043, 0.336413, 0.300044, 0.300913, 0.301109, 0.302838, 0.303137, 0.304399, 0.304331, 0.303895, 0.30431, 0.304689, 0.304879, 0.304783, 0.302713, 0.390951, 0.314586, 0.309723, 0.310446, 0.31096, 0.310625, 0.309997, 0.298756, 0.298981, 0.299382, 0.299803, 0.300017, 0.300325, 0.303607, 0.297358, 0.29809, 0.298786, 0.294973, 0.518369, 0.517505, 0.302819, 0.302796, 0.304843, 0.306519, 0.306321, 0.306781, 0.325948, 0.32752, 0.328873, 0.329241, 0.328894, 0.319078, 0.319459, 0.319824, 0.320519, 0.327266, 0.327482, 0.6781, 0.677174, 0.362896, 0.363371, 0.363459, 0.36226, 0.35834, 0.410536, 0.331639, 0.335551, 0.33462, 0.334303, 0.334464, 0.334461, 0.33435, 0.303439, 0.304131, 0.304698, 0.304711, 0.301089, 0.302202, 0.301985, 0.305951, 0.306397, 0.311113, 0.313367, 0.31393, 0.315214, 0.314938, 0.314, 0.313289, 0.31226, 0.34706, 0.365949, 0.320925, 0.280828, 0.52419, 0.604154, 0.595051, 0.244371, 0.245175, 0.247053, 0.246518, 0.246138, 0.250966, 0.250711, 0.249033, 0.24784, 0.247435, 0.24934, 0.249327, 0.248642, 0.247829, 0.247223, 0.240981, 0.241769, 0.243957, 0.244463, 0.244492, 0.508866, 0.254856, 0.325592, 0.255677, 0.25665, 0.257335, 0.262798, 0.261669, 0.317585, 0.317563, 0.314213, 0.316466, 0.211929, 0.211075, 0.212285, 0.213011, 0.211672, 0.21025, 0.210154, 0.201389, 0.204238, 0.203259, 0.199987, 0.194529, 0.193597, 0.193837, 0.374147, 0.411446, 0.215643, 0.328329, 0.365851
0.364705, 0.362668, 0.362038, 0.360352, 0.359747, 0.359927, 0.359411, 0.355296, 0.354867, 0.353955, 0.352742, 0.349163, 0.340933, 0.338793, 0.33696, 0.33744, 0.337988, 0.336269, 0.337435, 0.335764, 0.334913, 0.333503, 0.333395, 0.331324, 0.433181, 0.407839, 0.407478, 0.681604, 0.608511, 0.608872, 0.608645, 0.773082, 0.625388, 0.652502, 0.660564, 0.346886, 0.345999, 0.347919, 0.34904, 0.346126, 0.345531, 0.341443, 0.341742, 0.341941, 0.342492, 0.34179, 0.341788, 0.341501, 0.336822, 0.3363, 0.337142, 0.338914, 0.336587, 0.335585, 0.335046, 0.334343, 0.332376, 0.332308, 0.334698, 0.331531, 0.33137, 0.331052, 0.330962, 0.331445, 0.331408, 0.330478, 0.33051, 0.330747, 0.328489, 0.322863, 0.322587, 0.320784, 0.320116, 0.320758, 0.32116, 0.323479, 0.324302, 0.324626, 0.324855, 0.325065, 0.324456, 0.320559, 0.32188, 0.322035, 0.320816, 0.320812, 0.323475, 0.320394, 0.319853, 0.319422, 0.318605, 0.317209, 0.316847, 0.318752, 0.32009, 0.320767, 0.320676, 0.32081, 0.321511, 0.322156, 0.407331, 0.518094, 0.325062, 0.326311, 0.32775, 0.330148, 0.330639, 0.329791, 0.329403, 0.322759, 0.31882, 0.320458, 0.319925, 0.318499, 0.317973, 0.317305, 0.312266, 0.310846, 0.31014, 0.309559, 0.306394, 0.304455, 0.304211, 0.304, 0.303065, 0.302426, 0.299602, 0.301969, 0.301476, 0.297426, 0.297571, 0.297382, 0.298791, 0.298613, 0.29815, 0.297418, 0.296139, 0.29757, 0.298126, 0.298743, 0.299696, 0.300806, 0.302008, 0.299732, 0.299844, 0.301077, 0.300631, 0.30142, 0.30041, 0.299546, 0.298529, 0.307453, 0.309271, 0.309221, 0.314747, 0.315005, 0.315425, 0.314319, 0.308377, 0.345287, 0.300854, 0.301716, 0.302119, 0.301742, 0.304945, 0.477508, 0.309535, 0.309899, 0.309656, 0.305633, 0.305821, 0.305374, 0.30453, 0.30783, 0.309129, 0.309908, 0.311971, 0.312212, 0.312468, 0.307293, 0.302105, 0.30023, 0.299919, 0.299957, 0.300118, 0.302783, 0.303433, 0.295146, 0.296371, 0.297836, 0.298752, 0.912138, 0.442851, 0.305601, 0.305862, 0.303904, 0.304989, 0.306795, 0.313512, 0.313496, 0.328464, 0.329679, 0.330237, 0.329918, 0.31897, 0.31946, 0.319228, 0.318396, 0.327638, 0.327515, 0.641822, 0.593356, 0.362472, 0.362153, 0.364229, 0.36299, 0.361658, 0.586319, 0.588063, 0.333336, 0.333762, 0.334317, 0.332817, 0.333337, 0.332657, 0.303947, 0.303714, 0.305741, 0.305177, 0.301385, 0.300974, 0.301973, 0.304591, 0.303856, 0.309901, 0.31096, 0.312405, 0.312806, 0.312973, 0.312759, 0.31227, 0.362688, 0.353065, 0.594397, 0.319616, 0.281171, 0.280691, 0.610659, 0.596607, 0.593614, 0.24591, 0.24662, 0.245999, 0.249844, 0.250687, 0.248875, 0.247709, 0.247737, 0.248303, 0.248324, 0.248012, 0.247706, 0.247416, 0.247128, 0.238268, 0.244443, 0.246259, 0.246317, 0.245402, 0.245196, 0.328574, 0.301937, 0.256153, 0.258038, 0.258348, 0.261356, 0.2612, 0.31772, 0.849135, 0.6635, 0.211725, 0.212969, 0.213233, 0.21144, 0.21145, 0.210595, 0.209892, 0.209691, 0.204044, 0.196844, 0.198061, 0.192646, 0.193875, 0.193398, 0.193911, 0.175809, 0.327335, 0.404834, 0.3257, 0.405501
0.363551, 0.361344, 0.361559, 0.359634, 0.359647, 0.359802, 0.359595, 0.354401, 0.354757, 0.353777, 0.352937, 0.339307, 0.338435, 0.338111, 0.338229, 0.338626, 0.338343, 0.3377, 0.33664, 0.335352, 0.333994, 0.333934, 0.333071, 0.33235, 0.425384, 0.405218, 0.403472, 0.623235, 0.00443585, 0.60826, 0.400622, 0.406321, 0.652008, 0.638331, 0.637226, 0.639975, 0.347171, 0.346275, 0.346329, 0.346567, 0.346109, 0.343248, 0.339761, 0.343567, 0.344165, 0.343201, 0.341436, 0.340817, 0.339738, 0.340769, 0.338657, 0.340112, 0.339146, 0.338488, 0.334854, 0.334472, 0.33433, 0.333192, 0.333755, 0.333182, 0.332847, 0.331162, 0.330626, 0.333337, 0.332946, 0.331255, 0.330858, 0.329742, 0.324303, 0.32387, 0.322927, 0.320847, 0.31904, 0.319126, 0.322895, 0.323438, 0.323758, 0.324232, 0.323575, 0.323627, 0.32375, 0.324042, 0.322054, 0.323157, 0.321725, 0.322148, 0.32158, 0.319217, 0.320087, 0.319946, 0.319091, 0.319303, 0.319088, 0.318742, 0.318674, 0.320888, 0.321805, 0.321418, 0.321792, 0.32099, 0.322523, 0.324229, 0.593771, 0.326182, 0.328123, 0.328372, 0.328225, 0.326958, 0.63141, 0.319537, 0.320845, 0.32007, 0.317279, 0.318518, 0.317653, 0.316741, 0.315307, 0.310562, 0.309732, 0.308245, 0.307288, 0.305602, 0.305399, 0.304593, 0.303593, 0.303352, 0.304385, 0.299694, 0.300389, 0.297128, 0.297004, 0.29652, 0.297608, 0.297596, 0.296664, 0.29653, 0.296566, 0.296519, 0.297561, 0.298141, 0.301226, 0.301853, 0.300479, 0.300122, 0.302001, 0.29928, 0.300748, 0.300682, 0.301754, 0.303556, 0.306334, 0.3066, 0.307288, 0.313945, 0.315165, 0.315405, 0.314263, 0.313897, 0.310462, 0.309101, 0.300815, 0.301848, 0.302534, 0.302075, 0.302968, 0.305039, 0.309351, 0.309753, 0.308858, 0.306195, 0.306193, 0.305635, 0.594918, 0.309433, 0.309799, 0.310454, 0.310524, 0.310966, 0.31064, 0.31043, 0.297939, 0.300912, 0.299124, 0.298992, 0.299001, 0.303213, 0.30331, 0.303012, 0.302699, 0.301775, 0.299644, 0.795029, 0.932325, 0.307924, 0.306626, 0.310065, 0.31195, 0.31349, 0.314088, 0.314373, 0.328567, 0.329892, 0.330562, 0.330546, 0.317257, 0.318696, 0.320174, 0.320894, 0.742535, 0.404999, 0.352775, 0.624685, 0.364014, 0.363827, 0.361826, 0.36201, 0.363336, 0.358159, 0.330239, 0.32978, 0.331481, 0.331815, 0.333381, 0.333164, 0.332323, 0.301479, 0.302047, 0.302942, 0.301199, 0.636954, 0.478185, 0.418904, 0.55222, 0.424339, 0.425086, 0.307917, 0.309433, 0.309123, 0.310357, 0.593912, 0.592954, 0.593715, 0.59398, 0.594224, 0.283692, 0.28326, 0.281368, 0.00430311, 0.272535, 0.594493, 0.592317, 0.247902, 0.24898, 0.249685, 0.24847, 0.24697, 0.247945, 0.247249, 0.248497, 0.248802, 0.247016, 0.248379, 0.246909, 0.247463, 0.247297, 0.245662, 0.245633, 0.245974, 0.247152, 0.247035, 0.256249, 0.257569, 0.258104, 0.258404, 0.259605, 0.260074, 0.259596, 0.318414, 0.32163, 0.322539, 0.210791, 0.211383, 0.211086, 0.211957, 0.207773, 0.208267, 0.210476, 0.21005, 0.20272, 0.201835, 0.202553, 0.193072, 0.192494, 0.192557, 0.195821, 0.195921, 0.176015, 0.177739, 0.177841, 0.185827
0.36166, 0.360534, 0.360119, 0.36064, 0.362857, 0.361829, 0.361117, 0.358631, 0.353965, 0.352736, 0.35207, 0.350073, 0.341644, 0.339564, 0.338654, 0.33844, 0.337351, 0.337364, 0.335762, 0.337143, 0.336158, 0.333868, 0.333349, 0.331374, 0.414946, 0.408134, 0.00430318, 0.588214, 0.00419503, 0.511667, 0.405121, 0.403516, 0.611686, 0.406985, 0.663638, 0.00454077, 0.372242, 0.34747, 0.345588, 0.344557, 0.345973, 0.348649, 0.348769, 0.346043, 0.345825, 0.342923, 0.339598, 0.340163, 0.33972, 0.339426, 0.339679, 0.338587, 0.33957, 0.338771, 0.337658, 0.337308, 0.337065, 0.334338, 0.334391, 0.334067, 0.333197, 0.332004, 0.333924, 0.332466, 0.333776, 0.33317, 0.331725, 0.330263, 0.328304, 0.324201, 0.323373, 0.320887, 0.784449, 0.645781, 0.324101, 0.324783, 0.324496, 0.324415, 0.325147, 0.324172, 0.322681, 0.324708, 0.323412, 0.32108, 0.321592, 0.321756, 0.321428, 0.317185, 0.320237, 0.320221, 0.320458, 0.319022, 0.319349, 0.318333, 0.317728, 0.321345, 0.321662, 0.322066, 0.321206, 0.320294, 0.322158, 0.323903, 0.323289, 0.324109, 0.325024, 0.3251, 0.326534, 0.32567, 0.324831, 0.323701, 0.319394, 0.316987, 0.31168, 0.317583, 0.317691, 0.316553, 0.315202, 0.308808, 0.308377, 0.305706, 0.305686, 0.305224, 0.306205, 0.304764, 0.302965, 0.302201, 0.301525, 0.301701, 0.30735, 0.306783, 0.30764, 0.306824, 0.309894, 0.308313, 0.295781, 0.29491, 0.296067, 0.297139, 0.299041, 0.302849, 0.302184, 0.301776, 0.302488, 0.302964, 0.306289, 0.306376, 0.306609, 0.30422, 0.306571, 0.303889, 0.304002, 0.305239, 0.308112, 0.31259, 0.314479, 0.314618, 0.314267, 0.313483, 0.310111, 0.309803, 0.31016, 0.301376, 0.302107, 0.302063, 0.301903, 0.303503, 0.307609, 0.307751, 0.305071, 0.306298, 0.305997, 0.305367, 0.309336, 0.309931, 0.310715, 0.311216, 0.310713, 0.310199, 0.311622, 0.312119, 0.297833, 0.29953, 0.29947, 0.297153, 0.296351, 0.302343, 0.303875, 0.30297, 0.3016, 0.302759, 0.931183, 0.920026, 0.310895, 0.311506, 0.311582, 0.311513, 0.311215, 0.31308, 0.314728, 0.317615, 0.319122, 0.329885, 0.330511, 0.330756, 0.330718, 0.318104, 0.318784, 0.320852, 0.323675, 0.426451, 0.353003, 0.517291, 0.368423, 0.368275, 0.361906, 0.358884, 0.424556, 0.327145, 0.328329, 0.329827, 0.330503, 0.331796, 0.332682, 0.332597, 0.328766, 0.300808, 0.301776, 0.301257, 0.300589, 0.635829, 0.560053, 0.416456, 0.424946, 0.00427414, 0.424976, 0.307945, 0.307925, 0.309952, 0.309672, 0.590985, 0.591639, 0.593224, 0.59287, 0.284765, 0.285541, 0.281115, 0.280818, 0.593705, 0.270988, 0.271537, 1.03313, 0.245927, 0.246811, 0.248233, 0.247792, 0.245329, 0.247228, 0.247752, 0.248204, 0.245715, 0.248319, 0.248068, 0.247198, 0.246689, 0.246787, 0.246261, 0.245263, 0.245188, 0.247718, 0.246994, 0.258267, 0.25967, 0.260617, 0.260832, 0.26079, 0.260667, 0.260057, 0.258749, 0.320898, 0.322845, 0.324258, 0.209027, 0.207872, 0.206955, 0.207092, 0.205107, 0.204315, 0.206299, 0.20095, 0.201773, 0.189592, 0.190983, 0.191864, 0.192707, 0.173121, 0.175269, 0.176035, 0.175128, 0.185981, 0.18576
0.361601, 0.361024, 0.361821, 0.361265, 0.361241, 0.361143, 0.359916, 0.35832, 0.357025, 0.354635, 0.352304, 0.34275, 0.341696, 0.341541, 0.336615, 0.337439, 0.338882, 0.336752, 0.337517, 0.33621, 0.336026, 0.332545, 0.332746, 0.330974, 0.330327, 0.618059, 0.615137, 0.39292, 0.838695, 0.00474405, 0.632689, 0.610974, 0.406499, 0.406908, 0.807651, 0.753664, 0.835019, 0.369233, 0.347305, 0.348493, 0.351114, 0.34661, 0.347249, 0.345565, 0.345222, 0.344742, 0.344343, 0.338368, 0.339753, 0.340847, 0.341397, 0.339814, 0.341087, 0.339948, 0.340621, 0.338052, 0.336851, 0.336122, 0.334234, 0.333986, 0.333145, 0.332832, 0.333971, 0.33335, 0.332918, 0.332986, 0.333007, 0.331653, 0.330976, 0.322169, 0.322203, 0.325942, 0.325886, 0.325651, 0.64188, 0.324962, 0.325703, 0.324966, 0.322977, 0.322749, 0.323003, 0.322341, 0.323565, 0.322397, 0.322166, 0.323272, 0.324224, 0.323164, 0.323897, 0.321565, 0.321613, 0.321176, 0.320286, 0.317964, 0.318699, 0.320886, 0.322031, 0.322199, 0.321746, 0.321479, 0.323399, 0.323702, 0.323678, 0.323011, 0.322232, 0.327477, 0.325555, 0.324617, 0.324792, 0.32463, 0.313388, 0.31188, 0.311587, 0.3107, 0.313846, 0.315094, 0.32019, 0.318771, 0.31785, 0.317068, 0.305093, 0.306386, 0.304035, 0.301969, 0.302988, 0.303188, 0.309785, 0.309763, 0.309674, 0.306076, 0.306619, 0.306666, 0.306427, 0.307227, 0.296014, 0.296374, 0.296767, 0.402761, 0.300448, 0.301919, 0.301394, 0.301303, 0.303112, 0.300834, 0.307056, 0.307118, 0.307102, 0.306962, 0.306517, 0.303933, 0.303738, 0.304173, 0.307706, 0.309111, 0.316558, 0.314782, 0.313036, 0.312595, 0.311426, 0.310975, 0.310549, 0.300192, 0.300921, 0.300787, 0.300014, 0.299874, 0.299745, 0.299848, 0.3047, 0.30553, 0.305383, 0.307248, 0.309746, 0.309757, 0.31075, 0.311411, 0.311437, 0.312346, 0.312386, 0.313556, 0.29836, 0.299314, 0.295771, 0.295988, 0.299686, 0.301672, 0.302296, 0.303006, 0.303306, 0.300984, 0.931879, 0.930705, 0.31026, 0.312053, 0.31266, 0.31357, 0.313271, 0.313107, 0.316383, 0.318584, 0.318348, 0.325261, 0.330802, 0.331522, 0.315204, 0.320432, 0.323635, 0.323528, 0.322403, 0.366832, 0.368944, 0.369612, 0.369743, 0.369583, 0.50756, 0.45625, 0.40127, 0.324787, 0.329165, 0.330093, 0.329787, 0.3305, 0.331253, 0.330102, 0.324469, 0.324025, 0.299863, 0.420594, 0.463649, 0.641845, 0.640846, 0.640756, 0.641864, 0.422066, 0.425061, 0.436515, 0.305618, 0.308235, 0.465611, 0.591287, 0.591714, 0.590706, 0.285542, 0.285643, 0.285534, 0.285835, 0.281787, 0.590535, 0.27129, 1.03685, 0.253433, 0.255146, 0.244558, 0.247296, 0.244418, 0.243795, 0.24794, 0.247454, 0.247705, 0.248571, 0.247345, 0.247434, 0.24604, 0.247427, 0.246535, 0.244874, 0.24385, 0.246069, 0.246187, 0.249152, 0.259528, 0.261161, 0.261636, 0.26168, 0.261585, 0.261468, 0.2606, 0.317545, 0.318987, 0.321583, 0.322764, 0.215081, 0.20415, 0.205944, 0.204457, 0.205715, 0.205371, 0.206636, 0.206641, 0.206307, 0.187436, 0.155614, 0.154944, 0.157384, 0.171934, 0.172032, 0.174, 0.177817, 0.185487, 0.185762
0.361938, 0.359697, 0.359849, 0.359977, 0.360154, 0.360277, 0.359474, 0.358307, 0.357251, 0.356521, 0.356321, 0.342134, 0.341134, 0.33991, 0.341014, 0.336213, 0.337312, 0.335862, 0.335302, 0.334583, 0.336083, 0.334361, 0.331786, 0.332489, 0.331324, 0.330849, 0.413455, 0.00451493, 1.02143, 0.61842, 0.411483, 0.412229, 0.410551, 1.04097, 0.835024, 0.835414, 0.835165, 0.813632, 0.346544, 0.347793, 0.348461, 0.35055, 0.34421, 0.346524, 0.344081, 0.344666, 0.344584, 0.34266, 0.342106, 0.341786, 0.341041, 0.340623, 0.341191, 0.340478, 0.336764, 0.336724, 0.336898, 0.336302, 0.332805, 0.332201, 0.331991, 0.335199, 0.334156, 0.333646, 0.333402, 0.332643, 0.332661, 0.332048, 0.333832, 0.332192, 0.461012, 0.324716, 0.326392, 0.631664, 0.436468, 1.03979, 0.326015, 0.325996, 0.326967, 0.325949, 0.324894, 0.324178, 0.326399, 0.326502, 0.324941, 0.325168, 0.323755, 0.323502, 0.323214, 0.321008, 0.321496, 0.319467, 0.319975, 0.321963, 0.320596, 0.31673, 0.320946, 0.321719, 0.321769, 0.320953, 0.323364, 0.323639, 0.322957, 0.323594, 0.324152, 0.324613, 0.324222, 0.324568, 0.323797, 0.322675, 0.315883, 0.313335, 0.311236, 0.310176, 0.311089, 0.319917, 0.317856, 0.317791, 0.317411, 0.314812, 0.313723, 0.313158, 0.306403, 0.304308, 0.301348, 0.312401, 0.31134, 0.311563, 0.310614, 0.304935, 0.304973, 0.30581, 0.305985, 0.304504, 0.310581, 0.317413, 0.407986, 0.406382, 0.314106, 0.30125, 0.301201, 0.304784, 0.304287, 0.304497, 0.304447, 0.306813, 0.306317, 0.306408, 0.30454, 0.302665, 0.303428, 0.306451, 0.310365, 0.311048, 0.312561, 0.31107, 0.312156, 0.310266, 0.309862, 0.310163, 0.310149, 0.309616, 0.298395, 0.298779, 0.299532, 0.299578, 0.299614, 0.299668, 0.303048, 0.304315, 0.304931, 0.308309, 0.309464, 0.309436, 0.309879, 0.311076, 0.310772, 0.311184, 0.310524, 0.309319, 0.307519, 0.307344, 0.293266, 0.294465, 0.301764, 0.300713, 0.303408, 0.304659, 0.304616, 0.306597, 0.307404, 0.309719, 0.310862, 0.312506, 0.313815, 0.313764, 0.313907, 0.312786, 0.312465, 0.315793, 0.323488, 0.323696, 0.322905, 0.33148, 0.330797, 0.320864, 0.321328, 0.321905, 0.544189, 0.542957, 0.370637, 0.371025, 0.371143, 0.37058, 0.454194, 0.454402, 0.433448, 0.327634, 0.329182, 0.331323, 0.329807, 0.328736, 0.328072, 0.327234, 0.324581, 0.324269, 0.325187, 0.00433744, 0.466756, 0.476217, 0.643837, 0.253483, 0.447837, 0.511379, 0.51098, 0.598509, 0.52193, 0.52836, 0.525292, 0.525307, 0.282883, 0.284788, 0.285806, 0.285817, 0.286196, 0.285545, 0.284668, 0.590201, 0.591036, 0.254464, 0.254439, 0.255282, 0.256083, 0.243149, 0.245248, 0.244451, 0.244254, 0.247099, 0.248286, 0.248682, 0.248427, 0.247257, 0.247652, 0.247376, 0.247043, 0.247756, 0.241494, 0.248357, 0.247883, 0.250577, 0.260549, 0.261692, 0.262435, 0.262595, 0.262192, 0.261551, 0.260925, 0.324926, 0.323483, 0.325494, 0.665039, 0.216512, 0.215199, 0.201753, 0.215428, 0.215387, 0.203776, 0.206344, 0.206223, 0.205237, 0.152812, 0.157269, 0.156278, 0.157632, 0.171691, 0.170712, 0.175665, 0.16956, 0.184012, 0.184719
0.361287, 0.361038, 0.359372, 0.359213, 0.365174, 0.363879, 0.362245, 0.357673, 0.355484, 0.355468, 0.356496, 0.341578, 0.34229, 0.339931, 0.339341, 0.33551, 0.335351, 0.335068, 0.335613, 0.335764, 0.336284, 0.332718, 0.332491, 0.33238, 0.331731, 0.330719, 0.420619, 0.419567, 0.728672, 0.633534, 0.583705, 0.409903, 0.00466901, 1.18124, 1.18089, 1.04332, 0.835193, 0.816688, 0.812341, 0.351414, 0.351165, 0.351332, 0.3501, 0.35037, 0.348381, 0.345499, 0.345088, 0.342911, 0.342192, 0.340863, 0.341248, 0.340666, 0.340014, 0.340526, 0.338869, 0.33632, 0.337179, 0.337727, 0.335561, 0.335321, 0.334957, 0.333004, 0.334039, 0.334083, 0.33236, 0.333101, 0.332314, 0.332048, 0.332296, 0.331911, 0.462559, 0.330748, 0.325118, 0.634665, 0.341523, 0.348574, 0.325446, 0.3271, 0.32728, 0.328238, 0.328378, 0.328965, 0.329446, 0.327909, 0.327013, 0.324584, 0.324326, 0.324153, 0.323692, 0.323825, 0.322517, 0.321573, 0.321809, 0.321832, 0.320924, 0.319184, 0.319244, 0.32052, 0.320739, 0.321144, 0.32191, 0.322648, 0.32392, 0.325149, 0.324174, 0.326618, 0.323783, 0.323563, 0.324229, 0.318852, 0.319567, 0.320583, 0.311898, 0.309273, 0.32314, 0.323207, 0.322509, 0.319867, 0.318468, 0.314948, 0.314079, 0.31351, 0.312487, 0.312997, 0.312259, 0.313861, 0.311569, 0.308631, 0.310529, 0.312523, 0.315522, 0.315914, 0.303993, 0.31216, 0.316044, 0.317077, 0.317386, 0.403809, 0.328846, 0.588833, 0.303765, 0.304461, 0.304106, 0.304052, 0.305898, 0.308425, 0.309015, 0.307129, 0.308211, 0.306112, 0.305971, 0.305456, 0.31088, 0.31034, 0.311658, 0.312861, 0.310063, 0.309624, 0.309107, 0.309428, 0.308945, 0.308514, 0.298044, 0.298094, 0.298037, 0.298524, 0.299031, 0.301667, 0.302643, 0.301101, 0.304108, 0.305705, 0.305744, 0.306612, 0.308416, 0.308535, 0.30918, 0.308915, 0.310148, 0.309713, 0.309303, 0.307401, 0.306183, 0.306975, 0.306794, 0.304624, 0.303604, 0.305285, 0.306456, 0.308386, 0.674575, 0.721768, 0.310657, 0.311483, 0.314167, 0.313582, 0.312645, 0.312741, 0.312446, 0.321856, 0.321763, 0.322817, 0.327394, 0.324344, 0.363527, 0.322128, 0.328571, 0.32776, 0.541689, 0.369769, 0.371451, 0.371959, 0.37193, 0.371242, 0.369921, 0.396816, 0.475488, 0.330242, 0.329017, 0.329651, 0.329498, 0.329399, 0.586664, 0.326688, 0.32458, 0.32365, 0.324131, 0.4247, 0.379816, 0.908348, 0.643428, 0.441297, 0.254394, 0.25431, 0.254959, 0.511226, 0.520869, 0.521344, 0.556011, 0.628708, 0.282826, 0.285352, 0.285776, 0.284986, 0.285377, 0.285561, 0.588492, 0.587797, 0.589573, 0.253871, 0.254619, 0.25485, 0.254666, 0.238224, 0.238952, 0.246138, 0.247435, 0.247155, 0.247557, 0.247225, 0.247213, 0.246787, 0.24644, 0.247734, 0.248084, 0.239517, 0.248851, 0.248797, 0.248182, 0.24866, 0.261032, 0.262181, 0.262744, 0.26304, 0.262401, 0.261624, 0.260746, 0.327329, 0.330836, 0.434152, 0.426566, 0.214419, 0.21475, 0.215527, 0.216481, 0.215968, 0.204353, 0.204962, 0.204899, 0.206223, 0.151446, 0.151577, 0.152135, 0.155087, 0.172548, 0.169954, 0.168906, 0.168282, 0.373088, 0.184558
0.360633, 0.359979, 0.363946, 0.364583, 0.363745, 0.362488, 0.362062, 0.3549, 0.35528, 0.346231, 0.344922, 0.344281, 0.341109, 0.340839, 0.339723, 0.338345, 0.336451, 0.334869, 0.335755, 0.337375, 0.333623, 0.333818, 0.332383, 0.3311, 0.330478, 0.329816, 0.328577, 0.712143, 0.386067, 0.705333, 0.579677, 0.535827, 0.417049, 1.18099, 1.04331, 1.04651, 1.1774, 0.00471627, 0.702665, 0.349593, 0.348393, 0.348772, 0.348892, 0.350797, 0.351781, 0.345915, 0.344687, 0.343406, 0.343478, 0.343924, 0.339982, 0.338537, 0.340082, 0.339118, 0.33862, 0.340987, 0.338685, 0.337817, 0.336123, 0.334495, 0.337211, 0.335361, 0.332694, 0.333432, 0.332409, 0.331783, 0.332188, 0.331291, 0.331667, 0.334808, 0.334298, 0.333892, 0.6111, 0.468927, 0.336976, 0.335229, 0.497059, 0.899468, 0.326247, 0.32862, 0.329374, 0.329288, 0.330733, 0.329158, 0.324645, 0.32452, 0.323869, 0.324248, 0.323958, 0.323569, 0.323381, 0.321806, 0.321189, 0.322116, 0.321006, 0.320268, 0.317683, 0.319039, 0.321098, 0.321396, 0.321586, 0.321913, 0.322891, 0.32421, 0.32405, 0.323736, 0.323928, 0.324471, 0.321105, 0.320617, 0.320798, 0.320352, 0.320456, 0.325338, 0.326633, 0.323649, 0.321759, 0.319788, 0.319722, 0.314434, 0.313422, 0.313701, 0.314496, 0.627491, 0.624737, 0.312194, 0.310325, 0.30978, 0.310212, 0.311827, 0.316354, 0.316282, 0.316809, 0.317344, 0.317482, 0.31696, 0.317741, 0.330643, 0.356765, 0.321879, 0.30093, 0.303385, 0.303219, 0.303536, 0.3066, 0.309576, 0.309726, 0.309474, 0.309003, 0.307813, 0.30646, 0.305207, 0.30532, 0.308077, 0.310332, 0.310641, 0.309901, 0.308567, 0.309018, 0.308605, 0.308229, 0.307117, 0.299061, 0.298842, 0.299273, 0.298451, 0.299413, 0.30068, 0.299945, 0.299837, 0.306248, 0.306498, 0.305919, 0.30496, 0.304838, 0.307491, 0.30661, 0.310886, 0.308942, 0.307206, 0.308059, 0.307134, 0.307056, 0.308158, 0.307226, 0.30615, 0.307941, 0.305624, 0.306114, 0.30739, 0.308525, 0.311769, 0.313034, 0.312678, 0.31345, 0.313336, 0.313103, 0.313217, 0.313258, 0.321155, 0.324365, 0.325223, 0.325309, 0.325354, 0.324482, 0.399139, 0.326641, 0.664107, 0.473112, 0.474558, 0.371929, 0.372019, 0.372038, 0.371273, 0.417707, 0.424513, 0.487205, 0.328051, 0.327538, 0.32785, 0.327139, 0.327078, 0.326389, 0.325792, 0.323999, 0.323149, 0.34968, 0.304242, 0.377668, 0.472949, 0.252484, 0.255147, 0.254574, 0.254153, 0.252859, 0.442007, 0.44136, 0.523024, 0.524986, 0.469483, 0.282507, 0.284147, 0.285873, 0.286819, 0.285927, 0.285592, 0.284595, 0.589636, 0.252965, 0.253394, 0.253796, 0.253582, 0.252792, 0.242522, 0.245083, 0.245966, 0.247693, 0.245586, 0.244909, 0.245501, 0.245569, 0.246639, 0.2473, 0.247734, 0.247996, 0.247778, 0.248643, 0.249461, 0.258924, 0.259595, 0.261088, 0.262044, 0.262756, 0.262894, 0.262132, 0.261558, 0.325669, 0.32337, 0.244852, 0.435427, 0.214824, 0.217088, 0.217193, 0.216311, 0.216762, 0.215793, 0.215657, 0.215421, 0.221404, 0.253584, 0.148229, 0.149645, 0.149191, 0.147736, 0.168504, 0.164177, 0.163704, 0.365356, 0.396577, 0.51107
0.369782, 0.368939, 0.367686, 0.365755, 0.365341, 0.361235, 0.360939, 0.35945, 0.351675, 0.346206, 0.34538, 0.344409, 0.343819, 0.341035, 0.341637, 0.339724, 0.335921, 0.334814, 0.33473, 0.335276, 0.33428, 0.33251, 0.330613, 0.330543, 0.329439, 0.334323, 0.333253, 0.710266, 0.710553, 0.808772, 0.436231, 0.418636, 0.416673, 0.415878, 0.728463, 0.422715, 0.422955, 0.89996, 0.697971, 0.697606, 0.346274, 0.348082, 0.349596, 0.348701, 0.347159, 0.346617, 0.346283, 0.345424, 0.344894, 0.344327, 0.343911, 0.341016, 0.340831, 0.341416, 0.339436, 0.338579, 0.335214, 0.335873, 0.335872, 0.338788, 0.338052, 0.337966, 0.341381, 0.333494, 0.343224, 0.342596, 0.34136, 0.340357, 0.337869, 0.335652, 0.334766, 0.334311, 0.339344, 0.338404, 0.337914, 0.337309, 0.337241, 0.331504, 0.331358, 0.32902, 0.329816, 0.329799, 0.329218, 0.329291, 0.326107, 0.324035, 0.324167, 0.324635, 0.324795, 0.323548, 0.322891, 0.321723, 0.323697, 0.321577, 0.32079, 0.32079, 0.320859, 0.32292, 0.3237, 0.322944, 0.324737, 0.325808, 0.326008, 0.324694, 0.32473, 0.324093, 0.322265, 0.321423, 0.319804, 0.319516, 0.320638, 0.320919, 0.323134, 0.326261, 0.326304, 0.325727, 0.319374, 0.320912, 0.320276, 0.318688, 0.318529, 0.316272, 0.317942, 0.626294, 0.315792, 0.31448, 0.308996, 0.312737, 0.313297, 0.314609, 0.316679, 0.316055, 0.316476, 0.315652, 0.313306, 0.315323, 0.328297, 0.319904, 0.319394, 0.322915, 0.322847, 0.322291, 0.306507, 0.308108, 0.309093, 0.310073, 0.309751, 0.309792, 0.309841, 0.306669, 0.30523, 0.30633, 0.305724, 0.309611, 0.310767, 0.308224, 0.308187, 0.308771, 0.306881, 0.307755, 0.307069, 0.304892, 0.298983, 0.298455, 0.298838, 0.298641, 0.298591, 0.299262, 0.298585, 0.305287, 0.306702, 0.306515, 0.304232, 0.303531, 0.303571, 0.31326, 0.312027, 0.309863, 0.309818, 0.309995, 0.309713, 0.307256, 0.308183, 0.307637, 0.3098, 0.308264, 0.308973, 0.30753, 0.308064, 0.308636, 0.308686, 0.313511, 0.312265, 0.313167, 0.312567, 0.312066, 0.312416, 0.312066, 0.311965, 0.321537, 0.32322, 0.324786, 0.324333, 0.325235, 0.326063, 0.324945, 0.525766, 0.434188, 0.473499, 0.475011, 0.475804, 0.371967, 0.372001, 0.371014, 0.417348, 0.400241, 0.550172, 0.549676, 0.327068, 0.50556, 0.324456, 0.324234, 0.324788, 0.324865, 0.392328, 0.771855, 0.783904, 0.41376, 0.460687, 0.416615, 0.252169, 0.25241, 0.253683, 0.251884, 0.251967, 0.251709, 0.251736, 0.256557, 0.52217, 0.641647, 0.281522, 0.282953, 0.284283, 0.284368, 0.284763, 0.284409, 0.57788, 0.256999, 0.258663, 0.257776, 0.252161, 0.252974, 0.252887, 0.239354, 0.24413, 0.247491, 0.244879, 0.245912, 0.245694, 0.245297, 0.246585, 0.246164, 0.251386, 0.249824, 0.249733, 0.248212, 0.248224, 0.257289, 0.259097, 0.261115, 0.261743, 0.26123, 0.26225, 0.261763, 0.261431, 0.260334, 0.324428, 0.317505, 0.32203, 0.435357, 0.335416, 0.216019, 0.21629, 0.215893, 0.216714, 0.215976, 0.215731, 0.215605, 0.23464, 0.145685, 0.146903, 0.138173, 0.13853, 0.13835, 0.159877, 0.162007, 0.160632, 0.164965, 0.175415, 0.182385
0.368308, 0.367903, 0.36728, 0.366191, 0.365315, 0.363473, 0.36202, 0.361663, 0.347829, 0.34507, 0.34495, 0.343787, 0.342989, 0.341197, 0.341507, 0.339881, 0.340397, 0.337173, 0.334277, 0.3344, 0.335064, 0.333963, 0.329121, 0.328055, 0.327605, 0.335553, 0.333788, 0.333242, 0.332551, 0.705132, 0.424524, 0.00434429, 0.505745, 0.728588, 0.739094, 0.423634, 0.421549, 0.421135, 0.918549, 0.812346, 0.897482, 0.347108, 0.347216, 0.346813, 0.347828, 0.347599, 0.347482, 0.345769, 0.345778, 0.3462, 0.34617, 0.342464, 0.342253, 0.342053, 0.340127, 0.34131, 0.337309, 0.338935, 0.338834, 0.338156, 0.342473, 0.341799, 0.341658, 0.343257, 0.343425, 0.342742, 0.341339, 0.339116, 0.332613, 0.337462, 0.335096, 0.337604, 0.337548, 0.338413, 0.338454, 0.337733, 0.3381, 0.332533, 0.332519, 0.331367, 0.329605, 0.329887, 0.329556, 0.32935, 0.327705, 0.324219, 0.323651, 0.324739, 0.323934, 0.323197, 0.323906, 0.323187, 0.323808, 0.323218, 0.320913, 0.321797, 0.321793, 0.321662, 0.32377, 0.323647, 0.323973, 0.326839, 0.326874, 0.327101, 0.322862, 0.321821, 0.320756, 0.320491, 0.318258, 0.320659, 0.319526, 0.319686, 0.325628, 0.327049, 0.327679, 0.327398, 0.321445, 0.32027, 0.320707, 0.320565, 0.320019, 0.319767, 0.31914, 0.318489, 0.64518, 0.312529, 0.312189, 0.313168, 0.313962, 0.314164, 0.31496, 0.315085, 0.313413, 0.31125, 0.310548, 0.310742, 0.321707, 0.31961, 0.319402, 0.321934, 0.32297, 0.322438, 0.307262, 0.307876, 0.308765, 0.309817, 0.309015, 0.308312, 0.311643, 0.310527, 0.304517, 0.307039, 0.30808, 0.309116, 0.308351, 0.315317, 0.316317, 0.315839, 0.30682, 0.305581, 0.306364, 0.305407, 0.296981, 0.297625, 0.299498, 0.299591, 0.299005, 0.297858, 0.299564, 0.303073, 0.304948, 0.304507, 0.31056, 0.310702, 0.311386, 0.311118, 0.310062, 0.310705, 0.310426, 0.309076, 0.31008, 0.310029, 0.308569, 0.30552, 0.308107, 0.310099, 0.308758, 0.309725, 0.309779, 0.309682, 0.309683, 0.313657, 0.313588, 0.31195, 0.311246, 0.31204, 0.312864, 0.310708, 0.310679, 0.317215, 0.321703, 0.323451, 0.324493, 0.326031, 0.32608, 0.325543, 0.663325, 0.369303, 0.37038, 0.474092, 0.372055, 0.372018, 0.371276, 0.370321, 0.413679, 0.569517, 0.504814, 0.328399, 0.326872, 0.321876, 0.321874, 0.323721, 0.323978, 0.323101, 0.745806, 0.334733, 0.746029, 0.00412402, 0.317538, 0.417044, 0.250074, 0.251809, 0.251443, 0.251803, 0.251009, 0.251488, 0.251285, 0.25624, 0.255679, 0.653962, 0.279579, 0.280641, 0.282357, 0.282831, 0.283338, 0.543167, 0.542035, 0.574063, 0.258226, 0.257848, 0.258115, 0.256753, 0.253599, 0.253098, 0.246033, 0.248326, 0.245069, 0.247432, 0.247628, 0.248195, 0.249982, 0.250892, 0.250566, 0.250219, 0.248976, 0.249751, 0.248895, 0.258115, 0.259884, 0.260287, 0.261382, 0.261566, 0.261074, 0.26025, 0.259276, 0.312146, 0.313569, 0.320637, 0.32015, 0.31815, 0.214451, 0.214498, 0.214258, 0.216114, 0.216776, 0.218219, 0.217558, 0.217322, 0.205214, 0.136354, 0.137661, 0.138487, 0.138632, 0.138217, 0.160353, 0.161506, 0.159556, 0.159233, 0.182061, 0.181442
0.367151, 0.366747, 0.361753, 0.364489, 0.365262, 0.360139, 0.357337, 0.351573, 0.344966, 0.348062, 0.344726, 0.348665, 0.348367, 0.342255, 0.341609, 0.340714, 0.340161, 0.338642, 0.336901, 0.336239, 0.334522, 0.332348, 0.329912, 0.329297, 0.336321, 0.33659, 0.334428, 0.333539, 0.332372, 0.381542, 0.698787, 0.551925, 0.552711, 0.722872, 0.424985, 0.423744, 0.424976, 0.42526, 0.913626, 0.885949, 0.797798, 0.798411, 0.804522, 0.346635, 0.346938, 0.344856, 0.345651, 0.346314, 0.347121, 0.346299, 0.344886, 0.339426, 0.342425, 0.341157, 0.341725, 0.342158, 0.34881, 0.336054, 0.33645, 0.336525, 0.344301, 0.343292, 0.34218, 0.342689, 0.341249, 0.340529, 0.341352, 0.333833, 0.333289, 0.332685, 0.33826, 0.337992, 0.340472, 0.341383, 0.338867, 0.337475, 0.336563, 0.332638, 0.332083, 0.33097, 0.33067, 0.329783, 0.329322, 0.328266, 0.327012, 0.326442, 0.32413, 0.322598, 0.324237, 0.323964, 0.322357, 0.322112, 0.322577, 0.322989, 0.322025, 0.322434, 0.321751, 0.323454, 0.323718, 0.323417, 0.322986, 0.327233, 0.326864, 0.324907, 0.323818, 0.323419, 0.321631, 0.319878, 0.320763, 0.318526, 0.318639, 0.319214, 0.325528, 0.326288, 0.326731, 0.327061, 0.327141, 0.320926, 0.320401, 0.320435, 0.320244, 0.320094, 0.320153, 0.319712, 0.318675, 0.318511, 0.628033, 0.313361, 0.313231, 0.314231, 0.313473, 0.313082, 0.311996, 0.31179, 0.3113, 0.310248, 0.31993, 0.320257, 0.319997, 0.3188, 0.321157, 0.321008, 0.320563, 0.307037, 0.30816, 0.30944, 0.309497, 0.312243, 0.312402, 0.310885, 0.310161, 0.307413, 0.307556, 0.308154, 0.308308, 0.313618, 0.313852, 0.314923, 0.314437, 0.305569, 0.327944, 0.32815, 0.839746, 0.298268, 0.298835, 0.298593, 0.297738, 0.298698, 0.301567, 0.30266, 0.302731, 0.304312, 0.304048, 0.310332, 0.311073, 0.311125, 0.3114, 0.31378, 0.309446, 0.310185, 0.309844, 0.310023, 0.311484, 0.311488, 0.310987, 0.30894, 0.307641, 0.310026, 0.31032, 0.308176, 0.311013, 0.312852, 0.313962, 0.313338, 0.31322, 0.31307, 0.311894, 0.311916, 0.316545, 0.316701, 0.316664, 0.321975, 0.325952, 0.325728, 0.326454, 0.327317, 0.502426, 0.369086, 0.370156, 0.371227, 0.371923, 0.371063, 0.370506, 0.542731, 0.594289, 0.58976, 0.521304, 0.326779, 0.315293, 0.319447, 0.319614, 0.321232, 0.322051, 0.321731, 0.32055, 0.745437, 0.314507, 0.306182, 0.00433218, 0.251453, 0.250695, 0.250023, 0.251516, 0.250559, 0.250094, 0.251701, 0.252921, 0.254877, 0.8811, 0.881348, 0.521309, 0.279208, 0.280617, 0.28144, 0.543259, 0.541849, 0.541568, 0.576123, 0.256917, 0.257313, 0.257199, 0.25633, 0.256485, 0.253543, 0.258956, 0.247645, 0.247747, 0.248803, 0.247745, 0.250752, 0.250349, 0.25114, 0.251164, 0.250208, 0.248117, 0.248572, 0.249184, 0.258451, 0.259124, 0.260536, 0.26033, 0.260853, 0.259993, 0.259669, 0.255674, 0.307318, 0.379576, 0.379866, 0.316564, 0.323918, 0.327235, 0.208293, 0.421387, 0.216814, 0.217532, 0.221239, 0.220959, 0.205941, 0.205931, 0.135254, 0.136791, 0.137622, 0.137249, 0.137247, 0.159721, 0.160941, 0.161092, 0.17517, 0.175369, 0.177185
0.358197, 0.358066, 0.359283, 0.358226, 0.358317, 0.359295, 0.35872, 0.357748, 0.344479, 0.344743, 0.351563, 0.351412, 0.348387, 0.347811, 0.338633, 0.339308, 0.338661, 0.337742, 0.336738, 0.33549, 0.33412, 0.333053, 0.330987, 0.331201, 0.335671, 0.334939, 0.333711, 0.333322, 0.332134, 0.382938, 0.421113, 0.550506, 0.54961, 0.787494, 0.426267, 0.427222, 0.42751, 0.427048, 0.863534, 0.852923, 0.857295, 0.803327, 0.806361, 0.355559, 0.34684, 0.350835, 0.351383, 0.347907, 0.34796, 0.347094, 0.346234, 0.345506, 0.346186, 0.346083, 0.345437, 0.343058, 0.349267, 0.349879, 0.34998, 0.346842, 0.342557, 0.342198, 0.341199, 0.338719, 0.338154, 0.339082, 0.332406, 0.331905, 0.331372, 0.331041, 0.337147, 0.33662, 0.340964, 0.33963, 0.337926, 0.337606, 0.333287, 0.330907, 0.330492, 0.33076, 0.330319, 0.329324, 0.329129, 0.32809, 0.327921, 0.324846, 0.324278, 0.323818, 0.3234, 0.323579, 0.322862, 0.322781, 0.323317, 0.322934, 0.322541, 0.321913, 0.322908, 0.322963, 0.322222, 0.322925, 0.321548, 0.324966, 0.324857, 0.324722, 0.323928, 0.322516, 0.321122, 0.319312, 0.318282, 0.316094, 0.31749, 0.318294, 0.323628, 0.32691, 0.327921, 0.327371, 0.328214, 0.327109, 0.318563, 0.320826, 0.320905, 0.320175, 0.320036, 0.319273, 0.484228, 0.318631, 0.317758, 0.31181, 0.313284, 0.312904, 0.312902, 0.313228, 0.310419, 0.310551, 0.309988, 0.310005, 0.318936, 0.318843, 0.32002, 0.320426, 0.319663, 0.320097, 0.319653, 0.319342, 0.317812, 0.308476, 0.314162, 0.313552, 0.312932, 0.311939, 0.306222, 0.305877, 0.308783, 0.308346, 0.309627, 0.310258, 0.310883, 0.314246, 0.312371, 0.312835, 0.329041, 0.6874, 0.838482, 0.369393, 0.300377, 0.296252, 0.297355, 0.299244, 0.301157, 0.303121, 0.30269, 0.303755, 0.310163, 0.308591, 0.308774, 0.312892, 0.312469, 0.313201, 0.309485, 0.308396, 0.309843, 0.311759, 0.311364, 0.312788, 0.307622, 0.312174, 0.308894, 0.309056, 0.316516, 0.310149, 0.309193, 0.311842, 0.312335, 0.313078, 0.312704, 0.312517, 0.311195, 0.310868, 0.311627, 0.31647, 0.316593, 0.316131, 0.322592, 0.330226, 0.329287, 0.526265, 0.524816, 0.369029, 0.36976, 0.371021, 0.370652, 0.370083, 0.530605, 0.580622, 0.438912, 0.476715, 0.314967, 0.314778, 0.316557, 0.315565, 0.31975, 0.319408, 0.321333, 0.320683, 0.320225, 0.00434225, 0.74285, 0.754332, 0.689296, 0.649374, 0.249994, 0.248189, 0.248852, 0.251163, 0.251158, 0.252136, 0.25193, 0.254626, 0.254982, 0.51894, 0.870223, 0.870093, 0.867341, 0.589506, 0.541148, 0.541732, 0.540816, 0.540131, 0.255091, 0.258001, 0.257071, 0.25747, 0.255829, 0.256199, 0.260175, 0.260319, 0.246032, 0.247322, 0.246403, 0.250329, 0.250969, 0.249893, 0.250865, 0.251074, 0.251347, 0.248574, 0.247848, 0.256729, 0.256929, 0.258086, 0.258761, 0.25825, 0.259505, 0.25779, 0.254739, 0.255071, 0.311366, 0.319431, 0.319283, 0.598236, 0.324333, 0.213059, 0.2149, 0.215691, 0.217839, 0.217843, 0.217985, 0.208613, 0.204625, 0.136724, 0.137687, 0.13898, 0.140516, 0.140746, 0.157512, 0.158106, 0.159487, 0.163018, 0.172899, 0.173957
0.359919, 0.359399, 0.357839, 0.357658, 0.358562, 0.357179, 0.356646, 0.359221, 0.3504, 0.352181, 0.351527, 0.351343, 0.349676, 0.346809, 0.345775, 0.339577, 0.339226, 0.337937, 0.337522, 0.33655, 0.334879, 0.332704, 0.33123, 0.334479, 0.33287, 0.332171, 0.332585, 0.332505, 0.702314, 0.403347, 0.404452, 0.577142, 0.548691, 0.547243, 0.427111, 0.427623, 0.428205, 0.428079, 0.427375, 0.00444, 0.793873, 0.803964, 0.00445209, 0.449722, 0.396114, 0.351723, 0.348992, 0.348499, 0.348241, 0.347542, 0.346636, 0.348758, 0.346822, 0.345052, 0.345667, 0.343385, 0.348327, 0.350999, 0.349251, 0.34716, 0.344922, 0.344984, 0.341607, 0.338035, 0.337544, 0.337483, 0.33662, 0.33295, 0.331866, 0.331249, 0.338538, 0.337664, 0.337748, 0.338308, 0.337475, 0.33615, 0.331661, 0.332227, 0.329207, 0.329422, 0.328291, 0.32817, 0.327278, 0.327261, 0.325897, 0.323129, 0.322849, 0.322187, 0.322911, 0.323538, 0.323343, 0.322907, 0.323544, 0.323379, 0.322768, 0.323613, 0.323121, 0.321128, 0.321329, 0.321778, 0.323625, 0.323504, 0.324901, 0.32457, 0.320771, 0.320451, 0.320749, 0.318676, 0.313541, 0.314532, 0.729503, 0.318227, 0.324191, 0.326128, 0.327648, 0.327253, 0.327062, 0.327107, 0.324418, 0.322711, 0.319639, 0.320145, 0.319733, 0.320381, 0.323538, 0.322711, 0.325087, 0.325161, 0.311988, 0.311623, 0.311591, 0.312683, 0.309768, 0.310402, 0.311707, 0.313298, 0.320844, 0.320316, 0.320457, 0.320412, 0.320009, 0.319069, 0.320395, 0.319382, 0.31808, 0.316016, 0.315691, 0.315159, 0.314969, 0.313761, 0.304713, 0.307036, 0.306571, 0.307623, 0.309084, 0.309891, 0.310632, 0.312476, 0.313505, 0.31262, 0.311822, 0.68818, 0.687728, 0.826506, 0.507621, 0.379396, 0.301112, 0.297763, 0.301518, 0.303937, 0.304802, 0.305545, 0.307204, 0.312945, 0.313213, 0.312216, 0.31292, 0.312218, 0.312101, 0.312595, 0.311944, 0.310165, 0.313155, 0.312672, 0.312306, 0.312734, 0.316907, 0.317234, 0.317049, 0.316719, 0.316226, 0.314513, 0.314059, 0.311293, 0.312652, 0.313295, 0.313834, 0.311828, 0.311325, 0.31575, 0.315357, 0.315203, 0.330754, 0.3311, 0.330825, 0.526674, 0.39789, 0.369005, 0.369597, 0.369891, 0.369697, 0.370124, 0.372067, 0.489324, 0.462824, 0.478051, 0.315403, 0.313754, 0.314138, 0.532584, 0.318583, 0.320085, 0.321964, 0.324431, 0.323347, 0.745792, 0.74701, 0.727536, 0.657564, 0.690083, 0.247723, 0.251325, 0.249448, 0.249742, 0.251044, 0.249967, 0.250627, 0.251035, 0.251692, 0.992471, 0.871246, 0.518482, 0.595448, 0.590126, 0.58013, 0.541515, 0.579512, 0.541118, 0.258633, 0.259513, 0.258694, 0.257927, 0.262058, 0.261774, 0.263017, 0.261559, 0.261443, 0.261448, 0.256351, 0.247895, 0.248245, 0.25004, 0.250295, 0.250086, 0.246724, 0.248567, 0.248969, 0.255121, 0.256047, 0.257027, 0.259121, 0.259457, 0.259971, 0.258289, 0.255237, 0.254683, 0.254181, 0.308197, 0.324124, 0.320469, 0.317899, 0.223121, 0.22408, 0.220213, 0.221391, 0.221447, 0.205619, 0.205642, 0.204828, 0.138351, 0.135747, 0.136049, 0.139677, 0.1389, 0.15288, 0.152643, 0.152682, 0.166448, 0.171037, 0.174974
0.358203, 0.358166, 0.356829, 0.358548, 0.358248, 0.356194, 0.359495, 0.357933, 0.355586, 0.351993, 0.35058, 0.350085, 0.349018, 0.346902, 0.340204, 0.339393, 0.339012, 0.33609, 0.335599, 0.333145, 0.334094, 0.334218, 0.333028, 0.332039, 0.330991, 0.330828, 0.329169, 0.328821, 0.327833, 0.326185, 0.398131, 0.580435, 0.543865, 0.59778, 0.427705, 0.42829, 0.429552, 0.429807, 0.429006, 0.428625, 0.423639, 0.868716, 0.960612, 0.441862, 0.348906, 0.349165, 0.351481, 0.351092, 0.348572, 0.348009, 0.347311, 0.345928, 0.349009, 0.347891, 0.345237, 0.344869, 0.344603, 0.348114, 0.347974, 0.3475, 0.34576, 0.345386, 0.341455, 0.339654, 0.339457, 0.336155, 0.335541, 0.334532, 0.33243, 0.338969, 0.337334, 0.337077, 0.338483, 0.337707, 0.33324, 0.334611, 0.334105, 0.334135, 0.331466, 0.329601, 0.328776, 0.327591, 0.327387, 0.326981, 0.324481, 0.323215, 0.321601, 0.321122, 0.321099, 0.322164, 0.322065, 0.322845, 0.323197, 0.322238, 0.322808, 0.323035, 0.323751, 0.323846, 0.323418, 0.321823, 0.321966, 0.323871, 0.323743, 0.322727, 0.321388, 0.316019, 0.314418, 0.312882, 0.312005, 0.31655, 0.31589, 0.31677, 0.607391, 0.607864, 0.324904, 0.325421, 0.325907, 0.326958, 0.326326, 0.322228, 0.32041, 0.320633, 0.324099, 0.323563, 0.324592, 0.324361, 0.325233, 0.325923, 0.326573, 0.326939, 0.321733, 0.322008, 0.311445, 0.310611, 0.316366, 0.315093, 0.321669, 0.321877, 0.319935, 0.320123, 0.32015, 0.31954, 0.319183, 0.317382, 0.316749, 0.316995, 0.316515, 0.316189, 0.316001, 0.316352, 0.3159, 0.310479, 0.320279, 0.307761, 0.309282, 0.310182, 0.310851, 0.311154, 0.313354, 0.313404, 0.312188, 0.710206, 0.836735, 0.71396, 0.716075, 0.693817, 0.300247, 0.302716, 0.303389, 0.304934, 0.305323, 0.306383, 0.30595, 0.310687, 0.31334, 0.312918, 0.3123, 0.31317, 0.313417, 0.313044, 0.313119, 0.313051, 0.314374, 0.314559, 0.315952, 0.314711, 0.317022, 0.317136, 0.317047, 0.316809, 0.316539, 0.315874, 0.316069, 0.314644, 0.313538, 0.313461, 0.313144, 0.311911, 0.31161, 0.31356, 0.325672, 0.326184, 0.331503, 0.331545, 0.525811, 0.525331, 0.367615, 0.368529, 0.369244, 0.368758, 0.368695, 0.558747, 0.688296, 0.470987, 0.316812, 0.316947, 0.311343, 0.31194, 0.312609, 0.311425, 0.324607, 0.325484, 0.325911, 0.32508, 0.323691, 0.736186, 0.746596, 0.737815, 0.2659, 0.78002, 0.248075, 0.249317, 0.250522, 0.249657, 0.249803, 0.250253, 0.250599, 0.251186, 0.25119, 0.251104, 0.994935, 0.256446, 0.863389, 0.538684, 0.542511, 0.57924, 0.580011, 0.579266, 0.256305, 0.258233, 0.259271, 0.261381, 0.26044, 0.259206, 0.263238, 0.262357, 0.262134, 0.261365, 0.255514, 0.25304, 0.254157, 0.255669, 0.246221, 0.247674, 0.248319, 0.249037, 0.250089, 0.254135, 0.255768, 0.257619, 0.258856, 0.260051, 0.260781, 0.258658, 0.254519, 0.254564, 0.254655, 0.324975, 0.315357, 0.221908, 0.223346, 0.224749, 0.225022, 0.223979, 0.221892, 0.22093, 0.220172, 0.206449, 0.235634, 0.135817, 0.136885, 0.137036, 0.137708, 0.137488, 0.151334, 0.151161, 0.151603, 0.151794, 0.167401, 0.168916
0.357061, 0.355891, 0.354995, 0.354033, 0.356847, 0.358171, 0.357226, 0.356868, 0.356605, 0.348567, 0.349184, 0.348495, 0.347334, 0.345305, 0.340362, 0.338965, 0.33831, 0.338478, 0.334575, 0.332781, 0.332337, 0.332552, 0.331725, 0.33226, 0.331481, 0.328969, 0.328333, 0.327598, 0.326625, 0.325893, 0.34555, 0.718215, 0.00415571, 0.597627, 0.00385563, 0.428287, 0.429838, 0.430689, 0.430523, 0.429766, 0.428431, 0.868499, 0.868217, 0.597382, 0.401279, 0.350035, 0.349805, 0.349445, 0.349112, 0.348862, 0.349635, 0.349863, 0.34744, 0.347773, 0.344071, 0.343037, 0.342223, 0.3467, 0.345908, 0.344762, 0.345537, 0.345214, 0.342597, 0.340235, 0.339507, 0.3385, 0.337355, 0.338896, 0.338605, 0.339233, 0.339307, 0.337319, 0.337588, 0.337428, 0.337179, 0.333933, 0.33375, 0.333064, 0.333174, 0.329104, 0.327199, 0.32812, 0.327596, 0.324876, 0.323873, 0.321981, 0.321395, 0.321024, 0.320779, 0.321828, 0.321911, 0.323079, 0.323966, 0.322189, 0.320849, 0.320425, 0.321305, 0.322025, 0.322177, 0.324534, 0.323059, 0.322412, 0.322239, 0.322025, 0.859684, 0.316189, 0.314207, 0.313569, 0.313615, 0.313885, 0.315398, 0.314571, 0.724431, 0.317687, 0.718882, 0.324431, 0.324375, 0.325122, 0.327579, 0.328297, 0.326308, 0.321752, 0.323814, 0.323597, 0.323664, 0.324544, 0.325996, 0.326814, 0.325858, 0.322589, 0.322053, 0.32118, 0.320341, 0.314951, 0.316559, 0.315526, 0.321575, 0.322872, 0.321605, 0.320302, 0.31903, 0.319215, 0.316331, 0.31811, 0.317872, 0.316764, 0.316754, 0.316846, 0.316991, 0.31694, 0.316677, 0.320403, 0.320405, 0.319799, 0.309433, 0.308581, 0.309375, 0.312955, 0.313355, 0.312866, 0.311467, 0.777182, 0.743243, 0.804154, 0.786652, 0.694822, 0.31531, 0.315812, 0.315199, 0.304014, 0.304314, 0.303583, 0.309965, 0.309893, 0.312027, 0.311512, 0.311577, 0.31373, 0.311826, 0.311724, 0.312053, 0.313531, 0.313434, 0.315049, 0.315821, 0.314787, 0.316785, 0.316764, 0.316083, 0.315599, 0.316002, 0.315319, 0.316645, 0.316498, 0.311925, 0.313878, 0.313961, 0.311414, 0.310848, 0.324514, 0.324863, 0.325091, 0.330373, 0.330744, 0.377621, 0.371834, 0.371608, 0.368795, 0.368238, 0.370485, 0.36946, 0.369213, 0.556227, 0.316174, 0.31681, 0.31696, 0.311537, 0.310598, 0.310278, 0.310061, 0.327668, 0.3264, 0.328173, 0.323568, 0.322125, 0.744837, 1.51207, 1.51326, 0.00439951, 0.262222, 1.22593, 0.250829, 0.250981, 0.250161, 0.250042, 0.249288, 0.250331, 0.25121, 0.250606, 0.249407, 0.24993, 0.249674, 0.249918, 0.512313, 0.273035, 0.441831, 0.441473, 0.583004, 0.260554, 0.261923, 0.261655, 0.261959, 0.26226, 0.263512, 0.263399, 0.263426, 0.262431, 0.260363, 0.255338, 0.258038, 0.255668, 0.254044, 0.253059, 0.248494, 0.248272, 0.248761, 0.249896, 0.254592, 0.254322, 0.256485, 0.259093, 0.260021, 0.259997, 0.258312, 0.253809, 0.253105, 0.252167, 0.251469, 0.225176, 0.2245, 0.224691, 0.224904, 0.225467, 0.223229, 0.221594, 0.220166, 0.219987, 0.337622, 0.207174, 0.133989, 0.135118, 0.136362, 0.136839, 0.148217, 0.148312, 0.150757, 0.15029, 0.167414, 0.169203, 0.17236
0.35467, 0.354984, 0.354817, 0.352398, 0.359278, 0.35563, 0.356007, 0.355717, 0.35819, 0.356869, 0.34796, 0.347602, 0.346581, 0.345672, 0.339355, 0.339685, 0.339678, 0.338747, 0.335918, 0.334012, 0.333746, 0.332699, 0.332155, 0.332556, 0.331403, 0.327802, 0.326203, 0.327165, 0.327404, 0.32723, 0.461718, 0.427548, 0.577119, 0.570889, 0.593492, 0.580431, 0.4302, 0.43076, 0.431166, 0.430775, 0.430035, 0.429024, 0.91217, 0.905027, 0.515041, 0.346688, 0.350429, 0.348565, 0.349284, 0.348472, 0.347908, 0.347955, 0.347724, 0.347544, 0.347054, 0.348492, 0.345449, 0.345671, 0.344587, 0.344548, 0.34503, 0.343859, 0.341357, 0.341133, 0.339184, 0.338034, 0.338343, 0.340783, 0.341019, 0.339255, 0.339094, 0.337469, 0.337886, 0.336496, 0.337084, 0.336202, 0.336219, 0.334851, 0.333099, 0.331309, 0.330804, 0.327713, 0.328779, 0.327584, 0.327127, 0.319386, 0.320614, 0.321248, 0.321349, 0.320133, 0.320255, 0.320345, 0.322029, 0.321553, 0.319057, 0.318238, 0.322571, 0.321455, 0.325225, 0.323899, 0.323944, 0.324582, 0.326432, 0.325837, 0.324427, 0.646444, 0.315452, 0.315283, 0.314388, 0.314969, 0.315332, 0.314753, 0.317363, 0.614739, 0.31794, 0.346096, 0.324376, 0.327258, 0.327888, 0.328224, 0.32845, 0.326598, 0.324684, 0.3249, 0.324657, 0.324451, 0.325623, 0.325175, 0.325056, 0.328862, 0.321309, 0.322381, 0.323095, 0.316571, 0.314376, 0.318588, 0.318346, 0.322811, 0.321772, 0.321048, 0.320137, 0.319999, 0.319153, 0.318866, 0.319289, 0.317189, 0.316759, 0.316681, 0.31717, 0.31716, 0.317891, 0.319372, 0.319875, 0.319474, 0.317939, 0.30996, 0.310739, 0.314293, 0.311425, 0.310687, 0.701287, 0.662997, 0.661553, 0.708715, 0.694422, 0.69392, 0.316119, 0.316633, 0.316662, 0.302387, 0.302529, 0.301901, 0.302188, 0.309503, 0.311113, 0.310605, 0.311468, 0.313057, 0.313646, 0.314296, 0.313715, 0.314284, 0.313262, 0.31336, 0.313126, 0.312219, 0.31467, 0.314286, 0.315097, 0.314122, 0.313759, 0.315352, 0.31602, 0.315576, 0.31663, 0.316389, 0.31, 0.310336, 0.311066, 0.324869, 0.325269, 0.325544, 0.325084, 0.352605, 0.372631, 0.373227, 0.372738, 0.373516, 0.371611, 0.36855, 0.369367, 0.514249, 0.31424, 0.316023, 0.316465, 0.316538, 0.315779, 0.310175, 0.309629, 0.44231, 0.329322, 0.329779, 0.329807, 0.328993, 0.330694, 0.681288, 0.688388, 0.00466995, 0.262007, 0.261523, 0.259946, 0.250062, 0.249915, 0.249859, 0.249039, 0.249685, 0.2486, 0.248488, 0.249376, 0.249624, 0.250885, 0.251068, 0.251018, 0.441642, 0.269611, 0.271971, 0.270644, 0.271795, 0.259792, 0.262004, 0.261852, 0.261886, 0.262254, 0.262715, 0.262889, 0.262977, 0.2629, 0.260466, 0.258241, 0.255858, 0.254052, 0.252848, 0.25053, 0.246542, 0.248423, 0.248397, 0.25131, 0.254474, 0.254498, 0.254564, 0.256419, 0.258997, 0.259651, 0.259692, 0.252861, 0.253187, 0.252258, 0.320775, 0.226832, 0.226881, 0.225785, 0.226704, 0.22433, 0.221399, 0.223394, 0.220702, 0.253232, 0.254226, 0.132658, 0.134213, 0.135126, 0.135221, 0.136035, 0.151363, 0.151677, 0.151128, 0.151041, 0.168509, 0.168571, 0.169222
0.359116, 0.359114, 0.358313, 0.353483, 0.361583, 0.361905, 0.360932, 0.359139, 0.358184, 0.35808, 0.347353, 0.346662, 0.346234, 0.345251, 0.335467, 0.341094, 0.338741, 0.337375, 0.334698, 0.334047, 0.333332, 0.333879, 0.332949, 0.334166, 0.332904, 0.328266, 0.327447, 0.327967, 0.327128, 0.326206, 0.326293, 0.424093, 0.00435096, 0.572994, 0.545048, 0.563002, 0.564011, 0.430911, 0.431555, 0.431383, 0.430726, 0.429543, 0.905489, 0.00446457, 0.00491985, 0.34817, 0.347158, 0.346595, 0.352352, 0.348493, 0.347774, 0.349534, 0.348772, 0.348932, 0.349546, 0.348464, 0.347077, 0.34446, 0.342901, 0.343665, 0.3443, 0.34542, 0.341185, 0.340303, 0.339951, 0.341055, 0.344068, 0.344268, 0.33841, 0.339411, 0.339158, 0.338342, 0.337185, 0.335984, 0.336419, 0.337687, 0.335273, 0.334283, 0.333989, 0.333131, 0.332445, 0.330884, 0.327273, 0.328191, 0.32746, 0.320726, 0.320974, 0.320047, 0.320048, 0.319819, 0.319426, 0.320558, 0.32217, 0.321495, 0.321165, 0.322579, 0.326508, 0.324001, 0.325311, 0.325342, 0.32377, 0.32456, 0.32679, 0.325563, 0.860789, 0.866663, 0.315999, 0.316781, 0.315013, 0.315971, 0.316453, 0.315642, 0.31474, 0.61433, 0.613638, 0.459807, 0.710655, 0.325994, 0.326289, 0.328234, 0.326865, 0.321634, 0.326877, 0.326012, 0.325636, 0.325014, 0.330993, 0.330523, 0.330751, 0.330617, 0.323668, 0.324232, 0.321809, 0.321002, 0.319318, 0.318085, 0.320679, 0.323991, 0.320949, 0.320096, 0.319536, 0.320759, 0.319883, 0.318692, 0.318322, 0.317521, 0.318568, 0.316916, 0.316552, 0.317404, 0.319108, 0.319661, 0.319731, 0.319834, 0.318037, 0.313568, 0.314986, 0.314355, 0.31497, 0.313631, 0.72993, 0.662994, 0.6641, 0.315555, 0.838293, 0.316957, 0.317383, 0.318044, 0.316825, 0.30119, 0.3023, 0.301377, 0.301256, 0.308722, 0.309006, 0.311826, 0.312147, 0.313359, 0.314172, 0.316317, 0.314537, 0.317057, 0.316103, 0.32057, 0.320868, 0.320299, 0.31368, 0.31379, 0.303819, 0.304662, 0.303563, 0.302124, 0.580318, 0.579924, 0.317052, 0.317965, 0.318002, 0.322198, 0.715497, 0.32414, 0.324454, 0.324532, 0.324773, 0.462679, 0.369686, 0.371884, 0.372183, 0.372329, 0.369929, 0.368847, 0.368705, 0.39329, 0.313149, 0.313697, 0.314344, 0.315004, 0.314881, 0.308222, 0.307767, 0.444691, 0.328531, 0.32842, 0.328166, 0.328073, 0.666611, 0.00428803, 1.51185, 0.742994, 0.745311, 0.26135, 0.250486, 0.25057, 0.250273, 0.249327, 0.249422, 0.247627, 0.247645, 0.24752, 0.247633, 0.249583, 0.251077, 0.251152, 0.251011, 0.250441, 0.269421, 0.270533, 0.2719, 0.271979, 0.27198, 0.262058, 0.262192, 0.261671, 0.262188, 0.261409, 0.262239, 0.261629, 0.261101, 0.255928, 0.25536, 0.255408, 0.254398, 0.251303, 0.249516, 0.247655, 0.247925, 0.246548, 0.244705, 0.253152, 0.252952, 0.254586, 0.255499, 0.259214, 0.259795, 0.258977, 0.257966, 0.389516, 0.387886, 0.225761, 0.226993, 0.227439, 0.227541, 0.226246, 0.235144, 0.236073, 0.23662, 0.236398, 0.234585, 0.273151, 0.369421, 0.133973, 0.134904, 0.13572, 0.136675, 0.147112, 0.149723, 0.15042, 0.150141, 0.165307, 0.168636, 0.170427
0.358808, 0.359448, 0.358661, 0.361427, 0.362488, 0.361505, 0.360631, 0.35828, 0.358592, 0.357015, 0.352942, 0.34735, 1.02256, 0.341466, 0.342513, 0.340957, 0.339992, 0.335158, 0.334536, 0.334621, 0.334144, 0.333244, 0.334064, 0.332615, 0.331171, 0.326339, 0.32708, 0.326853, 0.326804, 0.327425, 0.327022, 0.32833, 0.572658, 0.576486, 0.559628, 0.558963, 0.429975, 0.431006, 0.431676, 0.431429, 0.43058, 0.430839, 0.429864, 0.901004, 0.0044621, 0.00440062, 0.346766, 0.345746, 0.345625, 0.345638, 0.355715, 0.354978, 0.349703, 0.350633, 0.349717, 0.34788, 0.346736, 0.344502, 0.34242, 0.341446, 0.343772, 0.343095, 0.341137, 0.340923, 0.340898, 0.339506, 0.344462, 0.344158, 0.344085, 0.337761, 0.338607, 0.337794, 0.344195, 0.342152, 0.340787, 0.340826, 0.341541, 0.335542, 0.332824, 0.33306, 0.33222, 0.331897, 0.327123, 0.330215, 0.328776, 0.327761, 0.318401, 0.319229, 0.318889, 0.31972, 0.320935, 0.320335, 0.321166, 0.318579, 0.326978, 0.32709, 0.326985, 0.327227, 0.326779, 0.32561, 0.325143, 0.326225, 0.325136, 0.326607, 0.324999, 0.396482, 0.860632, 0.31638, 0.317214, 0.316837, 0.316592, 0.316772, 0.316464, 0.712659, 0.385604, 0.403728, 0.710144, 0.595477, 0.466176, 0.615372, 0.330142, 0.329042, 0.326954, 0.327138, 0.326065, 0.325163, 0.332621, 0.331712, 0.3312, 0.331288, 0.33105, 0.323677, 0.322307, 0.322296, 0.323211, 0.323605, 0.323754, 0.324248, 0.323749, 0.323228, 0.322456, 0.320731, 0.596898, 0.319325, 0.318224, 0.317983, 0.587512, 0.320358, 0.316846, 0.316483, 0.317919, 0.319004, 0.319441, 0.319392, 0.31871, 0.313942, 0.314484, 0.315338, 0.31552, 0.317603, 0.320111, 0.320705, 0.318558, 0.319259, 0.320258, 0.318959, 0.31743, 0.318374, 0.316543, 0.315847, 0.31335, 0.315031, 0.322111, 0.313176, 0.311643, 0.31153, 0.311844, 0.31255, 0.314276, 0.314789, 0.314727, 0.315557, 0.321081, 0.322165, 0.322195, 0.321377, 0.320177, 0.302107, 0.302563, 0.302717, 0.302532, 0.3027, 0.301292, 0.581536, 0.315742, 0.323179, 0.323792, 0.324173, 0.325107, 0.324292, 0.32315, 0.332065, 0.659705, 0.417995, 0.439682, 0.373675, 0.373151, 0.373592, 0.372405, 0.370216, 0.701209, 0.313366, 0.313137, 0.313478, 0.314371, 0.314437, 0.315014, 0.307943, 0.307194, 0.307311, 0.325197, 0.326563, 0.32817, 0.32668, 0.321325, 0.68288, 0.557788, 0.259783, 0.259599, 0.260199, 0.2595, 0.248281, 0.24899, 0.24874, 0.248371, 0.246901, 0.247485, 0.245751, 0.245979, 0.248601, 0.250523, 0.251813, 0.251535, 0.267561, 0.269869, 0.271658, 0.273299, 0.273078, 0.272039, 0.262197, 0.262966, 0.261205, 0.261058, 0.260434, 0.261355, 0.261738, 0.261474, 0.261433, 0.258008, 0.25254, 0.249476, 0.250126, 0.247666, 0.248472, 0.247927, 0.244689, 0.252591, 0.254459, 0.253274, 0.254704, 0.258267, 0.258185, 0.25829, 0.258619, 0.4034, 0.390403, 0.391537, 0.221942, 0.221986, 0.224442, 0.225276, 0.234636, 0.237504, 0.237596, 0.235926, 0.237524, 0.237691, 0.255195, 0.367428, 0.134117, 0.134347, 0.137945, 0.135948, 0.1355, 0.145706, 0.148758, 0.149031, 0.148197, 0.167717, 0.169053
0.359702, 0.362112, 0.36151, 0.363041, 0.361582, 0.359565, 0.360546, 0.359241, 0.356124, 0.353853, 0.604043, 0.444039, 1.0225, 0.340995, 0.341544, 0.340894, 0.34054, 0.335858, 0.335476, 0.334129, 0.333581, 0.333823, 0.333636, 0.333105, 0.324086, 0.326126, 0.328452, 0.328845, 0.327972, 0.328579, 0.32782, 0.328148, 0.326865, 0.572643, 0.455974, 0.573545, 0.558395, 0.430461, 0.430344, 0.431207, 0.432279, 0.433066, 0.431641, 0.847602, 0.894301, 0.0047857, 0.514075, 0.377424, 0.356415, 0.356015, 0.356469, 0.35545, 0.34829, 0.346821, 0.347492, 0.347906, 0.345393, 0.346175, 0.345899, 0.345157, 0.346923, 0.348193, 0.339891, 0.342136, 0.344083, 0.342371, 0.343747, 0.34341, 0.343147, 0.348682, 0.347038, 0.345896, 0.344858, 0.342034, 0.341499, 0.340137, 0.340309, 0.33873, 0.333702, 0.332081, 0.332514, 0.332145, 0.328009, 0.329532, 0.32885, 0.329204, 0.328372, 0.427658, 0.319951, 0.318412, 0.323654, 0.323449, 0.323946, 0.325583, 0.326576, 0.327111, 0.326142, 0.325683, 0.326223, 0.324088, 0.326406, 0.327389, 0.330151, 0.329673, 0.326097, 0.328619, 0.39393, 0.656968, 0.368689, 0.31674, 0.930099, 0.929218, 0.928371, 0.449927, 0.607466, 0.37371, 0.36216, 0.595374, 0.602658, 0.60308, 0.329613, 0.331737, 0.330441, 0.325082, 0.325055, 0.333885, 0.33408, 0.333489, 0.332888, 0.332808, 0.333174, 0.332558, 0.321453, 0.321085, 0.323455, 0.324149, 0.322726, 0.324018, 0.323543, 0.322934, 0.322349, 0.324174, 0.718901, 0.323759, 0.321194, 0.320637, 0.590014, 0.320761, 0.597082, 0.53293, 0.317841, 0.318007, 0.318941, 0.318686, 0.311102, 0.311926, 0.314247, 0.315252, 0.317635, 0.319735, 0.320217, 0.31971, 0.319356, 0.320351, 0.321743, 0.321482, 0.318513, 0.317283, 0.320678, 0.323123, 0.321349, 0.311334, 0.317652, 0.311796, 0.310565, 0.312522, 0.312235, 0.317626, 0.314501, 0.317575, 0.316464, 0.320325, 0.321266, 0.3223, 0.322495, 0.321708, 0.320633, 0.307485, 0.303336, 0.303465, 0.30257, 0.302074, 0.301018, 0.321653, 0.322101, 0.323421, 0.325407, 0.325436, 0.326842, 0.32534, 0.330549, 0.655114, 0.654668, 0.379365, 0.372644, 0.37316, 0.373802, 0.37346, 0.372431, 0.372348, 0.645813, 0.49808, 0.313552, 0.313541, 0.313332, 0.313233, 0.313552, 0.306682, 0.520682, 0.487895, 0.52275, 0.436064, 0.373266, 0.384039, 0.00466458, 0.804941, 0.261944, 0.262525, 0.262107, 0.261526, 0.261003, 0.258107, 0.246638, 0.247098, 0.246943, 0.247115, 0.246652, 0.245129, 0.246055, 0.24631, 0.249396, 0.250006, 0.249285, 0.248324, 0.270041, 0.271682, 0.272161, 0.27202, 0.27194, 0.261443, 0.260141, 0.259039, 0.260406, 0.261417, 0.260428, 0.260753, 0.261049, 0.260781, 0.25214, 0.251604, 0.249244, 0.249265, 0.24743, 0.247355, 0.246063, 0.245483, 0.245035, 0.244983, 0.258441, 0.257126, 0.258012, 0.25723, 0.256974, 0.722286, 0.723619, 0.480011, 0.219827, 0.222164, 0.222355, 0.223687, 0.391124, 0.23414, 0.235558, 0.237349, 0.23817, 0.238664, 0.238514, 0.23759, 0.365759, 0.131969, 0.13561, 0.135772, 0.137686, 0.141918, 0.147612, 0.14763, 0.149111, 0.148943, 0.166454, 0.165696
0.361742, 0.361915, 0.362989, 0.363019, 0.363329, 0.361763, 0.359604, 0.358793, 0.355929, 0.355226, 0.92564, 0.345668, 0.343976, 0.339005, 0.340015, 0.339711, 0.339986, 0.337154, 0.333853, 0.334357, 0.333296, 0.334425, 0.333406, 0.332898, 0.32384, 0.323614, 0.326668, 0.327149, 0.328198, 0.329117, 0.328866, 0.327837, 0.327278, 0.388762, 0.380189, 0.565216, 0.559496, 0.597565, 0.432781, 0.433206, 0.433388, 0.434182, 0.433173, 1.13055, 0.894642, 0.00427168, 0.00367221, 0.389582, 0.353975, 0.354587, 0.354293, 0.354625, 0.34768, 0.347026, 0.346808, 0.346993, 0.347949, 0.34679, 0.346678, 0.346407, 0.346195, 0.346265, 0.347628, 0.340795, 0.342543, 0.342126, 0.342569, 0.344244, 0.344681, 0.347669, 0.350894, 0.344541, 0.34436, 0.340436, 0.341188, 0.340048, 0.34013, 0.339865, 0.337934, 0.33485, 0.332386, 0.331558, 0.329118, 0.328578, 0.32926, 0.328459, 0.329535, 0.328843, 0.431069, 0.32427, 0.558176, 0.324453, 0.324767, 0.324766, 0.325083, 0.325339, 0.325851, 0.325201, 0.322264, 0.326417, 0.325826, 0.328096, 0.329136, 0.327745, 0.32746, 0.327012, 0.397153, 0.373692, 0.372427, 0.929462, 0.930404, 1.1329, 1.13294, 0.931937, 0.658967, 0.320883, 0.593778, 0.326872, 0.345546, 0.335289, 0.334841, 0.332062, 0.324857, 0.326691, 0.333901, 0.334676, 0.334313, 0.335204, 0.333943, 0.333685, 0.333768, 0.333366, 0.330316, 0.328657, 0.324563, 0.324973, 0.325004, 0.324229, 0.32487, 0.324458, 0.594371, 0.643504, 0.650084, 0.324784, 0.323397, 0.323116, 0.589864, 0.323635, 0.598597, 0.363902, 0.328533, 0.609312, 0.621002, 0.323988, 0.322193, 0.321193, 0.321095, 0.320494, 0.318439, 0.320533, 0.321069, 0.320759, 0.32008, 0.320571, 0.322091, 0.321965, 0.321155, 0.320586, 0.319558, 0.321288, 0.321792, 0.321554, 0.327084, 0.317639, 0.313723, 0.316788, 0.318281, 0.318524, 0.317391, 0.318194, 0.318405, 0.319079, 0.321225, 0.32235, 0.322279, 0.321295, 0.320569, 0.310971, 0.310292, 0.304059, 0.304579, 0.304091, 0.30316, 0.320644, 0.322621, 0.3222, 0.327208, 0.327021, 0.3257, 0.331487, 0.331315, 0.653714, 0.659694, 0.65334, 0.369544, 0.374281, 0.373108, 0.372738, 0.372267, 0.436086, 0.639462, 0.639323, 0.311226, 0.314313, 0.313653, 0.313063, 0.303354, 0.303569, 0.30483, 0.580408, 0.428282, 0.373966, 0.392517, 0.520632, 0.541507, 0.318319, 0.263165, 0.261907, 0.262785, 0.264653, 0.264708, 0.265253, 0.247889, 0.248181, 0.248028, 0.247309, 0.245161, 0.245634, 0.245001, 0.244729, 0.246245, 0.24804, 0.248707, 0.248729, 0.26928, 0.270526, 0.270822, 0.271076, 0.257813, 0.257537, 0.258095, 0.258971, 0.259477, 0.259873, 0.259511, 0.261614, 0.262542, 0.262866, 0.250742, 0.252323, 0.251997, 0.244868, 0.247315, 0.245007, 0.247984, 0.245638, 0.244373, 0.25468, 0.25483, 0.25623, 0.257922, 0.257689, 0.2568, 0.722921, 0.722799, 0.221096, 0.22262, 0.223537, 0.222961, 0.223522, 0.223512, 0.389725, 0.235892, 0.237546, 0.238232, 0.239364, 0.239029, 0.238287, 0.130804, 0.132964, 0.134726, 0.135319, 0.134711, 0.135913, 0.142228, 0.147681, 0.149261, 0.163311, 0.163902, 0.172424
0.362567, 0.362264, 0.361933, 0.360617, 0.363174, 0.361395, 0.359467, 0.35878, 0.36923, 0.763066, 1.10758, 0.387274, 1.03375, 0.339426, 0.338281, 0.338368, 0.337376, 0.336253, 0.335963, 0.336047, 0.335014, 0.337943, 0.335909, 0.324645, 0.325854, 0.326354, 0.326413, 0.326109, 0.330123, 0.328928, 0.329458, 0.328679, 0.327301, 0.326923, 0.383419, 0.562777, 0.598428, 0.509699, 0.00448829, 0.433266, 0.434198, 0.434686, 0.434538, 0.434143, 0.89533, 0.89201, 0.846179, 0.418955, 0.0048356, 0.355791, 0.355947, 0.354979, 0.348269, 0.348031, 0.348139, 0.348207, 0.346791, 0.345955, 0.346006, 0.346794, 0.347461, 0.347079, 0.347832, 0.347348, 0.346618, 0.345446, 0.34504, 0.344618, 0.356143, 0.350118, 0.351381, 0.351833, 0.338545, 0.339569, 0.339944, 0.344702, 0.339912, 0.340404, 0.340363, 0.332219, 0.332798, 0.332573, 0.332854, 0.330875, 0.329862, 0.32848, 0.330505, 0.330326, 0.329809, 0.67043, 0.68345, 0.327196, 0.327332, 0.324323, 0.716122, 0.43481, 1.00852, 1.00932, 0.330828, 0.328407, 0.329371, 0.330187, 0.329452, 0.329343, 0.328647, 0.327511, 0.556426, 0.555456, 0.369722, 1.38666, 1.13356, 0.397485, 0.90642, 0.713614, 0.414064, 0.608178, 0.478263, 0.325556, 0.403453, 0.336258, 0.336761, 0.336915, 0.335794, 0.333743, 0.334611, 0.334852, 0.335361, 0.334884, 0.334417, 0.334199, 0.33404, 0.333588, 0.329138, 0.328293, 0.325874, 0.325707, 0.325577, 0.324658, 0.324041, 0.326479, 1.68694, 0.325581, 0.324892, 0.325281, 0.598793, 0.59098, 0.929181, 0.929785, 0.930059, 0.325444, 0.327787, 0.327813, 0.344213, 0.324196, 0.327579, 0.322216, 0.321874, 0.321134, 0.32049, 0.320851, 0.320363, 0.31824, 0.318482, 0.323756, 0.321354, 0.321558, 0.320762, 0.318772, 0.318123, 0.321188, 0.321254, 0.327322, 0.329413, 0.327991, 0.316812, 0.318169, 0.317169, 0.317964, 0.316524, 0.317864, 0.318851, 0.318889, 0.322142, 0.322636, 0.322405, 0.321521, 0.320391, 0.313199, 0.310584, 0.30964, 0.30547, 0.304786, 0.304475, 0.320005, 0.320506, 0.32669, 0.325306, 0.327325, 0.33029, 0.331575, 0.331448, 0.330624, 0.401141, 0.456853, 0.376526, 0.376333, 0.377332, 0.376709, 0.376426, 0.428314, 0.476359, 0.309172, 0.310576, 0.311804, 0.311765, 0.308843, 0.307583, 0.299162, 0.297694, 0.487783, 0.430695, 0.377495, 0.484003, 0.545737, 0.311478, 0.615632, 0.263321, 0.262859, 0.264053, 0.263658, 0.266263, 0.264915, 0.248019, 0.247678, 0.24824, 0.247591, 0.244943, 0.24443, 0.244148, 0.24278, 0.24566, 0.245694, 0.24832, 0.522054, 0.431931, 0.518938, 0.269107, 0.265901, 0.258632, 0.25836, 0.259364, 0.260655, 0.260583, 0.260518, 0.262049, 0.261701, 0.264666, 0.264285, 0.249275, 0.24941, 0.250011, 0.249497, 0.245543, 0.245951, 0.24509, 0.245958, 0.245192, 0.245458, 0.257257, 0.257964, 0.257468, 0.257978, 0.257988, 0.669974, 0.7222, 0.221354, 0.223114, 0.223264, 0.22404, 0.224116, 0.22432, 0.2286, 0.312983, 0.236035, 0.238826, 0.239572, 0.24038, 0.24194, 0.00403804, 0.13068, 0.13213, 0.134075, 0.13393, 0.135875, 0.139114, 0.13887, 0.148678, 0.150665, 0.170534, 0.171744
0.360898, 0.361598, 0.362089, 0.361958, 0.361643, 0.362224, 0.359889, 0.368545, 0.460837, 0.00445215, 0.621246, 1.03816, 0.965241, 0.337919, 0.337828, 0.338032, 0.337472, 0.337575, 0.336502, 0.337835, 0.338075, 0.338242, 0.337037, 0.335253, 0.327794, 0.327381, 0.32721, 0.327545, 0.328124, 0.327355, 0.327431, 0.327278, 0.327743, 0.37957, 0.562775, 0.00417052, 0.55947, 0.00443676, 0.991732, 0.562281, 0.434865, 0.435128, 0.434506, 0.435318, 0.882671, 0.891618, 0.856488, 0.885021, 0.00416254, 0.355801, 0.354494, 0.353875, 0.351372, 0.3493, 0.349027, 0.346492, 0.345307, 0.347096, 0.347311, 0.347157, 0.347597, 0.347512, 0.347756, 0.347045, 0.346035, 0.346026, 0.345893, 0.347635, 0.352153, 0.352795, 0.353412, 0.353102, 0.351913, 0.343312, 0.343945, 0.342999, 0.342218, 0.340274, 0.34137, 0.341541, 0.341076, 0.333147, 0.333856, 0.331412, 0.33149, 0.331501, 0.330437, 0.33048, 0.330649, 0.332536, 0.330205, 0.329659, 0.329446, 0.612747, 0.846435, 0.838685, 1.00977, 1.01036, 1.00813, 0.328108, 0.332206, 0.330142, 0.330178, 0.330659, 0.32995, 0.329639, 0.3953, 0.40139, 0.394713, 1.38909, 0.721549, 0.904913, 0.904607, 0.409245, 0.607284, 0.327343, 0.607661, 0.477671, 0.604099, 0.336517, 0.337384, 0.337253, 0.337027, 0.335293, 0.335463, 0.33561, 0.335283, 0.334913, 0.334702, 0.334528, 0.329493, 0.327523, 0.328703, 0.330428, 0.326547, 0.327961, 0.324761, 0.325674, 0.3272, 1.68553, 1.68625, 0.721973, 0.325427, 0.324963, 0.328294, 0.328226, 0.928425, 0.594456, 0.930295, 0.326749, 0.324932, 0.326693, 0.328188, 0.00476511, 0.632798, 0.616153, 0.320929, 0.321255, 0.32263, 0.321674, 0.319896, 0.319503, 0.326054, 0.324994, 0.326634, 0.326987, 0.326734, 0.317303, 0.317169, 0.318462, 0.328883, 0.329836, 0.329837, 0.328617, 0.325969, 0.325475, 0.314848, 0.314466, 0.315806, 0.318668, 0.318681, 0.318686, 0.32351, 0.323428, 0.32338, 0.322553, 0.315648, 0.314293, 0.310712, 0.309873, 0.304001, 0.314262, 0.314632, 0.314787, 0.687389, 0.324145, 0.324484, 0.32883, 0.330783, 0.331798, 0.331389, 0.330844, 0.521139, 0.374874, 0.375881, 0.377168, 0.376676, 0.375771, 0.375182, 0.397464, 0.421139, 0.307148, 0.307558, 0.307666, 0.308548, 0.306707, 0.475511, 0.296323, 0.29613, 0.31792, 0.319919, 0.319821, 0.319943, 0.318828, 0.689798, 0.549902, 0.262484, 0.265789, 0.265889, 0.266145, 0.265326, 0.264866, 0.248823, 0.247914, 0.247415, 0.247146, 0.24648, 0.244143, 0.244125, 0.244089, 0.244375, 0.242463, 0.246722, 0.2452, 0.522704, 0.52199, 0.264649, 0.265244, 0.259204, 0.259781, 0.258852, 0.260203, 0.261462, 0.262401, 0.262622, 0.266344, 0.262297, 0.264909, 0.246557, 0.246562, 0.248291, 0.248544, 0.248245, 0.243591, 0.245809, 0.246074, 0.245167, 0.244628, 0.244215, 0.258099, 0.25846, 0.25817, 0.258357, 0.253154, 0.630773, 0.221559, 0.222511, 0.222583, 0.224676, 0.224039, 0.225396, 0.228866, 0.232974, 0.235635, 0.240628, 0.241183, 0.241256, 0.240859, 0.233059, 0.262457, 0.133147, 0.131686, 0.137393, 0.138053, 0.138404, 0.138107, 0.150864, 0.15176, 0.167942, 0.171079
0.361255, 0.359306, 0.359449, 0.3561, 0.353623, 0.352217, 0.351686, 0.431265, 0.515055, 0.462216, 0.757228, 0.618169, 0.34331, 0.341549, 0.339012, 0.336257, 0.335149, 0.337391, 0.335158, 0.335242, 0.338958, 0.336823, 0.337747, 0.336217, 0.33626, 0.327778, 0.327443, 0.328498, 0.325426, 0.325555, 0.325311, 0.311818, 0.311257, 0.612081, 0.673313, 0.365461, 0.663736, 0.55652, 0.540528, 0.538255, 0.435618, 0.436791, 0.437162, 0.436651, 0.912111, 0.00451725, 0.417461, 0.418446, 0.778432, 0.352646, 0.352899, 0.351339, 0.346617, 0.347435, 0.347723, 0.347538, 0.34717, 0.346688, 0.346711, 0.346967, 0.348036, 0.347893, 0.34686, 0.346816, 0.347655, 0.345531, 0.345745, 0.34856, 0.353247, 0.353166, 0.353458, 0.352658, 0.353545, 0.350796, 0.344177, 0.341676, 0.341813, 0.341783, 0.341841, 0.339129, 0.337627, 0.335786, 0.332702, 0.33245, 0.333804, 0.331276, 0.331145, 0.33019, 0.332748, 0.333597, 0.32973, 0.330299, 0.330132, 0.72568, 0.716417, 0.728255, 0.427798, 1.0111, 0.337948, 0.337427, 0.329669, 0.328418, 0.33042, 0.330733, 0.331619, 0.330713, 0.397116, 0.393137, 0.392164, 1.38518, 1.38846, 0.632011, 0.406654, 0.718911, 0.718085, 0.329387, 0.327338, 0.608477, 0.441809, 0.701485, 0.336199, 0.336198, 0.337036, 0.336081, 0.337719, 0.337135, 0.337534, 0.334706, 0.334404, 0.334043, 0.575835, 0.32914, 0.334656, 0.324629, 0.325095, 0.323993, 0.325151, 0.330894, 0.326615, 0.925002, 0.593855, 0.709098, 0.722735, 0.598666, 0.441847, 0.601076, 0.598217, 0.732977, 0.732018, 0.600488, 0.600669, 0.328187, 0.329126, 0.331894, 0.332113, 0.333637, 0.317941, 0.327662, 0.326982, 0.317577, 0.327833, 0.32568, 0.325425, 0.325686, 0.327, 0.327122, 0.326887, 0.327944, 0.327411, 0.326364, 0.327152, 0.330252, 0.32987, 0.328753, 0.325479, 0.325282, 0.32651, 0.313275, 0.315567, 0.319896, 0.317768, 0.31861, 0.321999, 0.323416, 0.323507, 0.322961, 0.315355, 0.317191, 0.317992, 0.31468, 0.315058, 0.31536, 0.315517, 0.315092, 0.673339, 0.708744, 0.327279, 0.328677, 0.329116, 0.330158, 0.330599, 0.331952, 0.566124, 0.374808, 0.375435, 0.376036, 0.375673, 0.375083, 0.373491, 0.500765, 0.393636, 0.618623, 0.30616, 0.306445, 0.306357, 0.306382, 0.293892, 0.294699, 0.293717, 0.29269, 0.318439, 0.318441, 0.319924, 0.318723, 0.683974, 0.549757, 0.262248, 0.264712, 0.263501, 0.263316, 0.269715, 0.244502, 0.245334, 0.246733, 0.246966, 0.245818, 0.246597, 0.242856, 0.242154, 0.242642, 0.243344, 0.243359, 0.243531, 0.243513, 0.524848, 0.522907, 0.264249, 0.268648, 0.258956, 0.259216, 0.26067, 0.260723, 0.261278, 0.262816, 0.26609, 0.490665, 0.491175, 0.265065, 0.245571, 0.246706, 0.247353, 0.247749, 0.24921, 0.242947, 0.245067, 0.244918, 0.245553, 0.244967, 0.244219, 0.257842, 0.258, 0.256329, 0.25451, 0.25399, 0.218507, 0.22048, 0.221459, 0.222125, 0.223047, 0.224377, 0.234068, 0.228007, 0.235429, 0.232801, 0.240871, 0.240309, 0.241183, 0.240714, 0.234262, 0.233929, 0.234451, 0.13413, 0.137008, 0.136452, 0.136916, 0.1386, 0.149066, 0.393196, 0.161588, 0.16899
0.355609, 0.355412, 0.357469, 0.355296, 0.354971, 0.353548, 0.351786, 0.351528, 0.574162, 0.00441474, 0.778413, 0.343048, 0.343281, 0.341423, 0.341111, 0.34133, 0.341061, 0.337043, 0.335299, 0.341158, 0.340974, 0.337535, 0.337253, 0.336457, 0.336335, 0.327452, 0.328977, 0.327235, 0.327237, 0.327236, 0.607958, 0.313281, 0.312092, 0.310989, 0.660007, 0.366136, 0.556012, 0.549906, 0.55617, 0.553716, 0.555568, 0.437375, 0.437839, 0.437954, 0.437953, 0.435738, 0.880532, 0.738339, 0.737007, 0.35012, 0.351643, 0.352076, 0.350181, 0.346287, 0.346944, 0.351663, 0.351067, 0.346674, 0.34627, 0.347408, 0.348234, 0.347722, 0.346355, 0.348751, 0.348799, 0.348077, 0.349239, 0.346923, 0.355455, 0.355257, 0.354871, 0.354829, 0.35459, 0.351398, 0.351299, 0.340097, 0.341331, 0.341309, 0.341434, 0.338994, 0.337821, 0.33635, 0.335536, 0.337293, 0.336798, 0.335897, 0.334797, 0.332464, 0.333731, 0.332572, 0.329339, 0.328381, 0.330136, 0.329862, 0.331184, 0.782238, 0.762109, 0.74603, 0.339269, 0.338576, 0.337756, 0.331922, 0.330119, 0.330344, 0.329406, 0.330563, 0.329335, 0.397151, 0.555323, 0.393908, 0.631528, 0.76776, 0.604421, 0.63326, 0.415971, 0.326622, 0.327984, 0.604844, 0.626499, 0.602321, 0.615337, 0.336486, 0.336288, 0.336995, 0.338072, 0.337995, 0.337681, 0.337953, 0.337124, 0.539353, 0.363084, 0.335191, 0.334927, 0.322122, 0.323041, 0.330282, 0.331379, 0.650305, 0.574011, 0.688189, 0.680918, 1.68812, 0.331878, 0.331737, 0.332527, 0.733063, 0.603495, 0.628101, 0.600737, 0.817867, 0.929286, 0.615101, 0.332091, 0.333244, 0.333225, 0.33248, 0.33573, 0.508581, 0.328394, 0.330156, 0.329035, 0.32921, 0.32572, 0.326135, 0.326676, 0.32727, 0.328487, 0.328871, 0.330055, 0.330686, 0.329307, 0.33016, 0.330884, 0.324931, 0.324847, 0.324812, 0.326843, 0.326827, 0.324348, 0.319634, 0.318744, 0.322271, 0.323644, 0.322834, 0.323528, 0.3229, 0.320285, 0.319434, 0.31929, 0.316865, 0.315717, 0.315976, 0.315902, 0.315399, 0.314362, 0.732755, 0.331174, 0.332677, 0.332778, 0.334093, 0.556134, 0.522266, 0.372286, 0.374853, 0.375715, 0.37563, 0.376086, 0.376105, 0.403734, 0.643945, 0.650411, 0.643445, 0.313573, 0.312866, 0.30423, 0.305055, 0.293084, 0.293731, 0.293613, 0.31679, 0.317924, 0.319272, 0.31984, 0.318834, 0.545421, 0.552379, 0.553239, 0.261778, 0.265188, 0.272429, 0.273528, 0.244647, 0.245043, 0.246286, 0.245837, 0.24561, 0.24103, 0.240935, 0.241226, 0.24122, 0.241274, 0.240837, 0.242758, 0.243266, 0.775052, 0.409951, 0.26338, 0.264736, 0.264191, 0.261146, 0.259929, 0.25961, 0.263239, 0.265248, 0.265357, 0.573675, 0.490211, 0.359643, 0.243554, 0.245698, 0.248276, 0.245929, 0.247329, 0.245652, 0.245656, 0.245464, 0.244708, 0.243193, 0.243526, 0.252231, 0.254195, 0.254364, 0.254562, 0.253693, 0.245564, 0.218379, 0.219718, 0.221616, 0.222458, 0.234487, 0.23345, 0.230966, 0.234108, 0.23731, 0.238396, 0.239138, 0.24082, 0.234984, 0.234202, 0.234739, 0.234446, 0.14432, 0.145665, 0.146827, 0.146171, 0.148934, 0.148824, 0.284653, 0.163273, 0.267158
0.356387, 0.355095, 0.355365, 0.354848, 0.353945, 0.352466, 0.352207, 0.351331, 0.351448, 0.350329, 0.776115, 0.344765, 0.343663, 0.341728, 0.341015, 0.341385, 0.340509, 0.339119, 0.336696, 0.339633, 0.336482, 0.340645, 0.341807, 0.336619, 0.337611, 0.338976, 0.330331, 0.32729, 0.32862, 0.331614, 0.312126, 0.313438, 0.311447, 0.310707, 0.490155, 0.603782, 0.36581, 0.561718, 0.559531, 0.549116, 0.00402348, 0.437848, 0.438984, 0.439529, 0.439085, 0.438393, 0.736667, 0.736204, 0.00461053, 0.80213, 0.804124, 0.358275, 0.357479, 0.350233, 0.350325, 0.350121, 0.349332, 0.344645, 0.346061, 0.34765, 0.348672, 0.348257, 0.346886, 0.348488, 0.348819, 0.349178, 0.349458, 0.349105, 0.349331, 0.353304, 0.354314, 0.354609, 0.351449, 0.351295, 0.35179, 0.341092, 0.341293, 0.34076, 0.340743, 0.339493, 0.340701, 0.335396, 0.338605, 0.335644, 0.336276, 0.335879, 0.337336, 0.332681, 0.334979, 0.333882, 0.331782, 0.328154, 0.330509, 0.330358, 0.331099, 0.334384, 0.752462, 0.338761, 0.339528, 0.338534, 0.337674, 0.332626, 0.329181, 0.331151, 0.331148, 0.328847, 0.33087, 0.329487, 0.554675, 0.69487, 0.397144, 0.398302, 0.907566, 0.908492, 0.499516, 0.500564, 0.644876, 0.499896, 0.352936, 0.607577, 0.342113, 0.337955, 0.338446, 0.338601, 0.337601, 0.337645, 0.337217, 0.338611, 0.339717, 0.338923, 0.533256, 0.643364, 0.701838, 0.338377, 0.336097, 0.329781, 0.32956, 0.651587, 0.344225, 0.341617, 1.68707, 1.68735, 0.722064, 0.710288, 0.601221, 0.608547, 0.628674, 0.931935, 0.931887, 0.939316, 0.927193, 0.369274, 0.332563, 0.332993, 0.33299, 0.333494, 0.340923, 0.340871, 0.331221, 0.330257, 0.32806, 0.330916, 0.328483, 0.334594, 0.327681, 0.328907, 0.329851, 0.330893, 0.330875, 0.330675, 0.329861, 0.330829, 0.330582, 0.331346, 0.3307, 0.325707, 0.327938, 0.326585, 0.317219, 0.317669, 0.317997, 0.320625, 0.321249, 0.325137, 0.325083, 0.323201, 0.320152, 0.319794, 0.319741, 0.319217, 0.315788, 0.315965, 0.315364, 0.314284, 0.445823, 0.373932, 0.738914, 0.331619, 0.333209, 0.333752, 0.576898, 0.691164, 0.373465, 0.375285, 0.37531, 0.375144, 0.376174, 0.375052, 0.429969, 0.770492, 0.584282, 0.313391, 0.313006, 0.313309, 0.304029, 0.304339, 0.290905, 0.291263, 0.291847, 0.31718, 0.320881, 0.319693, 0.319219, 0.325504, 0.295987, 0.293951, 0.294534, 0.553358, 0.273764, 0.272576, 0.272426, 0.242341, 0.243588, 0.24595, 0.246813, 0.24682, 0.242691, 0.242439, 0.242162, 0.240332, 0.240671, 0.240941, 0.241805, 0.242338, 0.408039, 0.262308, 0.263865, 0.264701, 0.264623, 0.259365, 0.258721, 0.25886, 0.264021, 0.265383, 0.573411, 0.278905, 0.27873, 0.308426, 0.245412, 0.246473, 0.247679, 0.248017, 0.245202, 0.245523, 0.244762, 0.244193, 0.242275, 0.243184, 0.243553, 0.241731, 0.253162, 0.253079, 0.253406, 0.255989, 0.245197, 0.238434, 0.412265, 0.627571, 0.401291, 0.235067, 0.31544, 0.321392, 0.345395, 0.240749, 0.239252, 0.239787, 0.233866, 0.231655, 0.232342, 0.235747, 0.235195, 0.144616, 0.146294, 0.151046, 0.15032, 0.150507, 0.149475, 0.161642, 0.274969, 0.17481
0.356305, 0.355865, 0.354471, 0.352945, 0.354145, 0.351566, 0.351494, 0.351979, 0.351537, 0.351111, 0.579493, 0.345017, 0.343914, 0.34093, 0.33884, 0.341263, 0.339949, 0.338825, 0.340383, 0.338486, 0.341556, 0.341679, 0.342402, 0.341283, 0.340419, 0.339752, 0.332532, 0.333099, 0.333229, 0.33219, 0.310455, 0.310556, 0.311143, 0.563311, 0.557761, 0.332021, 0.331206, 0.560367, 0.661006, 0.00444887, 0.564145, 0.632201, 0.438839, 0.440625, 0.440997, 0.439945, 0.43903, 0.784238, 0.856803, 0.00472373, 0.851282, 0.3968, 0.528508, 0.350633, 0.350422, 0.349716, 0.357901, 0.357592, 0.348445, 0.348493, 0.349025, 0.347962, 0.348925, 0.348703, 0.348046, 0.348706, 0.349588, 0.35008, 0.349346, 0.348721, 0.352759, 0.351051, 0.350829, 0.351624, 0.350167, 0.341878, 0.342108, 0.341847, 0.340515, 0.340831, 0.341188, 0.340869, 0.33907, 0.340166, 0.340332, 0.335686, 0.336909, 0.336718, 0.337181, 0.332584, 0.331634, 0.33088, 0.330455, 0.331447, 0.333421, 0.549045, 0.711649, 0.338978, 0.339424, 0.337836, 0.337075, 0.335909, 0.332553, 0.330836, 0.33437, 0.329111, 0.33428, 0.332271, 0.552279, 0.410211, 0.400941, 0.393953, 0.770128, 0.666294, 0.725996, 0.72654, 0.73077, 0.729403, 0.642402, 0.607761, 0.342643, 0.339266, 0.337613, 0.337527, 0.337459, 0.338567, 0.340863, 0.340698, 0.3407, 0.339753, 0.376342, 0.663979, 0.653019, 0.342523, 0.340068, 0.342359, 0.342834, 0.343579, 0.34479, 0.34523, 0.343445, 0.871286, 0.873522, 0.725277, 0.91923, 0.604306, 0.608458, 0.602606, 0.933991, 0.600856, 0.343989, 0.616418, 0.3326, 0.33254, 0.332657, 0.33854, 0.340819, 0.34142, 0.34127, 0.332819, 0.328132, 0.327555, 0.335807, 0.337088, 0.334728, 0.329213, 0.329943, 0.329944, 0.33061, 0.330965, 0.331258, 0.331651, 0.330903, 0.33062, 0.331691, 0.332032, 0.648546, 0.323541, 0.325437, 0.3285, 0.327995, 0.327134, 0.327418, 0.327201, 0.32736, 0.326982, 0.319267, 0.319482, 0.319465, 0.318852, 0.317553, 0.314479, 0.315338, 0.750718, 0.750226, 0.725631, 0.359239, 0.363302, 0.807978, 0.70895, 0.608485, 0.437596, 0.374616, 0.374795, 0.375418, 0.375559, 0.375517, 0.373747, 0.504724, 0.765805, 0.620029, 0.310893, 0.310392, 0.308024, 0.30695, 0.289772, 0.290355, 0.289537, 0.289458, 0.317361, 0.318659, 0.317622, 0.316853, 0.524783, 0.29502, 0.294978, 0.296787, 0.563333, 0.270636, 0.270799, 0.297348, 0.252923, 0.24341, 0.24472, 0.24615, 0.24295, 0.242784, 0.242051, 0.241694, 0.241085, 0.239397, 0.241829, 0.241514, 0.771503, 0.261972, 0.26351, 0.264687, 0.264969, 0.265125, 0.265029, 0.259768, 0.259597, 0.284516, 0.28751, 0.279793, 0.28025, 0.279653, 0.278596, 0.625369, 0.249498, 0.249398, 0.249488, 0.242605, 0.24383, 0.243159, 0.244964, 0.243106, 0.244042, 0.241998, 0.242054, 0.250911, 0.435795, 0.268874, 0.257907, 0.240822, 0.240437, 0.662396, 0.730577, 0.734933, 0.318003, 0.320154, 0.315077, 0.7084, 0.708138, 0.325471, 0.340901, 0.232538, 0.233209, 0.23447, 0.235098, 0.400591, 0.144543, 0.146499, 0.149474, 0.150888, 0.151467, 0.151148, 0.263922, 0.17562, 0.175105
0.355055, 0.355283, 0.355379, 0.35399, 0.353922, 0.352828, 0.351087, 0.351908, 0.353882, 0.352489, 0.352818, 0.344362, 0.342755, 0.340005, 0.338677, 0.339796, 0.339665, 0.338378, 0.339933, 0.339756, 0.340682, 0.339544, 0.34072, 0.340899, 0.340573, 0.340614, 0.339829, 0.334349, 0.333928, 0.333656, 0.333413, 0.332315, 0.329148, 0.327312, 0.328407, 0.377138, 0.427928, 0.370388, 0.653927, 0.576733, 0.559579, 0.55369, 0.439596, 0.441128, 0.441154, 0.441158, 0.44035, 0.438504, 0.855757, 0.856325, 0.896973, 0.897289, 0.533051, 0.61673, 0.358225, 0.358462, 0.358261, 0.357687, 0.356668, 0.347869, 0.346276, 0.347809, 0.348219, 0.347651, 0.347059, 0.347781, 0.34808, 0.347881, 0.347716, 0.346909, 0.345718, 0.343722, 0.348236, 0.348232, 0.34801, 0.344833, 0.343997, 0.343498, 0.342722, 0.342307, 0.341794, 0.342344, 0.341051, 0.341093, 0.341315, 0.340815, 0.34114, 0.336507, 0.337017, 0.337928, 0.337526, 0.337277, 0.335297, 0.334013, 0.333194, 0.690249, 0.336189, 0.336086, 0.336857, 0.335976, 0.335595, 0.32985, 0.331692, 0.334837, 0.332928, 0.330855, 0.331261, 0.337693, 0.340952, 0.339465, 0.406869, 0.394072, 0.386279, 0.33548, 0.337641, 0.715115, 0.676734, 0.913307, 0.731835, 0.351745, 0.350731, 0.350215, 0.349217, 0.348842, 0.349026, 0.339448, 0.342769, 0.365968, 0.340957, 0.339783, 0.803778, 0.804362, 0.345074, 0.345389, 0.344956, 0.342112, 0.343329, 0.342806, 0.345091, 0.347926, 0.348118, 0.347907, 0.87299, 0.673578, 0.726311, 0.728749, 0.622586, 0.608148, 0.929052, 0.601324, 0.346559, 0.347029, 0.347513, 0.337975, 0.337944, 0.338646, 0.341221, 0.341297, 0.340961, 0.340674, 0.33543, 0.336149, 0.335033, 0.336042, 0.336501, 0.33922, 0.329726, 0.330046, 0.33053, 0.33092, 0.329219, 0.332172, 0.331275, 0.330864, 0.33264, 0.332524, 0.651652, 0.326635, 0.329963, 0.328773, 0.32896, 0.328346, 0.327368, 0.327579, 0.3274, 0.327174, 0.327049, 0.317357, 0.317744, 0.318334, 0.318653, 0.424433, 0.423998, 0.749525, 0.430628, 0.771581, 0.770778, 0.369278, 0.424981, 0.713474, 0.711232, 0.377401, 0.371231, 0.376105, 0.376496, 0.375321, 0.374089, 0.61092, 0.393549, 0.755766, 0.306749, 0.307363, 0.307533, 0.30704, 0.288041, 0.288658, 0.288786, 0.288701, 0.639368, 0.315674, 0.316272, 0.316819, 0.00413854, 0.690549, 0.293492, 0.550175, 0.531839, 0.711105, 0.572945, 0.573031, 0.574146, 0.358062, 0.241047, 0.25259, 0.240849, 0.239628, 0.239845, 0.240229, 0.240657, 0.239796, 0.239504, 0.239981, 0.243929, 0.245456, 0.261992, 0.263287, 0.265099, 0.265522, 0.26593, 0.26506, 0.265435, 0.28502, 0.285592, 0.285489, 0.279591, 0.279889, 0.27905, 0.278859, 0.607446, 0.618915, 0.245926, 0.24326, 0.242589, 0.243462, 0.244058, 0.243738, 0.241996, 0.240873, 0.242354, 0.241281, 0.43599, 0.436116, 0.43529, 0.240858, 0.00410424, 0.271936, 0.660937, 0.66151, 0.61909, 0.253936, 0.254662, 0.255216, 0.259346, 0.260478, 0.260869, 0.259039, 0.232395, 0.2328, 0.00425652, 0.263427, 0.372366, 0.298786, 0.149011, 0.150337, 0.150545, 0.150093, 0.308431, 0.26667, 0.170489, 0.294686
