0.826679, 0.684653, 0.829014, 0.410834, 0.410165, 0.408531, 0.522997, 0.659215, 0.480065, 0.473048, 0.518538, 0.525673, 0.578748, 0.578059, 0.574344, 0.328337, 0.327165, 0.325972, 0.327082, 0.328242, 0.330567, 0.663636, 0.330806, 0.331722, 0.332054, 0.330972, 0.333722, 0.331327, 0.331653, 0.333946, 0.333914, 0.334225, 0.333991, 0.33741, 0.337558, 0.336923, 0.342221, 0.342337, 0.343403, 0.341832, 0.344273, 0.34468, 0.343929, 0.343023, 0.342179, 0.35326, 0.352923, 0.352749, 0.353315, 0.353178, 0.358261, 0.356379, 0.355201, 0.361591, 0.43195, 0.477298, 0.750058, 0.593371, 0.593712, 1.02274, 0.822055, 0.438122, 0.434854, 0.439001, 0.430329, 0.431507, 0.438663, 0.436651, 0.435249, 0.438425, 0.608193, 0.435951, 0.43557, 0.435123, 0.441985, 0.440421, 0.440957, 0.442586, 0.434629, 0.433162, 0.434514, 0.434478, 0.435818, 0.437333, 0.741819, 0.458282, 0.458365, 0.458432, 0.45692, 0.452128, 0.452093, 0.451683, 0.455753, 0.478553, 0.459509, 0.457149, 0.455192, 0.455276, 0.467825, 0.469822, 0.538837, 0.555913, 0.51548, 0.58424, 0.628779, 0.681431, 0.672658, 0.742079, 0.783599, 0.671199, 0.682769, 0.656676, 0.659518, 0.677541, 0.85487, 0.698404, 0.729063, 0.766312, 0.7942, 0.807938, 0.804147, 0.822502, 0.796557, 0.798851, 0.837249, 0.936819, 0.860219, 0.857238, 0.825151, 0.8257, 0.833135, 0.834217, 0.860238, 0.888017, 0.915229, 0.894705, 0.969499, 0.963223, 0.955747, 0.931457, 0.954764, 0.97046, 0.986768, 0.925089, 0.925893, 0.957109, 0.957744, 0.944115, 0.994675, 0.991318, 0.982366, 1.0229, 0.991718, 0.952038, 0.920014, 0.966725, 0.921687, 0.908466, 0.919003, 0.993119, 0.937822, 0.929268, 0.928471, 0.874855, 0.859784, 0.849466, 0.840454, 0.841948, 0.831316, 0.830612, 0.833768, 0.847125, 0.845886, 0.810091, 0.806492, 0.890485, 0.824832, 0.777098, 0.833136, 0.756539, 0.790945, 0.790301, 0.826321, 0.788062, 0.795292, 0.679783, 0.578159, 0.561434, 0.464662, 0.471784, 0.473214, 0.423777, 0.422083, 0.418596, 0.436169, 0.358077, 0.353734, 0.303627, 0.302929, 0.303959, 0.294642, 0.277105, 0.275664, 0.273483, 0.258948, 0.258568, 0.269513, 0.267489, 0.267669, 0.267512, 0.28907, 0.289136, 0.283194, 0.284324, 0.283229, 0.27259, 0.271743, 0.272262, 0.273724, 0.273735, 0.274287, 0.273275, 0.268796, 0.269707, 0.270171, 0.271895, 0.272297, 0.270376, 0.26939, 0.268691, 0.276534, 0.274235, 0.27506, 0.275233, 0.275299, 0.276329, 0.541302, 0.559013, 0.313807, 0.314596, 0.315711, 0.314309, 0.313106, 0.528795, 0.306678, 0.307132, 0.306605, 0.577764, 0.404356, 0.294641, 0.335363, 0.239438, 0.240021, 0.240635, 0.240337, 0.249095, 0.249717, 0.249478, 0.249068, 0.459603, 0.369683, 0.273192, 0.280262, 0.281157, 0.284196, 0.289954, 0.29179, 0.293353, 0.294023, 0.293648
0.644225, 0.66677, 0.997459, 0.625678, 0.411469, 0.40902, 0.524064, 0.67118, 0.510646, 0.500688, 0.501535, 0.525681, 0.503451, 0.552442, 0.700446, 0.714851, 0.711841, 0.325404, 0.330761, 0.326703, 0.3745, 0.3288, 0.329808, 0.330649, 0.330925, 0.329731, 0.330491, 0.329511, 0.332714, 0.334261, 0.33409, 0.334289, 0.336505, 0.337065, 0.336128, 0.339285, 0.340981, 0.344148, 0.344194, 0.343937, 0.344485, 0.345088, 0.3446, 0.343249, 0.342712, 0.352519, 0.351942, 0.353337, 0.354056, 0.356665, 0.356171, 0.357616, 0.358216, 0.357981, 0.479668, 0.660004, 0.7501, 0.593705, 0.59306, 1.02261, 0.592931, 0.826855, 0.441241, 0.440369, 0.42944, 0.429601, 0.439277, 0.438388, 0.438447, 0.453128, 0.452644, 0.43503, 0.435093, 0.443319, 0.443155, 0.442214, 0.441338, 0.546959, 0.434376, 0.438822, 0.441265, 0.435895, 0.441759, 0.442958, 0.450842, 0.458309, 0.458754, 0.458583, 0.457643, 0.452772, 0.453207, 0.452367, 0.451681, 0.494197, 0.455324, 0.456409, 0.453961, 0.462622, 0.523065, 0.530801, 0.537171, 0.532358, 0.531737, 0.532421, 0.638131, 0.625563, 0.669196, 0.742138, 0.785188, 0.729284, 0.667302, 0.708448, 0.766132, 0.665179, 0.679316, 0.777637, 0.728679, 0.766968, 0.765792, 0.808496, 0.796511, 0.873731, 0.824866, 0.929069, 0.852012, 0.851221, 0.904658, 0.906752, 0.905557, 0.906564, 0.907459, 0.908753, 0.977198, 0.902383, 0.909976, 0.913064, 0.972466, 0.963534, 0.995522, 0.98179, 0.931854, 0.938688, 1.0199, 1.00753, 1.00754, 0.976959, 0.956421, 1.08502, 1.08125, 1.00193, 0.976749, 0.956843, 0.952838, 0.937141, 0.939236, 0.969833, 0.928252, 0.926283, 0.939477, 0.999943, 1.11988, 0.918689, 0.929373, 0.87469, 0.995706, 0.909318, 0.840835, 0.832503, 0.831603, 0.831689, 0.827742, 0.868211, 0.897237, 0.840044, 0.810792, 0.808607, 0.80955, 0.798281, 0.835669, 0.789751, 0.805757, 0.859808, 0.826645, 0.788096, 0.740159, 0.692802, 0.629401, 0.573008, 0.570755, 0.475062, 0.475048, 0.442008, 0.419055, 0.418923, 0.35445, 0.354869, 0.355118, 0.303337, 0.303457, 0.287441, 0.293426, 0.275654, 0.275778, 0.248272, 0.265976, 0.269498, 0.265658, 0.260292, 0.267324, 0.26944, 0.288872, 0.289261, 0.283421, 0.281954, 0.277463, 0.277136, 0.275515, 0.276836, 0.272409, 0.276512, 0.277162, 0.276444, 0.26716, 0.268881, 0.269773, 0.27057, 0.273065, 0.271188, 0.269481, 0.269681, 0.280442, 0.27997, 0.275499, 0.275666, 0.275646, 0.276221, 0.277699, 0.559533, 0.558955, 0.530025, 0.312117, 0.312298, 0.528952, 0.528087, 0.305975, 0.306167, 0.304256, 0.577486, 0.404597, 0.391319, 0.311673, 0.236596, 0.237812, 0.238346, 0.249257, 0.250984, 0.250971, 0.250607, 0.25018, 0.462114, 0.473626, 0.275919, 0.503428, 0.279094, 0.566237, 0.282516, 0.291618, 0.292505, 0.292693, 0.292662
0.64373, 0.637127, 0.471156, 0.671039, 0.408384, 0.328407, 0.524512, 0.670422, 0.670009, 0.503823, 0.480076, 0.742112, 0.491148, 0.445119, 0.717843, 0.65106, 0.707877, 0.366506, 0.364832, 0.55619, 0.556684, 0.328945, 0.328072, 0.329566, 0.331378, 0.32966, 0.329609, 0.328785, 0.365409, 0.333593, 0.334489, 0.332512, 0.334299, 0.335751, 0.336744, 0.33967, 0.338978, 0.338039, 0.344481, 0.345045, 0.34359, 0.34405, 0.343768, 0.344566, 0.676159, 0.354743, 0.35554, 0.353246, 0.353194, 0.35512, 0.355904, 0.356441, 0.35798, 0.358767, 0.751084, 1.08097, 0.453078, 0.453424, 0.589696, 0.592687, 0.593818, 0.444871, 0.441297, 0.655559, 0.441249, 0.44162, 0.441913, 0.442235, 0.44139, 0.455403, 0.453946, 0.541665, 0.445058, 0.444035, 0.444293, 0.443564, 0.442326, 0.449023, 0.441151, 0.441212, 0.441144, 0.440817, 0.711757, 0.446773, 0.448764, 0.458071, 0.45901, 0.45856, 0.457741, 0.452145, 0.450709, 0.480705, 0.435484, 0.434417, 0.455903, 0.456781, 0.511349, 0.526488, 0.527568, 0.517624, 0.532452, 0.533438, 0.532224, 0.550299, 0.58654, 0.591322, 0.756005, 0.783695, 0.783888, 0.729167, 0.70688, 0.707533, 0.701027, 0.709147, 0.708115, 0.776725, 0.714251, 0.766641, 0.814588, 0.812122, 0.860477, 0.871975, 0.817835, 0.816611, 0.90304, 0.903401, 0.923582, 0.905651, 0.912434, 0.91351, 0.948824, 0.947807, 0.995764, 0.918395, 0.918561, 1.01252, 0.935432, 0.979586, 0.994306, 0.957617, 1.01681, 0.95442, 1.02489, 0.976724, 0.978483, 0.984875, 0.999633, 1.08417, 1.03254, 1.01604, 0.96649, 0.956222, 1.03798, 0.942989, 0.948652, 0.949095, 0.947453, 0.952746, 1.1188, 1.11525, 1.11331, 0.919461, 0.921057, 0.925541, 1.04632, 0.910202, 0.864097, 0.830699, 0.832049, 0.831708, 0.829474, 0.843772, 0.846042, 0.963614, 0.921685, 0.816255, 0.809114, 0.831108, 0.840981, 0.823119, 0.957786, 0.852462, 0.828518, 0.877836, 0.742567, 0.720338, 0.556139, 0.580449, 0.548857, 0.508677, 0.508844, 0.462125, 0.469549, 0.442805, 0.437883, 0.354861, 0.354995, 0.325219, 0.305898, 0.32735, 0.310451, 0.273574, 0.273976, 0.262676, 0.273466, 0.265894, 0.264363, 0.263268, 0.268447, 0.293027, 0.282423, 0.281976, 0.283112, 0.277397, 0.278549, 0.277389, 0.276662, 0.27717, 0.277884, 0.277678, 0.277336, 0.279629, 0.280908, 0.280612, 0.28511, 0.285721, 0.285537, 0.271755, 0.272092, 0.28076, 0.282051, 0.281619, 0.274866, 0.275888, 0.276206, 0.276649, 0.276302, 0.559109, 0.559269, 0.558505, 0.557986, 0.310721, 0.379741, 0.383969, 0.303153, 0.302996, 0.5722, 0.304029, 0.497931, 0.572731, 0.376911, 0.557501, 0.235945, 0.248661, 0.250823, 0.250957, 0.251547, 0.251219, 0.251001, 0.459383, 0.272476, 0.504259, 0.270799, 0.50426, 0.272826, 0.510428, 0.287476, 0.289698, 0.290532, 0.331918
0.516851, 0.63846, 0.638439, 0.627412, 0.329671, 0.327597, 0.521189, 0.519749, 0.404535, 0.502776, 0.512694, 0.505388, 0.490249, 0.441983, 0.44177, 0.539397, 0.601479, 0.570645, 0.970924, 0.555367, 0.55569, 0.559508, 0.560172, 0.506761, 0.328764, 0.329031, 0.494166, 0.496631, 0.496026, 0.332981, 0.334326, 0.334788, 0.3354, 0.338266, 0.3391, 0.339729, 0.339587, 0.339846, 0.344227, 0.343339, 0.344209, 0.60772, 0.608065, 0.607341, 0.607502, 0.357718, 0.358929, 0.357807, 0.356828, 0.358417, 0.358659, 0.358111, 0.360811, 0.362274, 0.923674, 0.659669, 0.432082, 0.466041, 0.465726, 0.466792, 1.02042, 1.01955, 0.4459, 0.446834, 0.439194, 0.438778, 0.441233, 0.440473, 0.439125, 0.45532, 0.454043, 0.455491, 0.824812, 0.448635, 0.443208, 0.443456, 0.452161, 0.451907, 0.462241, 0.44175, 0.442298, 0.442796, 0.4452, 0.445999, 0.446522, 0.446528, 0.459586, 0.458903, 0.458428, 0.448973, 0.446418, 0.448865, 0.506838, 0.504079, 0.440024, 0.554502, 0.455571, 0.536948, 0.524682, 0.521726, 0.56343, 0.555593, 0.605851, 0.573388, 0.598096, 0.624618, 0.74414, 0.784941, 0.78477, 0.700113, 0.70781, 0.699876, 0.682161, 0.710114, 0.723336, 0.712563, 0.754285, 0.801213, 0.812213, 0.812805, 0.797842, 0.829221, 0.819445, 0.819277, 0.917004, 0.914973, 0.912189, 0.906082, 0.918725, 0.866047, 0.867978, 0.874168, 0.995949, 0.917622, 0.904199, 0.903952, 0.935082, 0.934941, 0.95703, 0.950876, 0.951341, 0.950835, 1.02164, 1.01997, 1.0188, 1.01601, 1.0186, 1.06018, 1.0604, 1.01934, 0.994749, 1.03702, 1.03618, 0.960762, 0.980527, 0.966172, 1.02218, 1.12755, 1.13331, 1.16738, 1.14025, 0.943883, 0.936313, 0.919117, 0.978483, 0.856284, 0.86758, 0.842198, 0.922748, 0.939354, 0.974262, 0.97334, 0.856116, 0.836379, 0.921474, 0.921455, 0.920956, 0.862774, 0.925018, 0.947439, 0.957349, 0.851395, 0.830211, 0.784496, 0.790894, 0.697819, 0.698413, 0.603979, 0.603849, 0.508528, 0.508044, 0.462193, 0.43879, 0.43844, 0.408149, 0.353969, 0.367693, 0.357798, 0.371217, 0.307701, 0.259524, 0.263074, 0.325379, 0.260851, 0.257919, 0.274188, 0.304934, 0.26177, 0.281114, 0.282619, 0.282471, 0.279893, 0.283158, 0.279105, 0.27916, 0.278303, 0.274062, 0.276825, 0.277442, 0.27695, 0.277076, 0.281484, 0.282126, 0.28267, 0.285208, 0.271846, 0.286812, 0.286487, 0.287051, 0.286658, 0.28261, 0.272827, 0.274622, 0.275858, 0.275781, 0.275749, 0.276071, 0.277116, 0.558867, 0.555931, 0.555777, 0.275521, 0.275332, 0.379481, 0.401061, 0.30335, 0.302095, 0.302109, 0.670314, 0.571422, 0.313828, 0.285972, 0.557152, 0.249462, 0.251584, 0.252311, 0.251965, 0.251139, 0.251856, 0.266389, 0.267498, 0.268707, 0.271701, 0.271521, 0.271858, 0.270935, 0.287598, 0.331274, 0.331753, 0.481765
0.639344, 0.637338, 0.637852, 0.780816, 0.328079, 0.327504, 0.414199, 0.405079, 0.403229, 0.500306, 0.501264, 0.605449, 0.442682, 0.441476, 0.5763, 0.573759, 0.646222, 0.36732, 0.365055, 0.363468, 0.555851, 0.559058, 0.559115, 0.666254, 0.494652, 0.358816, 0.495565, 0.463454, 0.496378, 0.00450189, 0.73828, 0.337586, 0.338506, 0.339442, 0.338813, 0.339439, 0.340141, 0.338889, 0.339555, 0.344012, 0.386599, 0.352999, 0.353615, 0.352926, 0.358905, 0.359893, 0.3588, 0.359105, 0.360093, 0.361294, 0.361988, 0.362041, 0.362142, 0.362009, 0.361791, 0.369023, 0.653592, 0.465889, 0.465169, 0.45937, 1.0208, 1.02138, 0.981783, 0.446917, 0.444605, 0.447799, 0.446129, 0.444814, 0.646494, 0.460035, 0.460153, 0.460847, 0.455926, 0.828676, 0.457443, 0.458521, 0.458256, 0.451985, 0.463236, 0.455416, 0.442746, 0.442562, 0.444615, 0.446845, 0.446847, 0.446197, 0.460959, 0.459817, 0.458704, 0.455516, 0.634783, 0.639191, 0.598169, 0.568341, 0.549012, 0.554887, 0.614989, 0.601693, 0.566211, 0.597342, 0.563154, 0.591908, 0.64441, 0.579, 0.578201, 0.628961, 0.646786, 0.801431, 0.756148, 0.818799, 0.882226, 0.694675, 0.692915, 0.683414, 0.708124, 0.775103, 0.766643, 0.759118, 0.827451, 0.829239, 0.818331, 0.814119, 0.953261, 0.85077, 0.911689, 0.868267, 0.888038, 0.905326, 0.904809, 0.901186, 0.956237, 0.944419, 0.946492, 0.970491, 0.907742, 0.908161, 0.985015, 0.945735, 0.946243, 0.954516, 0.955975, 0.953029, 0.984431, 1.00105, 0.99468, 1.00536, 1.05991, 1.08425, 1.10937, 0.999233, 0.998883, 0.998722, 0.987731, 1.03598, 0.992783, 1.07461, 1.0751, 1.11548, 1.22672, 1.15839, 1.07424, 0.935903, 0.932391, 0.918623, 0.92965, 1.02562, 0.869978, 0.959856, 0.99825, 0.947177, 0.97479, 0.973354, 0.861897, 0.823036, 0.919495, 0.920003, 0.920178, 0.963755, 0.925405, 0.926697, 0.971299, 0.847029, 0.836552, 0.80133, 0.768804, 0.745283, 0.73622, 0.698081, 0.601767, 0.521347, 0.566401, 0.556591, 0.524932, 0.456683, 0.412146, 0.367523, 0.366537, 0.3464, 0.346509, 0.346244, 0.348911, 0.268837, 0.330291, 0.266532, 0.272405, 0.307172, 0.306661, 0.305991, 0.290214, 0.290265, 0.26314, 0.26391, 0.26359, 0.275915, 0.276626, 0.27699, 0.275612, 0.276346, 0.276117, 0.275155, 0.276816, 0.282302, 0.282772, 0.283452, 0.282757, 0.285443, 0.287041, 0.287014, 0.288525, 0.28789, 0.287004, 0.285487, 0.285942, 0.275013, 0.27554, 0.275493, 0.275235, 0.276061, 0.276104, 0.533382, 0.275331, 0.275718, 0.275905, 0.275652, 0.373269, 0.298621, 0.300157, 0.301863, 0.673822, 0.570194, 0.289267, 0.313992, 0.557524, 0.250481, 0.251976, 0.253095, 0.25338, 0.251722, 0.25094, 0.268454, 0.268842, 0.269695, 0.267439, 0.265962, 0.270854, 0.270307, 0.506672, 0.604075, 0.336884, 0.336271
0.645712, 0.637613, 0.635637, 0.776806, 0.802005, 0.6315, 0.631567, 0.518388, 0.402462, 0.403654, 0.642641, 0.471335, 0.441293, 0.43944, 0.528344, 0.718141, 0.572802, 0.364342, 0.363663, 0.362476, 0.555666, 0.553807, 0.561926, 1.19342, 0.569239, 0.512434, 0.424851, 0.459483, 0.423381, 0.456695, 0.699689, 0.64496, 0.339143, 0.340772, 0.339017, 0.341727, 0.341072, 0.341035, 0.339925, 0.343004, 0.631231, 0.38582, 0.354916, 0.354714, 0.359306, 0.363881, 0.363771, 0.364228, 0.36169, 0.361735, 0.362545, 0.363719, 0.363649, 0.363431, 0.362548, 0.428239, 0.654078, 0.653783, 0.483092, 0.466308, 1.01636, 1.01661, 1.0156, 1.00993, 0.446487, 0.450281, 0.451697, 0.449739, 0.449479, 0.46211, 0.461868, 0.461063, 0.454601, 0.45413, 0.555266, 0.460261, 0.459439, 0.45792, 0.456904, 0.456848, 0.443619, 0.446876, 0.446828, 0.446831, 0.445922, 0.445648, 0.461178, 0.460689, 0.458897, 0.457279, 0.458896, 0.542377, 0.5994, 0.564176, 0.570346, 0.551905, 0.615066, 0.608516, 0.601413, 0.563611, 0.591916, 0.591795, 0.599537, 0.579931, 0.577922, 0.657116, 0.711603, 0.711078, 0.855561, 0.829233, 0.812442, 0.877698, 0.772504, 0.705965, 0.743506, 0.73307, 0.731465, 0.824878, 0.808116, 0.890204, 0.797083, 0.819052, 0.836321, 0.956662, 0.853538, 0.945704, 0.873869, 0.940174, 0.912205, 0.930833, 0.960553, 0.936308, 0.9392, 0.939017, 0.926035, 0.996742, 0.985769, 0.947804, 0.983613, 0.973995, 0.967199, 0.977655, 0.981398, 0.985271, 1.01581, 1.02482, 1.09472, 1.18533, 1.03014, 1.02847, 1.05828, 1.0586, 1.00246, 1.00709, 1.0745, 1.12903, 1.07725, 1.12944, 1.27167, 1.08545, 0.976841, 0.956915, 0.935876, 1.00237, 1.05237, 0.990254, 0.975079, 0.988347, 0.935603, 0.967384, 0.960434, 0.973811, 0.877703, 0.876473, 0.922976, 0.946789, 0.947776, 1.02612, 0.925723, 0.930752, 0.957133, 0.880511, 0.839062, 0.839474, 0.776144, 0.758223, 0.759129, 0.735812, 0.625931, 0.624313, 0.597126, 0.597229, 0.565654, 0.44874, 0.447096, 0.337918, 0.336573, 0.345809, 0.358943, 0.295242, 0.293782, 0.32499, 0.286174, 0.232177, 0.269326, 0.306418, 0.306675, 0.305837, 0.238106, 0.272033, 0.262855, 0.263622, 0.264077, 0.27981, 0.278559, 0.276987, 0.276007, 0.277213, 0.27612, 0.28721, 0.288236, 0.282976, 0.282844, 0.283785, 0.283514, 0.284863, 0.287233, 0.286632, 0.288294, 0.288243, 0.288215, 0.287451, 0.286632, 0.283448, 0.282183, 0.274087, 0.277152, 0.275797, 0.275266, 0.274531, 0.400852, 0.402126, 0.276173, 0.27605, 0.403112, 0.298026, 0.299866, 0.299104, 0.570439, 0.570702, 0.289805, 0.325614, 0.241886, 0.250989, 0.252125, 0.253369, 0.253141, 0.253729, 0.268468, 0.268625, 0.270047, 0.269635, 0.267582, 0.266464, 0.265791, 0.268113, 0.617292, 0.611263, 0.336188, 0.338092
0.638314, 0.645492, 0.335239, 0.712476, 0.800822, 0.638152, 0.404213, 0.404149, 0.403394, 0.404098, 0.532095, 0.49556, 0.418214, 0.569357, 0.542381, 0.7293, 0.57293, 0.712543, 0.362638, 0.362655, 0.553658, 0.552564, 0.360246, 1.19722, 0.695033, 0.512331, 0.420052, 0.467926, 0.452131, 0.424073, 0.438406, 0.684964, 0.339057, 0.340969, 0.34087, 0.34151, 0.341726, 0.340941, 0.340721, 0.339979, 0.355112, 0.355392, 0.354864, 0.354712, 0.358646, 0.365028, 0.365162, 0.365421, 0.364731, 0.365075, 0.364055, 0.364895, 0.363496, 0.362789, 0.365467, 0.928468, 0.422609, 0.655839, 0.654689, 0.474171, 0.466002, 0.932217, 0.555701, 0.766041, 0.452842, 0.451631, 0.450192, 0.449065, 0.634802, 0.46376, 0.462429, 0.456257, 0.455131, 0.455109, 0.455999, 0.466116, 0.466117, 0.45904, 0.456312, 0.455081, 0.446569, 0.448178, 0.445456, 0.445553, 0.451073, 0.84923, 0.587637, 0.45926, 0.457717, 0.456937, 0.456554, 0.56537, 0.564323, 0.572627, 0.572505, 0.624389, 0.574175, 0.573543, 0.59571, 0.596566, 0.589495, 0.591119, 0.600288, 0.617514, 0.616228, 0.656296, 0.712052, 0.71165, 0.838694, 0.836642, 0.917918, 0.877102, 0.787491, 0.776284, 0.795596, 0.731025, 0.743573, 0.832756, 0.800797, 0.800368, 0.849661, 0.887835, 0.888929, 0.854464, 0.91812, 0.877037, 0.87648, 0.967097, 0.937173, 0.946321, 0.939113, 0.939118, 0.934376, 0.970604, 0.935128, 1.00302, 0.935618, 0.980609, 0.98041, 0.941445, 0.941202, 0.958546, 0.973586, 1.04344, 1.02603, 1.02906, 1.02804, 1.09224, 1.01881, 1.02528, 1.04674, 1.039, 1.00588, 1.0666, 1.05628, 1.07512, 1.15156, 1.25082, 1.13213, 1.01062, 0.985238, 0.973958, 1.06495, 0.998598, 1.00628, 1.00709, 1.02501, 0.985373, 1.07748, 0.924714, 0.959871, 1.00483, 0.994841, 0.978269, 0.978584, 0.946108, 0.947231, 1.02574, 1.02599, 0.962772, 0.885032, 0.932071, 0.839666, 0.825558, 0.735028, 0.756357, 0.780061, 0.780875, 0.65838, 0.67606, 0.616393, 0.597166, 0.59616, 0.49348, 0.406921, 0.400551, 0.400976, 0.346024, 0.346015, 0.353021, 0.290999, 0.287452, 0.276127, 0.269134, 0.272077, 0.305133, 0.305637, 0.220761, 0.285742, 0.274632, 0.263784, 0.263521, 0.263289, 0.275528, 0.274967, 0.271923, 0.275091, 0.276226, 0.286758, 0.286101, 0.289917, 0.281238, 0.282834, 0.282404, 0.28366, 0.286428, 0.289002, 0.288405, 0.289048, 0.288021, 0.289675, 0.28929, 0.287222, 0.282703, 0.282267, 0.27721, 0.277091, 0.276577, 0.275317, 0.273944, 0.268612, 0.401887, 0.400842, 0.399799, 0.296837, 0.297182, 0.296981, 0.296498, 0.496463, 0.324614, 0.317497, 0.240733, 0.242481, 0.24381, 0.25139, 0.251645, 0.252092, 0.26931, 0.269426, 0.269311, 0.270076, 0.267755, 0.268636, 0.267286, 0.266744, 0.266029, 0.619047, 0.619043, 0.421581, 0.43222
0.652079, 0.63825, 0.608097, 0.335922, 0.586125, 0.798807, 0.799563, 0.801319, 0.403827, 0.403869, 0.495948, 0.495032, 0.311377, 0.42214, 0.542269, 0.729872, 0.507545, 0.714874, 0.360431, 0.361696, 0.552824, 0.361535, 0.360411, 0.358942, 0.807497, 0.513158, 0.639664, 0.464553, 0.450653, 0.560909, 0.553062, 0.441168, 0.687416, 0.339772, 0.339859, 0.341911, 0.342062, 0.341025, 0.340441, 0.376657, 0.356785, 0.357626, 0.358172, 0.356385, 0.356995, 0.366076, 0.365593, 0.365514, 0.365448, 0.365045, 0.36615, 0.365005, 0.368216, 0.368478, 0.367245, 0.372593, 0.426542, 0.653899, 0.472414, 0.479433, 0.477695, 0.4807, 0.501502, 0.462259, 0.455933, 0.450807, 0.455949, 0.455726, 0.455721, 0.465605, 0.460798, 0.459701, 0.4554, 0.455376, 0.455195, 0.465554, 0.465796, 0.464571, 0.456407, 0.456861, 0.446561, 0.44635, 0.446004, 0.450748, 0.451429, 0.583631, 0.679858, 0.457643, 0.49687, 0.489728, 0.542154, 0.562651, 0.573637, 0.579642, 0.571183, 0.57986, 0.579906, 0.573381, 0.616259, 0.703367, 0.702332, 0.599474, 0.659066, 0.617802, 0.615546, 0.615914, 0.677635, 0.708533, 0.822381, 0.890269, 0.902134, 0.856, 0.856387, 0.764061, 0.794941, 0.778041, 0.743458, 0.849569, 0.798862, 0.863559, 0.864628, 0.817986, 0.84383, 0.845534, 0.903005, 0.901922, 0.87504, 0.940125, 0.941976, 0.925928, 0.926278, 1.00785, 0.96294, 0.987068, 0.985989, 0.967778, 0.934317, 0.935515, 0.985239, 0.984943, 0.970555, 0.980729, 0.982124, 1.04421, 1.06668, 1.02867, 1.02845, 1.04314, 1.0176, 1.01759, 1.03148, 1.04235, 1.10865, 1.09333, 1.06084, 1.14388, 1.14367, 1.24388, 1.09169, 1.0223, 0.978288, 0.980315, 1.05312, 1.00409, 1.00256, 1.00256, 1.00263, 1.04485, 1.01678, 1.02186, 0.982219, 0.99567, 0.998021, 0.95773, 0.959666, 0.959809, 0.946927, 0.947665, 0.957964, 0.939953, 0.870843, 0.817612, 0.849222, 0.843383, 0.732293, 0.750686, 0.736552, 0.71409, 0.716697, 0.613603, 0.613836, 0.590906, 0.543745, 0.481339, 0.460172, 0.402407, 0.402158, 0.36493, 0.356376, 0.358625, 0.296911, 0.297085, 0.275568, 0.232638, 0.232548, 0.249082, 0.2935, 0.221613, 0.286229, 0.232754, 0.263333, 0.262928, 0.296588, 0.294152, 0.272745, 0.270447, 0.271222, 0.28693, 0.28727, 0.28725, 0.286806, 0.294778, 0.294696, 0.281913, 0.283405, 0.288371, 0.287174, 0.287031, 0.288032, 0.289824, 0.291309, 0.290589, 0.28625, 0.280763, 0.278594, 0.277233, 0.275052, 0.274299, 0.273454, 0.267206, 0.268159, 0.266784, 0.399313, 0.29522, 0.295942, 0.296274, 0.494257, 0.445697, 0.294029, 0.291679, 0.327911, 0.242001, 0.243194, 0.24388, 0.244516, 0.243188, 0.252238, 0.253037, 0.269252, 0.271272, 0.270509, 0.269585, 0.268373, 0.267401, 0.266246, 0.264874, 0.563055, 0.566333, 0.497653, 0.505731
0.645769, 0.639166, 0.607197, 0.805114, 0.585963, 0.80498, 0.799648, 0.638813, 0.40628, 0.407937, 0.644083, 0.313729, 0.312534, 0.310356, 0.730138, 0.473212, 0.473401, 0.566908, 0.51403, 0.353203, 0.348186, 0.551741, 0.549144, 0.360242, 0.815852, 0.697076, 0.691258, 0.564722, 0.56295, 0.560806, 0.456089, 0.550389, 0.380666, 0.335396, 0.335872, 0.336583, 0.340777, 0.342033, 0.345396, 0.344723, 0.357255, 0.357695, 0.358295, 0.359332, 0.365364, 0.365414, 0.36554, 0.365617, 0.364403, 0.366121, 0.366195, 0.368182, 0.366044, 0.371371, 0.370386, 0.37117, 0.37437, 0.422893, 0.42389, 0.477464, 0.479163, 0.482665, 0.465866, 0.46428, 0.570221, 0.456425, 0.455382, 0.458142, 0.456446, 0.467239, 0.467703, 0.456892, 0.455925, 0.455173, 0.455141, 0.455205, 0.465966, 0.465406, 0.456144, 0.462539, 0.465209, 0.461799, 0.532736, 0.722717, 0.533325, 0.535265, 0.584995, 0.510414, 0.50064, 0.482839, 0.558998, 0.559109, 0.574754, 0.58064, 0.590385, 0.578356, 0.691558, 0.693984, 0.694963, 0.673972, 0.716072, 0.695501, 0.662356, 0.615537, 0.615612, 0.734916, 0.659451, 0.809267, 0.823624, 0.83889, 0.893742, 0.833716, 0.820059, 0.838535, 0.80537, 0.764848, 0.770335, 0.862465, 0.830744, 0.863558, 0.864018, 0.839145, 0.843508, 0.844543, 0.902826, 0.860231, 0.86028, 0.939235, 0.939082, 0.926572, 1.0008, 1.00076, 0.969345, 0.989919, 1.02662, 1.02575, 0.98438, 0.984599, 0.977347, 1.01906, 0.99343, 0.981853, 1.00912, 1.11497, 1.12577, 1.04691, 1.02558, 1.02563, 1.02446, 1.01814, 1.0772, 1.03548, 1.04422, 1.05664, 1.11308, 1.19162, 1.17604, 1.19085, 1.04464, 1.04911, 1.00062, 0.990451, 1.03263, 1.04844, 1.0636, 1.0392, 1.06489, 1.01505, 1.0154, 1.01542, 0.969687, 0.984015, 0.956569, 1.01904, 1.07601, 1.00139, 0.964069, 0.949566, 0.937757, 0.918712, 0.87804, 0.817771, 0.817948, 0.766818, 0.719685, 0.735582, 0.754744, 0.712982, 0.712265, 0.628409, 0.607652, 0.600254, 0.483511, 0.483136, 0.473871, 0.40094, 0.401701, 0.400642, 0.35582, 0.295768, 0.296859, 0.322137, 0.272731, 0.23123, 0.265081, 0.258598, 0.294561, 0.29502, 0.234582, 0.23128, 0.251832, 0.26182, 0.296855, 0.279586, 0.279686, 0.279614, 0.276434, 0.286796, 0.290539, 0.287875, 0.295095, 0.295769, 0.296041, 0.295928, 0.289931, 0.290062, 0.287571, 0.286607, 0.286174, 0.290358, 0.291072, 0.29006, 0.289268, 0.279772, 0.279431, 0.271416, 0.272306, 0.262026, 0.261587, 0.264393, 0.264872, 0.291744, 0.293645, 0.294557, 0.293944, 0.294695, 0.294856, 0.294194, 0.565032, 0.361217, 0.360033, 0.243276, 0.243644, 0.244409, 0.243983, 0.243055, 0.254209, 0.252097, 0.269252, 0.270383, 0.270781, 0.271831, 0.267424, 0.269815, 0.268722, 0.562911, 0.256368, 0.562508, 0.496883, 0.244828
0.470208, 0.616888, 0.811367, 0.808085, 0.742688, 0.802531, 0.490991, 0.398104, 0.407484, 0.407823, 0.410676, 0.662914, 0.499444, 0.309915, 0.305138, 0.473294, 0.47206, 0.472514, 0.355382, 0.350492, 0.348521, 0.346801, 0.547303, 0.545903, 0.864271, 0.684247, 0.687611, 0.368729, 0.562282, 0.563136, 0.551048, 0.552826, 0.342278, 0.334654, 0.335676, 0.337822, 0.339519, 0.342408, 0.346691, 0.345567, 0.346086, 0.356837, 0.839344, 0.384044, 0.365728, 0.364852, 0.36496, 0.363629, 0.363749, 0.363697, 0.364343, 0.366415, 0.368088, 0.371741, 0.370818, 0.372437, 0.374908, 0.373843, 0.425971, 0.910851, 0.910334, 0.72894, 0.529098, 0.635535, 1.08873, 0.621883, 0.464942, 0.456741, 0.466976, 0.468022, 0.467674, 0.466759, 0.456424, 0.45538, 0.455081, 0.456183, 0.466584, 0.465179, 0.462896, 0.462436, 0.468295, 0.464286, 0.580909, 0.721452, 0.583401, 0.535628, 0.487349, 0.48617, 0.486342, 0.486491, 0.581941, 0.579649, 0.54013, 0.540141, 0.539228, 0.630858, 0.696902, 0.692019, 0.690482, 0.673298, 0.717608, 0.746947, 0.657265, 0.648529, 0.728477, 0.729044, 0.756053, 0.804701, 0.805404, 0.868662, 0.900775, 0.830415, 0.840476, 0.839026, 0.857896, 0.85303, 0.854843, 0.857482, 0.862655, 0.864173, 0.86235, 0.866412, 0.845863, 0.865103, 0.866749, 0.92632, 0.883473, 0.961243, 0.990343, 0.93554, 0.932542, 1.04588, 1.00486, 1.02254, 0.98876, 0.989226, 0.990754, 0.991892, 1.03913, 1.00591, 1.03333, 1.0359, 1.13129, 1.13223, 1.09698, 1.10649, 1.02631, 1.02475, 1.02614, 1.02283, 1.04729, 1.04634, 1.05706, 1.05758, 1.17187, 1.16683, 1.18147, 1.18795, 1.2076, 1.04712, 1.01453, 0.996685, 0.995246, 1.09252, 1.12032, 1.0218, 1.00983, 1.03272, 1.11147, 1.008, 0.969709, 0.960409, 0.961428, 1.11275, 0.994876, 1.01507, 0.957418, 0.960674, 0.97043, 0.884396, 0.808609, 0.788352, 0.734874, 0.713558, 0.759674, 0.702724, 0.756718, 0.749044, 0.690503, 0.625145, 0.600148, 0.600942, 0.483167, 0.483404, 0.467452, 0.400573, 0.414142, 0.354725, 0.35542, 0.369464, 0.317256, 0.315679, 0.270811, 0.268257, 0.242153, 0.322814, 0.314828, 0.234089, 0.231656, 0.238827, 0.290661, 0.291259, 0.277006, 0.27659, 0.279966, 0.278343, 0.277831, 0.287548, 0.289022, 0.293634, 0.295976, 0.295952, 0.296227, 0.29613, 0.299951, 0.290479, 0.290897, 0.303223, 0.301479, 0.289474, 0.28916, 0.288969, 0.289023, 0.281474, 0.279446, 0.273806, 0.272069, 0.262818, 0.26325, 0.261945, 0.263554, 0.379392, 0.29421, 0.295339, 0.29368, 0.295084, 0.295258, 0.294772, 0.293322, 0.28419, 0.345273, 0.242637, 0.243946, 0.24448, 0.249111, 0.251354, 0.251261, 0.252204, 0.252878, 0.269893, 0.270667, 0.270967, 0.270932, 0.271007, 0.269492, 0.257365, 0.490371, 0.548493, 0.504181, 0.246257
0.463406, 0.463146, 0.807761, 0.807774, 0.334806, 0.502003, 0.490825, 0.398017, 0.396677, 0.411179, 0.511147, 0.65764, 0.435105, 0.31028, 0.304798, 0.304551, 0.472531, 0.515302, 0.513506, 0.349155, 0.348514, 0.347868, 0.537132, 0.536241, 0.984528, 0.365503, 0.365465, 0.312291, 0.370143, 0.561487, 0.55929, 0.418474, 0.552835, 0.333816, 0.333428, 0.33536, 0.345874, 0.343986, 0.348056, 0.346472, 0.346257, 0.356757, 0.355674, 0.639573, 0.364685, 0.364032, 0.364032, 0.364394, 0.363702, 0.36352, 0.365141, 0.365599, 0.368105, 0.371733, 0.371658, 0.372279, 0.375199, 0.373944, 0.422784, 0.429319, 0.912527, 0.484135, 0.673941, 1.0241, 0.471882, 0.467243, 0.466542, 0.46503, 0.46687, 0.468157, 0.468292, 0.466974, 0.465904, 0.454247, 0.454833, 0.465332, 0.45878, 0.457773, 0.462156, 0.466768, 0.470416, 0.469044, 0.535843, 0.46658, 0.58405, 0.509992, 0.508686, 0.514698, 0.502096, 0.53193, 0.531749, 0.547132, 0.539901, 0.539362, 0.539548, 0.573779, 0.697879, 0.697227, 0.704768, 0.707905, 0.793143, 0.761009, 0.647124, 0.648352, 0.69765, 0.74698, 0.772783, 0.802965, 0.846568, 0.846729, 0.844175, 0.837753, 0.856714, 0.890801, 0.891189, 0.855311, 0.863574, 0.856182, 0.861857, 0.86688, 0.857916, 0.860248, 0.868021, 0.866356, 0.860539, 0.949121, 0.935265, 0.932567, 0.991011, 0.991263, 0.969616, 0.96255, 0.984787, 0.991191, 0.999075, 1.01335, 0.983266, 1.04112, 1.02637, 1.02133, 1.02831, 1.02751, 1.10472, 1.12636, 1.09648, 1.04337, 1.03914, 1.02893, 1.02633, 1.02413, 1.04047, 1.048, 1.06235, 1.14754, 1.38226, 1.31109, 1.28836, 1.17556, 1.16044, 1.06032, 1.04886, 1.01328, 0.99978, 1.00606, 1.06596, 1.04904, 1.05066, 1.06394, 1.11234, 1.00783, 1.11595, 0.959453, 0.960774, 1.0778, 0.96065, 0.984304, 0.976577, 0.97603, 1.03444, 0.829693, 0.824657, 0.78429, 0.743246, 0.71469, 0.702336, 0.702152, 0.791883, 0.70538, 0.791469, 0.621963, 0.581949, 0.611702, 0.528458, 0.480714, 0.480293, 0.430253, 0.41814, 0.354842, 0.356206, 0.35977, 0.366908, 0.349476, 0.322186, 0.306535, 0.299871, 0.273124, 0.273471, 0.229236, 0.229067, 0.274614, 0.251868, 0.317572, 0.276567, 0.275647, 0.277432, 0.279036, 0.279854, 0.282713, 0.282543, 0.292319, 0.295481, 0.296178, 0.296405, 0.296517, 0.302269, 0.304485, 0.30424, 0.304649, 0.304118, 0.289109, 0.294037, 0.291526, 0.28639, 0.284269, 0.28228, 0.441562, 0.26252, 0.263232, 0.262998, 0.261299, 0.260523, 0.518154, 0.295784, 0.296036, 0.295902, 0.29594, 0.295578, 0.294235, 0.291722, 0.683546, 0.68451, 0.240846, 0.242812, 0.241913, 0.249954, 0.251395, 0.251527, 0.25275, 0.253733, 0.253442, 0.269427, 0.270685, 0.270677, 0.269979, 0.268793, 0.255696, 0.25585, 0.549343, 0.549151, 0.246381
0.352289, 0.469846, 0.808867, 0.806499, 0.640053, 1.07298, 0.779552, 0.00419302, 0.414179, 0.58275, 0.411867, 0.658551, 0.31037, 0.308886, 0.305601, 0.30373, 0.303399, 0.303219, 0.512165, 0.511008, 0.346737, 0.350997, 0.535922, 0.536156, 0.309126, 0.365645, 0.359888, 0.359437, 0.359469, 0.561751, 0.377271, 0.44929, 0.552176, 0.507954, 0.334636, 0.335867, 0.335928, 0.347759, 0.347758, 0.348245, 0.34995, 0.356444, 0.355674, 0.387804, 0.363023, 0.362737, 0.364694, 0.364936, 0.364765, 0.36432, 0.36504, 0.365796, 0.367431, 0.372178, 0.371933, 0.375991, 0.373732, 0.395641, 0.425451, 0.429354, 0.505032, 0.00382847, 0.725078, 0.729339, 1.00449, 0.663422, 0.465914, 0.463291, 0.464648, 0.467392, 0.466565, 0.470231, 0.469524, 0.460571, 0.458925, 0.458298, 0.45772, 0.456791, 0.456165, 0.46959, 0.47002, 0.467952, 0.481644, 0.467503, 0.467153, 0.510772, 0.510976, 0.509049, 0.501982, 0.532373, 0.532434, 0.564409, 0.546637, 0.54596, 0.56336, 0.583519, 0.596977, 0.611711, 0.698176, 0.731119, 0.730057, 0.774666, 0.749566, 0.78734, 0.789695, 0.790311, 0.802877, 0.801186, 0.900575, 0.809266, 0.913197, 0.836351, 0.892138, 0.897371, 0.892085, 0.850835, 0.858012, 0.898419, 0.905014, 0.884991, 0.884143, 0.883241, 0.865719, 0.94465, 0.873335, 0.908234, 0.960849, 0.966348, 0.984257, 1.00729, 1.03612, 1.0363, 1.01406, 1.06429, 1.06794, 1.07008, 0.982377, 0.988912, 1.01524, 1.01085, 1.01139, 1.04755, 1.11779, 1.09386, 1.14326, 1.04674, 1.04094, 1.02471, 1.02528, 1.02811, 1.10875, 1.10849, 1.08508, 1.20862, 1.36457, 1.30627, 1.26032, 1.14061, 1.14695, 1.06366, 1.04293, 1.16419, 1.16369, 1.0076, 1.12559, 1.11322, 1.05359, 1.05306, 1.0709, 1.11854, 1.11845, 1.0045, 0.966054, 0.966807, 0.90177, 0.91501, 0.873664, 0.868997, 0.853143, 0.845052, 0.806084, 0.764111, 0.759924, 0.716875, 0.71954, 0.711198, 0.704375, 0.705795, 0.704827, 0.608305, 0.590214, 0.560702, 0.530761, 0.543602, 0.503454, 0.503423, 0.487247, 0.439076, 0.401122, 0.361678, 0.387798, 0.38434, 0.321884, 0.299965, 0.287018, 0.293138, 0.279415, 0.279066, 0.278711, 0.252781, 0.317121, 0.273754, 0.274754, 0.27653, 0.276672, 0.277673, 0.278925, 0.278075, 0.290297, 0.291407, 0.293468, 0.296473, 0.296276, 0.300261, 0.303394, 0.305081, 0.305245, 0.305283, 0.3045, 0.303123, 0.29207, 0.285695, 0.286336, 0.284182, 0.33132, 0.472063, 0.26122, 0.262826, 0.276962, 0.277424, 0.277585, 0.277671, 0.294948, 0.29574, 0.295859, 0.295396, 0.294769, 0.291294, 0.290257, 0.289937, 0.684961, 0.241117, 0.242363, 0.24228, 0.241959, 0.250827, 0.25133, 0.253444, 0.254042, 0.254298, 0.268107, 0.26852, 0.26886, 0.00434316, 0.488122, 0.490575, 0.254932, 0.549079, 0.548342, 0.246476
0.353144, 0.35261, 0.346071, 0.423029, 0.639806, 0.639164, 0.780062, 0.79486, 0.412326, 0.524446, 0.656075, 0.415873, 0.414612, 0.307986, 0.307679, 0.304609, 0.302938, 0.303057, 0.511592, 0.566803, 0.353855, 0.352565, 0.351081, 0.349421, 0.542519, 0.31035, 0.361967, 0.359782, 0.359839, 0.315059, 0.541465, 0.404195, 0.320278, 0.462348, 0.00416192, 0.548963, 0.34555, 0.347691, 0.34958, 0.350903, 0.349887, 0.358195, 0.639683, 0.639337, 0.36179, 0.365238, 0.36495, 0.364361, 0.363236, 0.365562, 0.365291, 0.364302, 0.372098, 0.37255, 0.372175, 0.374264, 0.374535, 0.389124, 0.432392, 0.418531, 0.663801, 1.08182, 0.94652, 0.536443, 0.476314, 0.541325, 0.663158, 0.470702, 0.469741, 0.468065, 0.46905, 0.471205, 0.470062, 0.475, 0.470901, 0.455801, 0.455617, 0.456051, 0.46396, 0.464132, 0.464257, 0.481757, 0.482516, 0.466961, 0.466256, 0.508889, 0.508151, 0.507295, 0.507229, 0.531532, 0.562592, 0.557444, 0.546999, 0.560095, 0.584334, 0.585332, 0.625671, 0.6192, 0.704199, 0.731325, 0.730066, 0.847068, 0.799235, 0.810275, 0.787911, 0.789459, 0.790223, 0.798129, 0.797851, 0.808598, 0.808341, 0.930032, 0.863324, 0.859867, 0.859535, 0.867613, 0.945969, 0.882033, 0.881676, 0.887316, 0.95949, 0.959969, 0.926731, 0.933052, 0.935696, 0.935108, 1.0239, 0.964409, 0.956654, 0.956902, 1.03295, 1.03238, 1.07827, 1.09482, 1.01875, 1.00205, 1.00886, 1.01639, 1.00148, 1.02883, 1.04108, 1.0475, 1.15415, 1.09876, 1.08198, 1.16825, 1.05992, 1.04848, 1.07068, 1.22503, 1.1132, 1.10247, 1.14962, 1.15056, 1.22791, 1.25311, 1.26549, 1.27835, 1.13679, 1.19232, 1.07039, 1.06803, 1.12761, 1.13024, 1.14011, 1.12595, 1.03036, 1.27899, 1.06411, 1.07846, 1.30053, 1.02464, 1.02551, 0.967541, 0.933403, 0.907646, 0.907031, 0.906767, 0.826348, 0.812734, 0.827184, 0.743552, 0.718374, 0.718199, 0.718825, 0.717656, 0.717719, 0.70419, 0.763148, 0.659977, 0.732242, 0.556485, 0.555491, 0.542366, 0.503656, 0.503962, 0.445667, 0.403112, 0.458563, 0.420356, 0.390457, 0.383106, 0.320943, 0.314761, 0.288188, 0.288584, 0.27933, 0.279106, 0.279844, 0.330905, 0.330576, 0.276182, 0.275499, 0.27611, 0.27702, 0.278125, 0.278234, 0.277754, 0.282945, 0.290854, 0.290364, 0.296552, 0.299849, 0.301674, 0.302682, 0.304817, 0.305188, 0.304839, 0.304024, 0.301472, 0.300491, 0.283996, 0.284539, 0.283907, 0.473098, 0.472445, 0.261333, 0.261569, 0.277354, 0.278265, 0.278469, 0.278451, 0.293032, 0.293502, 0.293677, 0.293844, 0.293607, 0.290816, 0.290505, 0.299698, 0.683619, 0.241624, 0.241552, 0.242749, 0.242443, 0.242263, 0.254465, 0.25441, 0.25442, 0.254007, 0.245013, 0.245228, 0.308333, 0.407599, 0.00442077, 0.507503, 0.646921, 0.648942, 0.648945, 0.245251
0.358276, 0.352776, 0.35179, 0.423768, 0.638819, 0.69738, 0.452205, 0.642898, 0.507604, 0.416535, 0.521599, 0.520787, 0.416556, 0.308194, 0.307138, 0.305381, 0.303085, 0.302599, 0.302541, 0.303441, 0.35205, 0.96125, 0.354084, 0.353864, 0.352642, 0.986807, 0.36227, 0.362264, 0.859821, 0.494388, 0.36674, 0.545896, 0.707317, 0.449323, 0.412382, 0.526004, 0.545996, 0.346354, 0.350705, 0.350332, 0.349375, 0.349143, 0.355938, 0.640173, 0.645311, 0.606254, 0.365464, 0.362849, 0.365734, 0.367086, 0.365865, 0.365186, 0.373034, 0.372576, 0.375104, 0.374992, 0.449162, 0.430553, 0.756589, 0.756472, 0.752204, 0.750001, 0.707157, 0.69475, 0.743235, 0.539644, 0.665715, 0.471514, 0.470577, 0.469613, 0.468962, 0.471284, 0.471131, 0.475934, 0.475706, 0.47301, 0.476756, 0.476094, 0.476438, 0.466087, 0.466704, 0.468876, 0.481055, 0.47723, 0.475727, 0.494241, 0.497411, 0.508408, 0.57646, 0.572692, 0.57328, 0.584899, 0.624327, 0.596977, 0.598739, 0.614585, 0.62851, 0.621219, 0.643992, 0.702149, 0.845738, 0.83608, 0.836241, 0.810456, 0.790151, 0.79001, 0.784398, 0.801819, 0.801103, 0.808019, 0.807002, 0.929437, 0.946167, 0.859513, 0.938886, 0.965257, 0.96477, 0.925123, 0.942764, 0.977795, 0.979018, 0.958754, 0.966128, 0.967629, 0.949246, 1.02307, 1.02284, 0.963779, 0.958021, 1.08356, 1.0294, 1.07494, 1.07058, 1.04603, 1.02645, 1.02001, 1.00471, 1.02948, 1.02969, 1.06351, 1.08775, 1.10779, 1.14289, 1.20296, 1.09163, 1.06066, 1.08471, 1.06862, 1.08171, 1.22102, 1.10073, 1.1891, 1.15414, 1.15186, 1.25032, 1.22459, 1.27707, 1.27774, 1.15263, 1.21035, 1.07191, 1.07025, 1.0578, 1.05394, 1.09896, 1.04333, 1.03207, 1.03299, 1.09152, 1.12277, 1.08154, 1.12729, 0.969765, 0.972005, 0.887717, 0.906356, 0.90654, 0.843489, 0.836298, 0.838653, 0.800347, 0.771115, 0.760707, 0.746107, 0.757468, 0.718125, 0.741864, 0.781054, 0.711346, 0.650788, 0.622689, 0.557193, 0.557866, 0.55734, 0.503194, 0.517118, 0.45165, 0.561741, 0.451081, 0.417652, 0.466108, 0.465793, 0.429421, 0.411536, 0.275952, 0.304292, 0.278013, 0.27997, 0.310437, 0.313551, 0.271433, 0.320637, 0.27323, 0.27364, 0.27703, 0.278277, 0.278948, 0.279603, 0.280164, 0.278772, 0.292738, 0.294247, 0.46302, 0.30036, 0.301456, 0.304326, 0.303769, 0.304137, 0.473476, 0.445704, 0.408691, 0.447012, 0.407153, 0.404887, 0.424241, 0.410795, 0.549416, 0.413834, 0.277006, 0.278169, 0.278791, 0.278683, 0.278345, 0.290791, 0.291262, 0.291396, 0.387115, 0.28999, 0.289974, 0.354463, 0.238075, 0.23967, 0.240748, 0.24188, 0.241783, 0.251334, 0.252612, 0.253907, 0.254418, 0.253111, 0.246467, 0.246044, 0.24574, 0.30673, 0.306921, 0.287833, 0.497069, 0.497966, 0.636546, 0.504091
0.359302, 0.352492, 0.352085, 0.790339, 0.794648, 0.683006, 0.45184, 0.711412, 0.5118, 0.52184, 0.521385, 0.522235, 0.520734, 0.417143, 0.306969, 0.304882, 0.303515, 0.302774, 0.30252, 0.301941, 0.302746, 0.303067, 0.354671, 0.353414, 0.358315, 0.98717, 0.361867, 0.362619, 0.560136, 0.366896, 0.366133, 0.543815, 0.464853, 0.460655, 0.437761, 0.58588, 0.697956, 0.348621, 0.349602, 0.349388, 0.349601, 0.351465, 0.35581, 0.390933, 0.638026, 0.597108, 0.368537, 0.368469, 0.368715, 0.368067, 0.366867, 0.367229, 0.374562, 0.37367, 0.373141, 0.374054, 0.373999, 0.756205, 0.757105, 0.428882, 0.650216, 0.667452, 0.479313, 0.696726, 0.538959, 0.542651, 0.65225, 0.469768, 0.469758, 0.470369, 0.469657, 0.469206, 0.469076, 0.476618, 0.47553, 0.475405, 0.474891, 0.479091, 0.47832, 0.466786, 0.466575, 0.466513, 0.468221, 0.556656, 0.555542, 0.493927, 0.494274, 0.593823, 0.574557, 0.574027, 0.658294, 0.658878, 0.594266, 0.590425, 0.597063, 0.625167, 0.623151, 0.665538, 0.693316, 0.69211, 0.846563, 0.83558, 0.815133, 0.844009, 0.798314, 0.78951, 0.803282, 0.80386, 0.803904, 0.807421, 0.8867, 0.905989, 0.933628, 0.935466, 0.932404, 0.960495, 0.96352, 0.942078, 0.942474, 0.93643, 0.990417, 0.974874, 0.976738, 0.979292, 0.961064, 0.959696, 0.940675, 0.948343, 0.969443, 1.09199, 1.04754, 1.0747, 1.07062, 1.04721, 1.11736, 1.02641, 1.01631, 1.00902, 1.02859, 1.09752, 1.1303, 1.10865, 1.10989, 1.11197, 1.09631, 1.09612, 1.07801, 1.07257, 1.07162, 1.08484, 1.09931, 1.28234, 1.27512, 1.20808, 1.28936, 1.26431, 1.26582, 1.22207, 1.19164, 1.19449, 1.18619, 1.18118, 1.07138, 1.08128, 1.0676, 1.06, 1.12519, 1.04926, 1.0678, 1.11754, 1.08099, 0.973085, 0.973042, 0.928627, 1.01127, 0.906161, 0.856308, 0.840167, 0.837232, 0.839073, 0.787508, 0.777442, 0.771863, 0.769486, 0.773908, 0.7503, 0.732618, 0.745505, 0.745098, 0.725977, 0.621105, 0.55733, 0.558216, 0.557813, 0.569593, 0.568599, 0.470921, 0.452105, 0.44968, 0.531471, 0.465615, 0.466387, 0.425513, 0.317065, 0.316091, 0.316823, 0.29178, 0.304294, 0.313558, 0.301295, 0.296529, 0.272971, 0.320467, 0.284205, 0.277144, 0.277437, 0.285814, 0.279529, 0.27888, 0.278344, 0.291414, 0.296647, 0.298124, 0.30369, 0.603697, 0.700844, 0.473226, 0.475191, 0.474067, 0.474663, 0.305432, 0.442598, 0.402761, 0.389538, 0.495238, 0.386577, 0.3624, 0.411924, 0.275608, 0.27703, 0.278072, 0.278777, 0.278074, 0.277236, 0.729359, 0.404657, 0.29042, 0.360492, 0.348734, 0.349876, 0.348936, 0.239763, 0.24027, 0.23974, 0.241122, 0.251405, 0.252799, 0.25343, 0.254554, 0.253319, 0.246019, 0.246919, 0.246541, 0.403037, 0.304256, 0.290807, 0.290618, 0.471484, 0.646299, 0.513465
0.360368, 0.359214, 0.359198, 0.00399549, 0.673191, 0.672885, 0.64843, 0.643128, 0.797305, 0.726076, 0.520934, 0.521, 0.521074, 0.650409, 0.307142, 0.418904, 0.303376, 0.302908, 0.3026, 0.302433, 0.302592, 0.302862, 0.303442, 0.304781, 0.359584, 0.357072, 0.360517, 0.360551, 0.560063, 0.366467, 0.316311, 0.466129, 0.466766, 0.457862, 0.531804, 0.535203, 0.898649, 0.349391, 0.347197, 0.3487, 0.351835, 0.351578, 0.356513, 0.355728, 1.0078, 0.608053, 0.369738, 0.369611, 0.369876, 0.368934, 0.368347, 0.370338, 0.372405, 0.373477, 0.373056, 0.374398, 0.373232, 0.425155, 0.402249, 0.756929, 0.667297, 0.66848, 0.7051, 0.950043, 0.698489, 0.481745, 0.65257, 0.65955, 0.472004, 0.47159, 0.46856, 0.475223, 0.474072, 0.484439, 0.484095, 0.474279, 0.47677, 0.478346, 0.478031, 0.465377, 0.465657, 0.469087, 0.463171, 0.477012, 0.476298, 0.554006, 0.491684, 0.524654, 0.583651, 0.630345, 0.643865, 0.632215, 0.59117, 0.624562, 0.627875, 0.632326, 0.63988, 0.667424, 0.692037, 0.775048, 0.848996, 0.844182, 0.922599, 0.913109, 0.854048, 0.855665, 0.800612, 0.808171, 0.81532, 0.814611, 0.882233, 0.838374, 0.845872, 0.922847, 0.921511, 0.922569, 0.918627, 0.916077, 0.953651, 0.992296, 0.991648, 0.978845, 1.0255, 1.06643, 0.970779, 0.952766, 0.997541, 0.998328, 1.02655, 0.991056, 1.03585, 1.10323, 1.10288, 1.07987, 1.07903, 1.0849, 1.01486, 1.02715, 1.06135, 1.04654, 1.15085, 1.11876, 1.10212, 1.10557, 1.10061, 1.08883, 1.13418, 1.09391, 1.07535, 1.0924, 1.27666, 1.37425, 1.26003, 1.17366, 1.20918, 1.20885, 1.3412, 1.21503, 1.21357, 1.19115, 1.20579, 1.16372, 1.07981, 1.09455, 1.14419, 1.07785, 1.07802, 1.12982, 1.17589, 1.24419, 1.06429, 0.986086, 0.980316, 0.904527, 0.888061, 0.885597, 0.874983, 0.856175, 0.848547, 0.818403, 0.793905, 0.798689, 0.82823, 0.791363, 0.884153, 0.891123, 0.835203, 0.745512, 0.745747, 0.697146, 0.683603, 0.614886, 0.557041, 0.611358, 0.611552, 0.624417, 0.625058, 0.555389, 0.555728, 0.465373, 0.466136, 0.466729, 0.435019, 0.407984, 0.313938, 0.311872, 0.311097, 0.301822, 0.283841, 0.327516, 0.270616, 0.270269, 0.270536, 0.281711, 0.284265, 0.285956, 0.28582, 0.285923, 0.278815, 0.278484, 0.50266, 0.467245, 0.465361, 0.463746, 0.303463, 0.476633, 0.477896, 0.476729, 0.474826, 0.432732, 0.432665, 0.480604, 0.484991, 0.482158, 0.49542, 0.482922, 0.383425, 0.355365, 0.277317, 0.275969, 0.277846, 0.277229, 0.277067, 0.277157, 0.729126, 0.00376301, 0.621334, 0.338396, 0.280597, 0.348068, 0.34296, 0.320228, 0.323043, 0.323527, 0.248941, 0.251549, 0.252754, 0.253425, 0.253335, 0.252377, 0.245884, 0.246226, 0.245693, 0.21558, 0.408174, 0.227915, 0.231161, 0.231479, 0.235043, 0.663402
0.359082, 0.358427, 0.358388, 0.555752, 0.672806, 0.671571, 0.652538, 0.646114, 0.794707, 0.793839, 0.426688, 0.522073, 0.520363, 0.519337, 0.418054, 0.417916, 0.303241, 0.302943, 0.302499, 0.302541, 0.302151, 0.302201, 0.30289, 0.303704, 0.3562, 0.357822, 0.358365, 0.362546, 0.473619, 0.376754, 0.314053, 0.313894, 0.462136, 0.532701, 0.532048, 0.533976, 0.532411, 0.345459, 0.348179, 0.34948, 0.348761, 0.355836, 0.358054, 0.873952, 0.875278, 0.603563, 0.368824, 0.368148, 0.368531, 0.370183, 0.370141, 0.37167, 0.37152, 0.373557, 0.375846, 0.374698, 0.373384, 0.760137, 0.759324, 0.53138, 0.666925, 0.667068, 0.655298, 0.486294, 0.477497, 0.701406, 0.714076, 0.492874, 0.469707, 0.470854, 0.65288, 0.476622, 0.476814, 0.486021, 0.485247, 0.484058, 0.479601, 0.479654, 0.474916, 0.600335, 0.503652, 0.503647, 0.5206, 0.477481, 0.490412, 0.490802, 0.493745, 0.538879, 0.584498, 0.643125, 0.649028, 0.614971, 0.627817, 0.666743, 0.643389, 0.628122, 0.683077, 0.689724, 0.700557, 0.793172, 0.850652, 0.828099, 0.834868, 0.850231, 0.852667, 0.856412, 0.856796, 0.809501, 0.813725, 0.882175, 0.881953, 0.835715, 0.83707, 0.865888, 0.866828, 0.885049, 0.918334, 0.973406, 0.933668, 0.970794, 1.00181, 1.0475, 1.06811, 1.08198, 0.964625, 0.965783, 0.964229, 0.977985, 1.01481, 1.01213, 1.00881, 1.054, 1.06307, 1.06341, 1.05501, 1.05346, 1.03669, 1.04087, 1.08075, 1.07685, 1.09734, 1.0974, 1.10139, 1.10162, 1.0928, 1.11909, 1.08407, 1.08477, 1.07547, 1.13361, 1.18865, 1.23484, 1.29221, 1.32584, 1.33891, 1.28056, 1.25735, 1.25234, 1.25344, 1.18485, 1.17171, 1.1709, 1.09651, 1.10703, 1.11221, 1.07715, 1.09464, 1.10436, 1.16655, 1.12973, 0.99922, 0.980906, 0.957094, 0.935952, 0.899693, 0.897952, 0.85039, 0.916656, 0.918791, 0.828555, 0.845818, 0.799509, 0.866939, 0.867807, 0.870068, 0.889522, 0.907502, 0.797954, 0.741656, 0.715256, 0.677464, 0.685283, 0.627207, 0.697995, 0.613727, 0.627263, 0.627763, 0.628295, 0.555452, 0.542064, 0.464882, 0.440471, 0.434689, 0.436876, 0.309875, 0.326162, 0.297574, 0.299507, 0.284585, 0.280853, 0.283187, 0.270463, 0.304315, 0.282117, 0.752364, 0.28573, 0.28379, 0.276961, 0.278672, 0.377419, 0.393346, 0.452193, 0.448448, 0.448306, 0.00460253, 0.704312, 0.47664, 0.473344, 0.58023, 0.332028, 0.579931, 0.481059, 0.483467, 0.484229, 0.486643, 0.480881, 0.374445, 0.374598, 0.501937, 0.276032, 0.275993, 0.277519, 0.277676, 0.277207, 0.278774, 0.279434, 0.280757, 0.281387, 0.281937, 0.280616, 0.52756, 0.324115, 0.320807, 0.323, 0.324544, 0.323264, 0.252005, 0.251832, 0.251939, 0.242799, 0.243923, 0.244285, 0.216385, 0.21697, 0.216926, 0.414212, 0.228246, 0.237254, 0.503417, 0.632894
0.358308, 0.357956, 0.355845, 0.373375, 0.787394, 0.786943, 0.646203, 0.649134, 0.797446, 0.65746, 0.520879, 0.795988, 0.52054, 0.51984, 0.51893, 0.767264, 0.746528, 0.303088, 0.302618, 0.302486, 0.303002, 0.301509, 0.302846, 0.303215, 0.355376, 0.647449, 0.664475, 0.535021, 0.618742, 0.497518, 0.47345, 0.479146, 0.388279, 0.696874, 0.532698, 0.535042, 0.698517, 0.897562, 0.897603, 0.345769, 0.345851, 0.35563, 0.356797, 0.3617, 0.359226, 0.366916, 0.368831, 0.369703, 0.37031, 0.369621, 0.37332, 0.372163, 0.371418, 0.373522, 0.37558, 0.375258, 0.37456, 0.660059, 0.403887, 0.759802, 0.762547, 0.761952, 0.75265, 0.626111, 0.707652, 0.705476, 0.693803, 0.493747, 0.666007, 0.614207, 0.871889, 0.478131, 0.477573, 0.486088, 0.485109, 0.484014, 0.477171, 0.475967, 0.478969, 0.504412, 0.505019, 0.504453, 0.521919, 0.521039, 0.500384, 0.49048, 0.570059, 0.538378, 0.586756, 0.586467, 0.670263, 0.659765, 0.673062, 0.676237, 0.677102, 0.735777, 0.690241, 0.704983, 0.79321, 0.790813, 0.788152, 0.850771, 0.83377, 0.898381, 0.854062, 0.947104, 0.836068, 0.82108, 0.829077, 0.880971, 0.835432, 0.835449, 0.83449, 0.866179, 0.942166, 0.878886, 0.922192, 0.956304, 0.94124, 0.983432, 0.983251, 1.07202, 1.05298, 1.0527, 0.988235, 1.01594, 0.973378, 0.999186, 0.999351, 1.01068, 1.05313, 1.06517, 1.06301, 1.06307, 1.08544, 1.0582, 1.14036, 1.04967, 1.07835, 1.10196, 1.11937, 1.09836, 1.10153, 1.10137, 1.09582, 1.15687, 1.10767, 1.19476, 1.13182, 1.18612, 1.1744, 1.17515, 1.37545, 1.3918, 1.36155, 1.40064, 1.26408, 1.26403, 1.26381, 1.27163, 1.2676, 1.18513, 1.16798, 1.10865, 1.10893, 1.09827, 1.12953, 1.12981, 1.13202, 1.12597, 1.11219, 0.984549, 0.950047, 0.92339, 0.911472, 0.89559, 0.908418, 0.916683, 0.918212, 0.832218, 0.83539, 0.882971, 0.850634, 0.874864, 0.868115, 0.866846, 0.845708, 0.740202, 0.693143, 0.6935, 0.674774, 0.684301, 0.684739, 0.694302, 0.612871, 0.625678, 0.628419, 0.57076, 0.563254, 0.54203, 0.447976, 0.43816, 0.434465, 0.387517, 0.388769, 0.326836, 0.318178, 0.299765, 0.293536, 0.276968, 0.281825, 0.269715, 0.279026, 0.287067, 0.284068, 0.364891, 0.28487, 0.33843, 0.387987, 0.323499, 0.330511, 0.328643, 0.328378, 0.328535, 0.71469, 0.335804, 0.471098, 0.75686, 0.579987, 0.487285, 0.580679, 0.484261, 0.483345, 0.483914, 1.00824, 0.313774, 0.373692, 0.375481, 0.374862, 0.274089, 0.275649, 0.276012, 0.277248, 0.278089, 0.277795, 0.278069, 0.281033, 0.282149, 0.282312, 0.282093, 0.274064, 0.274512, 0.275677, 0.275263, 0.32332, 0.269534, 0.314761, 0.513641, 0.280057, 0.28754, 0.293734, 0.214995, 0.216842, 0.217584, 0.218037, 0.217912, 0.234927, 0.235727, 0.235849, 0.479568
0.357691, 0.35558, 0.353343, 0.352628, 0.787629, 0.786989, 0.447571, 0.624725, 0.469505, 0.552419, 0.791376, 0.516253, 0.52158, 0.521375, 0.520723, 0.732228, 0.513887, 0.302967, 0.302938, 0.302601, 0.302998, 0.301696, 0.302723, 0.392242, 0.665773, 0.664145, 0.573227, 0.638231, 0.49737, 0.496353, 0.46983, 0.377631, 0.469073, 0.53435, 0.462524, 0.697892, 0.43915, 0.897766, 0.566689, 0.345004, 0.657559, 0.358048, 0.35778, 0.363854, 0.365687, 0.368489, 0.367022, 0.673023, 0.377004, 0.373275, 0.373042, 0.371156, 0.376708, 0.376699, 0.375931, 0.376039, 0.375517, 0.664923, 0.6661, 0.762945, 0.533667, 0.579442, 0.66978, 0.597189, 0.4739, 0.738691, 0.692085, 0.691856, 0.721932, 0.712231, 0.496702, 0.475944, 0.644501, 0.484393, 0.484222, 0.482241, 0.481974, 0.481816, 0.479813, 0.503947, 0.505119, 0.504646, 0.521646, 0.520772, 0.500032, 0.499898, 0.535644, 0.541779, 0.585435, 0.663369, 0.729307, 0.707507, 0.674579, 0.735482, 0.735546, 0.706257, 0.720667, 0.761315, 0.791357, 0.829506, 0.817631, 0.869078, 0.868215, 0.900418, 0.905319, 0.944236, 0.963233, 0.846733, 0.85616, 0.840582, 0.853161, 0.84969, 0.879947, 0.89919, 0.945279, 0.876339, 0.937984, 0.935324, 0.935619, 0.974023, 1.08315, 1.0611, 1.05261, 1.05283, 1.00788, 0.973396, 1.02471, 0.998653, 1.01225, 1.02498, 1.08587, 1.0851, 1.06338, 1.09273, 1.08949, 1.05515, 1.05698, 1.07174, 1.04404, 1.09132, 1.07699, 1.10156, 1.22077, 1.09776, 1.09729, 1.09843, 1.11907, 1.19124, 1.19314, 1.19492, 1.14822, 1.16739, 1.16905, 1.36133, 1.26329, 1.17615, 1.17698, 1.17584, 1.18724, 1.18866, 1.28329, 1.17287, 1.16839, 1.13221, 1.09464, 1.09274, 1.09185, 1.15601, 1.11298, 1.055, 1.06061, 1.03683, 0.94897, 0.949948, 0.938742, 0.946584, 0.944267, 0.868195, 0.867544, 0.833275, 0.874042, 0.894044, 0.849702, 0.871845, 0.867206, 0.932367, 0.806682, 0.69789, 0.707858, 0.693706, 0.66775, 0.683775, 0.618096, 0.644302, 0.604362, 0.604708, 0.597333, 0.579455, 0.53215, 0.496124, 0.49725, 0.430844, 0.440355, 0.393545, 0.387324, 0.318452, 0.318173, 0.311327, 0.299467, 0.282296, 0.282642, 0.282473, 0.281863, 0.28709, 0.349397, 0.343438, 0.349059, 0.322407, 0.324151, 0.323356, 0.323684, 0.329365, 0.329945, 0.329905, 0.329825, 0.699305, 0.461315, 0.525645, 0.783948, 0.341319, 0.57916, 0.50387, 0.481999, 0.579937, 0.00421738, 1.00504, 0.375108, 0.376136, 0.373083, 0.273957, 0.27481, 0.275138, 0.277044, 0.278915, 0.278814, 0.278674, 0.279887, 0.28216, 0.28226, 0.28224, 0.275242, 0.275999, 0.275929, 0.27529, 0.274774, 0.270259, 0.350141, 0.261463, 0.256415, 0.281057, 0.423866, 0.214789, 0.217143, 0.217609, 0.217463, 0.235925, 0.236731, 0.237291, 0.235898, 0.236373
0.356722, 0.355686, 0.354476, 0.353208, 0.352137, 0.579964, 0.943165, 0.501534, 0.501913, 0.476268, 0.52146, 0.522287, 0.520484, 0.519, 0.523465, 0.522371, 0.689062, 0.30378, 0.30319, 0.302669, 0.30297, 0.303901, 0.302868, 0.303371, 0.984049, 0.662546, 0.366889, 0.971988, 0.496834, 0.629269, 0.653305, 0.655395, 0.475784, 0.57307, 0.459058, 0.518418, 0.435295, 0.00438714, 0.555975, 0.98874, 0.353914, 0.355217, 0.35969, 0.662257, 0.368412, 0.366056, 0.367434, 0.378461, 0.378939, 0.378268, 0.376898, 0.379211, 0.379864, 0.379304, 0.377817, 0.379254, 0.665868, 0.666332, 0.662286, 0.661625, 0.532768, 0.53261, 0.752681, 0.754607, 0.753859, 0.480273, 0.74176, 0.693563, 0.671364, 0.673358, 0.567666, 0.645966, 0.646475, 0.746549, 0.486642, 0.759782, 0.612608, 0.612113, 0.609617, 0.501774, 0.503019, 0.503437, 0.520037, 0.500477, 0.500485, 0.499922, 0.542783, 0.624846, 0.624792, 0.624116, 0.728563, 0.709743, 0.711222, 0.735268, 0.732985, 0.726157, 0.762597, 0.757914, 0.828895, 0.828089, 0.831605, 0.945501, 0.889673, 0.89055, 0.915489, 0.891243, 0.870177, 0.848555, 0.849966, 0.874964, 0.876603, 0.875283, 0.888903, 0.868871, 0.864907, 0.864918, 0.909184, 0.935103, 0.980763, 0.978778, 0.984045, 1.10888, 1.05285, 1.01578, 1.01196, 1.03675, 1.02651, 1.02203, 1.0252, 1.03667, 1.04422, 1.04796, 1.11253, 1.08772, 1.11179, 1.05367, 1.05546, 1.04809, 1.06994, 1.0962, 1.08137, 1.08587, 1.14959, 1.09826, 1.11848, 1.12037, 1.12645, 1.19412, 1.19486, 1.15458, 1.14759, 1.16071, 1.19502, 1.19477, 1.27799, 1.17539, 1.17659, 1.17376, 1.17493, 1.2372, 1.25959, 1.27414, 1.17911, 1.14232, 1.14331, 1.12693, 1.10184, 1.14001, 1.14057, 1.07406, 1.06761, 1.04035, 0.974796, 0.940114, 0.95307, 0.945353, 0.946387, 0.88127, 0.929524, 0.876568, 0.921811, 0.86757, 0.928725, 0.849914, 0.86259, 0.819866, 0.805118, 0.804843, 0.700417, 0.701218, 0.662483, 0.659905, 0.619623, 0.604893, 0.605309, 0.6048, 0.59135, 0.547295, 0.497736, 0.438928, 0.440198, 0.413438, 0.413238, 0.394703, 0.393586, 0.428741, 0.428781, 0.321723, 0.300164, 0.281793, 0.283571, 0.281611, 0.277138, 0.326875, 0.326598, 0.328975, 0.328369, 0.323267, 0.323503, 0.324504, 0.325708, 0.327233, 0.33019, 0.330758, 0.329525, 0.697507, 0.340802, 0.342031, 0.34279, 0.343721, 0.576861, 0.487854, 0.47988, 0.334389, 0.445541, 0.580829, 0.373924, 0.374074, 0.404018, 0.272023, 0.273376, 0.275992, 0.2788, 0.279391, 0.279585, 0.278824, 0.279773, 0.281881, 0.282406, 0.282019, 0.275715, 0.276059, 0.276284, 0.275972, 0.275284, 0.274449, 0.510152, 0.259309, 0.510282, 0.299801, 0.424701, 0.425901, 0.215763, 0.216768, 0.216438, 0.23698, 0.237545, 0.237625, 0.237633, 0.23716
0.356799, 0.355183, 0.353583, 0.353058, 0.35624, 0.377528, 0.505651, 0.504188, 0.501042, 0.501113, 0.411443, 0.524416, 0.519647, 0.517857, 0.521697, 0.308765, 0.513924, 0.304685, 0.303855, 0.302908, 0.302896, 0.303418, 0.303412, 0.303488, 0.304388, 1.05275, 0.307267, 0.971384, 0.310915, 0.311673, 0.655657, 0.332648, 0.33298, 0.485741, 0.517771, 0.436262, 0.447751, 1.85859, 0.401241, 0.566995, 0.887037, 0.35455, 0.364902, 0.363666, 0.368685, 0.368486, 0.368591, 0.368421, 0.37902, 0.380101, 0.378547, 0.378282, 0.381666, 0.380266, 0.380187, 0.378905, 0.379085, 0.666141, 0.520065, 0.759754, 0.425389, 0.431651, 0.44606, 0.757573, 0.484204, 0.475262, 0.72617, 0.691332, 0.528688, 0.680722, 0.573753, 0.629936, 0.909236, 0.652707, 0.652548, 0.491433, 0.73224, 0.617756, 0.54872, 0.50177, 0.500946, 0.519605, 0.492425, 0.494119, 0.499031, 0.543464, 0.54871, 0.553561, 0.622586, 0.768061, 0.767553, 0.80023, 0.785128, 0.728108, 0.752647, 0.763129, 0.762969, 0.804444, 0.803879, 0.855466, 0.856238, 0.87686, 0.890751, 0.890938, 0.888366, 0.89049, 0.986161, 0.876819, 0.897628, 0.881462, 0.875741, 0.894726, 0.876736, 0.868339, 0.868259, 0.94293, 0.941961, 0.963563, 0.978092, 0.975058, 0.973806, 1.10866, 1.02577, 1.04369, 0.994443, 1.00204, 1.0054, 1.01553, 1.27308, 1.2737, 1.2342, 1.35579, 1.35914, 1.10781, 1.08947, 1.05471, 1.05355, 1.07401, 1.06176, 1.09651, 1.0977, 1.11213, 1.08071, 1.0876, 1.09817, 1.11024, 1.13198, 1.13291, 1.14883, 1.14593, 1.14053, 1.14123, 1.22956, 1.27229, 1.29185, 1.28965, 1.22327, 1.17482, 1.18679, 1.28424, 1.14248, 1.14406, 1.17418, 1.1361, 1.14588, 1.14972, 1.15372, 1.15163, 1.10854, 1.04858, 1.04433, 1.09794, 0.984533, 0.953399, 0.953687, 0.94422, 0.942172, 0.938786, 0.907331, 0.893692, 0.871594, 0.867106, 0.867289, 0.851293, 0.850304, 0.821527, 0.80518, 0.739926, 0.70514, 0.68478, 0.654561, 0.636174, 0.622439, 0.597308, 0.593467, 0.582897, 0.622382, 0.498563, 0.496345, 0.473913, 0.442643, 0.445454, 0.414473, 0.395217, 0.388428, 0.42825, 0.428117, 0.328497, 0.300029, 0.318484, 0.284778, 0.278831, 0.280807, 0.279424, 0.32951, 0.329319, 0.325343, 0.324017, 0.324074, 0.324064, 0.323692, 0.328239, 0.330305, 0.331042, 0.330905, 0.341419, 0.341427, 0.344014, 0.344471, 0.344564, 0.344439, 0.342761, 0.835597, 0.680614, 0.4471, 0.442109, 0.442938, 0.465926, 0.555085, 0.413619, 0.27396, 0.27592, 0.277484, 0.279404, 0.277283, 0.277601, 0.278885, 0.280898, 0.28083, 0.280054, 0.275188, 0.275644, 0.276642, 0.276265, 0.275454, 0.275073, 0.270373, 0.293487, 0.257949, 0.425616, 0.424353, 0.306813, 0.295224, 0.234611, 0.236253, 0.237467, 0.23818, 0.238317, 0.238621, 0.237198
0.357391, 0.356822, 0.355859, 0.35544, 0.365719, 0.556225, 0.378916, 0.502617, 0.502671, 0.783424, 0.406798, 0.467279, 0.648018, 0.00430805, 0.621647, 0.653195, 0.307714, 0.304457, 0.303357, 0.303076, 0.302851, 0.303261, 0.304584, 0.303629, 0.304587, 0.305047, 0.963771, 0.30775, 0.352448, 0.311639, 0.369553, 0.364777, 0.315234, 0.560078, 0.708284, 0.573186, 0.441148, 0.71071, 1.02898, 1.02572, 0.359921, 0.659099, 0.364073, 0.368774, 0.368985, 0.368915, 0.368988, 0.368959, 0.37933, 0.380034, 0.37813, 0.382878, 0.382365, 0.380541, 0.381085, 0.379465, 0.378695, 0.670261, 0.602636, 0.427216, 0.429507, 0.432222, 0.677644, 0.563481, 0.540152, 0.473021, 0.519821, 0.528254, 0.559846, 0.57395, 0.577308, 0.621789, 0.783195, 0.652064, 0.652836, 0.496893, 0.796548, 0.615098, 0.549105, 0.500652, 0.500684, 0.520662, 0.491518, 0.493139, 0.501033, 0.543935, 0.546935, 0.5564, 0.724522, 0.767819, 0.749729, 0.770659, 0.785084, 0.808603, 0.756519, 0.753483, 0.78727, 0.803267, 0.804406, 0.859423, 0.941338, 0.877861, 0.88747, 0.88645, 0.89054, 0.91782, 0.994733, 0.922996, 0.973487, 0.933887, 0.942215, 0.890745, 0.885173, 0.982238, 0.983234, 0.928376, 1.01273, 0.950253, 0.980295, 1.00564, 1.00834, 1.0287, 1.02928, 1.02507, 1.01623, 1.00838, 1.01401, 1.01161, 1.16007, 1.22669, 1.23754, 1.32844, 1.26692, 1.37745, 1.12266, 1.08821, 1.0907, 1.07785, 1.05979, 1.05972, 1.07694, 1.15265, 1.10537, 1.15034, 1.15067, 1.1293, 1.13411, 1.15583, 1.14288, 1.13982, 1.19118, 1.16523, 1.26149, 1.17785, 1.24787, 1.2953, 1.30494, 1.20663, 1.2816, 1.14253, 1.14239, 1.14734, 1.24278, 1.21099, 1.12686, 1.12649, 1.20633, 1.13303, 1.089, 1.04992, 1.02265, 1.02392, 1.06847, 0.967511, 1.01216, 0.935655, 0.928912, 0.930148, 1.00369, 0.929859, 0.871914, 0.881767, 0.849436, 0.850184, 0.831536, 0.853233, 0.726113, 0.726245, 0.714641, 0.718972, 0.648212, 0.642388, 0.64537, 0.618834, 0.618788, 0.603762, 0.67055, 0.530707, 0.497458, 0.476269, 0.473635, 0.411746, 0.412474, 0.404195, 0.391206, 0.434616, 0.434348, 0.308451, 0.306232, 0.290076, 0.283025, 0.279127, 0.328811, 0.328476, 0.327637, 0.328777, 0.324258, 0.325023, 0.32428, 0.32383, 0.324261, 0.329498, 0.329534, 0.328711, 0.328493, 0.341331, 0.343262, 0.344757, 0.345694, 0.346118, 0.345696, 0.344642, 0.489511, 0.839302, 0.446543, 0.439978, 0.458849, 0.461785, 0.416085, 0.464581, 0.402789, 0.400362, 0.278287, 0.278798, 0.277844, 0.275855, 0.271596, 0.278369, 0.279328, 0.277853, 0.275142, 0.276023, 0.276694, 0.276026, 0.275349, 0.27439, 0.270005, 0.293813, 0.421802, 0.421356, 0.508371, 0.294209, 0.296501, 0.241802, 0.237127, 0.238324, 0.23905, 0.239886, 0.241212, 0.237962
0.358815, 0.358749, 0.360894, 0.365457, 0.355687, 0.587138, 0.579949, 0.570718, 0.569215, 0.569559, 0.404436, 0.468807, 0.390912, 0.38963, 0.390219, 0.631437, 0.538939, 0.304141, 0.303332, 0.303403, 0.30297, 0.303378, 0.304503, 0.303654, 0.305731, 0.305867, 0.307111, 0.353675, 0.352294, 0.351803, 0.363397, 0.366886, 0.365106, 0.560967, 0.569586, 0.442254, 0.504987, 0.464509, 0.573401, 0.549758, 0.384494, 0.597823, 0.596622, 0.369185, 0.368774, 0.369829, 0.369256, 0.382062, 0.382515, 0.37773, 0.377545, 0.383675, 0.384006, 0.383171, 0.382929, 0.378817, 0.381792, 0.726096, 0.666794, 0.425391, 0.427452, 0.428544, 0.77694, 0.677566, 0.676185, 0.526653, 0.71235, 0.494616, 0.704011, 0.753355, 1.00239, 0.594456, 0.752699, 0.656449, 0.491032, 0.499644, 0.711002, 0.560924, 0.54922, 0.548002, 0.520064, 0.489705, 0.489552, 0.501196, 0.506662, 0.538374, 0.546048, 0.725437, 0.725669, 0.724287, 0.766762, 0.764742, 0.764619, 0.839582, 0.86647, 0.781501, 0.80646, 0.889918, 0.885149, 0.887084, 0.87896, 0.818879, 0.819579, 0.900364, 0.900992, 0.911121, 0.987078, 0.973914, 0.974209, 0.966697, 0.99466, 1.00402, 1.07338, 0.988278, 0.983675, 0.987772, 0.988322, 0.995571, 0.97399, 1.00936, 1.06612, 1.05339, 1.01987, 1.02013, 1.01729, 0.990503, 1.03228, 1.02305, 1.03784, 1.22668, 1.22293, 1.24003, 1.2957, 1.28936, 1.13437, 1.1411, 1.14632, 1.12799, 1.12754, 1.07162, 1.09583, 1.1012, 1.10362, 1.11315, 1.16079, 1.15079, 1.15842, 1.17196, 1.15342, 1.17007, 1.14157, 1.14881, 1.14757, 1.18779, 1.3896, 1.29474, 1.29666, 1.1603, 1.16089, 1.2452, 1.23879, 1.24016, 1.23102, 1.19328, 1.14625, 1.12439, 1.15011, 1.09749, 1.09602, 1.09282, 1.09234, 1.02595, 1.00071, 0.974932, 0.975959, 0.936502, 0.937216, 0.92944, 0.929574, 0.989165, 0.872229, 0.880256, 0.887171, 0.853343, 0.805382, 0.780572, 0.756791, 0.715449, 0.71228, 0.712776, 0.652401, 0.660968, 0.619843, 0.619735, 0.604495, 0.669049, 0.670119, 0.568448, 0.544331, 0.476866, 0.443305, 0.446068, 0.448131, 0.411173, 0.389971, 0.417948, 0.304783, 0.317138, 0.294087, 0.289537, 0.288921, 0.327668, 0.327446, 0.327656, 0.279559, 0.327508, 0.32527, 0.325148, 0.313389, 0.313374, 0.319803, 0.319528, 0.327414, 0.328131, 0.328355, 0.342291, 0.344519, 0.345664, 0.346886, 0.347185, 0.346891, 0.346148, 0.344325, 0.562571, 0.564377, 0.442043, 0.683167, 0.684401, 0.418791, 0.417168, 0.459643, 0.399596, 0.276609, 0.276776, 0.275486, 0.2758, 0.270772, 0.270875, 0.276431, 0.277446, 0.276279, 0.275716, 0.275684, 0.275228, 0.274749, 0.272231, 0.27021, 0.628361, 0.628041, 0.505481, 0.417429, 0.421365, 0.00418306, 0.234871, 0.236752, 0.238087, 0.23892, 0.239569, 0.239689, 0.238485
0.362416, 0.361998, 0.360313, 0.358133, 0.355549, 0.439689, 0.625107, 0.571091, 0.569503, 0.465035, 0.486727, 0.767729, 0.392202, 0.389404, 0.389261, 0.639114, 0.487169, 0.485589, 0.304267, 0.303719, 0.303186, 0.303646, 0.304558, 0.304645, 0.305231, 0.545712, 0.306257, 0.420264, 0.353503, 0.362032, 0.364086, 0.315862, 0.808718, 0.561347, 0.703778, 0.51066, 0.508301, 0.507487, 0.573454, 0.687587, 0.680837, 0.597595, 0.670198, 0.37211, 0.373059, 0.37417, 0.379898, 0.382558, 0.38495, 0.386161, 0.385068, 0.383614, 0.384211, 0.38455, 0.38374, 0.38581, 0.385544, 0.833438, 0.426345, 0.425806, 0.763913, 0.770306, 0.671683, 0.672713, 0.917653, 0.525712, 0.526102, 0.719365, 0.753527, 0.753218, 0.914879, 0.742579, 0.911179, 0.655571, 0.662003, 0.618624, 0.659668, 0.546619, 0.551338, 0.550463, 0.544438, 0.488368, 0.503559, 0.506691, 0.504262, 0.538876, 0.556787, 0.725915, 0.725673, 0.724993, 0.766646, 0.765599, 0.763764, 0.837306, 0.837615, 0.79536, 0.796606, 0.890144, 0.78887, 0.785942, 0.817723, 0.818881, 0.893966, 0.863512, 0.905875, 0.905601, 1.10971, 1.1096, 1.12986, 1.00185, 1.00317, 1.00111, 0.998779, 0.998723, 1.04416, 0.993061, 0.994469, 1.01467, 1.01105, 0.991486, 1.06486, 1.06636, 1.05624, 1.01197, 1.0168, 1.01254, 1.03637, 1.05781, 1.03681, 1.08045, 1.22309, 1.31395, 1.2709, 1.1096, 1.10696, 1.11302, 1.10867, 1.08779, 1.08173, 1.0989, 1.12455, 1.14027, 1.10577, 1.14463, 1.18183, 1.15433, 1.15243, 1.14758, 1.14662, 1.16701, 1.14248, 1.14256, 1.15371, 1.19195, 1.1916, 1.39185, 1.3842, 1.15637, 1.16047, 1.15814, 1.25257, 1.27366, 1.20788, 1.20305, 1.19925, 1.18903, 1.1676, 1.13601, 1.09996, 1.05087, 1.02731, 1.01299, 1.00454, 0.944046, 0.93561, 0.935333, 0.932761, 0.943236, 0.931372, 0.988898, 0.886523, 0.885489, 0.839316, 0.845553, 0.82691, 0.82821, 0.775036, 0.763409, 0.706819, 0.712986, 0.69808, 0.653734, 0.617183, 0.619062, 0.635142, 0.669894, 0.566798, 0.56947, 0.568924, 0.50349, 0.510209, 0.432632, 0.421102, 0.435368, 0.392926, 0.376871, 0.339797, 0.369733, 0.305299, 0.300231, 0.299478, 0.299188, 0.327471, 0.278822, 0.279608, 0.328111, 0.325409, 0.325393, 0.313751, 0.313802, 0.31399, 0.320859, 0.324125, 0.480752, 0.508141, 0.342518, 0.344518, 0.345891, 0.347201, 0.347613, 0.347358, 0.346571, 0.345438, 0.564642, 0.562207, 0.563811, 0.489689, 0.685002, 0.685685, 0.417255, 0.399159, 0.30086, 0.300193, 0.300317, 0.27471, 0.270327, 0.269962, 0.27525, 0.276243, 0.276744, 0.275784, 0.273291, 0.273886, 0.273719, 0.272935, 0.270144, 0.627088, 0.628349, 0.802979, 0.507164, 0.418677, 0.424786, 0.508559, 0.234861, 0.235812, 0.237998, 0.238329, 0.238, 0.237725, 0.237189
0.36218, 0.361564, 0.359403, 0.35642, 0.354735, 0.353818, 0.626012, 0.625247, 0.570595, 0.566199, 0.397662, 0.772155, 0.391456, 0.391017, 0.388305, 0.639828, 0.639956, 0.517035, 0.455825, 0.304398, 0.303784, 0.303974, 0.304935, 0.305157, 0.305097, 0.306251, 0.308171, 0.307723, 0.309086, 0.362528, 0.363351, 0.808432, 0.808094, 0.563675, 0.703748, 0.704467, 0.910765, 0.50028, 0.581389, 0.583939, 0.658816, 0.59644, 0.370283, 0.373114, 0.376047, 0.378511, 0.378005, 0.379224, 0.387624, 0.386769, 0.385995, 0.385711, 0.385583, 0.385448, 0.384963, 0.384959, 0.385488, 0.384445, 0.601498, 0.794354, 0.76116, 0.424728, 0.542902, 0.925433, 0.461904, 0.535845, 0.721481, 0.72309, 0.696778, 0.921651, 0.718436, 0.759689, 0.746139, 0.746288, 0.708115, 0.662659, 0.65534, 0.654345, 0.582079, 0.565117, 0.553011, 0.555666, 0.50155, 0.50872, 0.506502, 0.544734, 0.681287, 0.731122, 0.734604, 0.721501, 0.76465, 0.765326, 0.796657, 0.795616, 0.794684, 0.828356, 0.794686, 0.793527, 0.801014, 0.789261, 0.787557, 0.893979, 0.904342, 0.860139, 0.870637, 1.10895, 1.11492, 1.11503, 1.13301, 1.11937, 1.13051, 1.10849, 1.05611, 0.997822, 1.01138, 1.00595, 0.993998, 1.02085, 0.986443, 1.00228, 1.07367, 1.07362, 1.06708, 1.05694, 1.02831, 1.03057, 1.03941, 1.04845, 1.06132, 1.07098, 1.09419, 1.47121, 1.30194, 1.1054, 1.10573, 1.10671, 1.10095, 1.11726, 1.08529, 1.09622, 1.12643, 1.10677, 1.11705, 1.15073, 1.14622, 1.18895, 1.16347, 1.15592, 1.17415, 1.1672, 1.16745, 1.14688, 1.14613, 1.13929, 1.13964, 1.38937, 1.30197, 1.15632, 1.21496, 1.15724, 1.21237, 1.27222, 1.22087, 1.21606, 1.22177, 1.13439, 1.10935, 1.08721, 1.11865, 1.05451, 1.00434, 1.01493, 0.993845, 0.944628, 0.957106, 0.92757, 0.935858, 0.936099, 0.912729, 0.885171, 0.973396, 0.853116, 0.85257, 0.828889, 0.922772, 0.770083, 0.766603, 0.764309, 0.763662, 0.711289, 0.691082, 0.719899, 0.659558, 0.628352, 0.714434, 0.625959, 0.625197, 0.56977, 0.570061, 0.519236, 0.445632, 0.448556, 0.44882, 0.4215, 0.394367, 0.4075, 0.355109, 0.305565, 0.305232, 0.287704, 0.287664, 0.2904, 0.291673, 0.303795, 0.279537, 0.333957, 0.33409, 0.334428, 0.31409, 0.313343, 0.314098, 0.321575, 0.321403, 0.472865, 0.491632, 0.342614, 0.344459, 0.345915, 0.347154, 0.347699, 0.347408, 0.346581, 0.345297, 0.562311, 0.562354, 0.563243, 0.575187, 0.684166, 0.392532, 0.407296, 0.405118, 0.29947, 0.299335, 0.299449, 0.43626, 0.267707, 0.268423, 0.271492, 0.275661, 0.275541, 0.274016, 0.272944, 0.273017, 0.272443, 0.328948, 0.269863, 0.628802, 0.801489, 0.800144, 0.507375, 0.508322, 0.423981, 0.408422, 0.233763, 0.234418, 0.237009, 0.236778, 0.23695, 0.236381, 0.236582
0.360871, 0.359631, 0.357833, 0.356031, 0.355228, 0.35451, 1.00866, 1.00507, 0.338574, 0.484061, 0.484328, 0.390671, 0.469794, 0.390334, 0.38828, 0.742292, 0.457399, 0.456917, 0.456563, 0.304595, 0.304361, 0.304552, 0.305323, 0.305775, 0.305878, 0.614107, 0.309708, 0.310034, 0.309026, 0.363222, 0.362242, 0.80816, 0.812658, 0.501373, 0.370131, 0.369779, 0.513681, 0.465924, 0.408752, 0.674024, 0.670732, 0.596333, 0.549915, 0.377367, 0.378812, 0.378754, 0.377586, 0.377448, 0.387056, 0.387601, 0.38648, 0.385374, 0.385557, 0.384683, 0.387708, 0.389544, 0.389023, 0.389305, 0.395081, 0.600416, 0.65388, 0.421273, 0.676232, 0.468601, 0.462573, 0.723078, 0.481104, 0.497639, 0.719081, 0.921149, 0.726851, 0.919631, 0.918988, 0.532171, 0.659501, 0.661386, 0.649068, 0.579336, 0.529564, 0.566635, 0.616771, 0.544842, 0.525243, 0.506592, 0.552331, 0.60606, 0.751116, 0.732966, 0.73386, 0.7223, 0.793246, 0.815211, 0.767277, 0.794276, 0.808762, 0.811214, 0.792783, 0.805045, 0.87512, 0.806662, 0.798715, 0.898767, 0.853698, 0.870667, 0.88092, 1.17102, 1.1366, 1.13609, 1.09156, 1.19979, 1.10449, 1.00949, 1.01187, 1.0112, 1.01122, 0.998296, 0.997972, 1.07521, 1.00408, 0.981462, 0.981987, 1.01606, 1.05614, 1.04005, 1.06652, 1.02222, 1.04651, 1.04566, 1.07524, 1.08169, 1.09136, 1.09421, 1.15282, 1.10632, 1.10457, 1.10538, 1.12657, 1.1179, 1.11746, 1.1498, 1.14828, 1.17138, 1.15396, 1.16535, 1.15814, 1.19602, 1.16348, 1.16272, 1.17384, 1.16769, 1.17386, 1.16445, 1.20233, 1.13723, 1.13714, 1.14027, 1.30239, 1.37998, 1.16497, 1.16328, 1.23391, 1.28508, 1.2234, 1.26291, 1.26349, 1.17224, 1.09271, 1.08443, 1.06274, 1.07736, 1.00531, 0.980707, 0.987156, 0.957493, 0.939588, 0.937757, 0.937521, 0.912041, 0.904858, 0.87265, 0.859279, 0.848876, 0.828225, 0.828537, 0.828014, 0.78385, 0.784245, 0.756339, 0.773834, 0.790464, 0.797128, 0.73548, 0.695934, 0.697319, 0.68769, 0.618571, 0.625218, 0.569308, 0.572929, 0.571999, 0.467326, 0.444576, 0.421048, 0.417062, 0.428602, 0.428025, 0.407136, 0.407177, 0.30534, 0.380247, 0.38114, 0.287935, 0.307879, 0.303814, 0.307151, 0.334269, 0.333783, 0.313841, 0.314662, 0.314854, 0.314625, 0.320569, 0.322297, 0.324725, 0.476914, 0.342517, 0.343988, 0.34525, 0.346617, 0.347164, 0.34685, 0.345927, 0.56307, 0.563062, 0.563155, 0.562903, 0.566161, 0.399867, 0.401295, 0.404246, 0.410429, 0.411465, 0.485079, 0.299843, 0.297357, 0.265605, 0.266551, 0.26723, 0.273533, 0.274368, 0.271608, 0.272539, 0.271913, 0.27125, 0.331191, 0.32762, 0.326587, 0.629027, 0.79695, 0.797052, 0.253685, 0.407041, 0.407143, 0.231985, 0.233185, 0.235323, 0.235366, 0.234688, 0.234404, 0.23529
0.360201, 0.361837, 0.358848, 0.356482, 0.355712, 1.00554, 1.00542, 0.380833, 0.341163, 0.56967, 0.439712, 0.908576, 0.322119, 0.318333, 0.396521, 0.397284, 0.459256, 0.458525, 0.309956, 0.306605, 0.304734, 0.305125, 0.305802, 0.306519, 0.306322, 0.675674, 0.309948, 0.310673, 0.31092, 0.363107, 0.363192, 0.362547, 0.362653, 0.500892, 0.569954, 0.367514, 0.514104, 0.517734, 0.640682, 0.68501, 0.387613, 0.59492, 0.899882, 0.666589, 0.380401, 0.380988, 0.381613, 0.38349, 0.386339, 0.387139, 0.389824, 0.387941, 0.386173, 0.386254, 0.386879, 0.387997, 0.390412, 0.389831, 0.396471, 0.600809, 0.810915, 0.65792, 0.705392, 0.433787, 0.463528, 0.462361, 0.680941, 0.758366, 0.507384, 0.747225, 0.523968, 0.523669, 0.523196, 0.867139, 0.669749, 0.6595, 0.656595, 0.530216, 0.53018, 0.528606, 0.539048, 0.576339, 0.584657, 0.569562, 0.608471, 0.702171, 0.701911, 0.700899, 0.701899, 0.793587, 0.815796, 0.817226, 0.770104, 0.883705, 0.804735, 0.813178, 0.814253, 0.811355, 0.8093, 0.802043, 0.842864, 0.86324, 0.883659, 0.865027, 1.40982, 1.13939, 1.1343, 1.11846, 1.09374, 1.09467, 1.026, 1.00827, 1.0155, 1.01537, 1.01162, 1.01084, 1.07955, 1.0159, 0.984725, 1.06318, 1.00005, 1.04954, 1.04624, 1.04382, 1.12404, 1.03362, 1.12508, 1.128, 1.10273, 1.10322, 1.09067, 1.1457, 1.11153, 1.11159, 1.12067, 1.12368, 1.13997, 1.12337, 1.13176, 1.15673, 1.17699, 1.17366, 1.15164, 1.40553, 1.17065, 1.1711, 1.18215, 1.18052, 1.1828, 1.19858, 1.17361, 1.17788, 1.17983, 1.18161, 1.14946, 1.14028, 1.1411, 1.38065, 1.16353, 1.16306, 1.2293, 1.2459, 1.19142, 1.20204, 1.16688, 1.12696, 1.1401, 1.13873, 1.07015, 1.08497, 0.994824, 0.982896, 0.952311, 0.952904, 0.939929, 0.939899, 0.937012, 0.937926, 0.880258, 0.862303, 0.842563, 0.842314, 0.832336, 0.832917, 0.912897, 0.798473, 0.801867, 0.923287, 0.932758, 0.887187, 0.883802, 0.805918, 0.773212, 0.694469, 0.687463, 0.626205, 0.586835, 0.585619, 0.573693, 0.584446, 0.485755, 0.48746, 0.48741, 0.420071, 0.428395, 0.395308, 0.397509, 0.346673, 0.368703, 0.379745, 0.299914, 0.288859, 0.307148, 0.307052, 0.34927, 0.330719, 0.330867, 0.316953, 0.315916, 0.315205, 0.315296, 0.32188, 0.323304, 0.320997, 0.474475, 0.389269, 0.343048, 0.344658, 0.345719, 0.345827, 0.345469, 0.3452, 0.562469, 0.563479, 0.565705, 0.563515, 0.680061, 0.400035, 0.400624, 0.374591, 0.475724, 0.618093, 0.541476, 0.493585, 0.417344, 0.26532, 0.266476, 0.266905, 0.524667, 0.271391, 0.270414, 0.270799, 0.270782, 0.311239, 0.328131, 0.328088, 0.327659, 0.655181, 0.655521, 0.503431, 0.493843, 0.652779, 0.505564, 0.383471, 0.232642, 0.233737, 0.233059, 0.233527, 0.232254, 0.233518
0.360323, 0.358896, 0.358913, 0.358143, 0.357125, 0.356324, 0.545365, 0.342541, 0.34082, 0.339217, 0.438627, 0.43873, 0.452609, 0.323892, 0.395398, 0.317813, 0.46032, 0.458422, 0.310074, 0.497062, 0.305645, 0.305627, 0.306325, 0.306699, 0.306696, 0.673514, 0.672211, 0.310176, 0.311005, 0.362612, 0.362912, 0.361769, 0.362252, 0.362702, 0.366568, 0.366635, 0.365253, 0.515799, 0.513935, 0.513175, 0.386022, 0.729667, 0.918785, 0.0041635, 0.382819, 0.383732, 0.384109, 0.384036, 0.383815, 0.390538, 0.38994, 0.388549, 0.389256, 0.387677, 0.387726, 0.388324, 0.390391, 0.389595, 0.397037, 0.664045, 0.661275, 0.656976, 0.518721, 0.466875, 0.442826, 0.678232, 0.475047, 0.488332, 0.721995, 0.722508, 0.524521, 0.523809, 0.523059, 0.800786, 0.556897, 0.670671, 0.704667, 0.529856, 0.529086, 0.528793, 0.570026, 0.591747, 0.700871, 0.681183, 0.695816, 0.702302, 0.727835, 0.728068, 0.749053, 0.770571, 0.815297, 0.816253, 0.810171, 0.826234, 0.820841, 0.829272, 0.825421, 0.82521, 0.811857, 0.800725, 0.866836, 0.863536, 0.884128, 0.898566, 1.23614, 1.09991, 1.14874, 1.12632, 1.09301, 1.00829, 1.04416, 1.00618, 1.0255, 1.05917, 1.02566, 1.02499, 1.00227, 1.00159, 0.985528, 1.00097, 1.03901, 1.04009, 1.06735, 1.05074, 1.05305, 1.05297, 1.04698, 1.06854, 1.10477, 1.06977, 1.08881, 1.09921, 1.10809, 1.16407, 1.12576, 1.12622, 1.1423, 1.13799, 1.15421, 1.22055, 1.16292, 1.16204, 1.16392, 1.19781, 1.18454, 1.20581, 1.19745, 1.1986, 1.2589, 1.20883, 1.24976, 1.30017, 1.1963, 1.17849, 1.16916, 1.15946, 1.23618, 1.28405, 1.28426, 1.2297, 1.22007, 1.24729, 1.18993, 1.27415, 1.15967, 1.13298, 1.1389, 1.14033, 1.08114, 1.10272, 1.01826, 0.977692, 0.979664, 0.967565, 0.933654, 0.947676, 0.924799, 0.925035, 0.88177, 0.884413, 0.836629, 0.83611, 0.831557, 0.844092, 0.878496, 0.846774, 0.841776, 0.840753, 0.843379, 0.883941, 0.859791, 0.768076, 0.767914, 0.745409, 0.757073, 0.683952, 0.683858, 0.662867, 0.605255, 0.564598, 0.489224, 0.491, 0.493053, 0.459908, 0.397164, 0.460305, 0.459856, 0.347616, 0.366528, 0.360529, 0.382517, 0.383746, 0.366263, 0.307555, 0.349072, 0.329849, 0.315542, 0.317115, 0.316999, 0.316426, 0.317302, 0.318294, 0.320812, 0.318079, 0.317041, 0.35339, 0.341781, 0.343317, 0.34435, 0.34442, 0.344349, 0.653943, 0.50484, 0.569403, 0.56501, 0.562674, 0.679877, 0.680196, 0.399694, 0.398671, 0.5653, 0.532157, 0.461599, 0.419857, 0.45565, 0.483118, 0.421425, 0.265323, 0.372384, 0.524235, 0.27113, 0.272416, 0.761015, 0.309435, 0.328201, 0.327828, 0.327497, 0.655481, 0.654539, 0.252357, 0.54886, 0.415146, 0.390366, 0.39334, 0.230813, 0.231049, 0.231801, 0.390642, 0.352544, 0.393688
0.360887, 0.361785, 0.360514, 0.358234, 0.358014, 0.356492, 0.355198, 0.913977, 0.389692, 0.338749, 0.439566, 0.440989, 0.328045, 0.323813, 0.32082, 0.318388, 0.408257, 0.821383, 0.81927, 0.310497, 0.308946, 0.306595, 0.30687, 0.307557, 0.308218, 0.673242, 0.67101, 0.532165, 0.372669, 0.362181, 0.361963, 0.360909, 0.359943, 0.359434, 0.364635, 0.365534, 0.514995, 0.518262, 0.515061, 0.520031, 0.517753, 0.582771, 0.629783, 0.383907, 0.383602, 0.383633, 0.38406, 0.384585, 0.384664, 0.390053, 0.389848, 0.389271, 0.387717, 0.388315, 0.38997, 0.391557, 0.390655, 0.389471, 0.396677, 0.770731, 0.804992, 0.758882, 1.04584, 0.672079, 0.44237, 0.679688, 0.470588, 0.913367, 0.912203, 0.535642, 0.929961, 0.522955, 0.800757, 0.577386, 0.630115, 0.567365, 0.866891, 0.559083, 0.528517, 0.721798, 0.574964, 0.61238, 0.666282, 0.669792, 0.699809, 0.711339, 0.701607, 0.751744, 0.752535, 0.752883, 0.814971, 0.817512, 0.822877, 0.828712, 0.901351, 0.965957, 0.965851, 0.914317, 0.842197, 0.872453, 0.840383, 0.873392, 0.873157, 0.98618, 0.95357, 0.984193, 1.09175, 0.993712, 0.991931, 1.00503, 0.980101, 0.989048, 0.9838, 1.07415, 1.07439, 1.00439, 0.983776, 0.978056, 0.976694, 1.02563, 1.00289, 1.03172, 1.06271, 1.0611, 1.07702, 1.06329, 1.06767, 1.07227, 1.10291, 1.10199, 1.16019, 1.10281, 1.19679, 1.12954, 1.14772, 1.20365, 1.21944, 1.22986, 1.23568, 1.26706, 1.15984, 1.15806, 1.23113, 1.20553, 1.23681, 1.20613, 1.21434, 1.34514, 1.39081, 1.32906, 1.33728, 1.30302, 1.23656, 1.19537, 1.24788, 1.2828, 1.28097, 1.28136, 1.26903, 1.23981, 1.32604, 1.30231, 1.24581, 1.23374, 1.16921, 1.12718, 1.12929, 1.16968, 1.12727, 1.12887, 1.02896, 1.00314, 0.981366, 0.966805, 0.956138, 0.960016, 0.978579, 0.966413, 0.895664, 0.89634, 0.860062, 0.828965, 0.832137, 0.831554, 0.829888, 0.837195, 0.842222, 0.872167, 0.945583, 0.833096, 0.859904, 0.765978, 0.771416, 0.773266, 0.752772, 0.683568, 0.686109, 0.66373, 0.604919, 0.522528, 0.535932, 0.500169, 0.516133, 0.473716, 0.447206, 0.446026, 0.44722, 0.372981, 0.359606, 0.360285, 0.360609, 0.303018, 0.302913, 0.307218, 0.318296, 0.317079, 0.315541, 0.317016, 0.317495, 0.317688, 0.316844, 0.317949, 0.315786, 0.317058, 0.317566, 0.317199, 0.34014, 0.341696, 0.342584, 0.342708, 0.342645, 0.652421, 0.662666, 0.662547, 0.566008, 0.565373, 0.565823, 0.568872, 0.396528, 0.397807, 0.402977, 0.537378, 0.539226, 0.469091, 0.232662, 0.23404, 0.231836, 0.231333, 0.265647, 0.268127, 0.271696, 0.2653, 0.311383, 0.304762, 0.76575, 0.766704, 0.766418, 0.764612, 0.764105, 0.249231, 0.392706, 0.415502, 0.516403, 0.371861, 0.363162, 0.230385, 0.412542, 0.426655, 0.390892, 0.353388
0.361209, 0.361788, 0.361554, 0.357342, 0.356419, 0.35804, 0.35477, 1.17477, 1.07142, 0.383699, 0.340522, 0.445854, 0.646169, 0.321944, 0.73609, 0.401242, 0.739321, 0.401583, 0.449944, 0.495896, 0.30978, 0.307974, 0.307538, 0.30818, 0.308641, 0.940955, 0.532111, 0.5319, 0.358243, 0.36161, 0.358298, 0.360729, 0.361909, 0.357169, 0.358947, 0.36368, 0.363912, 0.521936, 0.514883, 0.512991, 0.511273, 0.370883, 0.369554, 0.383016, 0.382874, 0.382519, 0.382314, 0.383339, 0.383176, 0.389328, 0.389747, 0.388188, 0.386252, 0.387829, 0.389239, 0.390431, 0.390193, 0.389785, 0.398645, 0.504908, 0.495669, 0.662129, 0.425613, 0.767103, 0.477163, 0.46754, 0.467312, 0.686511, 0.497264, 0.533987, 0.781122, 0.808184, 0.802983, 0.594842, 0.625564, 0.631142, 0.560173, 0.560561, 0.559641, 0.70016, 0.642717, 0.652872, 0.701757, 0.687912, 0.715537, 0.707803, 0.752485, 0.755272, 0.763764, 0.803543, 0.804116, 0.843448, 0.831848, 0.846281, 0.892236, 0.970517, 0.970915, 0.954957, 0.953927, 0.864614, 0.928764, 0.872869, 0.971429, 1.00621, 0.983326, 0.984733, 0.989937, 0.991186, 0.993158, 0.978882, 0.978761, 0.980299, 0.97987, 0.996097, 1.019, 0.980685, 0.97842, 0.978314, 1.02421, 1.02893, 1.02049, 1.05225, 1.04419, 1.08915, 1.07844, 1.09958, 1.06405, 1.07004, 1.06985, 1.07597, 1.17731, 1.09946, 1.09953, 1.11467, 1.13681, 1.21179, 1.19197, 1.1522, 1.16698, 1.19217, 1.20889, 1.18766, 1.18077, 1.23139, 1.2542, 1.20953, 1.24054, 1.2356, 1.23554, 1.34033, 1.31795, 1.29654, 1.29168, 1.24384, 1.24431, 1.28418, 1.27663, 1.27567, 1.18652, 1.18817, 1.18783, 1.1881, 1.22978, 1.19069, 1.16541, 1.16355, 1.12022, 1.11186, 1.12714, 1.05422, 1.12036, 1.00861, 0.999619, 0.982498, 0.985595, 0.98492, 0.96616, 1.17449, 0.892495, 0.894169, 0.86434, 0.828229, 0.829265, 0.886082, 0.891784, 0.905297, 0.854531, 0.902383, 0.869243, 0.833778, 0.833484, 0.767698, 0.773802, 0.772844, 0.737148, 0.674312, 0.67516, 0.638309, 0.604573, 0.521729, 0.522051, 0.470557, 0.470558, 0.500008, 0.44548, 0.447294, 0.448081, 0.36809, 0.36296, 0.361812, 0.296868, 0.303741, 0.303183, 0.361918, 0.371047, 0.315176, 0.315459, 0.315797, 0.316357, 0.317574, 0.316762, 0.317366, 0.315186, 0.316645, 0.318032, 0.316511, 0.685179, 0.339448, 0.34078, 0.665393, 0.660951, 0.6509, 0.663324, 0.663009, 0.569206, 0.565794, 0.565704, 0.379134, 0.461917, 0.462705, 0.536452, 0.538671, 0.42194, 0.422557, 0.234759, 0.234259, 0.232343, 0.23174, 0.372736, 0.372958, 0.520779, 0.265349, 0.321948, 0.004161, 0.766728, 0.764527, 0.763585, 0.766029, 0.762929, 0.0040248, 0.390859, 0.393659, 0.398206, 0.378993, 0.373358, 0.313748, 0.379494, 0.426218, 0.425353, 0.218674
0.357375, 0.361237, 0.360603, 0.360229, 0.35874, 0.359128, 0.357861, 0.356732, 0.588229, 0.380175, 0.34208, 0.341608, 0.733057, 0.735067, 0.733571, 0.737668, 0.724595, 0.403025, 0.449487, 0.496229, 0.312088, 0.308893, 0.308012, 0.309164, 0.309582, 0.711746, 0.791798, 0.792703, 0.53264, 0.357329, 0.35937, 0.363808, 0.363242, 0.361257, 0.360983, 0.362976, 0.359058, 0.365797, 0.512717, 0.512593, 0.511926, 0.372073, 0.371415, 0.370941, 0.381698, 0.381813, 0.380412, 0.382219, 0.9301, 0.389988, 0.388521, 0.388741, 0.386242, 0.38854, 0.390217, 0.390943, 0.391564, 0.399703, 0.399782, 0.398928, 0.397625, 1.05226, 0.434476, 1.04656, 0.653661, 0.659086, 0.821129, 0.476604, 0.770559, 0.756613, 0.535177, 0.780852, 0.807321, 0.883821, 0.623561, 0.65701, 0.560186, 0.561095, 0.559625, 0.711163, 0.598538, 0.632973, 0.826203, 1.00833, 1.043, 0.952044, 1.00542, 0.90243, 0.900858, 0.814168, 0.830109, 0.828873, 0.975401, 0.894429, 0.8981, 0.909678, 0.928231, 0.956557, 0.967791, 0.914717, 0.929419, 0.926853, 0.914997, 1.00412, 1.00475, 0.982621, 1.01465, 0.978954, 0.978727, 0.973812, 0.974078, 0.979344, 0.984102, 0.980034, 0.975537, 0.980428, 0.979881, 0.98054, 1.029, 1.02959, 1.04384, 1.06046, 1.07749, 1.07718, 1.08007, 1.07058, 1.06621, 1.08083, 1.0851, 1.14715, 1.09839, 1.09921, 1.10068, 1.10548, 1.16658, 1.20903, 1.27361, 1.15697, 1.15736, 1.1711, 1.18488, 1.20926, 1.31872, 1.31746, 1.31843, 1.34053, 1.21277, 1.21619, 1.27145, 1.29473, 1.32028, 1.31998, 1.25528, 1.29217, 1.30555, 1.23728, 1.28489, 1.22402, 1.20825, 1.18765, 1.18803, 1.19868, 1.24691, 1.24405, 1.19361, 1.18811, 1.11096, 1.14621, 1.17521, 1.0556, 1.04235, 1.04072, 1.00839, 1.00828, 1.00554, 1.01836, 1.08618, 1.13628, 0.885868, 0.923176, 0.867706, 0.826301, 0.877745, 0.831882, 0.832631, 0.845438, 0.857793, 0.858429, 0.836172, 0.835843, 0.836202, 0.727157, 0.710832, 0.714819, 0.673267, 0.675976, 0.677742, 0.557823, 0.559609, 0.541514, 0.507405, 0.482352, 0.470586, 0.470461, 0.446722, 0.446277, 0.401503, 0.377427, 0.380117, 0.356307, 0.300408, 0.302113, 0.302645, 0.301807, 0.372057, 0.314428, 0.316079, 0.317, 0.316419, 0.317539, 0.316823, 0.316993, 0.31606, 0.316995, 0.317131, 0.317118, 0.69081, 0.559855, 0.74333, 0.664875, 0.661231, 0.650613, 0.664086, 0.668055, 0.568594, 0.567941, 0.46205, 0.462339, 0.572626, 0.685327, 0.536829, 0.537934, 0.538714, 0.422092, 0.549314, 0.23386, 0.23251, 0.231116, 0.247852, 0.760822, 0.761016, 0.348798, 0.304209, 0.491374, 0.449143, 0.299199, 0.770015, 0.290194, 0.00414395, 0.36963, 0.429254, 0.429392, 0.394208, 0.369687, 0.368633, 0.314117, 0.425333, 0.425623, 0.00400842, 0.217441
0.36494, 0.361241, 0.361641, 0.360865, 0.360103, 0.358538, 0.358189, 0.355399, 0.35383, 0.353654, 0.34202, 0.735374, 0.733847, 0.732889, 0.734943, 0.735814, 0.72519, 0.499411, 0.911892, 0.494143, 0.313473, 0.310555, 0.30886, 0.309845, 0.310801, 0.311918, 0.312649, 0.31422, 0.532017, 0.314864, 0.363683, 0.366245, 0.364634, 0.33554, 0.361961, 0.362584, 0.360456, 0.361478, 0.582688, 0.513101, 0.366483, 0.371949, 0.372101, 0.380745, 0.381158, 0.379847, 0.377743, 0.377473, 0.377325, 0.386234, 0.388017, 0.536073, 0.396579, 0.394544, 0.391799, 0.391436, 0.391759, 0.399635, 0.39944, 0.400278, 0.405087, 0.4051, 0.436426, 0.434719, 0.777484, 0.677213, 0.782672, 0.47469, 0.600582, 0.497987, 0.925417, 0.540411, 0.543908, 0.545384, 0.792179, 0.628736, 0.603355, 0.559306, 0.558482, 0.557121, 0.684244, 0.629149, 0.924955, 0.901342, 1.00095, 0.946414, 0.957314, 0.88268, 0.83221, 0.811047, 0.839507, 0.849917, 0.936186, 0.891954, 0.898436, 0.910757, 0.911722, 0.924172, 0.924529, 0.938196, 0.939819, 0.940301, 1.01244, 0.984407, 0.983983, 0.979422, 0.993296, 0.97845, 0.993952, 1.0032, 0.999193, 0.98707, 0.985192, 0.997773, 0.974562, 0.990196, 1.05158, 0.99534, 1.00818, 1.02308, 1.04708, 1.08499, 1.08856, 1.09137, 1.0916, 1.07826, 1.06404, 1.07415, 1.09531, 1.1532, 1.15378, 1.11597, 1.1185, 1.11638, 1.15951, 1.15012, 1.15529, 1.15611, 1.22866, 1.23264, 1.17286, 1.17341, 1.17369, 1.31951, 1.35291, 1.37767, 1.33438, 1.25419, 1.25304, 1.2659, 1.27887, 1.2991, 1.27494, 1.23735, 1.28897, 1.24226, 1.22779, 1.2184, 1.20465, 1.188, 1.18816, 1.18716, 1.1874, 1.26154, 1.12912, 1.11562, 1.07907, 1.08021, 1.08049, 1.07431, 1.11794, 1.05076, 1.05114, 1.04653, 1.0337, 1.05714, 1.10113, 1.15006, 0.878642, 0.878802, 1.00326, 0.815215, 0.815836, 0.810785, 0.857886, 0.93191, 0.919716, 0.883974, 0.835446, 0.853036, 0.833658, 0.707442, 0.707768, 0.717842, 0.68022, 0.589584, 0.582494, 0.558112, 0.55867, 0.569116, 0.515794, 0.470148, 0.470353, 0.462641, 0.44655, 0.390768, 0.417018, 0.378795, 0.381624, 0.310234, 0.300287, 0.30423, 0.306295, 0.296181, 0.371684, 0.283422, 0.315803, 0.317758, 0.316671, 0.316917, 0.316174, 0.315654, 0.316815, 0.317227, 0.317446, 0.317825, 0.690185, 0.746673, 0.744007, 0.745023, 0.745921, 0.660607, 0.484726, 0.574113, 0.669657, 0.570162, 0.462003, 0.462409, 0.462162, 0.459987, 0.535918, 0.537688, 0.546356, 0.548043, 0.549308, 0.232119, 0.231491, 0.248025, 0.248442, 0.248851, 0.252754, 0.534084, 0.537088, 0.4944, 0.493322, 0.596425, 0.600197, 0.289031, 0.290166, 0.00445994, 0.429131, 0.427493, 0.366592, 0.356021, 0.36835, 0.315835, 0.317021, 0.422624, 0.313632, 0.00448125
0.365595, 0.362743, 0.359606, 0.359251, 0.358918, 0.358194, 0.358173, 0.356295, 0.354714, 0.353617, 0.352493, 0.734751, 0.734854, 0.732462, 0.733797, 0.627264, 0.721955, 0.72259, 0.587171, 0.49336, 0.31263, 0.313416, 0.310568, 0.311113, 0.311737, 0.312216, 0.312027, 0.534146, 0.533495, 0.532292, 0.36743, 0.367469, 0.367874, 0.328149, 0.359884, 0.721146, 0.360179, 0.520597, 0.476095, 0.513758, 0.367688, 0.366679, 0.366261, 0.378609, 0.381081, 0.381145, 0.378482, 0.378343, 0.377615, 0.376429, 0.639453, 0.395951, 0.396149, 0.396517, 0.393783, 0.392005, 0.394936, 0.399775, 0.399868, 0.399353, 0.398343, 0.678043, 0.769093, 0.43825, 1.02367, 0.780902, 1.043, 1.04257, 0.997826, 0.500953, 0.502153, 0.73881, 0.549259, 0.554263, 0.579257, 0.635513, 0.813959, 0.60514, 0.655129, 0.617857, 0.691972, 0.617423, 0.925108, 0.893667, 0.989861, 0.894591, 1.03912, 0.897938, 0.859193, 0.838977, 0.829182, 0.842557, 0.853811, 0.908222, 0.90514, 0.913885, 0.902601, 0.920597, 0.920558, 0.990352, 0.973154, 0.964781, 0.95289, 0.953043, 0.977716, 0.978135, 1.00717, 1.00945, 1.08727, 0.997748, 1.02134, 1.04742, 1.00474, 0.99642, 1.01544, 0.991453, 1.00125, 1.0159, 1.0162, 1.01982, 1.01989, 1.04239, 1.0892, 1.09109, 1.09064, 1.09964, 1.13272, 1.12501, 1.11097, 1.1263, 1.11686, 1.1155, 1.11841, 1.12271, 1.14643, 1.13334, 1.16047, 1.17253, 1.1637, 1.22965, 1.17247, 1.17329, 1.17419, 1.27719, 1.19431, 1.25166, 1.25614, 1.33343, 1.26195, 1.27471, 1.31629, 1.35121, 1.36807, 1.30889, 1.24551, 1.31282, 1.29909, 1.27494, 1.28977, 1.21311, 1.20548, 1.18741, 1.16729, 1.16724, 1.1237, 1.16194, 1.07898, 1.0917, 1.09037, 1.08752, 1.06466, 1.04901, 1.10893, 1.12893, 1.10162, 1.10226, 1.10809, 1.1183, 0.933994, 0.999504, 1.00083, 0.873922, 0.847638, 0.855066, 0.842632, 0.918153, 0.91814, 0.86873, 0.877376, 0.876364, 0.835855, 0.707347, 0.707394, 0.729606, 0.616311, 0.656311, 0.583458, 0.549544, 0.548693, 0.549145, 0.517747, 0.494969, 0.463179, 0.462159, 0.393601, 0.384035, 0.365629, 0.33095, 0.384044, 0.356463, 0.310352, 0.301929, 0.304304, 0.296719, 0.326953, 0.283883, 0.31583, 0.318035, 0.319225, 0.316762, 0.314407, 0.31406, 0.316854, 0.316836, 0.317846, 0.313045, 0.470048, 0.742988, 0.742967, 0.56, 0.646745, 0.549192, 0.482647, 0.574866, 0.573281, 0.571905, 0.462708, 0.46252, 0.462524, 0.393508, 0.293855, 0.307693, 0.546921, 0.548465, 0.443359, 0.546937, 0.244451, 0.246837, 0.249214, 0.249262, 0.528466, 0.248818, 0.537147, 0.535679, 0.597778, 0.316989, 0.600805, 0.279969, 0.00447737, 0.439395, 0.00434698, 0.297375, 0.283376, 0.335501, 0.379817, 0.379379, 0.313612, 0.369261, 0.369059, 0.506934
0.365354, 0.364812, 0.363052, 0.358011, 0.358286, 0.358162, 0.357316, 0.35636, 0.355066, 0.354521, 0.352959, 0.732643, 0.344584, 0.336535, 0.442003, 0.627214, 0.648885, 0.393525, 0.65638, 0.490925, 0.491021, 0.48774, 0.31304, 0.31179, 0.313008, 0.313312, 0.313674, 0.67253, 0.533538, 0.316665, 0.31975, 0.367763, 0.368224, 0.368015, 0.3676, 0.366988, 0.367244, 0.521676, 0.583264, 0.362698, 0.365964, 0.367721, 0.366444, 0.371863, 0.378044, 0.379008, 0.37841, 0.377783, 0.377446, 0.377795, 0.758089, 0.395882, 0.395071, 0.393033, 0.392347, 0.391926, 0.398498, 0.399857, 0.399693, 0.399953, 0.402021, 0.402178, 0.680116, 1.05619, 1.02495, 1.04622, 1.05914, 0.500293, 0.494097, 0.9187, 0.754534, 0.521127, 0.563145, 0.554909, 0.684933, 0.630274, 0.900665, 0.594104, 0.656585, 0.615484, 0.663165, 0.788446, 0.825857, 0.901156, 0.8938, 0.886938, 1.07512, 0.892058, 0.854341, 0.850171, 0.83995, 0.846009, 0.908044, 0.86727, 0.929349, 0.884244, 0.884079, 0.924956, 0.986945, 0.987018, 0.970239, 0.976736, 0.961344, 0.956613, 1.02848, 0.979755, 1.08091, 1.08048, 1.21827, 0.99526, 0.995379, 1.02357, 1.01529, 1.01718, 1.00536, 1.01809, 1.01919, 1.03661, 1.0207, 1.01889, 1.03962, 1.07766, 1.12632, 1.12018, 1.13445, 1.10154, 1.12229, 1.10482, 1.1406, 1.11756, 1.11527, 1.11568, 1.11582, 1.18114, 1.18177, 1.1564, 1.19507, 1.228, 1.19679, 1.23782, 1.18275, 1.23026, 1.27857, 1.27932, 1.21772, 1.25652, 1.28417, 1.30595, 1.32286, 1.38195, 1.40264, 1.41547, 1.40224, 1.34622, 1.37931, 1.28982, 1.30009, 1.31068, 1.20876, 1.18532, 1.17793, 1.18766, 1.1745, 1.17025, 1.12177, 1.12943, 1.18844, 1.11899, 1.11364, 1.08313, 1.04681, 1.04822, 1.10306, 1.12197, 1.1221, 1.11386, 1.11227, 1.15972, 1.16006, 0.906934, 0.902122, 0.897813, 0.832651, 0.936078, 0.853679, 0.929059, 0.867085, 0.868124, 0.853438, 0.808795, 0.728694, 0.728118, 0.69055, 0.689169, 0.645078, 0.580353, 0.555851, 0.557263, 0.548697, 0.535673, 0.556123, 0.495052, 0.494641, 0.462854, 0.382632, 0.428452, 0.366218, 0.331474, 0.331137, 0.330588, 0.305548, 0.302962, 0.335739, 0.336646, 0.327394, 0.284077, 0.283057, 0.318941, 0.317554, 0.31653, 0.316176, 0.313616, 0.314018, 0.316521, 0.316878, 0.314315, 0.313407, 0.313078, 0.333448, 0.744165, 0.333651, 0.330959, 0.330719, 0.574608, 0.576195, 0.570971, 0.567745, 0.461692, 0.462553, 0.293436, 0.293609, 0.295574, 0.268501, 0.240925, 0.242295, 0.244859, 0.245139, 0.247581, 0.248014, 0.248443, 0.498865, 0.327098, 0.376418, 0.553201, 0.212114, 0.213393, 0.213435, 0.220346, 0.280941, 0.284391, 0.513897, 0.313491, 0.536802, 0.314317, 0.338626, 0.314266, 0.346587, 0.342208, 0.314332, 0.332892
0.365817, 0.364316, 0.363558, 0.359373, 0.357823, 0.356461, 0.356243, 0.355424, 0.355377, 0.35476, 0.353726, 0.352149, 0.732654, 0.336299, 0.726161, 0.632097, 0.650633, 0.652113, 0.660367, 0.583453, 0.316947, 0.316027, 0.313606, 0.311787, 0.31252, 0.313375, 0.313735, 0.317257, 0.517979, 0.533239, 0.673246, 0.367294, 0.366512, 0.36651, 0.368993, 0.369966, 0.369884, 0.585705, 0.585771, 0.362053, 0.362045, 0.364993, 0.372, 0.371184, 0.370442, 0.379247, 0.379461, 0.379506, 0.379025, 1.00243, 0.717541, 0.74781, 0.500928, 0.391923, 0.390988, 0.391697, 0.398935, 0.398213, 0.400997, 0.402575, 0.401949, 0.403152, 0.402758, 0.681859, 1.03996, 0.88315, 0.662569, 1.04771, 0.482078, 0.760394, 0.502935, 0.525094, 0.532282, 0.542868, 0.787578, 0.574013, 0.573997, 0.576383, 0.700646, 0.646076, 0.656513, 0.824636, 0.825903, 0.888272, 0.888415, 0.873217, 0.873852, 0.887902, 0.866855, 0.854165, 0.85364, 0.893503, 0.897325, 0.863005, 0.87052, 0.883714, 0.909536, 1.04388, 0.995029, 1.02724, 0.969678, 1.00089, 0.959788, 0.959274, 0.959281, 1.02239, 1.02314, 1.08048, 1.09198, 1.03874, 1.03617, 1.06007, 1.02424, 1.02591, 1.02617, 1.02709, 1.01902, 1.0347, 1.01483, 1.02666, 1.04722, 1.12178, 1.12204, 1.14972, 1.16426, 1.17132, 1.16724, 1.11512, 1.10998, 1.11207, 1.11131, 1.10522, 1.08093, 1.08197, 1.17094, 1.16797, 1.16715, 1.15941, 1.16448, 1.23638, 1.23849, 1.24108, 1.27894, 1.22905, 1.22986, 1.27771, 1.37313, 1.37483, 1.30024, 1.31464, 1.26418, 1.34639, 1.33036, 1.302, 1.30868, 1.28458, 1.40949, 1.40865, 1.27392, 1.2058, 1.20584, 1.20518, 1.17426, 1.17396, 1.16922, 1.17953, 1.15388, 1.1229, 1.12155, 1.071, 1.07413, 1.05268, 1.04964, 1.04967, 1.11026, 1.10561, 1.07001, 1.07794, 1.07883, 0.906099, 0.900811, 0.840536, 0.839882, 0.840574, 0.846656, 0.854762, 0.855801, 0.870661, 0.849387, 0.835286, 0.835712, 0.762035, 0.678064, 0.687303, 0.640836, 0.641247, 0.601514, 0.557309, 0.555625, 0.556217, 0.493792, 0.49445, 0.493598, 0.446301, 0.386832, 0.385748, 0.362665, 0.360611, 0.345727, 0.31909, 0.307741, 0.29016, 0.275922, 0.334414, 0.34365, 0.282099, 0.321698, 0.320648, 0.318427, 0.31669, 0.313214, 0.313249, 0.311978, 0.312476, 0.31509, 0.31425, 0.314825, 0.314678, 0.334459, 0.332215, 0.33248, 0.33223, 0.331498, 0.665842, 0.317423, 0.570291, 0.460503, 0.566994, 0.335115, 0.376109, 0.351392, 0.297183, 0.531826, 0.240078, 0.241416, 0.242304, 0.24579, 0.247538, 0.247628, 0.247509, 0.499687, 0.321618, 0.241391, 0.452013, 0.211024, 0.213519, 0.213112, 0.211631, 0.00427057, 0.00415074, 0.520645, 0.531387, 0.538857, 0.538937, 0.344582, 0.539559, 0.331966, 0.53639, 0.370578, 0.173283
