1.78613619007569,1.78684893780985,1.83256111005738,1.83182909887095,1.87580756041377,1.87667441576613,1.77969256528985,1.82657017639999,1.77873902440226,1.77766990280102,1.82495204640893,1.82227442654277,1.77426027174842,1.7708699041481,1.76977188736845,1.86446138702406,1.81756451246164,1.8698455219348,1.76599625072264,1.86776506908914,1.81277754457141,1.86235203899999,1.8113038904724,1.81106309731897,1.81001323917001,1.76148860289039,1.93352086342836,1.93944437500278,2.0139843035792,1.92847383893242,1.89599565839751,1.9100483468318,1.90968234123859,1.89324098472225,1.89007214682308,1.88984098539579,1.88634466880796,1.81097641178374,1.88291577430308,1.88130727603816,1.91380472002534,1.91475826091293,1.805592276873,1.98891292044386,1.9162993370949,1.8766936792184,1.91366024413328,1.91571180180052,1.87814806986513,1.80643023704694,1.807557149005,1.99142680096569,1.91675202822335,1.81713108478546,1.89640019089528,1.91725287798249,1.99764889605037,1.98325909720127,1.98532991832079,1.98266193018076,1.89005288337081,1.96423643808014,1.96164550374921,1.96767496431115,1.96157808166625,1.98270045708531,1.98007099584983,1.96325400201414,1.96523813759842,1.8909293704493,1.8895327701594,1.97708516074728,1.9733191558276,1.96307099921753,1.89308687710405,1.97681547241543,1.97863586865538,1.97905966460542,1.98038884281236,1.97684436759384,1.8966120888703,1.97483133683115,1.98828685824493,1.97086306566259,1.89577412869635,1.97801943818259,1.97977241233958,1.97774011812461,1.96898487906582,1.97076674840122,1.96978431233522,1.97204776797748,1.97329026064919,1.97598714396763,1.97957014609069,1.97272198880709,1.96945683364655,1.8327730080324,1.82992201709577,1.82820756984333,1.827552612466,1.82814977948651,1.8269072868148,1.92781888155509,2.01927212122856,1.87573050660467,1.87641435916042,1.87667441576613,1.82987385846508,1.83075997726971,2.01206759007788,1.83044213030718,1.82977754120371,1.82979680465598,1.8292574279923,1.82824609674788,1.82766819317964,1.82640643705566,1.82416224486567,1.82189878922341,1.82075261381308,1.87210897757706,1.75865687540603,1.83320643570858,1.84245289280037,1.83932258180575,1.85723759242109,1.74319795495569,1.74022175157928,1.73922968378714,1.73590673826977,1.73673506671758,1.84071918209566,1.83939000388871,1.72875036574977,1.73330617221271,1.7300217535999,1.82068519173012,1.77707273578051,1.73058039371586,1.72949200866234,1.85023532751929,1.72587047963473,1.84933957698853,1.72717076266326,1.83374581237227,1.84652711295644,1.72757529516103,1.77634072459408,1.72646764665524
1.81299907427257,1.78752315863946,1.87047158413372,1.83639453706002,1.78464327252441,1.78496111948694,1.87939056253684,1.78180191331391,1.78021267850126,1.77783364214536,1.77551239614627,1.77634072459408,1.77638888322476,1.77330673086083,1.77184270848797,1.86864155616764,1.76997415361733,1.77003194397416,1.87638546398201,1.76479228495548,1.76466707251569,1.85929878181447,1.81397187861243,1.8525373100661,1.92431293324112,1.76185460848361,1.86339226542282,1.76470559942024,1.76380984888947,1.76507160501346,1.91015429581931,1.89868290998981,1.89671803785781,1.91384324692989,1.91286081086389,1.89132427122093,2.0055372797568,1.91331350199234,1.88973503640828,1.88275203495875,1.98915371359729,1.887259682791,1.87731974141732,1.87836959956629,1.88228971210416,1.87840812647084,1.87913050593113,1.87905345212204,1.87813843813899,2.00635597647847,1.88366704894179,1.88745231731374,1.88968687777759,1.89405968144392,1.92033503034642,2.00717467320014,2.00615371022959,1.99710951938668,1.96613388812919,1.99270782054194,1.88960982396849,1.96058601387411,1.89101605598454,1.89025514961969,1.96929309430222,1.96927383084994,1.96382227385624,1.96499734444499,1.97927156258044,1.97458091195158,1.97952198746001,1.89297129639041,1.97605456605059,1.9825174542887,1.97795201609963,1.97695994830749,1.97931972121112,1.9694953605511,1.97956051436456,1.89693956755896,1.98934634812003,1.98776674503352,1.97871292246448,1.99417184291481,1.97057411387847,1.98213218524321,1.98405853047067,1.98330725583196,1.97007326411933,1.97163360375357,1.97118091262512,1.97251009083207,1.97421490635837,1.97278941089005,1.97455201677317,1.89761378838857,1.98240187357505,1.83149198845614,1.83040360340263,1.82726366068188,1.82843873127063,1.82941153561049,1.9255746893651,1.82870841960247,1.82758150764441,1.82911295210024,1.82614638044995,1.87638546398201,1.82774524698874,1.82735034621711,1.82981606810826,1.8296715922162,2.01766362296364,1.91768630565867,1.82705176270686,1.82915147900479,1.99594408052407,1.82711918478982,1.82585742866584,1.82380587099859,1.82173504987908,1.82025176405394,1.8048698974127,1.83713617997259,1.7485724581403,1.74704101368447,1.74344837983526,1.81297981082029,1.74044328128043,1.73817019391203,1.73651353701642,1.84028575441948,1.7321407333501,1.84291521565496,1.84691238200193,1.84428292076645,1.73335433084339,1.72910673961685,1.77698605024527,1.84383986136414,1.72827841116905,1.77847896779655,1.7276716124224,1.72559115957675,1.72820135735995,1.84464892635967,1.72797982765879,1.72784498349287,1.72586084790859,1.72666991290412
1.78848633125319,1.78974808737717,1.79132769046369,1.83776224217151,1.8805174744949,1.78630956114616,1.78451806008463,1.88554523553856,1.88316619918265,1.78053052546379,1.77855602160565,1.77857528505793,1.77664893983047,1.87758942974917,1.77291183008921,1.87754127111848,1.7729888838983,1.77146707116861,1.7703786861151,1.76970446528549,1.76693052815795,1.76581324792603,1.87283135703735,1.7664778370295,1.86430727940586,1.93792256227309,1.76633336113744,1.76613109488856,1.94398091801344,1.76627557078062,1.82622343425905,1.99393104976138,1.98987609305758,1.9922840245919,1.89436789668031,1.89355883168478,1.91563474799143,1.88962908742077,1.88672993785345,1.8859690314886,2.00885059354803,1.80776904698002,1.88001662473576,1.88071974074378,1.91809083815643,1.88061379175627,1.87958319705959,1.88278093013716,1.80628576115488,1.92153899611358,1.88485175125668,1.99687835795939,1.8160041728274,1.82320870397808,1.90058036003886,1.9201231323714,2.0115571085926,1.89414636697915,1.96606646604623,1.99336277791928,1.967944652643,1.96649026199627,1.89273050323697,1.96918714531471,1.96368742969032,1.96586419979734,1.97599677569376,1.96594125360644,1.98074521667944,1.97100754155465,1.96787723056004,1.97745116634049,1.97387779594356,1.98116901262948,1.8992222866535,1.97987836132709,1.97524550105505,1.97911745496224,1.89811463814771,1.89796053052952,1.89706477999875,1.99418147464095,1.98417411118431,1.89882738588187,1.97123870298195,1.98132312024768,1.98673615033683,1.98599450742426,1.98120753953403,1.89595713149296,1.97335768273215,1.97278941089005,1.97631462265629,1.97320357511395,1.97024663518981,1.98295088196488,1.97383926903901,1.83002796608328,1.82938264043208,1.82921890108775,1.82802456704672,1.82735997794325,1.82638717360339,1.90389367383008,1.92619111983789,1.82743703175235,1.99928628949371,1.82988349019122,2.00271518399858,1.82824609674788,1.82631011979429,1.99395031321365,1.82709992133754,1.82956564322869,1.8298256998344,1.8278897228808,1.82583816521356,1.82454751391117,1.82484609742142,1.82428745730546,1.82392145171224,1.822852330111,1.84693164545421,1.84727838759515,1.74966084319381,1.84714354342922,1.79216565063763,1.79124100492845,1.73634016594595,1.73542515196291,1.73605121416183,1.73325801358202,1.78028010058422,1.77945177213642,1.82717697514664,1.72838436015656,1.73029144193174,1.72932826931801,1.83314864535176,1.83150162018228,1.73016622949195,1.72746934617352,1.72780645658832,1.72666991290412,1.7300217535999,1.8440613910653,1.72600532380065,1.84636337361211,1.843339011605,1.7288081561066
1.7914336394512,1.84270331767994,1.7945350552674,1.79296508390702,1.88446648221119,1.83674127920096,1.83709765306804,1.87303362328623,1.78587613346998,1.78275545420151,1.7798851998126,1.77964440665916,1.82611748527154,1.77755432208737,1.7758302431088,1.77597471900086,1.77476112150756,1.82110898768016,1.95325627028364,1.95013559101516,1.7700415757003,1.77073505998218,1.94733275870922,1.85694864063698,1.76632372941131,1.76785517386713,1.81404893242153,1.86165855471811,1.86368121720694,1.81581153830465,1.99364209797726,1.99694578004235,1.89842285338411,1.89625571500322,1.89459905810761,1.91859168791557,2.01175937484148,1.91689650411541,1.99473048303077,1.88794353534674,1.92028687171573,1.88647951297388,1.99973898062216,1.91946817499406,1.80605459972759,1.92274296188074,2.0167486089806,1.80773052007547,1.92367723931606,1.88640245916478,1.92257922253641,1.92232879765684,1.89399225936096,1.89610160738502,1.82611748527154,1.92249253700117,1.99834238033225,1.99317014339653,1.96913898668402,1.98643756682657,1.98370215660359,1.96891745698286,1.96868629555557,1.97061264078302,1.97215371696499,1.96715485109974,1.96703927038609,1.96649026199627,1.97582340462329,1.99621376885591,1.89362625376774,1.98541660385602,1.97375258350378,1.97545739903007,1.89701662136806,1.89828800921818,1.98515654725032,1.9771429511041,1.98629309093452,1.97859734175083,1.99969082199147,1.89829764094432,1.99061773597015,1.97702737039045,1.97325173374464,1.98375994696041,1.97041037453414,1.97795201609963,1.97034295245118,1.97073785322281,1.97276051571164,1.97558261146986,1.97358884415944,1.9752840279596,1.97128686161263,1.96937014811131,1.97072822149667,1.83147272500387,2.00323529720999,1.82996054400032,1.82624269771133,1.82640643705566,1.82788009115466,2.0105746725266,1.82582853348742,1.82740813657394,1.88278093013716,1.82552994997717,2.00102963192455,1.92332086544898,1.82524099819305,1.82970048739461,1.82811125258196,1.82721550205119,1.82627159288974,1.82595374592721,1.82419114004409,1.82425856212705,1.82343986540538,1.82146536154724,1.82364213165426,1.82177357678363,1.84890614931235,1.75378322198057,1.84223136309921,1.8488676224078,1.74237925823403,1.74085744550434,1.73908520789508,1.73568520856862,1.73466424559806,1.84282853011972,1.77917245207844,1.77876791958067,1.72972317008964,1.72861552158385,1.83540246926788,1.72976169699419,1.72938605967483,1.72942458657938,1.84691238200193,1.72904894926003,1.77759284899192,1.77562797685992,1.72682402052232,1.72875999747591,1.72806651319403,1.72287501280603,1.72607274588361,1.72534073469718
1.79598944591413,1.79723193858584,1.84315600880839,1.79470842633787,1.88466874846007,2.0622199880747,1.83984269501717,1.83771408354083,1.88493843679191,1.88574750178744,1.96306136749139,1.89673730131008,1.89950160671148,1.77975035564667,1.77876791958067,1.88148064710863,1.77713052613733,1.77689936471004,1.86009821508387,1.769810414273,1.7716693374175,1.77281551282783,1.95658884752714,1.87255203697937,1.81635091496834,1.85646705433011,1.76829823326945,1.86619509772877,1.76844270916151,1.77048463510261,1.90322908472661,1.99469195612622,1.99912255014937,1.8244800918282,1.89712257035557,1.89678545994077,1.89200812377668,1.89073673592656,1.8876738470149,1.88684551856709,1.88843475337975,1.81023476887117,1.81009029297911,1.88259792734055,1.88292540602922,1.92360981723309,1.88060416003014,1.88267498114965,1.80888632721195,1.88436053322368,1.92386024211266,1.88773163737172,1.89306761365178,1.89738262696128,1.92045061106007,1.91369877103783,2.01813557754436,1.98405853047067,1.9864183033743,1.968927088709,1.9669911117554,1.89477242917808,1.97077638012736,1.97111349054216,1.9826715619069,1.97330952410146,1.96814691889188,1.89485911471331,1.89413673525302,1.89345288269727,1.96863813692488,1.98707326075163,1.8976715787454,1.99234181494873,1.97796164782577,1.98485796374006,1.89960755569899,1.9924381322101,1.98015768138507,1.98192028726819,1.97844323413263,1.98105343191583,2.00670271861941,1.97309762612644,1.99006872758033,1.97319394338781,1.97345399999352,1.98771858640283,1.99508685689785,1.99177354310663,1.97160470857516,1.97362737106399,1.97413785254927,1.97399337665721,1.97140244232628,1.89614976601571,1.89753673457948,1.8793809308107,1.82973901429916,1.82983533156053,1.82710955306368,1.82634864669884,1.82746592693076,2.00281150125995,1.87777243254578,1.926480071622,1.82688802336252,1.8283038871047,2.00302339923497,1.8261849073545,1.82968122394234,1.91142568366943,1.82995091227418,1.82733108276484,1.87559566243875,1.82668575711364,1.82564553069082,2.01102736365505,1.82443193319752,1.99367099315567,1.99091631948041,1.82278490802804,1.84344496059251,1.8663588370731,1.80832768709599,1.7445175014365,1.74422854965238,1.73822798426886,1.73424044964802,1.73626311213685,1.73308464251155,1.85344269232301,1.73006028050444,1.72981948735101,1.72765234897012,1.72697812814051,1.7304359178238,1.72787387867128,1.72760419033944,1.72903931753389,1.84789481806793,1.85077470418298,1.72833620152587,1.72771013932695,1.72846141396566,1.84279963494131,1.72860588985772,1.72717076266326,1.72635206594159,1.84225062655149
2.07261262057682,1.89061152348677,1.79859964369733,1.79724157031198,2.04319732895357,1.7941208910435,1.79166480087849,1.84036280822858,1.87640472743428,1.78678151572689,1.78713788959397,1.78569313067338,1.78392089306412,1.87278319840667,1.78242797551284,1.88738489523078,1.88453390429415,1.7762444073327,1.82384439790314,1.77588803346562,1.86650331296516,1.88641209089092,1.84414807660053,1.81841210436172,1.7674602730955,1.76943477695365,1.77024384194918,1.77031126403214,1.95603020741118,1.90613786602007,1.999026232888,1.90430783805398,2.0023588101315,1.90049367450362,1.90086931182298,1.99955597782555,1.81993391709141,1.89258602734491,1.89091010699703,1.81678434264452,1.92158715474427,1.92480415127412,1.88960982396849,1.92573842870943,1.88421605733162,1.8829446694815,1.80996508053932,1.88417753042707,1.92583474597081,1.8109667800576,1.81425119867041,1.89091010699703,1.92517015686733,1.82476904361232,1.90326761163116,1.90790047190319,2.00416957464531,1.89915486457054,1.98435711398092,1.9720285045252,1.89775826428063,1.89634240053845,1.89484948298717,1.97289535987756,1.96944720192041,1.89474353399966,1.97066079941371,1.96948572882496,1.9703236889989,1.99600187088089,1.98743926634485,1.97824096788375,1.98396221320929,1.89916449629668,1.89990613920925,1.99580923635815,1.98926929431093,1.98284493297737,1.98121717126017,1.90202511895945,2.00276334262926,1.98158317685338,1.89973276813878,1.9896738268087,2.00038430627336,2.00231065150081,1.89968460950809,1.98912481841888,1.99001093722351,1.97633388610857,1.97042000626028,1.97114238572057,1.97911745496224,1.97337694618442,1.97586193152784,1.89886591278642,2.01435030917241,1.88003588818804,1.82890105412522,1.82799567186831,1.82680133782729,1.92904211077452,1.92622964674243,1.82669538883978,1.92931179910636,1.9300438102928,1.8283809409138,1.92173163063632,1.82852541680586,1.82807272567741,1.82819793811719,1.90731293660882,1.82683986473184,1.82734071449098,1.82759113937055,1.82726366068188,1.8269843406239,1.82501946849189,1.82381550272473,1.99275597917263,1.99310272131357,1.82304496463375,1.75628747077626,1.79963987012016,1.79685630126648,1.79307103289453,1.74381438542848,1.74018322467473,1.73652316874256,1.78315998669927,1.73229484096829,1.73079229169088,1.72984838252942,1.84887725413394,1.85214240929447,1.72666991290412,1.84889651758621,1.72729597510304,1.72592826999155,1.84357980475843,1.72773903450536,1.84706648962013,1.72783535176673,1.72838436015656,1.72632317076318,1.72507104636533,1.7248302532119,1.72553336921992,1.72627501213249,1.77924950588754
1.80051635719865,1.8475769711054,1.88330104334858,1.79987103154745,1.89770047392381,1.79704893578923,1.89458942638147,1.79441947455375,1.79302287426385,1.89221039002556,1.78898718101233,1.89711293862944,1.78720531167693,1.94785287192063,1.78332372604361,1.88662398886594,1.78155148843435,1.77862344368861,1.77670673018729,1.77790106422832,1.77574355757357,1.77488633394735,1.88860812445022,1.77290219836307,1.77108180212312,1.87288914739418,1.76933845969227,1.9457531556227,1.77290219836307,1.90713956553834,1.92381208348198,1.9064557129826,2.00133784716095,1.90275713014588,1.90170727199692,1.92338828753194,1.89640982262141,2.01495710791906,1.89326987990066,1.89208517758578,1.89046704759471,1.88840585820133,1.88633503708182,1.81208406028952,1.81057187928597,1.81067782827348,1.92423587943202,1.80993618536091,1.8866914109489,1.92987043922233,1.9276936691153,1.89113163669818,1.89515769822357,1.89961718742513,1.90317129436979,1.92672086477544,2.01961886336951,1.9964930889139,1.89923191837964,1.97279904261619,1.89651577160892,1.89755599803175,1.89884664933415,1.89709367517716,1.89579339214863,1.97754748360186,1.97656504753586,1.98545513076057,1.97230782458318,2.00588402189774,1.98428969189796,1.8997135046865,1.99859280521182,1.99547212594334,1.89950160671148,2.00026872555971,1.98694804831185,1.99253444947147,1.89995429783993,1.98411632082749,1.99027099382921,1.98908629151433,1.98441490433775,1.98166986238862,1.98562850183104,1.90236222937425,1.98115938090334,1.9944800581512,1.97334805100601,1.97223077077409,1.97957977781683,1.97496618099707,1.97694068485522,1.97690215795067,1.9747157561175,1.97340584136283,1.94280584742469,1.82998943917873,1.82836167746153,1.82952711632414,1.82822683329561,1.87320699435671,1.87495996851369,1.87389084691245,1.82674354747047,1.82785119597625,1.82980643638212,1.82908405692182,1.82672428401819,1.82913221555251,1.8264931225909,1.9325769542669,1.82941153561049,1.82767782490578,1.82551068652489,1.82750445383531,1.82614638044995,1.82653164949544,2.00087552430636,1.82291012046783,1.82526989337146,1.85116960495461,1.75520871744888,1.75362911436237,1.74985347771656,1.85435770630605,1.85327895297867,1.73791976903247,1.73675433016985,1.73374923161502,1.85028348614998,1.7792398741614,1.72799909111107,1.85654410813921,1.72450277452323,1.83486309260419,1.72737302891214,1.85249878316155,1.8474999172963,1.85046648894659,1.7253214712449,1.72757529516103,1.77619624870202,1.83091408488791,1.72486878011645,1.72628464385863,1.72201778917982,1.72568747683812,1.72338549429131,1.77884497338977
1.84998490263972,1.85028348614998,1.80393561997739,2.03550157976988,1.89968460950809,1.79535375198907,1.88801095742971,1.79735715102562,1.79457358217195,1.89122795395956,1.79281097628883,1.8784755485538,1.79022967368404,1.78379568062433,1.78664667156097,1.78440247937098,1.78304440598562,1.77971182874212,1.77779511524081,1.96294578677775,1.82458604081571,1.88029594479374,1.8836959441202,1.82293901564624,1.77222797753346,1.8771848972514,1.77114922420608,1.77184270848797,1.77601324590541,1.91107894152849,1.90809310642594,1.93054466005194,1.9029690281209,2.00366872488617,1.90224664866061,1.90084041664456,1.89799905743407,1.89711293862944,1.8922970755608,1.89119905878115,1.89097752907999,1.88705741654212,1.81433788420565,1.88607498047611,1.81097641178374,1.92824267750513,1.88611350738066,1.81273901766686,1.88743305386147,1.8891475011139,1.89046704759471,1.89087158009248,1.89794126707724,2.02023529384229,1.90670613786217,2.01668118689763,2.02978033444434,1.98927892603707,1.97361773933785,1.90056109658658,1.97266419845026,1.89866364653754,1.89839395820569,1.97340584136283,1.97640130819153,1.98398147666157,2.00020130347675,1.89722851934308,1.89962681915127,1.89795089880338,1.98065853114421,1.89887554451256,1.97376221522991,1.90101378771503,1.9774800615189,1.983731051782,1.90236222937425,1.98205513143411,1.90594523149732,1.90330613853571,1.99190838727255,1.90167837681851,1.90229480729129,1.99120527126453,1.9877089546767,1.90129310777302,1.97870329073834,1.98002283721915,1.97404153528789,1.99102226846792,1.97276051571164,1.89917412802281,1.90211180449468,1.89693956755896,1.89810500642158,1.9838851594002,1.94009933238012,1.93801887953447,2.00983302961403,1.82762003454896,1.82788009115466,1.82376734409405,1.82388292480769,1.91325571163552,1.87479622916936,2.0031871385793,1.8269072868148,1.82744666347849,2.01638260338738,2.02028345247298,1.82795714496376,1.91969933642136,1.82656054467386,1.87542229136828,1.82547215962034,1.82553958170331,1.82630048806815,2.00900470116622,1.82562626723854,1.99404663047503,1.91309197229118,1.85275883976726,1.75535319334094,1.85256620524451,1.74490277048199,1.85241209762632,1.74266821001814,1.73954753074967,1.73634979767209,1.85323079434799,1.78034752266719,1.73231410442057,1.72920305687823,1.85275883976726,1.7281628304554,1.72628464385863,1.72342402119586,1.84746139039176,1.77587840173949,1.77619624870202,1.85066875519547,1.72396339785955,1.80292428873297,1.72679512534391,1.7278257200406,1.72635206594159,1.84669085230077,1.72629427558477,1.72499399255623,1.72364555089702
2.10290439927857,1.80509142711386,1.8538279613685,1.86319963090007,1.8031650818864,1.79867669750643,2.05276163300789,1.79778094697566,1.79634581978121,1.89597639494524,1.97086306566259,1.79361040955822,1.96944720192041,1.97216334869112,1.83611521700204,1.96931235775449,1.78572202585179,1.78246650241739,1.78289993009356,1.77901834446024,1.82671465229205,1.77754469036124,1.77970219701599,1.77660078119978,1.77540644715876,1.77592656037017,1.77698605024527,1.77307556943354,1.7760614045361,1.77721721167257,1.90850727064984,1.83513278093604,1.90746704422701,1.83202173339369,1.90341208752322,1.92991859785301,1.89784494981587,1.8988081224296,2.02347155382442,1.89324098472225,1.92659565233565,1.93054466005194,1.88902228867412,1.89030330825038,1.93146930576112,1.88786648153765,1.81371182200672,1.81345176540102,2.01076730704934,1.81701550407181,1.92980301713937,1.93003417856666,1.82301606945534,1.90260302252769,1.92959111916435,1.9108477801012,2.01645965719648,1.97423416981064,2.00006645931083,1.97567892873123,1.97447496296407,1.89864438308526,1.97984946614867,1.89962681915127,1.97334805100601,1.97283756952073,1.97383926903901,1.98291235506033,1.99395031321365,1.99048289180423,1.97667099652337,1.9006959407525,1.98335541446264,1.98688062622889,1.90151463747417,1.90200585550717,1.90344098270163,1.98485796374006,1.98594634879357,1.98341320481947,1.90399962281759,1.90337356061867,1.90300755502545,1.99896844253118,1.99077184358835,1.99731178563556,1.90159169128327,1.98699620694254,1.98345173172402,1.98708289247777,1.97079564357963,1.89745004904424,1.89764268356699,1.89780642291132,1.98540697212989,1.97639167646539,1.97584266807557,1.83250331970056,2.01963812682178,1.827552612466,1.82660870330454,1.82524099819305,1.82438377456683,1.87323588953512,1.82679170610115,1.82689765508866,1.92676902340612,1.82710955306368,1.82987385846508,1.82748519038304,1.82977754120371,2.01319450203594,1.82825572847402,1.82756224419213,1.82740813657394,1.8264931225909,1.82681096955343,1.82489425605211,1.99479790511373,1.82325686260877,1.82415261313954,1.80576564794347,1.7549293973909,1.75338832120894,1.86060869656914,1.85419396696171,1.85345232404914,1.85332711160936,1.78467216770282,1.73350843846159,1.77766990280102,1.72981948735101,1.7296364845544,1.72842288706111,1.85599509974939,1.85357753648893,1.72591863826541,1.7264580149291,1.72749824135193,1.72678549361777,1.84733617795197,1.72708407712802,1.72637132939387,1.83904326174777,1.72638096112,1.72592826999155,1.72332770393449,1.84701833098944,1.72519625880512,1.72370334125384
1.89770047392381,1.85513787612317,1.8066517667481,1.80508179538772,1.80512995401841,1.89936676254556,1.80114241939757,1.84925289145329,1.79833958709163,1.79776168352339,1.79704893578923,1.79410162759122,1.79163590570008,1.79015261987494,1.97922340394975,1.89409820834847,1.78782174214971,1.95075202148795,1.78304440598562,1.82971011912075,1.87574013833081,1.77938435005346,1.77803590839424,1.82682060127956,1.96626873229511,1.87791690843784,1.77658151774751,1.77791069595445,1.77849823124883,1.77964440665916,1.91305344538663,1.90961491915563,1.90813163333048,1.90765967874976,1.90530953757226,1.93279848396806,1.93063134558717,2.00691461659443,1.8971033069033,1.89577412869635,1.89310614055633,1.89152653746981,1.93238431974416,1.8902840447981,1.81485799741706,1.88807837951267,1.888242118857,1.93330896545334,1.93124777605996,1.89022625444128,1.89401152281323,1.89736336350901,1.89646761297824,1.8306540282822,1.90855542928053,1.91108857325463,2.02349081727669,1.98041773799077,1.90405741317442,1.90352766823686,1.97586193152784,1.97670952342792,1.97702737039045,1.8998676123047,1.89925118183191,1.98484833201392,1.98584039980606,1.99037694281672,1.98871065419497,1.97423416981064,1.8999446661138,1.99226476113963,1.99572255082291,1.98761263741532,1.98453048505139,1.98883586663476,1.99423926499777,1.99101263674178,1.99376731041704,1.98355768071153,1.99550102112176,1.99003983240192,1.90393220073463,1.90324834817888,1.99345909518065,1.99935371157667,1.98527212796396,1.90018545926723,1.90018545926723,1.89918375974895,1.97335768273215,1.89974239986491,1.89876959552505,1.97774974985075,1.98028289382485,1.97852028794173,1.83158830571752,1.83055771102083,2.02108288574237,1.82892994930363,1.827061394433,1.92999565166211,1.82598264110562,1.82586706039197,1.82290048874169,1.82612711699768,1.92395655937404,1.82835204573539,1.93891463006523,1.83061550137765,1.82695544544549,1.82744666347849,1.82716734342051,2.00389025458733,2.01280923299045,1.8272443972296,1.82598264110562,1.82565516241695,1.82657980812613,1.82611748527154,1.99063699942243,1.99565512873995,1.81256564659639,1.79951465768037,1.74737812409927,1.85045685722045,1.78675262054848,1.78586650174385,1.78319851360382,1.83062513310379,1.73088860895225,1.7294534817578,1.85335600678777,1.72719965784167,1.83909142037846,1.7748478070428,1.7744336428189,1.81799794013781,1.82646422741248,1.72578379409949,1.85340416541846,1.72414640065615,1.72753676825648,1.84634411015983,1.72554300094606,1.84639226879052,1.72509994154375,1.72388634405045,1.72300022524582,1.77031126403214
1.85752654420521,1.90443305049377,1.80752825382659,1.80705629924586,1.80537074717184,1.80533222026729,1.80496621467407,1.80322287224323,1.80101720695779,1.79792542286772,1.79723193858584,1.79683703781421,1.89014920063218,1.89943418462852,1.79274355420587,1.7900659343397,1.78961324321125,1.78725347030762,1.87631804189905,1.83291748392446,1.78353562401863,1.78227386789464,1.82938264043208,1.77938435005346,1.82688802336252,1.77726537030326,1.77711126268506,1.77734242411235,1.87957356533345,1.78142627599456,1.91413219871401,1.84002569781377,1.91079962147051,1.90892143487374,1.93380018348634,1.90381662002098,1.90343135097549,1.93430103324548,1.93360754896359,1.89737299523514,1.8932795116268,1.8936166220416,1.89325061644839,1.8922970755608,1.88959056051622,1.88690330892392,1.88957129706395,1.89029367652424,1.93305854057377,1.8941848938837,1.89569707488726,1.93381944693861,1.93343417789312,2.00683756278533,1.91155089610922,1.84324269434363,2.02186305555949,1.99639677165252,2.0007310484143,1.90396109591304,1.90315203091751,1.90088857527525,1.9010041559889,1.90007951027972,1.90001208819676,1.97577524599261,1.99159054031002,2.0040636256578,1.99731178563556,1.99493274927966,1.98931745294162,1.90319055782206,1.98993388341441,1.90284381568112,1.90310387228682,1.99706136075599,1.99642566683093,1.97839507550195,1.98622566885155,1.98726589527438,1.99704209730372,1.98765116431987,1.97632425438243,1.90394183246077,1.90293050121635,1.99209139006916,1.98560923837877,1.98066816287034,1.97474465129592,1.97617014676423,1.99227439286577,1.89890443969097,1.89885628106028,1.97640130819153,1.9753610817687,1.97434011879815,1.83359170475407,1.83278263975854,1.87713673862072,1.82847725817518,1.82660870330454,1.82631011979429,1.82591521902266,1.82404666415203,1.93022681308941,1.82639680532952,1.92921548184499,1.92529536930712,1.82776451044102,1.82937300870594,1.82769708835806,1.82619453908064,1.8269072868148,1.90713956553834,1.8747288070864,1.87281209358508,1.82526026164532,1.82481720224301,1.82472088498164,1.8257707431306,1.8247112532555,1.82304496463375,1.80277018111477,1.74783081522773,1.8543962332106,1.74098265794412,1.81448236009771,1.7342597131003,1.73313280114224,1.73244894858649,1.85138150292963,1.72875999747591,1.72881778783274,1.72809540837244,1.7294534817578,1.72680475707004,1.72558152785061,1.82482683396915,1.84781776425883,1.72735376545987,1.7260438507052,1.85012937853178,1.72416566410843,1.84653674468258,1.77479964841211,1.72622685350181,1.84903136175213,1.72629427558477,1.72248974376054,1.72192147191844
1.81159284225652,1.90821831886572,1.81109199249738,1.90992313439202,1.80666139847424,1.80751862210045,1.8554557230857,1.80658434466514,1.90423078424489,1.80066083309071,1.84734580967811,1.84770218354519,1.7987730147678,1.79696225025399,1.97590045843239,1.79282060801496,1.79150106153416,1.84035317650244,1.83657753985663,2.07044548219593,1.78635771977685,1.78240871206056,1.78126253665023,1.78160927879117,1.77984667290805,1.82926705971843,1.78101211177066,1.87386195173404,1.82957527495483,1.78149369807752,1.91464268019929,1.93748913459691,1.91340018752758,1.83705912616349,1.90707214345538,1.90385514692553,2.03308401650942,1.90262228597996,1.8996364508774,2.00668345516714,1.93581321424903,1.82083929934831,1.82094524833582,1.89251860526195,1.93429140151934,1.88905118385253,1.93715202418211,1.88963871914691,1.89315429918701,1.89381888829049,2.01874237629101,1.82439340629297,1.90323871645275,1.93686307239799,1.83779113734993,1.84440813320624,2.01701829731244,2.00999676895836,1.90591633631891,1.98773784985511,1.99214918042598,1.90280528877657,1.90181322098443,1.9772200049132,1.98287382815578,1.97800980645645,1.97697921175976,1.97799054300418,1.97688289449839,1.97621830539492,1.90322908472661,1.90304608193,1.99000130549737,1.99519280588536,1.97829875824057,1.97919450877134,1.97992651995777,1.99656051099686,1.9791848770452,1.99075258013608,1.90501095406201,1.99077184358835,1.90673503304058,2.00299450405656,1.99639677165252,1.99360357107271,1.99126306162135,1.97582340462329,1.97576561426647,1.99108005882474,1.89978092676946,1.89949197498534,1.89933786736715,1.98030215727713,1.97462907058227,1.98001320549301,1.83593221420543,1.88027668134147,1.92843531202787,1.82761040282282,1.82515431265781,1.9122443803911,1.82575147967833,1.82514468093168,1.82536621063283,1.82707102615913,1.82601153628403,1.87570161142626,1.82657980812613,1.82707102615913,1.82697470889776,1.82685912818411,1.92722171453457,1.87423758905339,1.82340133850083,1.82557810860785,1.82600190455789,2.00121263472116,1.82343023367924,1.82350728748834,1.8264931225909,1.85489708296974,1.74982458253814,1.74496056083882,1.74305347906364,1.74112713383618,1.73956679420194,1.73676396189599,1.73202515263645,1.85672711093582,1.72982911907715,1.72964611628054,1.72765234897012,1.72727671165077,1.72804724974175,1.72748860962579,1.83623079771569,1.72574526719494,1.72638096112,1.72803761801562,1.7238478171459,1.72641948802455,1.83464156290304,1.72609200933588,1.84041096685927,1.81633165151607,1.77345120675289,1.72491693874714,1.72373223643225,1.72348181155268
1.83699170408053,1.81346139712716,1.81109199249738,1.81044666684619,1.80840474090508,1.91404551317877,1.80834695054826,1.80684440127084,1.90767894220203,1.80285686665001,1.9064557129826,1.80344440194438,1.80238491206928,1.84775034217587,1.8844183235805,1.97539960867325,1.7944580014583,1.89639055916914,1.79000814398288,1.78766763453152,1.7868874647144,1.89531180584176,1.89811463814771,1.83089482143563,1.83115487804134,1.83234921208236,1.88306025019514,1.78293845699811,1.7844602697278,1.91968970469522,1.94097581945861,1.91445004567654,1.94054239178243,1.9401474910108,1.94033049380741,1.90440415531536,1.90518432513248,1.9380285112606,1.90090783872752,1.90061888694341,1.93608290258087,1.89618829292026,1.89257639561878,1.89323135299611,2.0282199948101,1.93733502697872,1.93713276072984,1.8914976422914,1.93903984250502,1.82100303869265,1.89701662136806,2.02347155382442,1.93646817162636,1.90804494779525,1.91210953622518,1.93521604722852,2.03288175026054,1.99693614831621,1.98659167444477,1.9944800581512,1.904519736029,1.90346987788004,1.90498205888359,1.98026363037258,1.9810438001897,1.97558261146986,1.90274749841974,1.90427894287557,1.99302566750447,1.99687835795939,1.99498090791034,2.00032651591653,1.98946192883368,1.98888402526544,1.99653161581844,1.98619677367314,1.9067157695883,1.99702283385145,1.99893954735276,1.99958487300396,1.90352766823686,1.9895197191905,1.98653388408795,1.90422115251875,1.98232481976596,1.99006872758033,1.98900923770523,1.98735258080962,1.98824833134038,1.89980019022174,1.98318204339217,1.90291123776408,1.90107157807186,1.97640130819153,1.97584266807557,1.9748698637357,1.88285798394626,1.83293674737674,1.83011465161851,2.02653444273607,2.02503189345866,1.82439340629297,1.82417187659181,1.8237288171895,1.82409482278271,1.93233616111347,1.82551068652489,1.82616564390223,1.92695202620273,1.82699397235003,1.8274755586569,1.82735034621711,1.82696507717162,1.82396961034293,1.82344949713152,1.8245571456373,1.82616564390223,1.82642570050793,1.91591406804941,1.82644496396021,1.82607895836699,1.75294526180662,1.85738206831315,1.7453169347059,1.741676142226,1.73802571801998,1.84956110668968,1.73512656845265,1.78113732421044,1.73320985495134,1.72961722110213,1.83662569848731,1.72766198069626,1.72621722177567,1.84174977679235,1.72640985629841,1.72684328397459,1.72646764665524,1.8496959508556,1.84697017235875,1.94226647076101,1.72594753344383,1.8393611087103,1.7230483838765,1.83681833301006,1.72331807220835,1.77757358553965,1.77627330251112,1.7227112734617,1.72131467317179
1.81537811062847,1.81596564592285,1.81169879124403,1.9133809240753,1.91074183111369,1.81315318189076,2.08722394912708,1.8105526158337,1.91295712812526,1.89569707488726,1.85369311720258,1.80375261718078,1.80378151235919,1.7993412866099,1.80042967166342,1.79826253328253,1.97285683297301,1.79595091900958,1.89940528945011,1.79288803009792,1.79075941862159,1.7869645185235,1.78653109084732,2.06598599299437,1.89364551722001,1.96327326546641,1.78440247937098,1.78655998602573,1.95612652467255,1.7864733004905,1.91900585213947,1.91823531404849,1.91771520083708,1.94359564896795,1.90951860189425,1.90709140690766,1.90715882899062,1.90619565637689,1.9028919743118,1.89956902879444,1.8261849073545,1.8979316353511,1.89588007768386,1.89445458221555,1.82034808131531,1.89463758501215,1.8943390015019,1.93944437500278,1.82230332172118,1.89624608327708,1.89771010564995,1.90027214480246,1.90372993448575,2.02389534977446,1.91595259495396,1.93675712341048,2.02184379210722,1.99788005747766,2.00273444745085,1.98018657656348,1.90733220006109,1.90729367315654,1.90607044393711,1.98589819016289,1.97937751156795,1.99431631880687,1.98956787782119,1.90613786602007,1.90782341809409,1.90464494846879,1.98070668977489,1.99277524262491,1.90693729928946,1.90760188839293,1.90625344673371,1.98642793510044,1.97911745496224,1.90788120845092,1.99383473250001,1.990396206269,2.00287892334291,1.99982566615739,1.99655087927072,1.99964266336079,1.99054068216106,1.90511690304952,1.98379847386496,1.90396109591304,2.00003756413241,1.98041773799077,1.9002817765286,1.90121605396392,1.90053220140817,1.97780754020757,1.97886703008267,1.98262340327621,1.83612484872818,1.82989312191736,1.82899737138659,2.01273217918135,1.82597300937948,2.02722792701796,1.82190842094955,1.82146536154724,1.82359397302357,1.82437414284069,1.82178320850977,1.87354410477151,1.9270483434641,1.91946817499406,1.8292574279923,1.82676281092274,1.82648349086476,2.02529195006436,1.82395034689065,1.82482683396915,1.82644496396021,1.82472088498164,1.82949822114573,1.82583816521356,1.8740834814352,1.82634864669884,1.74815829391639,1.74392033441599,1.74038549092361,1.73798719111543,1.73568520856862,1.73533846642767,1.78034752266719,1.72892373682025,1.84170161816166,1.85550388171638,1.85330784815708,1.72810504009858,1.85027385442384,1.72722855302008,1.7265350687382,1.85122739531143,1.77369199990632,1.72387671232431,1.7228653810799,1.72499399255623,1.72283648590148,1.72455093315392,1.72127614626724,1.72568747683812,1.77750616345669,1.77565687203833,1.7206693475206,1.72215263334574
1.96400527665285,1.89432936977576,1.81564779896032,1.81436677938406,1.86303589155574,1.81027329577572,1.81443420146702,1.81237301207364,1.8091849107222,1.81051408892915,1.91235032937861,1.85361606339348,1.80466763116382,1.80352145575348,1.97955088263842,1.79769426144043,1.8466715888485,1.89035146688107,1.84409028624371,1.79099058004888,1.84063249656042,1.78997924880447,1.78982514118627,1.91381435175148,1.78778321524517,1.78926650107031,1.78677188400075,1.78776395179289,1.78786026905426,1.78924723761803,1.84923362800101,1.92036392552483,1.94509819824537,1.91564437971756,1.91297639157754,1.91303418193436,1.90772710083272,1.94280584742469,1.90345061442777,1.90377809311643,1.82636791015111,1.82653164949544,1.89738262696128,1.89579339214863,2.02957806819545,1.89502285405765,1.82055034756419,1.89608234393275,1.82384439790314,1.90326761163116,1.89893333486938,1.90366251240279,1.93923247702776,1.93991632958351,2.02003302759341,1.93897242042206,2.02015824003319,2.00159790376665,2.00055767734383,2.00222396596558,1.98252708601484,1.90633050054281,1.90738035869178,1.90626307845985,1.98257524464552,1.98438600915933,1.99386362767842,1.98044663316919,1.98050442352601,2.00713614629559,1.90783304982023,1.99136901060886,1.9984579610459,1.99021320347239,1.98317241166604,1.99621376885591,2.00671235034555,1.9075922566668,1.90705288000311,1.99419110636708,2.00138600579163,2.00282113298609,1.99239960530555,1.9076693104759,1.99095484638496,1.90427894287557,1.9874777932494,1.98987609305758,1.98862396865974,1.98385626422178,1.98650498890954,1.90120642223778,1.90216959485151,1.97762453741096,1.97656504753586,1.8996364508774,1.83752144901808,1.83138603946863,1.82654128122158,1.87680925993205,1.82629085634201,1.82522173474078,1.82329538951332,1.82286196183714,1.82305459635989,1.82487499259983,1.82394071516452,1.82510615402713,1.92892653006087,1.92241548319207,1.82594411420107,1.82628122461588,1.87482512434777,1.82590558729652,1.82511578575326,1.82490388777824,1.82334354814401,1.8229293839201,1.8230064377292,1.8757882969615,1.99174464792822,1.86099396561463,1.74721438475494,1.79234865343424,1.83884099549889,1.73583931618681,1.73550220577201,1.85649594950852,1.85599509974939,1.73061892062041,1.77850786297496,1.72784498349287,1.72866368021454,1.8532596895264,1.72698775986665,1.85264325905361,1.72424271791753,1.77297925217217,1.83730955104306,1.72283648590148,1.84697017235875,1.72303875215037,1.7220659478105,1.7224801120344,1.72120872418428,1.84550614998589,1.72371297297998,1.77652372739068,1.71853110431812,1.72077529650811
1.84438886975396,1.82234184862573,1.81857584370605,1.81742003656958,1.81571522104328,1.81676507919224,1.92303191366486,1.87247498317027,1.81622570252856,1.80821210638234,1.81014808333593,1.91351576824122,1.85428065249695,1.80444610146266,1.90951860189425,1.90636902744736,1.90724551452585,1.90633050054281,1.88983135366965,1.84490898296538,1.90672540131444,1.792753185932,1.79080757725227,1.78968066529421,1.78988293154309,1.79126026838072,1.78988293154309,1.83712654824645,1.83840756782271,1.92354239515013,1.84957073841582,1.92259848598868,1.92041208415552,1.91638602263013,1.91665571096198,1.91199395551153,1.83706875788963,1.9063016053644,1.90682171857581,1.90541548655977,1.90362398549824,1.89980019022174,1.89883701760801,1.90019509099337,1.89936676254556,2.03006928622845,1.89620755637253,1.89764268356699,1.94295995504289,1.89825911403977,1.94348969998044,1.83021096887989,1.90916222802717,1.91055882831708,1.94018601791535,1.93784550846399,2.02389534977446,1.91099225599326,1.98573445081855,1.9862641957561,1.98542623558216,1.98564776528332,1.90948970671584,1.90771746910658,1.90708177518152,2.00296560887815,1.90713956553834,1.98930782121548,1.98165059893635,1.99987382478808,1.98253671774098,1.99552991630017,1.91107894152849,1.98713105110846,2.00601886606367,1.99346872690679,2.00370725179072,1.98996277859282,1.99713841456509,1.90928744046696,1.99622340058205,1.99358430762044,1.990396206269,1.99288119161241,1.90737072696564,1.90608007566324,1.99634861302184,1.90566591143934,1.99059847251788,1.9747157561175,1.99240923703169,1.90362398549824,1.90085968009684,1.89938602599783,1.90037809378997,1.97389705939584,1.83490161950874,1.93918431839708,1.93405060836591,1.82776451044102,1.82431635248387,1.82225516309049,1.95092539255842,1.93167157201,1.81903816656064,1.82126309529835,1.9062245515553,1.82180247196204,1.82509652230099,1.82443193319752,1.92409140353996,1.82546252789421,1.82554921342944,1.87340926060559,1.87236903418276,1.82334354814401,1.8241429814134,1.8257707431306,1.87315883572602,1.82490388777824,1.82496167813507,1.74868803885394,1.746867642614,1.74117529246687,1.74081891859979,1.7359645286266,1.73286311281039,1.85914467419628,1.8018455354056,1.82803419877286,1.72911637134299,1.72931863759187,1.85095770697959,1.72513846844829,1.7244931427971,1.85063022829092,1.7265350687382,1.7247531994028,1.7219888940014,1.83376507582454,1.72307727905492,1.84332937987886,1.7694733038582,1.72127614626724,1.72094866757858,1.84978263639084,1.72079455996038,1.81405856414767,1.8443985014801,1.84184609405372
1.84619963426777,1.82288122528942,1.9303038668985,1.81759340764005,1.81778604216279,1.81809425739919,1.8160812266365,1.81598490937512,1.8155129547944,1.81585969693534,1.81321097224759,1.81090898970078,1.91525911067207,1.80717187995951,1.80645913222535,1.98585966325834,1.9893367163939,1.80245233415224,1.79883080512463,1.97545739903007,1.79523817127542,1.79371635854573,1.79061494272953,1.79095205314433,1.83926479144893,1.8826364542451,1.79092315796592,1.83911068383073,1.88986024884806,1.79173222296145,1.92895542523928,1.85273957631498,1.95044380625156,1.94941321155487,1.91667497441425,1.94734239043535,1.91308234056505,1.94789139882518,1.9080064208907,1.9080064208907,1.90226591211288,1.9004358841468,1.89982908540015,1.90018545926723,1.90086931182298,1.82444156492366,1.89575486524408,1.89932823564101,1.89769084219767,1.94664890615347,1.82979680465598,1.90426931114944,1.83510388575762,1.84035317650244,1.91748403940978,1.94021491309377,2.02997296896708,1.99364209797726,1.98745852979713,1.9995945047301,1.99003983240192,1.98454011677753,1.90775599601113,1.98972198543939,1.9868324675982,1.98299904059557,1.98420300636273,1.98438600915933,1.9835769441638,2.00780073539906,1.99576107772746,1.99685909450711,2.00226249287013,1.99774521331174,1.90962455088176,2.01275144263362,1.90924891356241,1.9096341826079,1.90899848868284,1.98729479045279,1.90820868713958,1.9925151860192,1.9825945080978,1.9864183033743,1.99426816017618,1.98356731243766,1.90555996245183,1.99253444947147,1.99631971784342,1.99383473250001,1.99683983105484,1.90307497710841,1.90300755502545,1.90294013294249,1.90093673390594,1.99972934889602,1.97427269671519,1.83159793744365,1.83018207370147,1.93631406400817,1.82302570118148,1.82170615470067,1.87058716484737,1.92791519881646,1.81867216096742,2.02250838121069,1.92988007094846,1.81911522036974,2.00573954600568,1.82184099886659,1.87390047863859,1.82448972355434,1.8229293839201,1.9303038668985,1.92954296053366,1.92037355725097,1.92206874105113,1.82640643705566,1.87232087555208,1.82558774033399,1.99407552565344,1.91291860122071,1.9113389981342,1.73788124212792,1.73725517992899,1.857651756645,1.8613984981124,1.73268011001378,1.73103308484431,1.72874073402364,1.72802798628948,1.72666991290412,1.72733450200759,1.72728634337691,1.85274920804112,1.72277869554466,1.72283648590148,1.72379002678907,1.77175602295273,1.72301948869809,1.72224895060711,1.83627895634637,1.84736507313038,1.71991807288189,1.77011862950939,1.82613674872382,1.72006254877395,1.7666319446477,1.71918606169545,1.7188874781852
1.89655429851347,1.82615601217609,1.9292443770234,1.82207216029388,2.00226249287013,1.81922116935725,1.81775714698438,1.81939454042772,1.81935601352317,1.81334581641351,1.92112483188968,2.00040356972563,1.81121720493717,1.81072598690417,1.99344946345451,1.80695998198449,1.80352145575348,1.80321324051709,1.80205743338062,1.80117131457599,1.79784836905862,1.79794468632,1.79503590502654,1.79378378062869,1.84108518768888,1.84055544275133,1.79415941794805,1.79372599027187,1.79450616008899,1.93015939100644,1.85301889637297,1.95110839535503,1.92438035532408,1.84685459164511,1.91806194297802,1.91678092340176,1.95010669583675,1.91318828955256,1.90968234123859,1.90717809244289,1.90655203024397,1.9034602461539,2.02356787108579,1.82662796675682,1.90224664866061,1.89931860391487,1.89791237189883,1.94626363710798,1.90096562908435,1.90293050121635,1.90464494846879,1.90748630767929,1.94995258821856,1.91487384162658,1.91881321761673,2.02053387735255,2.04695370214711,1.99727325873101,1.99078147531449,1.99946929229031,2.01539053559524,1.98688062622889,1.91228290729565,1.98716957801301,1.91018319099773,1.98595598051971,2.00723246355696,1.98418374291045,1.91034693034206,1.99317014339653,1.99636787647411,1.9905792090656,1.9996715585392,1.91063588212618,2.00314861167476,1.98615824676859,1.9874007394403,1.99023246692466,1.98381773731723,2.00582623154092,2.00855201003777,1.90944154808515,1.98419337463659,1.90935486254992,2.00165569412348,1.98545513076057,1.9865724109925,1.9925922398283,1.99595371225021,1.99806306027427,1.98587892671061,1.90262228597996,1.97738374425753,1.90146647884349,1.90272823496747,1.90098489253662,1.94172709409732,1.93230726593506,2.02592764398942,2.01266475709839,2.02754577398049,1.82239000725641,1.81760303936619,1.81696734544113,1.81769935662756,1.91414183044015,1.81987612673458,1.81992428536527,1.82066592827784,1.82284269838487,1.92356165860241,1.82144609809496,1.8221010554723,1.82296791082465,1.82060813792102,1.82392145171224,1.82405629587816,1.82426819385318,1.82325686260877,1.82381550272473,1.8253565789067,1.74529767125362,1.84077697245248,1.74085744550434,1.73452940143214,1.73339285774794,1.73305574733314,1.85843192646212,1.8564381591517,1.85631294671192,1.72625574868022,1.72659285909502,1.84966705567719,1.85060133311251,1.84826082366115,1.85172824507057,1.72330844048221,1.72117982900587,1.7211605655536,1.84783702771111,1.83763702973173,1.84718207033377,1.84056507447746,1.72019739293987,1.71863705330563,1.71957133074095,1.71734640200323,1.71719229438504,1.71815546699877,1.71794356902375
1.96094238774119,1.82960417013324,1.8268302330057,1.8735152095931,1.82457640908958,1.91309197229118,1.82064666482557,1.92976449023482,2.00393841321801,1.81963533358115,1.92445740913317,1.91581775078803,1.81216111409862,1.91424777942766,1.98280640607282,1.90064778212182,1.80641097359467,1.80274128593636,1.85172824507057,1.84941663079762,1.89456053120306,1.88665288404435,1.79663477156533,1.90823758231799,1.8431849039868,1.79512259056177,1.79516111746632,1.84372428065049,1.96545003557344,1.85741096349157,1.93090103391902,1.92599848531514,1.92543984519918,1.92310896747396,1.92186647480225,1.9177729911939,1.91380472002534,1.83979453638648,1.8365968033089,1.83478603879509,1.83363023165862,1.95078091666636,1.95118544916413,1.94996221994469,2.03607948333812,1.8993763942717,1.90242001973108,1.82709028961141,1.94631179573866,2.03711007803481,1.94876788590367,1.94751576150582,1.91075146283982,1.91689650411541,2.01758656915454,1.94345117307589,1.94405797182254,2.00885059354803,2.0006539946052,1.9967531455196,2.0087157493821,1.98968345853484,1.91300528675595,1.91123304914669,2.00527722315109,1.98561887010491,1.98413558427976,1.91168574027514,1.91241775146157,1.91108857325463,1.99909365497096,1.9959248170718,1.99935371157667,1.91225401211724,1.91283191568548,1.9971673097435,1.99806306027427,1.99395994493979,1.99060810424402,1.99383473250001,1.91068404075686,2.00546985767384,1.9094800749897,2.00040356972563,1.98439564088547,1.98297977714329,1.99605002951158,1.98914408187115,2.00439110434647,1.90387441037781,1.90316166264365,1.90230443901743,1.90341208752322,1.90266081288451,1.90056109658658,1.97738374425753,1.98661093789705,2.00362056625548,2.02526305488595,1.82356507784516,1.82288122528942,2.0269293435077,1.8196738604857,1.93592879496268,1.9161452294767,1.81689029163203,1.8665129446913,1.86638773225151,1.81900927138223,1.92922511357113,1.82147499327337,1.92685570894136,1.82090672143127,1.82086819452672,1.87155996918723,1.82297754255079,1.8226693273144,1.91283191568548,1.8261849073545,1.82379623927246,1.82383476617701,1.79310955979908,1.78955545285443,1.7880240083986,1.85061096483865,1.85037980341135,1.73080192341701,1.77924950588754,1.77648520048614,1.72719965784167,1.72812430355085,1.72750787307807,1.72390560750272,1.85232541209108,1.72527331261422,1.72366481434929,1.72210447471505,1.81715997996387,1.85356790476279,1.72091977240017,1.84307895499929,1.71938832794434,1.72256679756964,1.84351238267547,1.71913790306477,1.84469708499036,1.71987954597734,1.71724045301572,1.84672937920532,1.71635433421109
1.90148574229576,1.93327043854879,1.90923928183627,1.87716563379913,1.82555884515558,1.82336281159628,1.82071408690853,1.82133051738131,1.81956791149819,1.81909595691746,1.87452654083751,1.87413164006588,1.93242284664871,1.92778998637667,1.80974355083817,2.00274407917699,1.80705629924586,1.80640134186853,1.80542853752866,1.80239454379542,1.80050672547251,1.89473390227353,1.90352766823686,1.90396109591304,1.79654808603009,1.79734751929949,1.87244608799186,1.79708746269378,1.80060304273389,1.9330681722999,1.93589989978426,1.85737243658702,1.95961320953425,1.95484550509629,1.92220358521705,1.92044097933393,1.91968007296908,1.91672313304494,1.91325571163552,1.91268743979342,1.95299621367794,1.95253389082335,1.83158830571752,1.95111802708117,1.95111802708117,1.90246817836176,1.9013412664037,1.82891068585135,1.90352766823686,1.90425004769716,1.90634013226895,2.0328721185344,1.9138721421083,1.94804550644337,1.92153899611358,1.94691859448531,1.94562794318292,1.91763814702798,1.99954634609941,1.99684946278097,1.99052141870878,1.91480641954362,1.91544211346868,1.91340018752758,1.98420300636273,1.98703473384709,1.99607892468999,2.01970554890474,1.91311123574346,1.91382398347762,1.91323644818324,1.98687099450275,1.98466532921731,1.99532765005128,1.91417072561856,1.9942970553546,2.01061319943115,1.91278375705479,2.00408288911007,1.99068515805312,1.91097299254098,1.99852538312886,1.9996715585392,1.99369988833408,1.98983756615303,1.98611971986404,1.90968234123859,1.99393104976138,1.97993615168391,1.98631235438679,1.97723926836547,1.98007099584983,1.90406704490055,1.90298829157318,1.90297865984704,1.98887439353931,1.94070613112677,1.82744666347849,1.93641038126954,1.8239118199861,1.9367089647798,1.81839284090944,1.81819057466056,2.02737240291002,1.8191055886436,1.93375202485565,1.81610049008877,1.932654008076,1.81684213300134,1.81988575846072,1.82046366202896,1.82025176405394,2.00005682758469,1.82226479481663,1.8221010554723,1.82333391641787,1.82302570118148,1.82170615470067,1.82151352017792,1.82339170677469,2.00327382411454,1.74024101503155,1.73921042033486,1.73623421695844,1.7341826592912,1.73286311281039,1.73305574733314,1.72850957259634,1.85299000119455,1.72771977105309,1.82012655161415,1.72749824135193,1.72587047963473,1.77336452121766,1.77288293491079,1.72407897857319,1.72311580595947,1.71986028252506,1.72017812948759,1.72000475841712,1.84858830234982,1.71981212389438,1.71720192611117,1.7180880449158,1.84962852877264,1.71797246420216,1.7133588673824,1.71646991492474,1.71697076468388,1.71659512736453
1.86066648692597,1.83275374458013,1.8322047361903,1.83124156357657,1.8760483535672,1.82586706039197,1.88966761432532,1.82442230147138,1.93457072157732,1.91594296322782,1.81840247263558,1.81784383251962,1.81665913020473,1.81553221824667,1.81240190725205,1.80942570387563,1.81048519375074,1.91798488916892,1.91391066901285,1.85326932125254,1.8048698974127,1.85029311787612,1.79994808535655,1.80046819856796,1.79956281631106,1.79816621602115,1.79854185334051,1.80072825517367,1.79987103154745,1.93488856853985,1.93507157133646,2.03439393126409,1.92698092138114,1.92877242244268,1.95704153865559,2.04458429751734,1.9202772399896,2.04666475036299,2.04057749944423,1.95269763016768,1.90990387093974,1.91065514557845,1.90778489118954,1.90627271018599,1.90471237055175,1.9535548537939,1.95274578879837,2.02589874881101,1.90601265358028,1.95252425909721,1.95048233315611,1.83711691652032,1.83958263841146,1.94938431637646,1.94594579014545,1.94922057703212,2.03719676357004,2.01524605970318,2.01022793038566,1.9930064040522,1.99205286316461,1.99303529923061,1.9147486291868,1.91408404008332,1.91194579688085,2.00404436220552,1.99320867030108,2.01088288776299,2.02738203463615,1.91449820430723,1.91354466341964,1.91590443632327,2.00592254880229,2.00706872421263,2.00282113298609,2.01412877947126,2.00333161447136,1.91408404008332,1.91407440835719,2.00531575005564,2.00834011206275,1.99351688553748,1.9989491790789,1.99330498756246,2.00689535314216,1.99248629084079,1.99669535516278,1.98391405457861,1.98245003220574,1.99133048370431,1.98204549970797,1.90425004769716,1.90170727199692,1.90366251240279,1.90360472204596,1.90235259764812,1.83280190321081,1.82779340561943,1.82611748527154,2.01758656915454,1.82027102750621,1.81729482412979,1.92639338608677,1.9381826188788,1.81662060330018,1.81643760050358,1.81477131188183,1.81601380455353,1.81813278430374,1.8180460987685,1.81833505055262,1.86779396426755,1.9239469276479,1.88177923061889,1.9890285011575,1.82248632451779,1.82350728748834,1.99776447676402,1.90956676052494,1.82361323647585,1.82335317987014,1.74049143991112,1.73783308349723,1.73697585987101,1.73559852303338,1.7288852099157,1.72995433151693,1.73024328330105,1.85384722482077,1.72720928956781,1.72652543701206,1.72422345446525,1.77258435140054,1.72397302958568,1.7224801120344,1.72175773257411,1.72065971579446,1.72109314347064,1.72061155716377,1.72047671299785,1.82028065923235,1.91893843005651,1.71680702533955,1.83541210099402,1.9207684580226,1.71510220981325,1.71454356969729,1.71608464587925,1.84022796406266,1.71366708261879
1.85665968885286,1.83630785152478,1.93966590470394,1.93933842601527,1.99961376818237,1.93626590537748,1.82757187591827,1.82688802336252,1.82552031825103,1.82383476617701,1.82244779761324,1.82057924274261,1.81980870465162,1.81737187793889,1.8142993573011,1.86632994189469,1.81075488208258,1.81058151101211,1.80944496732791,1.80748972692204,1.85279736667181,1.85038943513749,1.80304950117276,1.8014602663601,1.90585854596209,1.79945686732355,1.8009690483271,1.89915486457054,1.80329992605232,1.85286478875477,1.93759508358443,1.96017184965021,1.93639111781727,1.92817525542217,1.92599848531514,1.95992142477064,2.05012254004627,1.91926590874518,1.91793673053824,1.84100813387978,2.04283132336035,1.95750386151018,1.90740925387019,1.90704324827697,1.90656166197011,1.83046139375946,1.90681208684968,1.95367043450755,1.90481831953926,1.90814126505662,1.90949933844198,1.91320755300483,1.95141661059142,1.84411918142212,1.92230953420456,2.04898599636207,2.03667665035863,1.92226137557387,1.99603076605931,2.00124152989957,1.99047326007809,1.99578997290587,1.91946817499406,1.91523021549366,1.99415257946254,2.01165342585397,1.98974124889166,1.99681093587643,2.00272481572472,1.91590443632327,1.99663756480595,1.99947892401645,2.01038203800385,2.0000857227631,2.00351461726797,1.99622340058205,1.99984492960967,1.91569253834825,2.00296560887815,2.00069252150975,2.0098522930663,1.99294861369538,1.99555881147858,1.99377694214318,2.00045172835632,2.00401546702711,1.9930834578613,1.98433785052865,1.99619450540364,1.99600187088089,1.98393331803088,1.90576222870071,1.90386477865167,1.90464494846879,1.99582849981042,1.98757411051077,1.87730047796505,1.87672257439681,1.82312201844285,1.8200880247096,1.82025176405394,1.81715034823773,1.91691576756768,1.813239867426,1.81525289818869,1.81658207639563,1.81446309664543,1.81446309664543,1.81699624061954,1.92994749303142,1.81407782759994,1.86524155684118,1.81891295412086,1.81809425739919,1.81883590031176,1.82059850619488,1.82267895904053,1.82231295344732,1.82271748594508,1.81980870465162,1.82052145238578,1.74072260133841,1.85901946175649,1.85710274825517,1.732554897574,1.7800682026092,1.72928011068732,1.72872147057136,1.72794130075424,1.72771977105309,1.72370334125384,1.82400813724748,1.71999512669099,1.77124554146746,1.84677753783601,1.77273845901873,1.7217288373957,1.72091014067403,1.85037017168521,1.7196098576455,1.71952317211026,1.71823252080786,1.71814583527263,1.83678943783165,1.7162002265929,1.7647730215032,1.71657586391225,1.8420483603026,1.84234694381286,1.71285801762326
1.96521887414615,1.83355317784952,1.83572994795655,1.83403476415639,1.83289822047219,1.94289253295993,1.89566817970884,1.82945006251504,1.87831180920946,1.93625627365134,1.8239118199861,1.87105911942809,1.81764156627074,1.81829652364807,1.81544553271144,1.92913842803589,1.81076451380872,1.80934865006654,1.80805799876414,1.80617018044123,1.80638207841625,1.80583307002643,1.80303023772048,1.80248122933066,1.80139284427714,1.8016914277874,1.85703532617221,1.80369482682395,1.80452315527176,1.93977185369145,1.93695938965936,1.86107101942373,1.933145226109,2.04083755604993,1.92938885291546,2.03356560281629,1.92356165860241,1.84687385509738,1.91915995975767,1.95966136816493,1.84032428132403,2.03286248680827,1.91015429581931,1.90969197296472,1.90687950893264,1.90597412667573,1.83477640706896,1.90616676119848,1.90919112320559,1.83617300735886,2.02471404649613,1.91271633497183,1.91631860054717,1.9496540047083,1.92675939167999,1.94921094530599,2.04329364621494,2.01621886404304,1.99502906654103,2.00962113163901,1.99352651726361,1.99532765005128,1.99132085197818,1.99128232507363,1.99442226779438,1.99373841523863,1.99078147531449,1.9898279344269,2.00962113163901,1.98986646133145,1.91745514423137,1.91675202822335,2.00651008409667,2.00266702536789,1.99966192681306,1.99901660116186,1.99067552632698,1.99962339990851,1.99766815950264,1.99359393934657,1.91610670257215,1.99248629084079,1.99629082266501,1.99954634609941,2.00930328467648,2.00477637339196,1.99586702671497,1.99374804696477,1.90988460748747,1.99441263606824,1.9063786591735,1.98583076807993,1.90561775280865,1.90550217209501,1.90480868781312,1.98570555564014,1.87698263100252,1.93295259158626,1.82382513445087,1.82169652297453,1.86658999850039,1.86602172665829,1.8860460852977,1.81474241670341,1.81351918748398,1.81496394640457,1.8141452496829,1.8141452496829,1.81416451313518,1.81354808266239,1.86493334160478,1.91395882764354,1.81699624061954,1.81837357745717,1.86720642897318,1.82028065923235,1.81985686328231,1.82114751458471,1.82182173541431,1.82063703309943,1.82293901564624,1.7408478137782,1.90261265425382,1.85176677197512,1.78263987348786,1.83305232809038,1.7312642462716,1.72851920432248,1.72692033778369,1.82680133782729,1.72394413440727,1.72428124482208,1.72252827066509,1.85033164478066,1.85045685722045,1.72175773257411,1.71975433353755,1.8464404274212,1.71859852640108,1.71876226574541,1.82026139578008,1.7189645319943,1.71517926362235,1.71713450402821,1.80627612942874,1.80238491206928,1.71455320142342,1.71268464655279,1.71603648724856,1.76304894252463
1.9113389981342,1.84117187322411,1.88749084421829,1.83784892770675,1.83578773831337,1.8832047260872,1.83098150697087,1.83226252654713,1.8295945384071,1.92972596333027,1.93069876767013,1.82327612606104,1.82094524833582,1.8200880247096,1.81518547610573,1.90582001905754,2.00657750617963,1.81216111409862,1.81121720493717,1.80973391911203,1.86417243523994,1.80644950049922,1.80382967098988,1.80346366539666,1.80279907629319,1.92756845667552,1.80609312663214,1.85285515702863,1.80956054804156,1.80993618536091,1.93600584877177,1.93643927644795,2.04256163502851,2.0425327398501,1.8559469411187,2.03511631072439,1.92347497306717,1.92187610652838,1.92045061106007,1.91180132098879,1.96270499362432,1.91346760961054,1.90996166129657,1.91073219938755,1.90831463612709,1.95867893209893,1.90677355994513,1.90829537267482,1.90682171857581,1.90935486254992,1.9540460718269,1.95622284193393,2.04600979298565,1.9523412563006,1.92385061038653,1.93156562302249,2.04305285306151,2.01985965652294,2.00891801563099,2.01908911843196,2.00921659914124,1.91980528540887,1.99395994493979,1.99488459064897,2.00037467454722,2.00517127416358,1.91746477595751,2.00963076336515,1.99258260810216,1.91987270749183,2.01050725044364,2.01023756211179,1.99798600646517,1.99920923568461,2.00275371090313,2.00671235034555,1.91623191501194,2.00238770530991,1.99985456133581,1.91583701424031,1.9962619274866,2.00381320077823,2.00301376750883,1.91378545657307,2.0060284977898,1.99594408052407,2.00644266201371,1.99640640337866,1.90922965011013,1.98965456335643,1.99370952006022,1.98304719922625,1.90632086881668,1.98311462130921,1.98005173239756,1.990887424302,1.82826536020016,1.82585742866584,1.87021152752801,1.82013618334029,1.81815204775601,1.81748745865254,1.81512768574891,1.9370460751946,1.81435714765792,1.81367329510218,1.86060869656914,1.81430898902724,1.81480020706024,1.81455941390681,1.81448236009771,1.86207271894201,1.86432654285813,1.81438604283633,1.92722171453457,1.81727556067752,1.81924043280952,1.81932711834476,1.81825799674352,1.8192596962618,1.82049255720737,1.7402795419361,1.78606876799273,1.7844602697278,1.72991580461239,1.77807443529879,1.77594582382245,1.88427384768844,1.84623816117232,1.72348181155268,1.72093903585244,1.84962852877264,1.81532032027165,1.85234467554336,1.71770277587031,1.7676914345228,1.718733370567,1.71698039641002,1.71761609033508,1.76602514590105,1.71654696873384,1.71722118956345,1.76531239816689,1.76302004734622,1.71149031251177,1.84549651825975,1.71635433421109,1.71439909380523,1.79130842701141,1.7132047597642
1.86691747718906,1.96740527597931,1.8429248473811,1.93109366844176,1.8404976523945,1.94326817027928,1.92965854124731,1.93513899341942,1.87823475540037,1.82914184727865,1.82825572847402,2.01478373684859,1.93783587673786,1.93261548117145,1.93410839872273,1.81736224621275,1.92919621839272,1.81546479616371,1.92449593603772,1.81121720493717,1.85619736599827,1.80787499596753,1.80382003926374,1.80565006722982,1.80568859413437,1.80307839635117,1.80408009586944,1.90745741250088,1.80915601554379,1.94322964337473,1.94147666921775,1.9426517398065,1.86295883774664,1.93539905002513,1.93097808772811,1.93029423517237,1.96331179237096,2.037264185653,1.92067214076122,1.96353332207212,1.84272258113221,1.91509537132774,2.03791914303034,2.0481672996404,1.83707838961577,1.91024098135455,1.90960528742949,1.83467045808145,1.91236959283089,1.95650216199191,1.91618375638125,1.91468120710384,1.91803304779961,1.91967044124295,1.95405570355304,1.93241321492257,2.03666701863249,2.01579506809301,1.99799563819131,2.00380356905209,2.00256107638038,1.99963303163465,1.92249253700117,1.92039282070324,1.91796562571665,1.9194007529111,2.00627892266937,1.99441263606824,2.01423472845877,2.00696277522512,1.91975712677818,2.00430441881123,2.01097920502436,2.01173047966307,2.00433331398964,2.01638260338738,1.91925627701904,2.00767552295928,2.00127042507799,1.99682056760256,1.91601038531078,1.99423926499777,2.00339903655433,1.99758147396741,2.00808968718318,1.98610045641177,2.0109117829414,1.99155201340547,1.99447042642507,1.99692651659007,1.9069469310156,1.90559848935638,1.9063016053644,1.90633050054281,1.98162170375793,1.98272935226372,1.82892031757749,1.8257707431306,1.873438155784,1.82004949780506,1.81794014978099,1.81513731747504,1.81418377658745,1.81623533425469,1.81350955575784,1.81163136916107,1.91814862851326,1.81061040619052,1.81284496665437,1.81306649635553,2.02839336588057,1.86188008441926,1.81575374794783,1.81427046212269,1.81424156694428,1.81589822383989,1.81839284090944,2.0000857227631,1.90619565637689,1.82116677803698,1.86606988528898,1.74187840847489,1.83762739800559,1.84927215490556,1.7306959744295,1.7292223203305,1.72790277384969,1.84933957698853,1.72381892196749,1.7214976759684,1.84965742395106,1.72256679756964,1.85063022829092,1.85342342887073,1.71916679824318,1.7664007832204,1.71614243623607,1.71777019795327,1.8948302195349,1.71667218117362,1.89436789668031,1.71668181289976,1.71722118956345,1.71591127480878,1.71636396593723,1.71497699737346,1.84024722751493,1.71283875417099,1.71179852774816,1.76207613818476
1.86982625848252,1.94144777403934,1.94396165456117,1.84097923870137,1.94349933170658,1.84059396965587,1.83572031623041,1.91873616380763,1.8807486359222,1.83282116666309,1.8296715922162,2.02220979770043,1.82482683396915,1.93485967336144,1.91042398415116,1.91331350199234,1.93003417856666,1.91067440903073,1.81488689259547,1.81270049076231,1.8102444005973,1.8093390183404,1.99277524262491,1.9969072531378,2.01319450203594,1.80663250329582,1.80868406096306,1.859125410744,1.87083758972693,1.96994805167955,1.86845855337103,1.93780698155945,1.93822114578335,1.93502341270577,1.93377128830792,2.03974917099642,1.9660086756894,1.85200756512855,1.92325344336601,1.9207684580226,2.03677296762,1.84323306261749,1.91356392687191,1.84004496126605,1.91432483323676,1.91172426717969,2.03576163637559,1.91104041462394,1.91020245445,1.837656293184,1.91988233921797,1.91544211346868,1.84551578171202,1.91978602195659,1.92632596400381,1.95288063296429,2.04415086984116,2.03223642460934,2.00942849711626,2.01345455864165,2.01026645729021,1.92316675783078,1.92305117711713,1.91938148945883,1.99366136142953,1.99262113500671,2.01323302894049,2.0137531421519,1.99777410849015,1.92006534201457,2.00831121688434,2.007165041474,1.92083588010556,2.00430441881123,2.00329308756681,2.00087552430636,2.01914690878878,2.00580696808865,1.9194007529111,2.00263813018948,2.02313444340961,2.00619223713414,2.01130668371303,1.91594296322782,2.03044492354781,1.91605854394147,2.00350498554184,2.00909138670146,1.99801490164359,1.99625229576046,1.99036731109058,1.90848800719756,1.90660018887466,1.90617639292462,1.99056957733947,1.9946341657694,2.03659959654953,1.94070613112677,1.82079114071763,1.86998036610072,1.81496394640457,1.93491746371826,1.86369084893307,1.81399114206471,1.81289312528506,1.81199737475429,1.81195884784974,1.81260417350094,1.86094580698395,1.90613786602007,2.02818146790555,1.93069876767013,1.81220927272931,1.81307612808166,1.86260246387956,1.81617754389787,1.81480020706024,2.006673823441,1.90608007566324,1.92312823092623,1.81618717562401,1.85156450572624,1.73648464183801,1.85017753716247,1.73052260335903,1.73030107365788,1.7297135383635,1.72571637201653,1.72349144327882,1.83425629385754,1.76926140588318,1.71939795967047,1.71950390865799,1.84758660283154,1.71705745021912,1.71672997153045,1.89977129504333,1.71715376748049,1.89326024817452,1.71416793237793,1.8431078501777,1.81829652364807,1.84285742529814,1.71607501415311,1.71437983035295,1.71523705397917,1.71404271993815,1.71327218184716,1.71181779120044,1.71095093584808
1.97920414049748,1.84586252385297,1.8454579913552,1.8461803708155,1.84137413947299,1.932654008076,1.88909934248322,1.94240131492693,1.83347612404042,1.83250331970056,1.82961380185937,1.87617356600699,1.92469820228661,1.82508689057485,1.89300982329495,1.82004949780506,1.8178919911503,1.81660133984791,1.93007270547121,1.81416451313518,1.8097531825643,1.81192995267133,1.92080698492715,1.99684946278097,1.80952202113701,1.98989535650986,1.80928122798358,1.90846874374529,1.87229198037366,1.87329367989194,1.94373049313387,1.86972030949501,1.96976504888294,1.96756901532364,1.93433956015002,1.93328007027492,2.05616163233435,1.92750103459256,1.92463078020365,1.9222421121216,1.84654637640871,1.91666534268812,1.91609707084602,1.91415146216628,1.91333276544462,1.91048177450798,1.96331179237096,1.91045287932957,1.91225401211724,1.91360245377646,1.95952652399901,1.91685797721086,1.84702796271558,1.92537242311622,1.93297185503853,1.95603020741118,1.95583757288843,1.92812709679148,2.00102963192455,2.00234917840536,1.92332086544898,1.92334976062739,1.92192426515907,1.92154862783972,1.99733104908784,2.01604549297257,2.01497637137134,2.00306192613952,1.92276222533301,1.99147495959637,2.006182605408,2.01575654118846,2.00449705333398,1.92041208415552,2.0012993202564,2.02027382074684,1.91974749505204,2.00453558023852,1.99609818814227,1.99681093587643,1.91882284934287,2.00666419171486,1.9172817731609,1.99857354175955,2.00093331466318,2.00313897994862,1.91486420990044,1.98711178765618,1.91300528675595,1.99754294706286,1.98289309160806,1.9094800749897,1.90940302118061,1.90718772416903,1.90726477797813,2.00208912179966,1.82850615335359,1.94649479853527,1.93209536796004,1.82050218893351,1.9349270954444,1.93807666989129,1.8142993573011,1.81337471159192,1.81304723290325,1.81315318189076,1.81060077446438,1.92949480190297,2.02737240291002,1.93058318695649,1.81079340898713,1.81249822451343,1.81044666684619,1.89847101201479,1.81302796945098,1.81498320985685,1.81541663753302,1.81594638247057,1.91899622041334,1.99573218254905,1.81491578777388,1.74204214781922,1.73934526450078,2.02932764331588,1.73339285774794,1.84017980543197,1.8241429814134,1.72454130142778,1.72373223643225,1.72055376680695,1.76912656171725,1.76812486219898,1.71670107635204,1.71955206728867,1.71600759207015,1.71510220981325,1.71690334260092,1.77667783500888,1.82277527630191,1.76409880067359,1.71499626082574,1.71364781916652,1.84090218489227,1.71566084992921,1.71422572273476,1.71624838522358,1.84079623590476,1.71111467519241,1.71292543970622,1.83523872992355
1.98044663316919,1.84834750919639,1.84761549800995,1.95754238841473,1.84361833166298,1.84312711362998,1.84321379916521,1.83691465027143,1.83704949443735,1.88316619918265,1.83117414149361,1.87722342415595,1.82639680532952,1.87349594614082,1.82521210301464,2.01217353906539,1.81943306733227,1.90239112455267,1.90372993448575,1.93333786063175,1.89631350536004,1.92599848531514,1.81325913087827,1.92863757827675,1.81137131255537,1.81178547677927,1.81455941390681,1.98843133413699,1.81169879124403,1.97375258350378,1.97526476450733,1.96846476585441,1.94213162659508,1.97122907125581,1.86330557988758,1.93268290325441,1.85800813051208,1.92883984452564,1.92659565233565,1.92291633295121,1.96650952544854,1.9196319143384,1.91755146149274,1.91599112185851,1.91270670324569,1.84067102346497,1.91328460681393,1.91417072561856,1.96358148070281,1.91543248174254,1.91576959215735,1.91853389755875,1.92055656004758,1.9233016019967,1.92960075089048,1.93636222263885,2.04252310812396,1.92929253565409,2.00994861032768,2.01334860965414,2.03434577263341,1.9262200150163,1.92409140353996,1.92240585146593,1.99737920771852,2.01378203733031,2.01980186616611,1.99619450540364,1.99710951938668,2.01697977040789,2.00860016866846,2.01315597513139,2.01384945941327,2.01404209393602,2.0164403937442,1.92111520016354,1.92062398213054,1.91986307576569,2.00755031051949,2.01280923299045,1.91925627701904,2.00522906452041,1.91796562571665,1.91745514423137,1.91634749572558,2.00412141601462,1.99809195545268,1.91399735454809,1.91270670324569,1.91054919659094,1.91043361587729,1.90936449427606,1.90817016023503,1.90918149147945,1.99847722449817,1.99922849913688,1.93903021077888,1.82625232943746,1.82458604081571,1.82142683464269,1.81905743001292,1.93406024009204,1.81392371998175,1.8136540316499,1.91157015956149,1.81053335238142,1.8103214544064,1.80971465565975,1.81064893309507,2.02037013800821,1.93120924915541,1.92946590672456,1.92656675715724,2.0097752392572,1.8124404341566,1.81097641178374,1.8121033237418,1.90901775213511,1.8142993573011,1.86551124517302,1.8635174778626,1.74250447067381,1.73746707790401,1.84422513040963,1.77990446326487,1.77835375535677,1.84782739598497,1.72139172698089,1.71921495687387,1.84668122057464,1.72013960258305,1.7176738806919,1.71841552360447,1.71559342784625,1.71640249284178,1.71396566612905,1.71538152987123,1.71706708194525,1.71380192678472,1.76274072728824,1.7134359211915,1.71364781916652,1.71134583661971,1.71299286178918,1.71293507143236,1.76052543027666,1.71218379679365,1.71092204066967,1.71150957596404,1.71176963256975
1.98017694483734,1.85188235268877,1.85071691382616,1.84952257978513,1.84482229743014,1.84489935123924,1.84113334631956,1.84046875721609,1.8373191827692,1.83656790813049,1.83151125190842,1.93358828551132,1.82977754120371,1.92358092205468,1.82689765508866,1.8264160687818,2.00933217985489,1.81782456906734,1.926971289655,1.86603135838443,1.92082624837942,1.81453051872839,1.81297017909415,1.92915769148817,1.92638375436063,1.90398035936532,1.81518547610573,1.81432825247951,1.81651465431267,1.87926535009706,1.97682510414157,1.87396790072155,1.94275768879401,1.94047496969947,1.93729650007417,1.93744097596623,1.93097808772811,1.93010160064962,1.92834862649264,2.04764718642899,1.85001379781813,1.8470086992633,1.84623816117232,1.91811973333484,1.92059508695213,1.91665571096198,1.84104666078433,1.91431520151062,1.91196506033312,1.84245289280037,1.91760925184957,1.92000755165775,1.9211826222465,1.96007553238884,1.96090386083664,2.05365738353865,1.96365853451191,2.02025455729457,2.0225372763891,2.00295597715201,2.00039393799949,2.00024946210743,1.9262200150163,1.92418772080133,1.92339791925807,2.02071688014916,1.92361944895923,1.99964266336079,2.02671744553268,2.00949591919922,2.01671008207605,1.9228103839637,2.01300186751319,2.01231801495745,2.01356050762916,1.92308007229554,2.0060284977898,2.01270328400294,1.99482680029215,2.01001603241064,1.92098998772375,2.00878317146506,1.91937185773269,2.00132821543481,1.91598149013237,2.00506532517607,2.00696277522512,2.00337014137591,2.00481490029651,2.00707835593877,1.9109248339103,1.91028913998524,1.90823758231799,1.90902738386125,1.98887439353931,1.90795826226001,1.830008702631,1.82700360407617,1.93074692630082,1.93406987181818,1.81834468227876,1.93838488512768,1.81443420146702,1.81417414486131,1.81326876260441,1.81037924476323,1.85675600611423,1.80723930204247,1.80923306935289,1.80798094495504,1.92968743642572,1.80841437263122,1.93146930576112,1.81000360744387,1.89758489321016,1.92737582215277,1.81148689326901,1.81087046279623,2.01427325536331,1.9333763875363,1.86158150090901,1.89472427054739,1.73922968378714,1.73333506739112,1.78040531302401,1.72950164038848,1.72608237760975,1.81771862007983,1.72096793103085,1.84376280755504,1.84409991796984,1.71658549563839,1.84122966358093,1.71655660045998,1.71460136005411,1.71385971714154,1.71350334327446,1.71353223845287,1.76325120877351,1.76328010395192,1.71288691280167,1.79400531032985,1.82456677736344,1.71315660113352,1.760689169621,1.83639453706002,1.71367671434493,1.71152883941632,1.7105175081719,1.71211637471069
1.87407384970906,1.85104439251482,1.85004269299655,1.94274805706787,1.84772144699746,1.84640190051665,2.03264095710711,1.8412200318548,1.88666251577049,1.83469935325986,1.83399623725184,1.82943079906277,1.93746987114464,1.92319565300919,1.82619453908064,1.87308178191692,1.87248461489641,1.87001889300527,1.8696914143166,1.81906706173905,1.81813278430374,1.81742966829571,1.8164183370513,1.81371182200672,1.81507952711822,1.81466536289432,1.8635174778626,1.81663023502632,1.81977980947321,1.95028006690722,2.05008401314172,1.9461673198466,1.94613842466819,1.87007668336209,1.94205457278599,1.93782624501172,1.92948517017684,1.93027497172009,1.93237468801802,1.92694239447659,1.84972484603402,1.92584437769694,1.92134636159083,1.9171276655427,1.8439843372562,1.91585627769258,1.91380472002534,1.91544211346868,1.84299226946406,1.84304042809474,1.84605515837571,1.84815487467364,1.963244370288,1.96139507886965,1.96149139613102,1.86439396494109,1.95930499429786,2.01639223511352,2.01890611563535,2.00998713723222,2.00416957464531,2.00017240829834,1.9257287969833,1.92611406602879,1.92418772080133,1.9966760917105,1.9952794914206,2.01322339721435,2.01425399191104,2.01535200869069,1.99729252218329,2.00598997088525,2.01336787310641,1.99727325873101,1.92301265021258,2.00638487165688,1.92237695628752,2.01413841119739,1.99609818814227,2.01629591785214,2.00560470183976,2.00337977310205,1.91950670189861,1.91952596535089,2.00909138670146,2.00099110502001,2.0030041357827,1.99735031254011,1.91409367180946,2.00664492826259,2.00348572208956,1.91130047122965,1.90979792195223,1.91033729861592,1.9961078198684,1.97950272400773,1.82860247061496,2.02899053290108,1.82035771304145,2.03016560348983,1.81734298276048,1.81568632586487,1.81332655296123,1.93976222196531,1.81000360744387,2.02040866491276,1.80736451448226,1.80779794215843,1.80707556269814,1.80682513781857,1.80741267311294,1.80909822518697,1.80797131322891,1.80862627060624,1.80993618536091,1.80891522239036,1.86122512704193,1.998535014855,2.00083699740181,1.81080304071327,1.91535542793345,1.74026027848382,1.73705291368011,1.73291127144108,1.82637754187725,1.72780645658832,1.78756168554401,1.7232795453038,1.72039965918875,1.72122798763656,1.81132315392468,1.71393677095064,1.83110671941065,1.71481325802913,1.7162002265929,1.71376339988017,1.71334923565626,1.84035317650244,1.71064272061169,1.8379645084204,1.71024781984006,1.71312770595511,1.83266705904489,1.71161552495155,1.71006481704345,1.71066198406396,1.75931183278337,1.76021721504027,1.83178094024026,1.75840645052646
1.87786874980715,1.89980019022174,1.84949368460672,1.8511407097762,1.84786592288952,1.95563530663955,1.84488008778696,1.95583757288843,1.84158603744801,1.83860020234546,1.8362596928941,1.92256959081027,1.83135714429022,1.83232994863009,1.94603247568068,1.82671465229205,1.82650275431703,1.82602116801017,1.82067556000398,1.8212245683938,1.86758206629253,1.93256732254077,1.81715034823773,1.81676507919224,1.81715034823773,1.81678434264452,1.92050840141689,1.81906706173905,1.90356619514141,2.07009874005499,1.94992369304014,1.97723926836547,1.94362454414636,1.94322964337473,1.93953106053802,1.8636715854808,1.93578431907062,1.93411803044887,1.85623589290282,1.92793446226873,1.92586364114922,1.97337694618442,1.92127893950787,1.91873616380763,1.91706987518588,1.84138377119913,1.9167135013188,1.96797354782141,1.91778262292004,1.96569082872687,1.9191406963054,1.92210726795568,1.96485286855293,1.85718943379041,1.93483077818303,1.86647441778675,2.06910667226285,2.02015824003319,1.93209536796004,2.01633444475669,1.93050613314739,2.00388062286119,1.92526647412871,1.9270483434641,1.92628743709926,1.99987382478808,1.92593106323218,2.03297806752191,2.0089469108094,2.01330045102345,1.9229644915819,2.00294634542587,2.01413841119739,1.9261429612072,1.9244381456809,1.92351349997172,1.92320528473533,2.01962849509564,1.92392766419562,2.00941886539013,2.01293444543023,1.91999791993161,1.99314124821812,1.99954634609941,2.00377467387368,2.00634634475233,1.99754294706286,1.99884323009139,2.00006645931083,2.00316787512703,1.99182170173731,1.91079962147051,1.90678319167127,1.90920075493172,1.99411405255799,1.99960413645624,1.82731181931256,1.93687270412413,1.82275601284963,1.81954864804592,1.81631238806379,1.91331350199234,1.81375998063741,1.80957017976769,1.80931012316199,1.80758604418341,1.80520700782751,1.80110389249302,1.80547669615935,1.80594865074008,1.80467726288996,1.80529369336274,1.80659397639127,1.80416678140468,1.80937754524495,1.80667103020037,1.80695035025835,1.81027329577572,1.80800984013345,1.80794241805049,1.83276337630627,1.7413390318112,1.83944779424554,1.73377812679343,1.72835546497815,1.78701267715418,1.78615545352797,1.72147841251613,1.84267442250153,1.83740586830443,1.71777982967941,1.71716339920663,1.71411014202111,1.71238606304253,1.71326255012103,1.71304102041987,1.71402345648587,1.71298323006305,1.83634637842933,1.83642343223843,1.71292543970622,1.70976623353319,1.71052713989804,1.7080614180069,1.71056566680259,1.82575147967833,1.71050787644577,1.71115320209696,1.75973562873341,1.75776112487526
1.92413956217064,1.90261265425382,1.85284552530249,1.85307668672979,1.96336958272779,1.89683361857145,1.84729765104742,1.84550614998589,1.84279963494131,1.95686816758512,1.92105740980672,1.88306025019514,1.83374581237227,1.93284664259875,1.93393502765226,1.82886252722067,1.82369029028495,1.94615768812047,1.82247669279165,1.86968178259046,1.82055997929033,1.86672484266632,1.92937922118933,1.8174007731173,1.81769935662756,1.81874921477652,1.91723361453021,1.82133051738131,1.98981830270076,1.95699338002491,1.95252425909721,1.95289989641656,1.94789139882518,1.94351859515885,1.94243021010534,1.97764380086324,1.93574579216607,1.93944437500278,1.93256732254077,1.97615088331196,1.92716392417775,1.92484267817867,1.92196279206362,1.9195548605293,1.91656902542674,1.84593957766206,2.05275200128175,1.91668460614039,1.91647270816537,1.91941038463724,1.84624779289846,1.84976337293857,1.96327326546641,1.92944664327229,1.93548573556036,1.96359111242895,2.04768571333354,2.01420583328035,2.02298033579142,2.00479563684423,1.93158488647476,2.00632708130006,1.92775145947212,1.92789593536418,2.01914690878878,2.00580696808865,2.01631518130442,2.00565286047045,2.01844379278076,2.02923132605451,2.01265512537225,2.00095257811546,2.01589138535438,2.01040130145613,2.00587439017161,2.01003529586291,1.92332086544898,1.92386024211266,1.9239469276479,2.03028118420347,2.01311744822684,2.01705682421699,2.006182605408,2.0065967696319,1.91982454886114,2.0026959205463,2.00272481572472,2.01322339721435,2.00001830068014,1.9118302161672,2.00684719451147,1.98505059826281,1.90943191635902,1.90987497576133,1.90774636428499,1.90722625107358,1.92681718203681,1.82546252789421,1.8201650785187,1.8192596962618,2.03054124080918,1.8126715955839,1.93296222331239,1.85691011373243,2.01317523858366,1.80683476954471,1.92862794655062,1.80270275903181,1.80517811264909,1.93353049515449,1.80120984148053,1.80394525170352,1.80481210705588,1.80666139847424,1.80481210705588,1.80773052007547,1.80908859346083,1.80530332508888,1.80798094495504,1.80701777234131,1.83234921208236,1.73707217713238,1.73365291435365,1.73287274453653,1.83377470755068,1.83547952307698,1.83786819115902,1.83343759713587,1.71938832794434,1.71576679891672,1.71750050962143,1.8302398640583,1.83624042944182,1.83079850417426,1.83839793609657,1.81090898970078,1.8393611087103,1.83745402693512,1.71021892466165,1.71073903787306,1.83989085364785,1.84034354477631,1.71013223912641,1.83648122259526,1.70955433555817,1.83973674602966,1.7089668002638,1.83779113734993,1.83615374390659,1.7593985183186
1.87672257439681,1.97049706006938,1.85144892501259,1.85292257911159,1.85010048335337,1.89643871779983,1.94658148407051,1.94962510952989,1.84417697177894,1.84131634911617,1.88761605665808,1.95530782795088,1.83293674737674,1.83298490600742,1.83022060060602,1.87974693640392,1.82801493532059,1.87810954296058,1.93302001366922,1.81944269905841,1.82061776964715,1.86940246253248,1.81972201911639,1.82023250060166,2.02031234765139,1.81937527697545,1.81958717495047,1.8215327836302,1.82401776897362,1.88283872049399,1.95382454212574,2.05838656107206,2.05551630668315,1.94450103122486,1.94607100258523,2.06294236753499,1.86459623118998,1.97748969324504,1.93276958878965,1.93067950421786,1.9776341691371,1.92517015686733,1.9245922532991,1.9224732735489,2.05648911102301,1.84550614998589,1.9721055583343,1.92098035599762,1.96796391609527,1.84620926599391,1.92158715474427,1.85088065317049,1.8527684714934,1.93093956082356,1.86406648625243,1.93892426179137,2.05386928151367,2.03352707591174,2.02511857899389,2.00784889402975,2.01571801428391,2.0075792056979,1.92944664327229,1.92987043922233,2.00501716654539,1.99992198341877,2.01990781515362,2.0065967696319,2.01246249084951,2.0017134844803,2.01142226442668,2.0045548436908,2.01355087590302,2.0176539912375,1.92465967538206,1.92631633227767,2.01062283115729,1.92431293324112,1.92476562436957,2.01185569210286,1.99710951938668,2.0034183000066,2.00053841389155,1.92161604992268,1.9175129345882,2.01084436085844,2.00665455998873,2.01672934552832,1.99964266336079,1.91415146216628,1.91099225599326,1.91305344538663,1.90999055647498,1.90583928250981,1.90804494779525,1.90659055714852,1.93292369640784,1.82470162152936,1.81803646704236,1.81666876193087,1.93622737847293,2.01527495488159,1.81020587369275,1.80902117137787,1.80674808400947,1.80359850956258,1.80439794283197,1.80449426009335,1.93471519746938,1.80314581843413,1.80136394909873,1.90846874374529,1.85378943446395,1.80644950049922,1.80537074717184,1.8059293872878,1.8043016255706,1.85515713957544,1.85554240862093,1.80682513781857,1.73958605765421,1.8330041694597,1.73353733364,1.72876962920205,1.83984269501717,1.72358776054019,1.72353960190951,1.72054413508081,1.82630048806815,1.71602685552243,1.71428351309158,1.71652770528157,1.71363818744038,1.7132818135733,1.71115320209696,1.71300249351532,1.70924612032178,1.71176963256975,1.88580529214427,1.71009371222186,1.70823478907737,1.71003592186504,1.71060419370714,1.71045971781508,1.71158662977314,1.70929427895247,1.83419850350072,1.70810957663758,1.71126878281061,1.7093809644877
1.88033447169829,1.85505119058793,1.85664042540058,1.85394354208215,1.85088065317049,1.85027385442384,1.84774071044974,1.84761549800995,1.84384949309028,1.84393617862551,1.84232768036059,1.89013956890604,1.83685685991461,1.95236051975288,1.95171519410168,1.83128972220726,1.87794580361625,1.93294295986012,1.87764722010599,2.01712424629995,1.82375771236791,1.82061776964715,1.81844099954013,1.81875884650266,1.81941380387999,1.92243474664435,1.82057924274261,1.9939117863091,1.87210897757706,1.95874635418189,1.95390159593484,1.98195881417274,1.98037921108622,1.87446875048069,1.9803214207294,1.9404557062472,1.93899168387433,1.93659338406615,2.06953046821289,1.85743022694384,1.8568523233756,1.85445402356742,1.92583474597081,1.97675768205861,1.92084551183169,1.97669025997565,1.92121151742491,1.97081490703191,1.92299338676031,1.92052766486916,1.92237695628752,1.92584437769694,1.92682681376295,1.96675995032811,1.93596732186723,1.94087950219724,2.03627211786086,1.93798998435605,2.02563869220531,2.02272027918571,1.93345344134539,1.93101661463266,1.93067950421786,2.00536390868633,2.00719393665241,2.01680639933742,1.99880470318684,1.92837752167105,2.01591064880665,2.01158600377101,2.01265512537225,2.01077693877548,1.92699055310728,2.00809931890932,2.01645002547034,2.00737693944902,2.01954180956041,2.00751178361494,2.0166715551715,2.01079620222776,1.92172199891019,2.01200979972105,2.0027729743554,2.00593218052843,2.01579506809301,2.01278033781204,1.99769705468106,2.00310045304407,1.99659903790141,2.00548912112612,1.99995087859718,1.9100483468318,1.90915259630104,1.90590670459277,1.98076448013172,1.98027326209871,1.82672428401819,1.82494241468279,1.86960472878136,1.81681323782293,1.8154359009853,1.81127499529399,1.80900190792559,1.93616958811611,1.80496621467407,1.85384722482077,1.80429199384446,1.80302060599434,1.80326139914778,1.80383930271601,1.80340587503983,1.93077582147923,1.9293984846416,1.80516848092296,1.80565969895596,1.80597754591849,1.80354071920576,1.8922200217517,1.8052840616366,1.91953559707702,1.74068407443386,1.73775602968813,1.7324778437649,1.73052260335903,1.83246479279601,1.72391523922886,1.81539737408075,1.71857926294881,1.7180880449158,1.71411014202111,1.7148325214814,1.71418719583021,1.8308851897095,1.7111628338231,1.7126364879221,1.83387102481205,1.70946765002294,1.7594755721277,1.75869540231058,1.70814810354213,1.70889937818084,1.70705008676248,1.82656054467386,1.83345686058815,1.70955433555817,1.76856792160129,1.82717697514664,1.70982402389002,1.70789767866256,1.83511351748376
1.88027668134147,1.85769028354955,1.85665005712672,1.85319226744344,1.85109255114551,1.85042796204204,1.84898320312145,1.96256051773226,1.89617866119412,1.84297300601178,1.95017411791971,1.83987159019558,1.83896620793867,1.88446648221119,1.8339866055257,1.83260926868807,1.82782230079784,1.82785119597625,1.87618319773313,1.94310443093495,1.82583816521356,1.82402740069975,1.82193731612796,1.92889763488246,1.88334920197926,1.82109935595402,1.82297754255079,1.82462456772026,1.82574184795219,1.98637014474361,1.95743643942722,1.95457581676445,1.87688631374115,1.98327836065355,1.94413502563164,1.87074127246556,1.94050386487788,1.93740244906168,1.93711349727756,1.8593565721713,1.92949480190297,1.93153672784408,1.92674975995385,1.85029311787612,1.92323417991374,1.92290670122507,1.92051803314303,1.92019055445436,1.84807782086454,1.92186647480225,1.85058206966023,1.85217130447289,1.92802114780397,1.93275995706351,1.96705853383837,1.93992596130965,1.94646590335686,2.01265512537225,2.02828741689306,2.00747325671039,2.00648118891826,1.93170046718841,1.93065060903945,1.93247100527939,2.01942622884676,2.01603586124644,1.92909026940521,2.01343529518937,2.0252245279814,2.02274917436412,2.01420583328035,2.00572028255341,2.01158600377101,2.00510385208062,1.92673049650157,2.01257807156315,2.00665455998873,1.92535315966394,2.00802226510022,2.01038203800385,2.00149195477914,2.00877353973893,2.00159790376665,2.00362056625548,2.00604776124208,1.91879395416445,1.91653049852219,2.02001376414113,2.01006419104132,2.00241660048832,1.9095571287988,1.91128120777738,1.90954749707266,1.90686024548036,1.9072840414304,1.98631235438679,1.82916111073092,1.9364007495434,1.86980699503025,1.86710047998567,1.8624579879875,1.81200700648043,1.80952202113701,1.80484100223429,1.90572370179616,1.80355035093189,1.80278944456705,1.80336734813529,1.80021777368839,1.93668970132752,1.80319397706481,1.80149879326465,1.80296281563752,1.80394525170352,1.90034919861156,1.80206706510675,1.80147952981238,1.80398377860807,1.85033164478066,1.91623191501194,1.74024101503155,1.73424044964802,1.73130277317615,1.7294534817578,1.8332642260654,1.72112203864905,1.7690880348127,1.76912656171725,1.71576679891672,1.71405235166428,1.71424498618703,1.82427782557932,1.71306991559828,1.71146141733336,1.82566479414309,1.71095093584808,1.75855092641852,1.81810388912532,1.70996849978208,1.70755093652162,1.70779172967505,1.70769541241368,1.70665518599085,1.70744498753411,1.83366875856317,1.82866989269792,1.75953336248452,1.70921722514337,1.70946765002294,1.71242458994708
1.88729820969555,1.85770954700182,1.85502229540952,1.85622626117668,1.97288572815142,1.85199793340241,1.85348121922756,1.84931068181011,1.9663168909258,1.94722680972171,1.89053446967767,2.03420129674135,1.83752144901808,1.83642343223843,1.83360133648021,1.83323533088699,1.83192541613232,1.83001833435714,1.90331577026184,1.82634864669884,1.93885683970841,1.9392421087539,1.82403703242589,1.82500020503962,1.87560529416489,1.82291975219396,1.82341097022697,1.82403703242589,1.82731181931256,1.96007553238884,1.95891972525236,1.88463985328166,1.98469422439573,1.94806476989565,1.94741944424445,1.94293105986448,1.93985853922669,1.93792256227309,1.98362510279449,1.85946252115881,1.85913504247014,1.92884947625177,1.97970499025662,1.85307668672979,1.84955147496355,2.05213557080896,1.97480244165274,1.97598714396763,1.84926252317943,1.84990784883062,1.92484267817867,1.9278477767335,1.85536903755046,1.93290443295557,1.93888573488682,1.94525230586356,2.05728854429241,2.02388571804832,2.03232311014458,2.03225568806162,2.02281659644708,1.93286590605102,1.93239395147029,1.93120924915541,1.93115145879858,2.00435257744192,1.92959111916435,2.01955144128654,2.01259733501543,2.01031461592089,2.02259506674593,2.00997750550609,2.00859053694232,2.0126936522768,2.01389761804396,2.01789478439093,1.92568063835261,2.00364946143389,1.92446704085931,2.01262623019384,2.01383982768714,1.9226562763455,2.01691234832493,2.00722283183083,1.91961265088612,2.01221206596994,1.91709877036429,1.9133038702662,1.99593444879793,1.99175427965435,1.99289082333855,1.90732256833495,1.90840132166233,1.90623418328144,1.90494353197904,2.00693388004671,1.88247271490077,1.82499057331348,1.82011691988802,1.87200302858955,1.93506193961032,1.93414692562728,1.85649594950852,1.80667103020037,1.80333845295687,1.80155658362148,2.02120809818216,1.80077641380436,1.80068009654298,1.80165290088285,1.80042003993728,1.80303023772048,1.80029482749749,1.80197074784538,2.01465852440881,1.91386251038217,1.89227781210852,1.88337809715767,1.80252938796134,1.80221154099881,1.73649427356415,1.73266084656151,1.72972317008964,1.72422345446525,1.72309654250719,1.71835773324765,1.71968691145459,1.76600588244877,1.82827499192629,1.71577643064286,1.8252024712885,1.71182742292657,1.70883195609788,1.71247274857777,1.94693785793759,1.8289492127559,1.75816565737303,1.7093039106786,1.81772825180597,1.70940985966612,1.70682855706132,1.70622175831468,1.70552827403279,1.83392881516888,1.70441099380087,1.70489258010773,1.70687671569201,1.7073390385466,1.70707898194089,1.82715771169437
1.87101096079741,1.85813334295186,1.85734354140861,2.12324660488051,1.90409594007896,1.97188402863314,1.89942455290238,1.94627326883412,1.9659316218803,1.9643038601631,1.84573731141318,1.84107555596274,1.83997753918309,1.83646195914298,1.83423703040527,1.83320643570858,1.83158830571752,1.83003759780941,1.87797469879466,1.82939227215822,1.82769708835806,1.82699397235003,1.82389255653383,1.87574977005695,1.82340133850083,1.82375771236791,1.82638717360339,1.82488462432597,1.99307382613516,1.95966136816493,1.95891009352623,1.95468176575196,1.98586929498447,1.8782443871265,2.06340469038958,1.94507893479309,2.06894293291852,1.98369252487745,1.93750839804919,1.9387508907209,1.92992822957915,1.85670784748354,1.92530500103326,1.92736619042663,1.92657638888338,1.97767269604165,1.92334976062739,1.92599848531514,1.92258885426254,1.92338828753194,1.97325173374464,1.92780924982895,1.85654410813921,1.96948572882496,1.96799281127368,2.05524661835131,1.96580640944052,2.0337486056129,2.04349591246382,2.01090215121527,2.02842226105898,2.00842679759799,1.93392539592612,1.93295259158626,1.93233616111347,2.0299248103364,1.93069876767013,2.007656259507,2.01622849576918,1.92921548184499,2.03348854900719,1.92928290392795,1.9284160485756,1.92773219601985,2.0171627732045,1.92626817364698,1.99844832931976,1.99935371157667,2.00768515468542,2.00584549499319,2.01251064948019,2.00411178428848,2.01285739162113,2.00479563684423,1.91868800517694,2.01400356703147,2.00919733568897,2.00991971514926,1.91264891288887,1.91024098135455,1.98738147598803,1.90844948029301,1.90788120845092,1.90574296524844,1.90604154875869,1.99952708264714,1.8273214510387,1.91272596669797,1.82169652297453,1.81800757186395,1.8703367399678,1.81040813994164,1.90716846071676,1.80663250329582,1.80300134254207,1.93882794453,1.80183590367946,1.84870388306346,1.80279907629319,1.84797187187703,1.80005403434406,1.79945686732355,1.79978434601222,1.80132542219418,1.80123873665895,1.79975545083381,1.80013108815316,1.92360018550696,1.9197089681475,1.89358772686319,1.73589710654364,1.7797310921944,1.77941324523187,1.72424271791753,1.72274980036625,1.72079455996038,1.71677813016113,1.71670107635204,1.71276170036189,1.81709255788091,1.71080645995602,1.70988181424684,1.71038266400598,1.82142683464269,1.7076761489614,1.83378433927682,1.79635545150735,1.75829086981281,1.70917869823882,1.83631748325092,1.83389028826433,1.70756056824776,1.70553790575893,1.70617359968399,1.70618323141013,1.70751240961707,1.82955601150255,1.70645291974197,1.80440757455811,1.83291748392446
