1.78490872378828,1.78200773389713,1.7795500846538,1.78058133355198,1.77975247929737,1.77715026245149,1.87789460574764,1.77576241346703,1.77560820802431,1.8589080606129,1.82412509543967,1.77176270979651,1.86410285646448,1.76991224448389,1.88342672600517,1.76514151359978,1.82537801466176,1.81393789838007,1.76337778884868,1.76161406409759,1.76345489157004,1.93709985791144,1.93282065687599,1.76214414530693,1.93616498741495,1.85155438856325,1.76390787005803,1.76194175066337,1.81384151997837,1.89672694543965,1.98493245867473,1.98727445383602,1.9848457181132,1.89059727909159,1.88878536513964,1.8896624085951,1.9994566838108,1.91414252262669,1.88335926112398,1.91173306258421,1.88097871460201,1.88017877386791,1.87894513032616,1.87806808687069,1.80293148490602,1.91418107398737,1.87859816808004,1.87735488669812,1.91568457705388,1.88292555831633,1.88595184012969,1.91538580400861,2.00007350558167,1.82742123677778,1.82825972887256,1.99141872510909,1.96491466464182,1.89078039805481,1.98264829055446,1.89059727909159,1.96738195172531,1.96656273531087,1.9705913525019,1.96776746533211,1.96254375596002,1.96436530775213,1.9639894319855,1.96428820503077,1.99383782299174,1.9668422326758,1.96519416200674,1.96958901712423,1.9780221272729,1.96761325988939,1.98715879975398,1.89519452885264,1.89858704859245,1.98431563690386,1.976836672932,1.98676364830702,1.99399202843445,1.97435974800833,1.97333813695032,1.98981884364088,1.98386265841587,1.98715879975398,1.98428672338335,1.99122596830569,1.98263865271429,1.98070144684014,1.97785828399001,1.97714508381744,1.97580542403382,1.97495729409887,1.97282733142132,1.9840457773791,2.01629399058764,2.02046717538122,1.83123782148507,2.02445724121156,1.83056317267317,1.83090049707912,1.9202914646551,1.83155587021068,1.83129564852609,1.8310354268415,2.00704166402452,1.83397496809332,1.83422555193774,1.92925465601312,1.83102578900133,2.00063250031153,1.83559412524187,1.83471708178641,1.92405022232137,1.83288589215412,1.83141130260813,1.82879944792208,2.01141724346167,1.82561896066601,1.82399016567729,1.76123818833096,1.75771073882877,1.84405614891106,1.75270869978058,1.75033779109879,1.74830420682293,1.74489241140278,1.83443758442148,1.74343709753712,1.74109510237583,1.73883984777607,1.840422683167,1.84398868402987,1.73442571697825,1.73535094963456,1.85459994605695,1.73168857037,1.73121631620167,1.73250778678444,1.73445463049876,1.73439680345774,1.73233430566138,1.73238249486223,1.732199375899,1.849328047484,1.73108138643929,1.72826713710968,1.72757321261744,1.77908746832565
1.78554482123949,1.78455212370199,1.78420516145587,1.78352087480381,1.77991632258026,1.78097648499895,1.77896217640344,2.02797505287358,1.77487573217139,1.93121113756762,1.77193619091957,1.82061692161782,1.77065435817697,1.86833386829908,1.76990260664372,1.76800395213024,1.76733894115852,1.87024216065272,1.8568262871362,1.86763030596667,1.94392344875174,1.9374950093584,1.84835462562684,1.81079596248467,1.9392587341095,1.93882503130185,1.7634356158897,1.81374514157667,1.81250186019475,1.89919423252315,1.89797022682157,1.90912120789817,1.90941034310326,1.91078855424756,1.91073072720654,1.88818781904911,1.88507479667422,1.88575908332629,1.88413028833757,1.80817446995846,1.88138350388915,1.9148460849591,1.88017877386791,1.88158589853271,1.80392418244352,1.87861744376038,1.88072813075759,1.88062211451572,1.88161481205322,1.80888767013103,1.81205851954693,1.88999009516088,1.8947897395655,1.89956047044961,1.83176790269441,2.0066657882579,1.97826307327715,1.96514597280589,1.97610419707909,1.88957566803358,1.96797949781585,1.96469299431791,1.96710245436039,1.96738195172531,1.96443277263332,1.8905298142104,1.96461589159655,1.96860595742689,1.97418626688528,1.98466259914998,1.96833609790214,1.97745349470288,1.98422889634233,1.98757322688129,1.97753059742424,1.97204666636755,1.89812443226429,1.97769444070713,1.89762326457546,1.99102357366212,1.97175753116246,1.98233987966903,1.97777154342849,1.98028701971283,1.97730892710033,1.97402242360239,1.97303936390506,1.97272131517945,1.98429636122352,1.97365618567593,1.97327067206913,1.97478381297581,1.97473562377496,1.97400314792205,1.97368509919644,1.98084601444269,2.01589883914068,1.8339171410523,2.0150892605664,1.8295608372955,1.83188355677645,2.00231912234126,1.83143057828847,1.83155587021068,2.02404281408426,1.82954156161516,1.83433156817961,2.03320840008585,2.0214984242794,1.83277987591225,1.8339171410523,1.83383040049078,1.83516042243422,1.99696048320679,1.83196065949781,1.83131492420643,1.8247226415302,2.0061838962494,1.83070774027572,1.82344080878761,1.87400091831899,1.85069662078813,1.75483866245814,1.75311348906772,1.8012737763968,1.84083711029431,1.74667541183422,1.74624170902657,1.74385152466443,1.7442466761114,1.83562303876238,1.74039154004343,1.73784715023857,1.73468593866284,1.73507145226964,1.84585842502283,1.73306678151429,1.7342811493757,1.73243068406308,1.73252706246478,1.73362577624415,1.73152472708711,1.73243068406308,1.73132233244354,1.85407950268777,1.73094645667691,1.84989668005403,1.73095609451708,1.84291888377101,1.77770925718135
1.78700013510515,1.78734709735127,1.78483162106692,1.78386783704993,1.78193063117577,1.77931877648973,1.78044640378961,1.77646597579943,1.77791165182492,1.77690931644725,1.82210114900399,1.77446130504409,1.77357462374845,1.77255301269044,1.8718516799611,1.87074332834156,1.76791721156871,1.76613421113728,1.76598000569456,1.76662574098594,1.8697699064844,1.76505477303825,1.82281434917656,1.84889434467636,1.93927800978984,1.94224646456217,1.76364764837344,1.93800581488741,1.76572942185014,1.82426002520205,1.91165595986285,1.8965823778371,1.89218752271962,1.89372957714681,1.89185983615385,1.88932508418916,1.88897812194304,1.88468928306743,1.88346527736585,1.88334962328381,1.88263642311123,1.88199068781985,1.91716880444005,1.88131603900796,1.88000529274485,1.80266162538126,1.99064769789549,1.88164372557373,1.91874941022791,1.88493986691185,1.88711801879025,1.89052017637023,1.89392233395021,1.8988279945967,1.82923315072973,2.0038129875676,1.98579986429003,1.89269832824863,1.97976657634366,1.97216232044959,1.96760362204922,1.97161296355991,1.96624468658526,1.96303528580868,1.98399758817825,1.98428672338335,2.00774522635693,1.96660128667155,1.96679404347495,1.97095759042835,1.89437531243819,1.96796022213551,1.97916903025312,1.99627619655473,1.89787384841987,1.97201775284704,1.96859631958672,1.9851348533183,1.98590588053189,1.99513893141468,1.97393568304086,1.98781417288554,1.98810330809064,1.98250372295191,1.97804140295324,1.89856777291211,1.97205630420772,1.97306827742557,1.97215268260942,1.99473414212754,1.97452359129122,1.97736675414135,1.97596926731671,1.97486091569717,1.89920387036332,1.83748314191517,1.83574833068459,1.8326063947892,1.83179681621492,1.83076556731674,2.01433750903315,1.83124745932524,1.83152695669017,1.83058244835351,1.83252929206784,1.87880056272361,1.83409062217536,1.83082339435776,1.83295335703531,1.83185464325594,1.83408098433519,1.834977303471,2.00046865702864,1.83274132455157,2.02065993218462,1.83086194571844,1.82758508006067,1.82960902649635,1.82779711254441,1.82391306295593,1.87326844246608,1.76113217208909,1.80645893440821,1.84182980783181,1.75084859662779,1.74792833105631,1.75052091006201,1.74677179023592,1.79056613596802,1.79052758460734,1.74058429684683,1.84072145621227,1.84421035435378,1.84543436005536,1.7346666629825,1.84409470027174,1.73424259801502,1.73350048432194,1.83435084385995,1.73322098695701,1.85404095132709,1.73221865157934,1.7308211647547,1.85122670199748,1.73055130522995,1.72923092112667,1.72794908838407,1.72824786142934,1.72891287240106,1.72849844527375
1.78887951393828,1.83467853042573,1.83418700057706,1.87746090293999,1.87851142751851,1.78127525804422,1.82893437768446,1.78113069044167,1.87830903287494,1.82732485837608,1.82418292248069,1.82404799271831,1.8887660894593,1.77188800171872,1.86746646268379,1.8200772025683,1.87202516108416,1.76813888189262,1.766799222109,1.81497878511842,1.76426447014432,1.81386079565871,1.81390898485956,1.81242475747339,1.76392714573837,1.93743718231738,1.94404874067395,1.76430302150499,1.76764735204396,1.89837501610871,1.90078447615119,1.91344859813446,1.89474155036465,1.8922260740803,1.8922260740803,1.88902631114389,1.88759991079874,1.91490391200012,1.88433268298114,1.91655198266917,1.91751576668616,1.80767330226962,1.99133198454756,1.88137386604898,1.87901259520735,1.91681220435376,1.91793983165364,1.88064139019606,1.80903223773358,1.81054537864026,1.99443536908227,1.92025291329442,1.81974951600253,1.89902075140009,1.90185427641005,2.00389009028896,1.98534688580204,1.9884020811359,1.97455250481173,1.97458141833224,1.96771927613126,1.96513633496572,1.97076483362496,1.96469299431791,1.98596370757291,1.98268684191514,1.97472598593479,1.96813370325857,1.89468372332363,1.98155921461526,1.98035448459402,1.9750440346604,1.96661092451172,1.89646672375507,1.98093275500422,1.98185798766053,1.98232060398869,1.99528349901722,1.98420962066199,2.00143244104563,1.98108696044694,1.99537023957875,1.97418626688528,1.89930024876502,1.98810330809064,1.98204110662376,1.98181943629985,1.97178644468297,1.97476453729547,1.97315501798709,1.97527534282448,1.97707761893625,1.97890880856854,1.98235915534937,1.90098687079476,1.98083637660252,1.83597963884867,1.83289552999429,1.83180645405509,1.83102578900133,1.83151731885,1.83061136187402,1.93207854318291,2.02201886764857,1.87903187088769,1.88026551442944,1.88016913602774,1.83345452472415,1.83423518977791,2.01498324432453,1.83444722226165,1.83378221128993,1.83411953569587,1.83298227055582,1.8311318052432,1.8310354268415,1.8304571564313,1.8262936094779,1.82523344705921,1.82415400896018,1.87552369706584,1.7619610263437,1.80555297743224,1.84684148472016,1.84322729465644,1.86095128272892,1.74648265503082,1.74365876786103,1.74223236751589,1.83701088774685,1.74022769676054,1.73591958220459,1.84212858087707,1.73152472708711,1.7362376309302,1.73303786799378,1.8242118360012,1.78065843627334,1.73393418712959,1.73205480829645,1.85379036748267,1.72919236976599,1.85320245923231,1.73420404665434,1.83669283902124,1.72807438030628,1.73060913227097,1.77885616016157,1.72952969417193,1.73045492682825
1.83730966079212,1.83679885526311,1.8688061224674,1.83687595798447,1.88058356315504,1.88247257982835,1.78161258245017,1.78136199860575,1.87969688185941,1.77854774927613,1.87824156799375,1.87821265447324,1.77363245078947,1.77246627212891,1.7747118888885,1.77252409916993,1.77228315316569,1.81871826710435,1.76755097364226,1.76761843852345,1.86148136393827,1.85729854130452,1.8141210173433,1.81470892559366,1.76297299956155,1.76703053027308,1.76624022737915,1.93539396020136,1.93415067881944,1.98555891828578,1.90069773558966,1.91357389005667,1.89519452885264,1.914556949754,1.892322452482,1.89060691693176,2.001056565279,1.89149359822739,1.88485312635032,1.88623133749461,1.81052610295992,1.80883948093018,1.88260750959073,1.87934028177312,1.88026551442944,1.88112328220456,1.91978065912609,1.88154734717203,2.0050948203102,1.88551813732204,1.81437160118771,1.89082858725566,1.89709318336611,1.92376108711627,1.9208697350653,2.01181239490863,2.0090366969397,1.97036004433782,1.96779637885262,1.96593627569983,1.89145504686671,1.89338261490069,1.89139721982569,1.96644708122883,1.9661386703434,1.96737231388514,1.89148396038722,1.98466259914998,1.96884690343114,1.89447169083989,1.98076891172133,1.97830162463783,1.96889509263199,1.99345230938494,1.99056095733396,1.98775634584452,1.9714876716377,1.99462812588567,1.97745349470288,1.98823823785301,1.97691377565336,1.9875057620001,1.98145319837339,1.9863203076592,1.98402650169876,1.97810886783443,1.98901890290678,1.9743693858485,1.98545290204391,1.97788719751052,1.9772221865388,1.9757475969928,1.98141464701271,1.97687522429268,1.90063027070847,1.98317837176381,1.83755060679636,1.8342062762574,1.83038969155012,1.83071737811589,1.83145949180898,1.88084378483963,2.0047093067034,1.83145949180898,1.83115108092354,1.83233653526444,1.88093052540116,1.82997526442281,2.01659276363291,1.83253892990801,1.83365691936772,1.83279915159259,1.83204740005934,1.83249074070716,1.83138238908762,1.82889582632378,1.8289536533648,1.82889582632378,1.8259080958711,2.02145023507855,1.82477083073105,1.7620574047454,1.84178161863096,1.84796911202004,1.79783306745614,1.84597407910487,1.74548031965315,1.79175159030892,1.74056502116649,1.7407866914904,1.83609529293071,1.73702793382413,1.73427151153553,1.73285474903056,1.84716917128594,1.73473412786369,1.84780526873716,1.73361613840398,1.73431006289621,1.83501585483168,1.78005125234264,1.73134160812388,1.8509953938334,1.73028144570519,1.7807355389947,1.83277987591225,1.77723700301302,1.72974172665567,1.84528015461264,1.85037857206252
1.79109621717736,1.79257080672336,1.83940107210899,1.78499546434981,1.88147988229084,1.88042935771232,2.05850773053188,1.88435195866148,1.78064879843317,1.78046567946995,1.77867304119834,1.77776708422237,1.87891621680565,1.82381668455423,1.87275763693707,1.77343005614591,1.77110733666496,1.87663204868538,1.76831236301568,1.76950745519675,1.76713654651495,1.76577761105099,1.81566307177048,1.7656137677681,1.94803880650429,1.76605710841592,1.93718659847297,1.7665775517851,2.03407580570114,1.8982497241865,1.90037968686405,1.89994598405641,1.91771816132973,1.89778710785834,1.89472227468431,1.8917152685513,1.891811646953,1.88749389455687,1.81137423289487,1.88572053196561,1.81164409241963,1.81172119514099,1.80792388611404,1.88414956401791,1.88121002276609,1.80778895635166,2.00827530756627,1.8080973672371,2.01047273512501,2.0021167276977,1.89018285196428,1.89365247442545,1.82162889483566,1.83191247029696,1.83396533025315,2.01090643793266,1.96945408736185,1.99829050515024,1.97031185513697,1.89385486906902,1.96450023751451,1.89292963641271,1.89385486906902,1.96590736217932,1.96796985997568,1.98181943629985,1.89383559338868,1.97973766282315,1.98122189020932,1.97927504649499,1.98453730722777,1.9815784902956,1.897767832178,1.9805857927581,1.97785828399001,1.98485535595337,1.99417514739768,1.98715879975398,1.90085194103238,1.99031037348955,1.99338484450375,1.90129528168019,1.97477417513564,1.9739549587212,1.9895875354768,1.99488834757026,1.98797801616843,1.9737622019178,1.97604637003807,1.90089049239306,1.97659572692776,1.98073999820082,1.97453322913139,1.98047013867606,1.98243625807072,1.98534688580204,1.83617239565207,1.83355090312585,1.83175826485424,1.83079448083725,2.03639852518209,1.83065955107487,1.8314209404483,1.83201848653883,1.83371474640874,1.8803715306713,1.83192210813713,1.83152695669017,2.00126859776274,2.01482903888182,1.83301118407633,1.83215341630121,1.924936903617,2.00004459206116,1.83136311340728,1.99917718644587,1.82892473984429,1.99838688355194,1.87553333490601,1.82586954451042,1.82434676576358,1.80882984309001,1.75914677701409,1.75518562470425,1.80003049501488,1.75008720725437,1.81647265034476,1.81538357440555,1.7407866914904,1.74106618885532,1.73789533943942,1.73637256069258,1.84537653301434,1.84794019849953,1.84759323625342,1.73370287896551,1.78574721588306,1.73449318185944,1.84874013923364,1.73135124596405,1.7819209933356,1.849328047484,1.73286438687073,1.73151508924694,1.72879721831902,1.73073442419317,1.73052239170944,1.72830568847035,1.72952969417193,1.72625282851416
1.88175937965577,1.79340929881814,1.84019137500292,1.78836870840928,1.78834943272894,1.83632660109478,1.78668208637954,1.7837810964884,1.88172082829509,1.88459290466573,1.78097648499895,1.78011871722383,1.87913788712956,1.77619611627467,1.88752280807738,1.77562748370465,1.77430709960137,1.87865599512106,1.77139647187005,1.87497434017615,1.76864968742163,1.76775336828582,1.76876534150367,1.76780155748667,1.76781119532684,1.76731966547818,1.76892918478655,1.76741604387988,1.76890027126605,1.91751576668616,1.99110067638348,1.90397460124743,1.89808588090361,1.8953680099757,1.89499213420907,1.81701236939427,1.89407653939293,1.88803361360639,1.92035892953629,1.89035633308734,1.92164076227889,1.88209670406172,1.88395680721451,1.88200032566002,1.80807809155676,1.9218624326028,1.88306048807871,1.80765402658928,1.92378036279661,1.88483385066998,1.88937327339001,1.99717251569053,1.82515634433785,1.92289368150098,2.02168154324263,2.01718067188328,1.97218159612993,1.9691167629559,1.9816748686973,1.96942517384134,1.96857704390638,1.89564750734062,1.97125636347362,1.98763105392231,1.97097686610869,1.96855776822604,1.96867342230808,1.98393976113723,1.98085565228286,1.97029257945663,1.98473970187134,1.97541027258686,1.98667690774549,1.90044715174524,1.98813222161115,1.97489946705785,1.90170007096733,1.90170007096733,2.0017312140909,1.90095795727425,1.90162296824597,1.98875868122219,1.98839244329573,1.99107176286297,1.9002351192615,1.98545290204391,1.99970726765522,1.99750020225631,1.97658608908759,1.97557411586974,1.97650898636623,1.9755548401894,1.97453322913139,1.97304900174523,1.97558375370991,1.97635478092351,1.83542064411881,1.83262567046954,1.83226907038325,1.83179681621492,1.83082339435776,1.83021621042706,1.90724182906503,1.83192210813713,1.8304571564313,1.82894401552463,1.8314209404483,2.04011873148768,1.83166188645254,1.83409062217536,1.88209670406172,1.82790312878628,1.83277023807208,1.83154623237051,1.83157514589101,1.82872234520072,1.82829828023324,1.82743087461795,1.82807660990934,1.82695862044962,1.82604302563348,1.84078892109346,1.85143873448121,1.75317131610874,1.75146541839867,1.79511519652822,1.79465258020006,1.74034335084258,1.73855071257098,1.7385121612103,1.73761584207449,1.78262455566801,1.73363541408432,1.83034150234927,1.73171748389051,1.73205480829645,1.73127414324269,1.77796947886594,1.8343026546591,1.73425223585519,1.7311102999598,1.84853774459007,1.85073517214881,1.7308211647547,1.72991520777873,1.73049347818893,1.85256636178109,1.73037782410689,1.84822933370463,1.84657162519541
1.79449837475734,1.79409358547021,2.0408801208611,1.79045048188598,1.83862040705522,1.83906374770304,1.88814926768843,1.78475451834556,1.78351123696364,1.78194026901594,1.88473747226828,1.780128355064,1.77794056534543,1.77822970055052,1.89230317680166,1.7752901592987,1.86414140782516,1.88226054734461,1.77353607238778,1.77380593191253,1.76765698988413,1.76968093631981,1.76820634677381,1.95197104529362,1.76772445476532,1.9385840852976,1.76729075195767,1.76867860094214,1.81940255375641,1.99891696476128,1.91864339398604,2.00066141383204,1.99840615923228,1.8951752531723,1.89521380453298,1.8937006636263,1.89205259295724,1.89216824703928,1.92106249186869,1.88708910526974,1.88483385066998,1.92129380003277,1.88757099727823,1.8838315152923,1.92349122759151,1.88398572073502,1.80999602175057,1.88359056928806,1.88790832168418,1.8872625863928,1.89010574924292,1.81996154848627,1.89963757317097,1.92453211432986,2.01397127110669,2.0051911987119,1.99427152579938,1.97042750921901,1.97073592010445,1.97785828399001,1.97453322913139,1.97327067206913,1.97393568304086,1.96789275725432,1.96906857375505,1.99284512545424,1.96889509263199,1.98969355171867,1.98586732917122,1.97171897980178,1.97861967336344,1.98473970187134,1.97841727871987,1.90090013023323,1.98735155655738,1.97422481824596,1.99056095733396,1.90284697394755,1.90352162275945,1.99175604951503,1.90087121671272,2.00250224130449,1.99443536908227,1.90082302751187,1.97946780329839,1.90261566578347,1.98187726334087,1.9011989032785,1.97479345081598,1.90176753584852,1.97578614835348,1.97688486213285,1.98040267379487,1.97455250481173,1.97735711630118,1.83765662303823,1.83421591409757,2.00523938791275,1.83412917353604,1.83211486494053,2.01720958540379,1.83180645405509,1.8303318645091,1.93080634828048,1.83118963228422,1.83090049707912,1.83098723764065,2.00501771758884,1.83107397820218,1.83236544878495,1.83373402208908,1.83060172403385,1.83225943254308,1.83085230787827,1.8319317459773,1.82807660990934,1.82692006908895,1.8274790638188,2.01825047214214,1.82713210157268,1.82675622580606,1.85420479460998,1.85072553430864,1.84668727927744,1.75205332664903,1.79502845596669,1.79439235851548,1.74269498384404,1.85614200048413,1.7388302099359,1.85144837232138,1.78274020975005,1.7815065662083,1.8335990923267,1.73085971611538,1.83739640135364,1.72881649399936,1.73113921348031,1.72986701857788,1.84914492852077,1.85139054528036,1.90080375183153,1.73303786799378,1.72919236976599,1.84963645836944,1.85054241534541,1.73186205149305,1.72926947248735,1.77731410573438,1.72847916959341
1.79412249899072,1.79548143445468,1.79495135324533,1.79235877423962,1.83889990442015,1.83931433154746,1.87508035641802,1.78825305432724,1.88609640773224,1.7847737940259,1.78354015048415,1.82855850191783,1.78033074970757,1.77938624137091,1.77801766806679,1.77575277562686,1.82410581975933,1.77296743981775,1.77310236958013,1.77174343411617,1.77303490469894,1.95033261246473,1.86230058035271,1.81759063980447,1.77002789856593,1.76934361191386,1.76997970936508,1.86655086786764,1.7720229314811,2.00024698670473,1.99535096389841,1.99924465132706,1.90037004902388,1.89927133524451,1.92134198923362,1.89437531243819,1.89391269611004,1.89021176548479,2.0048056851051,1.88850586777471,1.88795651088503,1.92433935752647,1.88358093144789,1.80934064861902,1.88389898017349,1.80882984309001,1.81094053008722,1.92785716918849,1.81224163851016,1.81479566615519,1.92508147121955,1.8968715130422,1.89958938397012,1.90710689930265,1.90915975925885,2.00762957227489,1.98606008597461,1.89766181593614,1.97213340692908,1.97433083448782,1.97740530550203,1.97053352546088,1.97269240165894,1.97146839595736,1.97124672563345,1.9693095197593,1.97807031647375,1.97753059742424,1.99197771983894,1.89782565921902,1.98811294593081,1.97406097496307,1.9805857927581,1.9850384749166,2.0082656697261,1.90253856306211,1.99120669262535,1.90181572504937,1.90295299018942,1.98739974575823,1.98316873392364,1.98715879975398,1.90181572504937,1.97734747846101,1.99158256839198,1.98150138757424,1.90212413593481,1.97834017599851,1.99406913115581,1.97772335422764,1.97822452191647,1.97799321375239,1.9773185649405,1.97582469971416,1.97355980727423,1.9741477155246,2.00689709642197,1.83400388161383,1.83056317267317,1.83345452472415,1.82915604800837,1.83253892990801,1.83386895185146,1.88507479667422,1.89078039805481,1.88706019174923,1.83087158355861,2.00471894454357,1.83295335703531,1.82906930744684,2.02973877762468,1.83130528636626,1.83163297293203,1.83156550805085,1.82969576705788,1.82759471790084,1.82858741543834,1.82768145846237,1.82612976619501,1.82823081535205,1.82557077146516,1.85280730778534,1.75855886876372,1.75256413217804,1.74763919585121,1.90266385498432,1.85188207512903,1.74272389736455,1.7394084803461,1.78509184275151,1.84680293335948,1.73192951637424,1.78252817726631,1.73005013754111,1.73177531093153,1.73220901373917,1.73374143032619,1.84885579331568,1.84612828454759,1.84936659884468,1.73317279775616,1.73160182980847,1.77823933839069,1.73065732147181,1.73197770557509,1.73127414324269,1.72638775827654,1.72788162350288,1.7305031160291,1.84747758217138
1.79701385104169,1.79722588352543,1.79710059160322,1.86249333715611,1.79436344499497,1.84138646718399,1.83916012610474,1.7906046873287,1.88817818120894,1.88647228349886,1.8973534050507,1.90136274656138,1.7811210526015,1.77761287877965,1.7778538247839,1.82556113362499,1.8253972903421,1.82640926355994,1.96038487976196,1.77417216983899,1.9581585386827,1.87504180505734,1.87466592929071,1.81783158580871,1.77071218521799,1.81752317492328,1.86792907901194,1.86870010622554,1.77408542927746,1.9216696757994,2.00135533832427,1.90477454198153,1.92299005990268,1.89945445420774,1.89886654595738,1.89701608064475,1.9220551894062,1.89031778172666,1.89095387917787,1.92382855199746,1.88754208375772,2.01769147741228,1.88467964522726,1.88415920185808,1.88482421282981,1.88276171503344,1.92735600149965,1.88462181818624,1.92538988210499,1.88974914915663,1.89087677645651,1.89491503148771,1.89823044850616,1.92733672581931,1.92479233601445,2.01007758367805,1.98659980502413,1.98711061055313,1.97275022869996,1.98121225236915,1.97508258602108,1.97304900174523,1.97730892710033,1.97779081910882,1.97137201755566,1.99165967111334,1.99547625582062,1.99120669262535,1.97753059742424,1.89771964297716,1.97998824666757,1.99084045469889,1.99477269348822,1.90143984928274,1.98411324226029,1.90418663373117,1.9809713063649,1.98478789107218,1.98737083223772,1.90485164470289,1.99370289322936,1.98482644243286,1.9761331105996,1.97786792183018,1.97674993237047,1.98709133487279,1.97699087837472,1.97589216459535,1.97587288891501,1.98096166852473,1.98109659828711,1.97778118126865,1.97761733798577,1.9777040785473,1.98796837832826,1.99257526592948,1.88282917991463,1.8342062762574,1.8312281836449,1.82981142113992,1.83058244835351,1.82938735617244,1.92884986672599,1.88175937965577,1.93026662923096,1.82989816170145,1.92869566128327,2.00573091776141,2.01510853624674,1.83284734079344,1.83138238908762,1.83263530830971,1.83214377846104,1.87770184894424,1.83067882675521,1.91611827986153,1.82797059366747,1.82951264809465,1.99810738618701,1.82775856118373,1.82641890140011,1.84599335478521,1.85402167564675,1.75122447239442,1.74963422876638,1.74602003870266,1.74400573010715,1.828057334229,1.788522913852,1.73606414980714,1.85461922173729,1.7325848895058,1.85201700489141,1.73023325650434,1.8572407142635,1.77869231687868,1.73024289434451,1.73092718099657,1.7312066783615,1.85044603694371,1.85404095132709,1.73075369987351,1.73045492682825,1.73295112743226,1.84108769413872,1.73104283507861,1.72934657520871,1.84790164713885,1.72872011559766,1.72541433641938
1.80042564646184,1.88824564609013,1.79859445682956,1.79738008896815,1.79437308283514,1.84337186225899,1.84047087236785,1.78816631376571,1.78831088136826,1.78669172421971,1.89878944323602,1.88384115313247,1.78188244197492,1.96370029678041,1.78139091212626,1.88534465619898,1.77755505173863,1.86467148903451,1.7755792945038,1.83014874554587,1.82216861388518,1.77338186694506,1.77332403990404,1.81970132680168,1.81917124559233,1.81816891021466,1.77246627212891,1.77199401796059,1.77204220716144,1.90836945636491,2.00110475447985,1.92509110905972,1.90175789800835,1.82749833949914,1.89743050777206,1.8949824963689,1.92555372538788,1.89648599943541,1.89144540902654,1.89047198716938,1.814728201274,1.92677773108945,1.88637590509716,1.88540248324,1.88496878043235,1.92695121221251,1.81166336809997,1.88688671062617,1.81440051470822,1.89041416012836,1.81859297518214,1.89685223736186,1.90378184444403,1.90588289360107,1.92890769376701,2.0135857574999,1.90106397351612,1.99079226549804,1.97264421245809,1.97695232701404,1.89879908107619,1.89752688617376,1.9767402945303,1.9756512185911,1.98051832787691,1.89894364867873,1.99462812588567,1.97427300744681,1.98260010135361,1.97331886126998,1.99059950869464,1.98356388537061,1.90047606526575,1.97647043500555,1.90064954638881,1.98906709210763,1.9877948972052,1.98465296130981,1.98438310178505,1.90487092038323,1.90288552530823,1.99078262765787,1.97772335422764,2.00276246298908,1.97830162463783,1.98487463163371,1.90149767632376,1.97745349470288,1.97754987310458,1.9944257312421,1.90028330846235,1.98047977651623,1.98098094420507,1.97488982921768,1.9740513371229,1.99024290860836,1.9069334181796,1.83356054096602,1.83204740005934,2.02199959196823,1.82843320999562,1.83082339435776,2.00661759905705,1.83088122139878,1.82846212351613,1.83123782148507,1.83210522710036,1.83170043781322,1.92605489307671,1.82973431841856,1.91866266966638,1.82954156161516,1.83144985396881,1.88021732522859,1.9103934028006,1.82986924818094,2.00852589141069,1.82724775565472,1.828057334229,1.82706463669149,1.82839465863494,1.80994783254972,1.87132159875175,1.81693526667291,1.74945110980315,1.85377109180233,1.85620946536532,1.73899405321879,1.7378375123984,1.73642074989343,1.73432933857655,1.86011279063414,1.73459919810131,1.85528423270901,1.7300212240206,1.72869120207715,1.85098575599323,1.85316390787163,1.72687928812521,1.73035854842655,1.7340594790518,1.73177531093153,1.73213191101781,1.85058096670609,1.84977138813182,1.72881649399936,1.73099464587776,1.72852735879426,1.726753996203,1.72798763974475
1.89359464738443,1.80055093838405,1.79983773821148,2.04539063006062,1.79693674832033,1.79414177467106,1.84246590528302,1.87876201136293,1.78899516802032,1.7894192329878,1.78787717856061,1.78621947005139,1.87552369706584,1.784099145214,1.96359428053854,1.88730113775347,1.77850919791545,1.82661165820351,1.77782491126339,1.82451060904647,1.88897812194304,1.84673546847829,1.82083859194173,1.77094349338207,1.77171452059566,1.77358426158862,1.7727264938135,1.95853441444933,1.90847547260678,1.92452247648969,1.90718400202401,2.00354312804284,1.90202775753311,1.90243254682024,2.00176012761141,1.89727630232934,1.89495358284839,1.89366211226562,1.9245513900102,1.92441646024782,1.92738491502016,1.89132011710433,1.92784753134832,1.88692526198685,1.88576872116646,1.88724331071246,1.88774447840129,1.88810107848758,1.81384151997837,1.81734005596005,1.89385486906902,1.92847399095936,1.92790535838933,1.90521788262935,1.91074036504671,2.00786088043897,1.90187355209039,1.98810330809064,1.97425373176647,1.90048570310592,1.89938698932655,1.89795095114123,1.97550665098855,1.9717768068428,1.89788348626004,1.99697012104696,1.97223942317095,1.98456622074828,1.9984639862733,1.99085973037923,1.98161704165628,1.98747684847959,1.90237471977922,1.9983676078716,1.99882058635958,1.99221866584319,1.98468187483032,1.98491318299439,1.90540100159258,1.98841171897607,1.98524086956017,1.90324212539452,1.99355832562681,2.00482496078544,2.00710912890571,1.99140908726892,1.99359687698749,1.98447948018675,1.97940997625737,1.97408988848358,1.97434047232799,1.98147247405373,1.97682703509183,1.97527534282448,1.90182536288954,2.01749872060888,2.01763365037126,1.83224015686274,1.83145949180898,1.830553534833,1.93191469990002,1.92988111562417,2.0235801977561,1.93271464063412,1.93438198698352,1.83180645405509,1.92531277938363,1.8317389891739,1.83158478373118,1.83147876748932,1.91103913809198,1.83029331314842,1.83099687548082,1.83118963228422,1.83095832412014,1.83058244835351,1.82819226399137,1.82718029077353,1.99668098584186,1.99723034273155,1.8264863662813,1.75944555005936,1.80292184706585,1.80015578693709,1.79593441294266,1.7467139631949,1.74314796233203,1.73941811818627,1.78697122158464,1.73532203611405,1.73254633814512,1.73290293823141,1.85190135080937,1.85548662735258,1.7297320888155,1.85201700489141,1.73077297555385,1.72857554799511,1.85102430735391,1.73136088380422,1.85326028627333,1.73025253218468,1.72984774289754,1.72937548872922,1.72809365598662,1.72798763974475,1.72783343430203,1.72890323456089,1.78238360966376,1.72610826091161
1.80030035453963,1.84925094476264,1.85026291798048,1.80154363592155,1.79817039186208,1.79434416931463,1.79507664516754,1.88099799028235,1.79178050382943,1.89336333922035,1.8984424809899,1.78947706002882,1.88108473084388,1.78332811800041,1.88537356971949,1.77956936033414,1.78194026901594,1.82815371263069,1.778142959989,1.87990891434315,1.77470225104834,1.89007683572241,1.77446130504409,1.96232208563611,1.87429969136426,1.87468520497105,1.77390231031423,1.77720808949251,1.77555038098329,1.83608565509054,1.90846583476661,2.00521047439224,1.92675845540911,1.9047841798217,1.89957974612995,1.89543547485688,1.89806660522327,1.92771260158594,1.81832311565738,1.81810144533347,1.89114663598127,1.88942146259086,1.88744570535602,1.92760658534407,1.88764809999959,1.92699940141336,1.81195250330506,2.02257786237843,1.89079967373515,1.92935103441482,1.82052054321612,1.89831718906769,2.00743681547149,1.9297750993823,1.91239807355594,2.0209201538692,1.90257711442279,1.90275059554585,1.98783344856588,1.9816748686973,1.90025439494184,1.90091940591357,1.9745621426519,1.97362727215542,1.97358872079474,1.97492838057836,1.98483608027303,1.97567049427144,1.9943293528404,1.99644967767778,1.98706242135228,1.98067253331963,1.90133383304087,1.90192174129124,1.99774114826055,1.90468780142,1.98613718869597,1.99014653020666,1.98509630195762,1.98158812813577,1.99369325538919,1.90392641204658,1.98570348588833,1.98309163120228,1.99425225011904,1.9775113217439,1.90126636815968,1.98069180899997,1.98074963604099,1.97530425634499,1.9757475969928,1.9807785495615,1.97953526817958,1.97691377565336,1.99028145996904,1.99845434843313,1.83277023807208,2.01076187033011,1.83068846459538,1.87745126509982,1.87977398458077,1.87795243278866,1.83140166476796,1.92196844884467,1.83144021612864,1.83269313535073,1.93400611121689,1.83189319461662,2.00585620968362,1.89206223079741,1.83262567046954,1.83115108092354,2.02408136544494,2.02064065650428,1.82964757785703,1.82904039392633,2.01422185495111,1.82825972887256,2.00552852311785,2.00462256614187,1.82703572317098,1.85458067037661,1.75526272742561,1.85480234070051,1.85395421076556,1.74490204924295,1.74032407516224,1.74109510237583,1.73710503654549,1.7852845995549,1.73254633814512,1.73300895447327,1.7318138622922,1.73107174859912,1.77813332214883,1.72796836406441,1.73051275386927,1.73078261339402,1.77753577605829,1.72939476440956,1.77774780854203,1.72925019680701,1.85123633983765,1.73131269460337,1.85014726389844,1.8450681221289,1.85205555625209,1.72760212613795,1.72842134255239,1.72759248829778
1.85132308039917,1.8871662079911,1.80293148490602,1.90141093576223,1.84807512826191,1.79734153760747,1.84435492195632,1.79473932076159,1.79168412542773,1.89419219347497,1.78928430322542,1.8878697703235,1.78834943272894,1.78726035678974,1.78445574530029,1.83058244835351,1.78218121502019,1.77943443057176,1.77760324093948,1.82496358753445,1.77788273830441,1.77492392137224,1.77463478616715,1.77409506711763,1.77351679670744,1.77174343411617,1.7750974024953,1.77575277562686,1.77512631601581,1.92702831493387,2.00487314998629,2.00669470177841,1.92842580175851,1.90614311528566,2.00413103629321,1.90032185982303,1.82266978157401,1.89461625844244,1.89422110699548,1.89130084142399,1.92805956383205,1.9282041314346,1.88929617066865,1.81357166045361,1.88732041343381,1.8851133480349,1.81381260645786,1.93046902387453,1.8156245204098,1.93148099709237,1.89136830630518,1.89944481636757,1.82905966960667,1.92999676970621,1.92962089393958,2.0203129699385,1.90276023338602,1.90445649325593,1.90212413593481,1.97282733142132,1.90167115744682,1.90059171934779,1.89894364867873,1.97605600787824,1.97290443414268,1.98813222161115,1.97536208338601,1.9754295482672,1.99114886558433,1.98784308640605,1.90374329308335,1.98171342005798,1.98456622074828,1.98845027033675,1.99261381729016,1.99243069832693,2.00391900380947,1.90487092038323,1.98915383266916,1.99496545029162,1.99297041737644,1.99687374264526,2.00159628432852,1.90481309334221,1.99419442307802,1.98070144684014,1.9782148840763,2.00923909158326,1.98204110662376,1.97890880856854,1.97805104079341,1.9818676255007,1.90232653057838,1.90106397351612,1.98560710748663,1.97340560183151,1.91844099934248,1.83229798390376,1.83154623237051,1.83104506468167,1.87834758423562,1.87945593585516,1.82983069682026,1.83049570779198,1.83169079997305,1.83121854580473,1.83188355677645,1.8304571564313,1.83187391893628,1.893797042028,1.8316426107722,1.83180645405509,1.83032222666893,1.83071737811589,1.82763326926152,1.83154623237051,1.82869343168021,1.82855850191783,1.82563823634635,1.90593108280192,1.82627433379756,1.75836611196033,1.75573498159394,1.75438568397015,1.85625765456617,1.74447798427548,1.78907227074168,1.74029516164173,1.73653640397546,1.73576537676187,1.73204517045628,1.72976100233601,1.73254633814512,1.72799727758492,1.83905410986287,1.73085007827521,1.72748647205591,1.85787681171472,1.85481197854068,1.72915381840531,1.7313994351649,1.7796464630555,1.72875866695834,1.85579503823802,1.72885504536004,1.72714914764996,1.72878758047885,1.8990496649206,1.78255709078682,1.72562636890312
1.85358797283911,1.96135830161912,2.03662983334617,1.90139166008189,1.7973318997673,1.88842876505335,1.80109065743357,1.7942574287531,1.89548366405773,1.89807624306344,1.79139499022263,1.79237804991996,1.89131047926416,1.78826269216741,1.78609417812918,1.78386783704993,1.78186316629458,1.78136199860575,1.77899108992395,1.78136199860575,1.88163408773356,1.88690598630651,1.95450579725831,1.77534798633972,1.77482754297054,1.87417439944205,1.77405651575695,1.77734301925489,1.77812368430866,1.83851439081335,1.93242550542903,1.90591180712158,2.0070802153852,1.90453359597729,1.90381075796454,1.90067845990932,1.8997243137325,1.89471263684414,1.8936042852246,1.8939897988314,1.8904334358087,1.88732041343381,1.8884769542542,1.88832274881149,1.88920943010712,1.81429449846635,1.8151137148808,1.89044307364887,1.89233209032217,1.89428857187666,1.89186947399402,1.90155550336478,1.93277246767514,1.91026811087839,1.93095091588303,2.02064065650428,1.99124524398603,1.90311683347231,1.9769330513337,1.97420554256562,1.90143021144257,1.90094831943408,1.97660536476792,1.97962200874111,1.90138202224172,1.98758286472146,1.90075556263068,1.97474526161513,1.90106397351612,1.98792982696758,1.90196993049209,1.99416550955751,1.98139537133237,1.98380483137485,1.98718771327449,1.99184279007656,1.98430599906369,1.99674845072305,1.90575760167887,1.99774114826055,1.90428301213287,1.99437754204125,1.99855072683483,1.90376256876369,1.90467816357984,1.98221458774682,1.99151510351079,1.98620465357716,1.98483608027303,1.90117962759816,1.97921721945397,1.9026060279433,1.90127600599985,1.90092904375374,1.99248852536795,1.94378851898936,1.83466889258556,2.01403873598788,1.83147876748932,1.8326063947892,1.82951264809465,1.92040711873714,1.8786752708014,1.87821265447324,1.83144985396881,1.83072701595606,1.82982105898009,2.00780305339795,2.02384041944069,1.83121854580473,1.83362800584721,1.92846435311919,1.83346416256432,1.82949337241431,1.8282790045529,1.82931025345108,1.997596580658,1.99874348363822,1.87694045957081,1.83075592947657,1.8273826854171,1.75875162556712,1.85459030821678,1.74900776915534,1.85483125422102,1.85685520065671,1.84203220247537,1.74027588596139,1.73773149615653,1.85604562208243,1.73276800846903,1.85507220022527,1.73215118669815,1.73132233244354,1.73045492682825,1.8536843512408,1.85139054528036,1.85092792895221,1.77810440862832,1.8536843512408,1.85354942147843,1.8037699770008,1.72897069944208,1.73094645667691,1.73006941322145,1.82476119289088,1.72978991585652,1.72688892596538,1.78435936689859,1.7271684233303
1.80440607445202,1.88818781904911,1.8521808481743,1.90137238440155,1.80060876542507,1.79917272723975,1.79994375445335,1.80048347350286,1.79616572110674,1.79551034797519,1.79398756922834,1.97118889859243,1.79131788750127,1.78790609208112,1.89170563071113,1.78642186469495,1.97073592010445,1.78374254512772,1.78114032828184,1.82862596679902,1.8275754422205,1.78016690642468,1.88291592047616,1.96644708122883,1.95727185738707,1.77688040292674,1.7776610679805,1.77763215445999,1.87030962553391,1.91325584133106,1.90903446733664,1.83503513051202,1.90604673688396,1.90508295286697,1.93042083467368,1.89916531900264,1.82464553880884,1.89762326457546,1.93108584564541,1.8204627161751,1.93193397558036,1.89034669524717,1.89135866846501,1.93221347294529,1.88911305170542,2.02138277019736,1.89099243053855,1.81666540714815,1.89197549023588,1.82004828904779,1.93191469990002,1.82948373457414,2.01231356259747,1.9102970243989,1.91533761480776,2.02536319818753,1.97713544597727,1.90530462319088,1.97757878662509,1.98050869003674,1.90267349282449,1.97650898636623,1.9782148840763,1.97726073789948,1.9850384749166,1.97614274843977,2.00229020882075,1.99027182212887,1.90230725489804,1.99424261227887,1.97733784062084,1.97834017599851,1.99367397970885,1.98621429141733,1.99888805124077,1.90591180712158,1.99019471940751,2.00075779223374,1.99142836294926,1.99053204381346,1.98900926506661,1.90678885057705,1.99469559076686,1.99310534713882,2.00752355603302,1.99480160700873,1.97859075984293,1.90253856306211,1.9782148840763,1.97672101884996,1.90332886595605,1.90114107623748,1.90255783874245,1.90163260608614,1.99364506618834,1.83663501198022,1.83552666036068,2.01206297875305,1.83215341630121,2.02006238609408,1.83076556731674,1.82945482105363,1.99271983353203,1.82824045319222,1.82836574511443,1.87817410311256,1.82870306952038,1.83018729690655,1.83230762174393,1.83026439962791,1.83225943254308,1.98785272424622,1.8796679683389,1.82896329120497,1.83057281051334,1.83025476178774,1.83072701595606,1.82855850191783,1.82811516127002,1.91760250724769,1.76231762642999,1.75655419800838,1.75478083541712,1.74929690436043,1.85773224411217,1.74232874591758,1.85697085473875,1.73722069062753,1.7382230260052,1.73271981926818,1.73271981926818,1.73244032190325,1.73209335965713,1.73022361866417,1.85452284333559,1.72841170471222,1.7283538776712,1.83887099089964,1.72848880743358,1.85485052990136,1.85510111374578,1.85077372350949,1.73066695931198,1.73168857037,1.72923092112667,1.72504809849292,1.72599260682958,1.82062655945799,1.72718769901064,1.72662870428079
1.85739491970622,1.85652751409093,1.80547587471088,1.90439866621491,1.80075333302762,2.05455621606221,1.79909562451839,1.80010759773624,1.79519229924958,1.89705463200543,1.79639702927082,1.97112143371124,1.79032518996377,1.83818670424758,1.78791572992129,1.78832051920843,1.9770294297354,1.78414733441485,1.78219085286036,1.78179570141339,1.87208298812518,1.78106322556048,1.77941515489142,1.77632140819688,1.77783454910356,1.77789237614458,1.77616720275416,1.7775646895788,1.82817298831103,1.91145356521929,1.8377626392801,1.93378444089298,1.90856221316831,1.93082562396082,1.93371697601179,1.90085194103238,1.93536504668085,1.82446241984562,1.89711245904645,1.9308641753215,1.89108880894025,1.89199476591622,1.89405726371259,1.89041416012836,1.93457474378692,1.81684852611138,2.02464999801496,1.89010574924292,1.93272427847429,1.893797042028,1.89791239978055,1.82731522053591,1.90495766094476,1.9322423864658,1.9142678145489,2.02816780967698,1.97777154342849,1.9785040192814,1.97908228969159,1.98015208995045,1.90171934664767,1.98153030109475,1.97876424096599,1.97713544597727,1.97977621418383,1.98421925850216,1.90114107623748,1.902702406345,1.98483608027303,1.90232653057838,1.97819560839596,1.90530462319088,1.9887875947427,1.98280249599718,1.90475526630119,1.99388601219259,1.98871049202134,1.98896107586576,1.98410360442012,1.97827271111732,1.99327882826188,1.99647859119829,1.99389565003276,1.98263865271429,2.00085417063544,1.97965092226162,1.98055687923759,1.98536616148238,1.98214712286563,1.97454286697156,1.90055316798711,1.90096759511442,1.90103505999561,1.90159405472546,1.98078818740167,1.97967019794196,1.8343990330608,1.83177754053458,1.82903075608616,2.02162371620161,1.82916568584854,1.82883799928276,1.87708502717336,1.83066918891504,1.82954156161516,1.82861632895885,1.83118963228422,1.83274132455157,1.83354126528568,2.01491577944334,2.03133865909288,1.83087158355861,1.83075592947657,1.82958975081601,1.82839465863494,1.82990779954162,1.83049570779198,1.8253972903421,1.82938735617244,1.83078484299708,1.80932137293868,1.75724812250062,1.75377850003945,1.85876349301035,1.94827011466837,1.85766477923098,1.85461922173729,1.78820486512639,1.82012539176915,1.73462811162182,1.73380889520738,1.73385708440823,1.73162110548881,1.85996822303159,1.7279394505439,1.72733226661319,1.85155438856325,1.72836351551137,1.85149656152223,1.72976100233601,1.81766774252582,1.72918273192582,1.84163705102841,1.72887432104038,1.72833460199086,1.85147728584189,1.85001233413607,1.77488537001156,1.72742864501489,1.72594441762873
1.8561516383243,1.80803954019608,1.90696233170011,1.80486869078018,1.80439643661185,1.80353866883673,1.9019988440126,1.79627173734861,1.79951968948587,1.79679218071778,1.79449837475734,1.79744755384934,1.79258044456353,1.9752367914638,1.97194065012569,1.79074925493125,1.78497618866947,1.84421999219395,1.83161369725169,1.83062099971419,1.78078372819555,1.7807355389947,1.77954044681363,1.87863671944072,1.77788273830441,1.77749722469761,1.77907783048548,2.04104396414399,1.78123670668354,1.84099131573702,1.91291851692511,1.83806141232537,1.91073072720654,1.91024883519805,1.90542991511309,1.90059171934779,1.90099650863493,1.82730558269574,1.89582098846368,1.89467408548346,1.93411212745876,1.89093460349753,1.89226462544098,1.93386154361434,1.88914196522593,1.8917152685513,1.88896848410287,1.89085750077617,1.892322452482,1.8974497834524,2.02362838695695,2.01894439663437,1.83102578900133,1.90818633740168,2.00781269123812,2.0255655928311,2.00065177599187,2.00250224130449,1.98875868122219,1.90407097964913,1.90261566578347,1.98235915534937,1.90290480098857,1.97774262990798,1.99736527249393,1.9880840324103,1.98834425409488,1.90407097964913,1.90461069869865,1.9782148840763,1.99228613072438,1.99247888752778,1.9062587693677,1.98501919923626,1.97785828399001,1.99094647094076,2.0044876363795,1.90711653714282,1.98393012329706,1.90751168858979,1.90939106742292,1.90649971537195,1.991640395433,1.9938185473114,1.99157293055181,1.98838280545556,1.90297226586976,1.9032806767552,1.98918274618967,1.97853293280191,1.97728001357982,1.9018060872092,1.97434047232799,1.98673473478651,1.90098687079476,1.83499657915134,1.83349307608483,1.8323172595841,1.83091013491929,2.01108955689589,1.82579244178906,1.82952228593482,1.82934880481176,1.82781638822475,1.83062099971419,1.83080411867742,1.83130528636626,1.8330208219165,1.83101615116116,1.83111252956286,1.87969688185941,1.83261603262937,1.83121854580473,1.8304571564313,1.83118963228422,1.82797059366747,1.82764290710169,1.8281826261512,1.87924390337142,1.82860669111868,1.82504069025581,1.80522529086646,1.84520305189128,1.75046308302099,1.85379036748267,1.74142278894161,1.73967833987086,1.78502437787032,1.73545696587643,1.78591105916595,1.73303786799378,1.7321029974973,1.73068623499232,1.85677809793535,1.7783646303129,1.72812256950713,1.73014651594281,1.72871047775749,1.73134160812388,1.73054166738978,2.04013800716802,1.73083080259487,1.72802619110543,1.77841281951375,1.84930877180366,1.72868156423698,1.7285466344746,1.77669728396351,1.83365691936772,1.83285697863361
1.80789497259353,1.89710282120628,1.80755764818758,1.90558412055581,1.9205805998602,1.80413621492726,1.85225795089566,1.80093645199085,1.80083043574898,1.79982810037131,1.79921127860043,1.97417662904511,1.79485497484363,1.79276356352676,1.89732449153019,1.83731929863229,1.7877518866384,1.88033297931062,1.95321432667554,1.8505135018249,1.78099576067929,1.78062952275283,1.82919459936905,1.95860187933052,1.7790392791248,1.77963682521533,1.78006089018281,1.95128675864155,1.78295224223378,1.91826751821942,2.00841987516882,1.83826380696894,1.91089457048943,1.90766589403251,1.90541063943275,1.93559635484493,1.93517228987745,1.90134347088104,1.8994351785274,1.89532945861502,1.89439458811853,1.89392233395021,2.01251595724104,1.89085750077617,1.89201404159656,1.8175810019643,1.81881464550604,1.93507591147575,1.89732449153019,1.93699384166957,1.9017097088075,1.90121817895883,1.90852366180763,1.91211857619101,1.93514337635694,2.01069440544892,2.00176012761141,2.00839096164831,2.00721514514758,1.98706242135228,1.90276023338602,1.90373365524318,1.90540100159258,1.97733784062084,1.97863894904378,1.97904373833091,1.98003643586842,1.99368361754902,1.99085009253906,1.90467816357984,1.90600818552328,1.99119705478518,1.99644003983761,1.98166523085713,1.99342339586443,1.98444092882607,1.99438717988142,1.9894911570751,1.99959161357318,1.98780453504537,1.9971821535307,1.9065479045728,1.99365470402851,1.9060660125643,1.98101949556575,1.99351977426613,1.98852737305811,1.98515412899864,1.90320357403384,1.99544734230011,1.97560302939025,1.90063990854864,1.90203739537328,1.97789683535069,1.97489946705785,1.98934658947256,1.83409062217536,2.02811962047613,1.82985961034077,1.82893437768446,1.82784530174526,1.9365023118209,1.82889582632378,1.828057334229,1.83061136187402,1.83076556731674,1.83131492420643,1.88754208375772,1.83067882675521,1.83416772489672,2.00665615041773,1.83083303219793,1.83043788075096,1.82872234520072,1.8301391077057,1.82932952913142,1.82997526442281,1.82813443695035,1.82972468057839,1.99411732035666,2.00002531638082,1.80587102615785,1.75279544034211,1.85623837888583,1.79390082866681,1.79145281726365,1.78963126547154,1.73799171784112,1.73407875473214,1.73454137106029,1.73235358134172,1.73112957564014,1.72906707784378,1.84226351063945,1.73106211075895,1.83969020731409,1.82429857656273,1.82433712792341,1.85487944342187,1.72783343430203,1.72884540751987,1.83855294217403,1.73005977538128,1.7773719327754,1.84579096014164,1.73028144570519,1.85125561551799,1.72762140181829,1.77690931644725,1.77389267247406
1.90759842915132,1.80999602175057,1.80912861613528,1.80795279963455,1.80753837250724,1.80704684265858,1.80522529086646,1.80460846909559,1.80034854374048,1.7997991868508,1.79914381371924,1.90120854111866,1.90185427641005,1.79495135324533,1.7922045687969,1.79183833087045,1.95900666861766,1.78799283264265,1.83498694131117,1.78700013510515,1.78460031290284,1.83194138381747,1.83102578900133,1.82962830217669,1.77980066849822,1.77960791169482,1.77970429009652,1.88181720669679,1.78414733441485,1.91715916659988,1.91369918197888,1.9372058741533,1.91118370569453,1.93662760374311,1.93471931138947,1.90579615303955,1.93728297687466,1.93676253350549,1.90030258414269,1.89601374526708,1.89614867502946,1.89563786950045,1.8948861179672,1.89209114431792,1.88950820315239,1.89200440375639,1.89405726371259,1.89157070094875,1.89589809118504,1.89785457273953,1.93697456598923,1.90414808237049,2.01036671888314,1.9139786793438,1.93448800322539,2.02467891153547,1.99874348363822,2.00232876018143,1.90738639666758,1.99470522860703,1.90399387692777,1.90471671494051,1.90300117939027,1.90361800116114,1.97805104079341,1.99502327733264,2.00549960959734,1.99971690549539,1.99818448890837,1.98595406973274,1.9959003207881,1.99342339586443,1.90605637472413,1.98983811932122,2.00068068951238,1.9996494406142,1.98151102541441,1.90473599062085,1.99050313029295,1.988691216341,1.99130307102705,1.9802002791513,1.90727074258554,1.99506182869332,1.99479196916856,1.98854664873845,1.9040806174893,1.97806067863358,1.97877387880616,1.98845027033675,1.90198920617243,1.90164224392631,1.98049905219657,1.97886061936769,1.98803584320945,1.83718436886991,1.83693378502549,1.88042935771232,1.83200884869866,1.83034150234927,1.83024512394757,1.83043788075096,1.82760435574101,1.9321460080641,1.83038005370995,1.82880908576225,1.83070774027572,1.83130528636626,1.83281842727293,1.83099687548082,1.8296572156972,1.83024512394757,1.91066326232535,1.87803917335018,1.87683444332894,1.828568139758,1.82869343168021,1.8281826261512,1.82867415599987,1.82772964766322,1.81040081103771,1.80545659903054,1.75166781304223,1.85816594691982,1.74511408172669,1.81781231012837,1.73759656639416,1.73626654445071,1.73507145226964,1.85462885957746,1.73183313797254,1.73169820821017,1.7313994351649,1.73153436492728,1.73020434298383,1.72842134255239,1.85558300575428,1.85206519409226,1.85137126960002,1.72853699663443,1.7286430128763,1.72750574773625,1.85021472877963,1.77768998150101,1.72887432104038,1.72589622842788,1.72868156423698,1.72530832017751,1.72514447689462,1.72492280657071
1.81099835712824,1.90039896254439,1.80777931851149,1.80847324300372,1.89855813507194,1.90154586552461,1.8067191560928,1.80211226849158,1.80308569034874,1.80126413855663,1.9036951038825,1.79945222460468,1.90394568772692,1.89783529705919,1.79551034797519,1.84084674813448,1.84094312653617,1.88154734717203,1.88255932038988,1.78461958858318,1.97481272649632,1.78208483661849,1.78245107454495,1.78176678789288,1.78186316629458,1.83049570779198,1.78332811800041,1.83163297293203,1.78297151791412,2.01697827723971,2.01353756829905,1.91470151735655,1.83901555850219,1.93726370119432,1.90739603450775,1.83374365992925,1.90404206612862,1.90191210345107,1.936791447026,1.89862559995313,1.89783529705919,1.89707390768577,1.82087714330241,1.93819857169081,1.8909442413377,1.81853514814112,1.89220679839996,1.89470299900397,1.8958788155047,1.89539692349621,1.90400351476794,1.90539136375241,2.02022622937697,1.91434491727026,2.02748352302492,2.0273293175822,1.99416550955751,2.00072887871323,1.98152066325458,1.99426188795921,1.90525643399003,1.90609492608481,1.98421925850216,1.9809713063649,2.00652122065535,1.99460885020533,1.97989186826587,2.00047829486881,1.90697196954028,1.99610271543167,1.99564009910351,1.99203554687996,2.00053612190983,2.00098910039782,1.99824231594939,1.98396867465774,1.99537987741892,1.98725517815568,1.99207409824064,1.98806475672996,1.90714545066333,1.90799358059829,1.99801100778531,1.99434862852074,1.90651899105229,1.90700088306079,1.97814741919511,1.90476490414136,1.9036951038825,1.99492689893094,1.90210486025447,1.90114107623748,1.90253856306211,1.90092904375374,1.9854239885234,1.83482309802828,1.83538209275813,1.88130640116779,1.83072701595606,1.83054389699283,1.8302354861074,1.82941626969295,1.82815371263069,2.01852033166689,2.01769147741228,1.83038005370995,1.83089085923895,1.83140166476796,1.83195102165764,1.83071737811589,1.83124745932524,1.92207446508654,1.92088901074564,1.82904039392633,1.83009091850485,1.8299463509023,1.82834646943409,1.82703572317098,1.82700680965047,1.99008870316564,1.82740196109744,1.75775892802962,1.74975952068859,1.85774188195234,1.85797319011642,1.74254077840132,1.74096017261346,1.73612197684816,1.73446426833893,1.73176567309136,1.73230539214087,1.85723107642333,1.86368842933718,1.73047420250859,1.77760324093948,1.83859149353471,1.7258576770672,1.85363616203995,1.85299042674857,1.72717806117047,1.85196881569056,1.85460958389712,1.73093681883674,1.84472115988278,1.73008868890179,1.72743828285506,1.72775633158067,1.72808401814645,1.72568419594414,1.72645522315773
1.91067290016552,1.81322469820749,1.81123930313249,1.81105618416926,1.8071046696996,1.80878165388916,1.85642149784906,1.80682517233467,1.80182313328648,1.80240140369668,1.85121706415731,1.90064954638881,1.79920164076026,1.98401686385859,1.90218196297583,1.79379481242494,1.79452728827785,1.79126969830042,1.78955416275018,1.78889878961862,1.78494727514896,1.78484125890709,1.7845810372225,1.94790387674191,1.83294371919514,1.78385819920976,1.87567790250855,1.86773632220854,1.87510926993853,1.91798802085449,1.91737119908362,1.93869973937964,1.84002753172003,1.93871901505998,1.83482309802828,1.83412917353604,1.83043788075096,1.94101282102042,2.01159072458472,1.93852625825658,1.82412509543967,1.82400944135763,1.93738899311653,1.81919052127267,1.89366211226562,1.94049237765125,1.89466444764329,1.89512706397145,2.02197067844772,2.02119001339396,1.90080375183153,1.9057479638387,1.93766849048146,1.84095276437634,1.85071589646847,1.86726406804022,2.00972098359176,1.99400166627463,1.99709541296917,1.99468595292669,1.905651585437,1.90609492608481,1.98556855612595,1.9843349125842,1.90673102353603,1.98054724139742,1.9805857927581,1.98109659828711,1.98120261452898,1.90722255338469,1.9922475793637,1.99246924968761,1.9912548818262,1.98059543059827,1.99874348363822,1.90932360254174,1.90929468902123,1.98351569616976,1.90786828867608,1.97789683535069,1.90756951563081,1.90818633740168,1.99105248718263,2.00245405210364,1.9889803515461,2.00870901037392,1.99629547223507,1.98075927388116,1.99790499154344,1.99123560614586,1.90366619036199,1.9782148840763,1.98416143146114,1.97728965141999,1.90202775753311,1.838948093621,1.83692414718532,1.92618982283909,1.83138238908762,1.93521084123813,1.828057334229,1.82922351288956,1.82772964766322,1.82743087461795,2.01703610428073,1.82834646943409,1.83043788075096,1.83105470252184,1.91498101472148,1.92222867052925,1.83063063755436,1.83104506468167,1.82905966960667,1.92108176754903,1.87711394069387,1.83027403746808,1.82739232325727,1.82802842070849,1.82597556075229,1.82941626969295,1.85856109836678,1.75438568397015,1.86244514795526,1.74605859006334,1.85875385517018,1.74123966997838,1.73790497727959,1.73753873935314,1.86020916903584,1.73296076527242,1.73233430566138,1.85779007115319,1.73138979732473,1.83938179642865,1.72945259145058,1.72817075870798,1.72707204492861,1.73046456466842,1.72729371525251,1.72926947248735,1.8326063947892,1.83823489344843,1.72876830479851,1.84386339210766,1.84473079772295,1.72797800190458,1.72818039654815,1.72761176397812,1.72700458004742,1.84621502510912
1.81432341198686,1.81257896291611,1.8136391253348,1.81273316835883,1.81041044887788,1.80909970261477,1.80829976188067,1.80836722676185,1.80470484749729,1.91121261921504,1.80562044231343,1.80394345812386,1.84902927443873,1.79872938659194,1.79871974875177,1.79727407272628,1.79428634227361,1.78982402227493,1.79088418469363,1.78878313553658,1.78634476197359,1.96820116813976,1.83368583288823,1.83356054096602,1.78497618866947,1.78551590771898,1.7849665508293,1.78772297311789,1.92072516746275,1.92137090275413,1.84482717612465,1.84428745707514,1.94159109143062,1.91169451122353,2.02407172760477,1.94055020469227,1.94102245886059,1.90517933126867,1.82766218278203,1.89750761049342,1.89843284314973,1.93895996106423,1.89524271805349,1.89433676107751,1.8958788155047,1.8946933611638,1.8955896802996,1.9404441884504,1.8240190791978,1.90059171934779,1.82822117751188,1.83242327582597,1.91145356521929,1.91671582595206,2.03310238384398,2.02461144665428,1.99894587828179,1.91248481411747,1.99714360217002,1.90816706172134,1.90595035848226,1.90759842915132,1.98417106930131,1.98401686385859,1.99617018031286,1.99446428260278,1.9947148664472,1.9945221096438,1.99963980277403,1.99785680234259,1.9081188725205,1.99213192528166,1.9932402769012,1.99953378653216,1.91050905688263,1.91099094889113,1.99447392044295,2.01232320043764,1.90726110474537,2.00135533832427,1.99474377996771,1.98894180018542,1.90756951563081,1.98473970187134,1.90602746120362,1.90732856962656,1.99773151042038,1.9051696934285,1.99181387655605,1.90395532556709,1.90655754241297,1.90479381766187,1.98117370100847,1.97809922999426,1.9776077001456,1.9903585626904,1.83312683815837,1.83240400014563,1.83395569241298,1.82926206425023,1.82769109630254,1.82789349094611,1.82633216083858,1.82928133993057,1.8260044742728,1.92116850811056,1.82878981008191,1.82949337241431,1.87845360047749,1.9261223579579,1.87858853023987,1.82888618848361,1.92770296374577,2.01535912009116,1.82672731228555,2.00198179793532,1.82926206425023,1.91926985359709,1.82774892334356,1.82867415599987,1.75645781960668,1.86063323400331,1.74894030427415,1.74775484993325,1.79126006046025,1.85162185344444,1.85898516333426,1.78399312897214,1.73541841451575,1.73250778678444,1.78106322556048,1.85505292454493,1.73001158618043,1.730213980824,1.77758396525914,1.73098500803759,1.85750093594809,1.73008868890179,1.72730335309268,1.72768886669948,1.73047420250859,1.84134791582331,1.72569383378431,1.72599260682958,1.84560784117841,1.78068734979385,1.77902000344446,1.72593477978856,1.72435417400069,1.72154956251124
1.91742902612463,1.81428486062618,1.81423667142533,1.81273316835883,1.81145133561623,1.811268216653,1.81270425483832,1.81128749233334,1.80848288084389,1.80594812887921,1.98678292398736,1.98125080372982,1.85062915590694,1.80199661440954,1.8003099923798,1.97512113738176,1.98210857150495,1.79612716974606,1.98440237746539,1.7917901416696,1.78952524922967,1.78871567065539,1.78763623255636,1.78777116231874,1.96480864839995,1.78416661009519,1.78776152447857,1.78746275143331,1.78939031946729,1.84492355452635,1.92179496772161,1.91687003139478,1.9409549939794,1.91297634396613,1.94263197816897,2.02393679784239,1.94109956158195,1.90378184444403,1.82979214545958,2.01484831456216,1.9008133896717,1.94038636140938,1.89717992392764,1.82355646286964,1.82398052783712,1.89736304289087,1.94061766957346,1.94118630214348,1.8974497834524,1.90143984928274,1.902191600816,1.90500585014561,1.91472079303689,1.93695529030889,1.92169858931991,2.03319876224568,2.00435270661712,2.00661759905705,1.99915791076553,2.01074259464977,1.90827307796321,1.90766589403251,1.98739010791806,1.98180979845968,1.90758879131115,2.00415994981372,1.98910564346831,1.99487870973009,1.9959966991898,1.9082441644427,1.99377035811055,1.98081710092218,1.91105841377232,1.98772743232401,1.98829606489403,2.00129751128325,2.00375516052658,1.98884542178372,1.90890917541443,2.00045901918847,2.00349493884199,1.99901334316298,1.99717251569053,1.98663835638481,1.99905189452366,1.9889803515461,1.99814593754769,1.98825751353335,1.9910621250228,1.98017136563079,1.90335777947656,1.98408432873978,1.97828234895749,1.97845583008055,1.99340412018409,1.9865130644626,1.83470744394624,1.83232689742427,1.83203776221917,1.82944518321346,1.82954156161516,1.82831755591358,1.82758508006067,1.82755616654016,1.82753689085982,1.82733449621625,1.87543695650431,1.83018729690655,1.92373217359576,1.83065955107487,1.92871493696361,1.82887655064344,1.82850067487681,1.82708391237183,1.82858741543834,1.82740196109744,1.82816335047086,1.82981142113992,1.82673695012572,1.82779711254441,1.85088937759153,1.75307493770704,1.74737897416662,1.8470535172039,1.86144281257759,1.73856035041115,1.73711467438566,1.78463886426352,1.8173882451609,1.85813703339931,1.73098500803759,1.85578540039785,1.85559264359445,1.84590661422368,1.73092718099657,1.72895142376174,1.85405058916726,1.82097352170411,1.72495172009122,1.85373254044165,1.85002197197624,1.84540544653485,1.72678290972351,1.72594441762873,1.85119778847697,1.78031147402723,1.77699605700878,1.7271395098098,1.72446982808273,1.84362244610341
1.8190845050308,1.81481494183553,1.91495210120097,1.81561488256963,1.81496914727825,2.08117593061152,1.8113645950547,1.92074444314309,1.89833646474803,1.85623837888583,1.80719141026113,1.8059192153587,1.80272909026245,1.90292407666891,1.84882687979517,1.79907634883806,1.79693674832033,1.90261566578347,1.79413213683089,1.79344785017882,1.79067215220989,1.78822414080673,1.7883301570486,1.7873374595111,1.78772297311789,1.78749166495381,1.78873494633573,1.78780007583925,1.92244070301299,1.84735229024917,1.92102394050801,1.91954935096202,1.91779526405109,1.8414153807045,1.91512558232402,1.91150175442014,2.03174344838002,1.90564194759683,1.83067882675521,1.82949337241431,1.94323916209967,1.89775819433783,1.89723775096866,1.82310348438166,1.89713173472679,1.82221680308603,1.82484793345241,1.82503105241564,1.89900147571975,1.82867415599987,1.82983069682026,1.9055552070353,1.91081746776807,1.91981921048677,1.93952859363425,1.93904670162576,2.01035708104297,2.01207261659322,2.00611643136821,2.00868009685341,1.91175233826455,1.90864895372984,1.90800321843846,1.9819640039024,1.99746165089563,1.99705686160849,1.90887062405375,2.00779341555778,1.9082441644427,1.98360243673128,1.99804955914599,2.00652122065535,1.91122225705521,2.00318652795656,2.0015384572875,1.995100380054,1.99871457011771,1.91072108936637,1.99767368337936,2.00101801391832,1.98996341124343,1.91079819208773,1.98939477867341,2.00174085193107,1.99165967111334,1.90774299675387,2.00548997175717,1.98872012986151,2.0037166091659,1.90422518509185,1.90524679614986,1.90415772021066,1.98461440994913,1.98117370100847,1.90258675226296,1.83837946105098,1.83431229249927,1.83242327582597,1.82896329120497,2.01327734661446,1.82764290710169,1.8262936094779,1.82445278200545,1.8276718206222,1.8279609558273,1.82825972887256,1.87722959477591,1.93165447821543,1.87760547054254,1.87733561101778,1.92754875830305,1.82951264809465,1.82882836144259,1.82721884213421,2.00432379309661,1.82726703133506,1.82745015029829,1.87526347538125,1.82772964766322,1.90690450465909,1.82950301025448,1.75170636440291,1.74791869321614,1.86058504480247,1.74134568622025,1.73954341010848,1.73676771213954,1.73563044699949,1.7335775870433,1.84490427884601,1.85795391443608,1.85686483849688,1.7305994944308,1.73077297555385,1.73112957564014,1.85497582182357,1.85403131348692,1.77612865139348,1.72583840138686,1.72525049313649,1.72670580700215,1.725279406657,1.84854738243024,1.85382891884335,1.81807253181296,1.77891398720259,1.77862485199749,1.84504884644856,1.72480715248868,1.72393974687338
1.86722551667954,1.81731114243954,1.81892066174791,1.81512335272097,1.86407394294397,1.81447761742958,1.8103718975172,1.81100799496841,1.88692526198685,1.8575298494686,1.85750093594809,1.80793352395421,1.98445056666624,1.9809713063649,1.90668283433518,1.9801039007496,1.79833423514497,1.79661869959473,1.79523085061026,1.84057688860972,1.8419936511147,1.78976619523392,1.78892770313913,1.83804213664503,1.89412472859378,1.78860965441353,1.78917828698355,1.79084563333295,1.79141426590297,1.85053277750524,1.92193953532416,1.91992522672864,1.84448021387853,1.91489427415995,1.91194509506795,1.91300525748664,1.90759842915132,1.90649007753178,1.90730929394622,1.90184463856988,1.90035077334354,1.82729594485557,1.89803769170276,1.82489612265326,1.9414368859879,1.94280545929203,1.89821117282582,1.82713210157268,1.90149767632376,1.90162296824597,1.90451432029695,1.90735748314707,1.91402686854465,1.9429114755339,1.94092608045889,2.03123264285101,1.99831941867075,1.98659980502413,1.98718771327449,1.98557819396612,1.90935251606224,1.98471078835083,1.98620465357716,1.98425780986284,1.99071516277668,1.99820376458871,1.98159776597594,1.99830978083058,2.00479604726493,1.98342895560823,1.91016209463652,1.99733635897342,2.0041985011744,1.99748092657597,1.99327882826188,1.99719179137087,1.91099094889113,1.99696048320679,1.9944257312421,2.00505626894952,1.9949076232506,1.99963980277403,1.99936994324927,1.99668098584186,2.00337928475995,1.90818633740168,1.97957381954026,1.90823452660253,1.90421554725168,1.98434455042437,1.90431192565338,1.90435047701406,1.98229169046818,1.98229169046818,1.9849420965149,1.83907338554321,1.83702052558702,1.83114144308337,1.83054389699283,1.82918496152888,1.82779711254441,1.82617795539586,1.82763326926152,1.82436604144392,1.82718029077353,1.93398683553655,2.01400982246737,1.82748870165897,1.92433935752647,1.94475230300635,1.82804769638883,1.87726814613659,1.82960902649635,1.82999454010315,1.82725739349489,2.00351421452233,1.82779711254441,1.92306716262404,1.87736452453829,1.8279609558273,1.86181868834421,1.74954748820485,1.74683925511711,1.86071033672467,1.74142278894161,1.73873383153421,1.73631473365156,1.73484014410556,1.73407875473214,1.78125598236388,1.73196806773492,1.73073442419317,1.73108138643929,1.73000194834026,1.8538771080442,1.72905744000361,1.85229650225634,1.84188763487283,1.85221939953498,1.84930877180366,1.72722625037132,1.72446019024256,1.72434453616052,1.72277356821282,1.72573238514499,1.7783646303129,1.77848992223511,1.72365061166829,1.84409470027174,1.84857629595075
1.8195663970393,1.92390565471882,1.81930617535471,1.92196844884467,1.91787236677245,1.81759063980447,1.81437160118771,1.81446797958941,1.81400536326126,1.91454731191383,1.85763586571047,1.80786605907302,1.80777931851149,1.80721068594146,1.80359649587775,1.84925094476264,1.84797874986021,1.84633067919116,1.9072514669052,1.86945185775879,1.84432600843582,1.92370326007525,1.79110585501753,1.7915973848662,1.79152028214484,1.79066251436972,1.79122150909957,1.7920792768747,1.86892177654944,1.85193026432988,1.94871345531619,1.92315390318557,1.94580282758487,1.91723626932124,1.91554000945133,1.91143428953895,1.83861076921505,1.90858148884865,1.90516005558833,1.90673102353603,1.9019024656109,1.90091940591357,1.94684371432322,1.89903038924026,1.94454027052261,1.89768109161648,1.89784493489936,1.90006163813844,1.90045678958541,1.90351198491927,1.90540100159258,1.83768553655874,1.83898664498168,2.01725777460463,1.94141761030756,1.94165855631181,2.00566345288022,2.00066141383204,1.99646895335812,1.98553964260544,1.91064398664501,1.91024883519805,1.98725517815568,1.91058615960399,2.01410620086907,1.99884949988009,1.98337112856721,1.98395903681757,2.00121077072172,1.91115479217402,1.98724554031551,1.91159813282184,2.00442980933848,1.911096965133,1.99378963379089,1.99504255301298,1.99254635240897,1.9979820942648,1.91021992167754,1.99200663335945,1.98449875586709,1.98850809737777,2.01373996294262,1.90967056478785,1.99409804467632,1.99408840683615,1.9840457773791,1.90659609377365,1.98874904338202,1.98975137875969,1.90554556919513,1.90476490414136,1.90437939053457,1.97918830593346,1.9801039007496,1.97359835863491,1.95552740831632,1.83062099971419,1.83064027539453,1.8306499132347,1.82487684697292,1.82529127410023,1.82497322537462,1.82526236057972,1.82470336584986,1.82684296636759,1.82765254494186,1.82772964766322,1.82737304757693,1.82771037198288,1.83027403746808,1.82614904187535,1.82702608533081,1.82789349094611,2.00796689668083,1.82864524247936,1.82831755591358,1.82693934476928,1.82772000982305,2.00277210082925,1.75434713260947,1.74857406634769,1.74570198997705,1.74403464362766,1.7379338908001,1.73690264190192,1.73522565771236,1.86014170415465,1.86097055840926,1.73294148959209,1.73145726220592,1.73176567309136,1.73121631620167,1.72810329382679,1.72867192639681,1.72778524510118,1.72674435836283,1.72800691542509,1.72555890402193,1.72572274730482,1.72707204492861,1.72543361209972,1.72478787680834,1.72376626575032,1.72473004976732,1.84571385742028,1.72479751464851,1.72344821702472,1.84718844696628,1.72275429253248
1.8238263223944,1.86785197629058,1.81949893215811,1.92220939484891,1.81901704014961,1.92475378465377,1.87456955088901,1.81727259107886,1.81712802347631,1.81228982771101,1.81188503842387,1.8570190439396,1.80743235626537,1.91123189489538,1.90512150422765,1.79924982996111,1.80266162538126,1.89250557144523,1.84748722001155,1.90986332159125,1.79537541821281,1.90174826016818,1.79215637959605,1.79259972024387,1.79433453147446,1.79270573648574,1.83981549923629,1.84091421301566,1.92659461212623,1.92560191458872,1.92485016305547,1.92317317886591,1.91886506430995,1.92050349713884,2.03155069157662,1.91203183562948,1.9086296780495,1.90916939709902,1.90805140763931,1.90601782336345,1.90261566578347,1.90276023338602,1.90344452003809,1.90203739537328,2.03473117883269,1.89930988660519,1.90043751390507,1.94542695181824,1.9010061464751,2.03094350764592,1.83356054096602,1.94492578412941,1.91412324694635,1.94369214058766,1.94139833462722,2.02775338254967,1.91470151735655,1.98841171897607,1.98874904338202,1.98835389193505,1.98767924312316,1.91193545722778,1.91097167321079,1.91025847303822,1.99509074221383,1.91053797040314,1.9930475200978,1.98442165314573,1.99508110437366,1.98507702627728,2.00033372726626,2.00177940329175,1.99082117901855,2.00873792389443,1.99201627119962,2.00694528562282,1.99645931551795,1.91137646249793,1.91174270042438,2.00039155430728,1.99739418601444,1.99189097927741,1.99632438575558,1.91022955951771,1.90919831061953,1.90860076452899,1.90870678077086,1.99502327733264,1.97836908951902,1.99669062368203,1.90672138569586,1.90458178517814,1.9033770551569,1.90410953100981,1.97754987310458,1.83806141232537,1.94297894041508,1.93786124728486,1.83124745932524,1.82774892334356,1.82536837682159,1.95424557557372,1.9350277222749,1.82258304101248,1.82497322537462,1.91040304064077,1.82499250105496,1.82823081535205,1.82810552342984,1.92768368806543,1.82865488031953,1.82826936671273,1.87696937309132,1.8756007997872,1.82637071219926,1.82766218278203,1.82915604800837,1.87663204868538,1.82809588558967,1.82831755591358,1.75224608345243,1.75065583982439,1.74512371956686,1.74401536794732,1.7397939939529,1.73630509581139,1.86158738018014,1.80475303669814,1.83117035660388,1.73175603525119,1.7326812679075,1.85466741093814,1.72831532631053,1.7276503153388,1.72824786142934,1.72971281313516,1.72747683421574,1.72468186056647,1.84421035435378,1.85085082623085,1.83771445007925,1.77187836387855,1.72458548216477,1.72425779559899,1.72487461736986,1.72208928156076,1.81757136412413,1.84717880912611,1.84489464100584,1.84447057603836
1.82439495496443,1.82120482986818,1.82066511081867,1.81848695894027,1.81882428334621,1.94317169721848,1.81740752084124,1.86487388367808,1.92115887027039,1.81449689310992,1.90121817895883,1.89724738880883,1.81002493527108,1.80702756697824,1.8064300208877,1.85219048601447,1.90697196954028,1.80191951168818,1.7982282189031,1.79726443488611,1.79490316404448,1.79359241778137,1.79380445026511,1.84120334822076,1.79424779091293,1.79365988266256,1.84106841845838,1.87584174579144,1.85630584376702,1.92762586102441,1.92581394707246,1.92329847078811,1.95112291535866,1.94810627138548,1.91541471752912,1.91441238215145,1.91354497653616,1.90893808893494,1.90931396470156,1.90791647787693,1.83034150234927,1.90430228781321,2.02482347913802,1.90156514120495,1.826582744683,1.90078447615119,1.90157477904512,1.90136274656138,1.94468483812516,1.83195102165764,1.9473641576924,1.91159813282184,1.84268757560693,2.02888100984955,1.92845471527902,2.03531908708306,1.91664836107087,1.98925021107086,1.99863746739636,1.9929511416961,1.9127643114824,1.91075000288688,1.91056688392365,1.91095239753045,2.01423149279128,2.00110475447985,1.98607936165495,1.91064398664501,1.99849289979381,1.9126679330807,2.00466111750255,1.91466296599587,2.00516228519139,1.99961088925352,1.91431600374975,1.99658460744016,2.00468039318289,2.01130158937963,1.91134754897742,1.98882614610338,1.99190061711758,2.00491170134697,1.99504255301298,2.00392864164964,1.99172713599452,1.90927541334089,2.00435270661712,1.99138981158858,1.99467631508652,1.99060914653481,1.90506367718663,1.90290480098857,1.9042733742927,1.97942925193771,1.97907265185142,1.8370590769477,1.83560376308204,1.83299190839599,1.93870937721981,1.82751761517948,1.93191469990002,1.82422147384137,1.8273826854171,1.82115664066733,1.82438531712426,1.92741382854067,2.01244849235985,1.82529127410023,1.82742123677778,1.91362207925752,2.00052648406966,1.82769109630254,1.93421814370063,1.93299413799905,1.82625505811722,1.82832719375375,1.8276718206222,2.00031445158592,1.82862596679902,1.8283753829546,1.84699569016288,1.74512371956686,1.86210782354931,1.74182757822875,1.73926391274355,1.73854107473081,1.7344739061791,1.73500398738845,1.73202589477594,1.73283547335022,1.72923092112667,1.85729854130452,1.72970317529499,1.7254721634604,1.85097611815306,1.85135199391968,1.72712023412946,1.72403612527508,1.77740084629591,1.72477823896817,1.72480715248868,1.72263863845044,1.85140018312053,1.84928949612332,1.82878981008191,1.77068327169748,1.72354459542642,1.8480462147414,1.72171340579413,1.72095201642071
1.82671767444538,1.93144244573169,1.81981698088372,1.82090605682292,2.08238066063276,1.8175810019643,1.82067474865884,1.81760027764464,1.8168099747507,1.81688707747206,1.81349455773225,1.81131640585385,1.81105618416926,1.85734673050537,1.9143641929506,1.99516784493519,1.80314351738976,1.80120631151561,1.90660573161382,1.79627173734861,1.79607898054521,1.97849438144123,1.89235136600251,1.79427670443344,1.79195398495249,1.79473932076159,1.79370807186341,1.79517302356924,1.8575298494686,1.92951487769771,1.85423370813049,1.9248405252153,1.92462849273156,1.91825788037925,1.91805548573568,1.91568457705388,1.91365099277803,1.91005607839465,1.91099094889113,1.90762734267183,1.8314209404483,1.94779786050004,1.90384930932522,2.04736638729546,1.90060135718796,1.90000381109743,1.90198920617243,1.90152658984427,1.82989816170145,1.90405170396879,1.90864895372984,1.91468224167621,1.94686299000356,1.92137090275413,1.94417403259615,2.03130974557237,1.91565566353337,1.99182351439622,1.99085973037923,1.9908693682194,1.99021399508785,1.91164632202268,1.98793946480775,1.98447948018675,1.98702386999161,1.9826675662348,1.98640704822073,1.98548181556442,2.00285884139078,2.00122040856189,2.00473822022391,2.00652122065535,2.00885357797647,1.99815557538786,1.91435455511043,2.01149434618302,1.99713396432985,1.91227278163373,1.99464740156601,2.00724405866809,1.98759250256163,1.99800136994514,1.99512929357451,1.99117777910484,1.91018137031686,1.90947780798445,2.00041082998762,1.90503476366612,1.9830530798416,1.90800321843846,1.90764661835217,1.9060660125643,1.90532389887122,1.90717436418384,1.99881094851941,1.83738676351348,1.83486164938896,1.93766849048146,1.940762237176,1.93859372313777,1.82279507349622,1.82435640360375,1.82408654407899,1.82142650019209,1.82366247911151,1.82241919772959,2.02093942954954,2.01321951957344,1.87456955088901,1.87479122121292,1.9156460256932,1.82655383116249,1.92912936409091,1.82759471790084,1.82638035003943,1.92414660072307,1.82708391237183,1.87576464307008,1.87529238890176,1.82821153967171,1.74943183412281,1.91547254457014,1.74282027576625,1.73879165857522,1.73646893909427,1.86449800791145,1.73569791188068,1.73377998168687,1.73146690004609,1.85578540039785,1.72792981270373,1.73069587283249,1.73084044043504,1.85301934026908,1.72598296898941,1.72770814237982,1.72519266609547,1.77550219178244,1.72572274730482,1.72436381184086,1.84097204005668,1.72247479516756,1.72185797339668,1.77180126115719,1.72394938471355,1.77168560707515,1.77078928793935,1.83458215202403,1.72177123283515,1.8477281660158
1.82692006908895,1.93159665117441,2.00683926938095,2.00377443620692,2.08062657372184,2.08487686123677,1.82111808930666,1.82148432723311,1.81488240671672,1.92371289791542,1.81490168239706,1.81499806079876,1.81246330883407,1.80942738918055,1.91528942560691,1.80683481017484,1.80521565302629,1.99567865046419,1.80301822546755,1.7997028084491,1.80061840326524,1.99773151042038,1.89342116626137,1.84375737586579,1.79563563989739,1.79652232119303,1.79688855911948,1.79836314866548,1.79691747263999,1.85739491970622,1.92776079078679,1.92742346638084,1.84880760411483,1.92228649757027,1.84456695444006,1.91586769601711,1.84049978588836,1.91146320305946,1.9507277639117,1.95330106723707,1.90736712098724,1.95054464494847,2.04067772621753,1.90183500072971,1.90143984928274,1.9502458719032,2.03745868760078,2.02243329477588,1.90563230975666,1.90650935321212,1.83504476835218,1.91481717143859,1.84423926787429,1.92125524867209,1.94534984909688,1.94455954620295,1.91747721532548,1.91758323156735,1.98842135681624,2.01523382816895,1.99008870316564,1.91468224167621,1.91321728997038,1.91329439269174,1.91155958146116,1.91408469558567,2.00479604726493,2.01363394670075,1.99814593754769,1.99869529443737,1.91418107398737,1.99874348363822,1.91425817670873,1.91469187951638,1.99321136338069,2.00149990592682,1.91393049014296,1.98675401046685,2.00513337167088,1.91253300331832,2.00396719301032,1.99823267810922,2.00043974350813,1.99359687698749,1.91077891640739,1.99513893141468,1.99711468864951,1.99884949988009,1.99509074221383,1.99069588709634,1.90527570967037,1.98090384148371,1.90409025532947,1.98178088493917,1.90426373645253,1.94519564365417,1.93457474378692,1.94066585877431,2.01950339136423,1.93958642067527,1.82706463669149,1.82409618191916,1.8208482297819,1.82093497034343,1.82309384654149,1.82226499228688,1.82213970036467,1.93447836538522,1.82469372800969,1.92696085005268,1.82159998131515,1.93453619242624,1.92793427190984,1.82416364680035,1.82727666917523,1.82756580438033,1.82744051245812,1.82657310684283,1.82519489569853,1.83044751859113,1.84389230562817,1.84565603037926,1.74425631395157,1.86167412074167,1.86409321862431,1.73504253874913,1.73379925736721,1.85319282139214,1.82577316610872,1.73065732147181,1.73063804579147,1.85417588108947,1.85459030821678,1.72766959101914,1.85466741093814,1.72638775827654,1.72463367136562,1.72519266609547,1.72407467663576,1.84060580213023,1.84719808480645,1.84688003608084,1.852788032105,1.7224940708479,1.84784382009784,1.72212783292144,1.72224348700348,1.72152064899073,1.7214339084292,1.71931358359182
1.82988852386128,2.08690080767245,1.82570570122754,1.82214933820484,1.81998082416661,1.82066511081867,1.92913900193108,1.81803398045228,2.00195288441481,1.8177062938865,1.81521973112267,1.92108176754903,1.99867601875704,1.85813703339931,1.80996710823006,1.99109103854331,1.80406875004607,1.80578428559632,1.85326028627333,1.80170747920444,1.98386265841587,1.89160925230943,1.7976210349724,1.85740455754639,1.79749574305019,1.79766922417325,1.84510667348958,1.79801618641936,1.88699272686804,1.95771519803489,1.85782862251387,1.92804028815171,1.95412992149168,1.92245034085316,2.02791722583256,1.9167351016324,1.9153568904881,1.91252336547815,1.90987295943142,1.91072108936637,2.04243181312846,2.02685706341387,2.02716547429931,2.0402729369304,1.90483236902255,1.90121817895883,1.90406134180896,1.90412880669015,2.02538247386787,1.83426410329842,1.91159813282184,1.91171378690387,1.92044567009782,1.92149619467634,1.94592811950708,2.04396422971547,2.00141316536529,1.91847955070316,2.00114330584053,1.91762178292803,1.91548218241031,1.99001160044428,1.91428709022924,1.9133714954131,2.01393271974601,2.00801508588168,1.91452803623349,1.91391121446262,2.00117221936104,1.99701831024781,2.00862226981239,2.00169266273022,2.00107584095934,2.0041021227727,1.99942777029029,1.98862375145981,1.9954184287796,1.99037783837074,1.99302824441746,1.91429672806941,1.91353533869599,2.00295521979248,1.91262938172002,1.99516784493519,2.00503699326918,1.98438310178505,1.9895875354768,1.99920609996638,1.90755023995047,1.98710097271296,1.90626840720787,1.90762734267183,1.9062587693677,1.98413251794063,1.90431192565338,1.94418367043632,1.83440867090097,1.83143057828847,1.8291464101682,1.9347096735493,1.94215972400064,1.8230263816603,1.82083859194173,1.82108917578615,1.93050757523521,1.87081079322275,1.82380704671406,1.82190839220059,1.82599483643263,1.87426114000358,1.82473227937037,1.92347195191117,1.92179496772161,1.87808736255103,1.8267755014864,1.8283753829546,1.82698753397013,1.8292717020904,1.82479010641139,1.87610196747603,1.74423703827123,1.79379481242494,1.81355238477327,1.73914825866151,1.73563044699949,1.73439680345774,1.73425223585519,1.86065250968365,1.728228585749,1.73173675957085,1.85591069232006,1.85622874104566,1.85437827573304,1.72845989391307,1.85489871910221,1.8530771673101,1.72534687153819,1.72426743343916,1.72597333114923,1.72379517927083,1.72383373063151,1.77184945035804,1.72269646549146,1.71933285927216,1.72188688691719,1.72062432985493,1.72206036804025,1.76795576292939,1.7204412108917,1.72180978419583
1.88080523347895,1.87807772471086,1.87664168652555,1.82692006908895,1.8727479990969,1.8209446081836,1.93314834344177,1.82192766788093,1.82151324075362,1.92646932020402,1.92420442776409,1.99560154774283,1.81258860075628,1.8111718382513,1.85823341180101,1.90220123865617,1.80517710166561,1.85420479460998,1.85220976169481,1.91344859813446,1.88888174354134,1.79802582425953,1.7979101701775,1.79845952706718,1.79788125665699,1.79764994849291,1.8472462740073,1.96767108693041,1.93159665117441,1.92908117489006,1.95754171691183,1.92932212089431,1.92613199579807,1.92516821178108,1.92134198923362,1.91767960996905,1.84238880256166,1.84037449396615,1.83800358528435,1.8370590769477,1.90820561308202,1.9095259971853,2.03706353615381,1.90452395813712,1.83174862701407,1.83075592947657,1.89996525973675,1.83242327582597,2.02587400371654,1.95116146671934,1.95141205056376,1.91378592254041,1.92062878906105,2.02114182419311,1.94709429816764,2.03429747602505,2.01009685935839,2.00729224786894,2.00129751128325,1.99713396432985,1.99366434186868,1.91413288478652,1.91619538258289,2.00941257270632,1.98806475672996,1.99509074221383,1.91481717143859,2.01751799628922,2.01662167715342,1.91437383079077,1.91617610690255,2.00779341555778,1.91582914465643,1.91630139882475,1.99454138532414,2.00142280320546,1.98904781642729,1.99487870973009,2.00145171672597,1.91459550111468,2.00068068951238,2.0007385165534,2.01899258583522,2.00806327508253,1.98694676727025,1.9868021996677,1.9905802330143,2.00815965348423,1.9077333589137,1.9066442829745,1.90537208807207,1.9066442829745,1.90755987779064,1.90509259070714,1.99366434186868,1.98925984891103,1.8346881682659,1.82855850191783,1.82527199841989,1.82637071219926,1.82168672187668,1.93812146896945,2.02499696026108,1.91815186413738,1.82085786762207,1.87053129585782,1.82242883556976,2.0425474672105,1.93389045713485,1.82517562001819,1.93158701333424,1.82527199841989,1.87340337222845,1.87538876730346,1.82714173941285,1.82596592291212,1.82536837682159,1.82742123677778,1.82634179867875,1.82795131798713,1.79681145639812,1.79285030408829,1.73840614496843,1.85414696756896,1.73587139300374,1.73362577624415,1.78229686910223,1.73432933857655,1.8530771673101,1.7314958135666,1.73096573235725,1.72717806117047,1.85443610277406,1.8510917722351,1.85262418882211,1.72606970955093,1.81974951600253,1.7243830875212,1.72479751464851,1.84703424152356,1.72274465469231,1.72198326531889,1.84741975513036,1.72207964372059,1.72027736760881,1.85002197197624,1.72060505417459,1.84967500973012,1.71805102652956,1.7212122381053
1.93238695406835,1.91106805161249,1.87821265447324,1.91798802085449,1.82633216083858,1.82275652213554,1.82420219816103,1.82412509543967,1.8217445489177,1.82054945673663,1.81833275349755,1.86556780817031,1.81476675263468,1.81229946555118,1.81237656827254,2.00255043050534,1.80839614028236,1.85398312428607,1.8538771080442,1.80100391687204,1.80211226849158,1.90580579087972,1.80060876542507,1.98073999820082,1.80068586814643,1.79883540283381,1.79816075402191,1.79760175929206,1.89563786950045,1.93244478110937,1.93350494352806,1.93023771571045,1.9304786617147,1.92459957921105,1.92098538914733,1.84502957076822,2.04108251550467,1.91554000945133,1.91427745238907,1.83800358528435,1.95411064581134,1.90757915347098,1.95519972175054,1.83264494614988,1.95359984028233,1.9033770551569,1.95757063043234,1.90729001826588,1.90748277506928,1.90892845109477,1.91256191683883,1.91633031234526,1.92393456823933,1.84945333940621,1.85803101715744,2.03309274600381,1.92170822716008,1.91908673463386,1.91854701558435,2.0151856389681,1.91797838301432,1.91748685316565,1.91321728997038,1.91548218241031,1.98844063249658,1.98821896217268,2.01104136769504,2.01028961616178,1.99929284052791,2.00851625357052,1.99803028346565,1.99120669262535,1.99111995206382,1.99857000251517,1.99831941867075,1.9959003207881,1.99449319612329,2.01552296337405,2.00227093314041,2.00375516052658,1.91392085230279,1.99821340242888,2.02192248924687,1.99426188795921,1.99390528787293,1.99273910921237,1.99858927819551,1.98387229625604,1.9093332403819,1.98308199336211,1.98450839370726,1.98245553375106,1.90598890984294,1.90750205074962,1.9876985188035,1.94304640529627,1.83179681621492,1.94028034516751,1.82553222010448,1.94099354534008,1.8239227007961,1.8209446081836,1.94250668624676,1.81951820783845,1.93732152823534,1.93713840927212,1.81994227280593,1.93150991061288,1.82163853267583,1.8238263223944,1.8219373057211,1.82471300369003,1.82721884213421,1.8243082144029,1.82686224204793,1.82682369068725,1.82768145846237,1.82751761517948,1.8272863070154,1.82764290710169,1.7447574816404,1.74045900492462,1.73984218315375,1.85628656808668,1.85054241534541,1.73436788993723,1.84836426346701,1.85720216290282,1.73231502998104,1.82272760861503,1.72830568847035,1.84947261508655,1.77610937571314,1.77453840776545,1.72613717443212,1.72603115819025,1.72448910376307,1.7233903899837,1.85230614009651,1.72176159499498,1.77281323437503,1.72030628112932,1.7184558158167,1.71909191326791,1.85149656152223,1.72123151378564,1.84856665811058,1.71896662134571,1.84472115988278,1.83502549267185
1.93661796590294,1.96487611328114,1.8792824547321,1.8303318645091,1.9201950862534,1.87532130242227,1.8738370750361,1.82439495496443,1.82142650019209,1.86944221991862,1.86937475503743,1.93533613316034,1.92059987554054,1.81465109855264,2.00417922549406,1.91824824253908,1.81065139488213,1.81041044887788,1.85446501629457,1.80581319911683,1.85104358303425,1.90753096427013,1.90783937515557,1.80096536551136,1.80092681415068,1.90475526630119,1.80051238702337,1.80369287427945,1.86420887270635,1.86136570985623,1.93249297031022,1.96195584770965,1.92803065031154,1.92677773108945,1.95809107380151,1.9220551894062,1.8446826085221,1.95657793289484,1.95775374939557,1.95718511682554,2.04194028327979,1.91056688392365,1.90820561308202,1.95696344650163,1.90469743926017,2.02830273943936,1.90617202880617,1.9517204614492,2.02725221486084,1.90913084573834,1.91429672806941,1.91776635053058,1.95062174766983,1.9259296011545,1.85555409223377,2.03800804449047,2.01197623819152,2.01020287560026,1.99416550955751,2.00069996519272,1.91711097739903,1.91569421489405,1.91412324694635,1.9161279177017,2.00389009028896,1.99805919698616,2.00469003102306,2.00547069607683,2.00353349020267,2.01651566091155,1.99059950869464,1.91806512357585,1.99829050515024,2.02179719732467,2.01096426497368,2.00681035586044,2.01171601650693,2.00474785806408,2.00305159819418,1.91463405247536,2.00553816095802,1.99845434843313,2.01558079041507,1.98797801616843,1.91348714949514,1.99668098584186,1.98529869660119,1.99965907845437,1.9948112448489,1.9078297373154,1.90736712098724,1.90833090500423,1.90591180712158,1.90484200686272,1.90720327770435,1.8355844874017,1.83154623237051,1.82772000982305,1.82546475522329,1.82410581975933,1.82191803004076,1.92420442776409,1.82057837025714,1.9349313438732,1.81882428334621,1.81848695894027,2.03118445365016,2.02240438125537,2.01424113063145,1.82378777103372,2.03179163758087,1.82599483643263,1.92374181143593,1.82534910114125,1.82551294442414,1.82724775565472,1.82602374995314,1.82240955988942,1.82674658796589,1.99429080147972,1.74452617347633,1.74179866470824,1.73985182099392,1.73873383153421,1.7352449333927,1.73202589477594,1.73076333771368,1.85729854130452,1.85708650882079,1.85454211901593,1.72940440224973,1.72899961296259,1.77510704033547,1.77505885113462,1.72427707127933,1.72686001244487,1.85691302769773,1.85055205318558,1.72112549754377,1.85090865327187,1.723294011582,1.72406503879559,1.72159775171209,1.84818114450378,1.81546067712691,1.84521268973145,1.71918829166961,1.71821486981245,1.7207303460968,1.71854255637823
1.83393641673264,1.83371474640874,1.83263530830971,1.87794279494849,1.82777783686407,1.8916188901496,1.82698753397013,1.9372058741533,1.91809403709636,1.82044344049476,1.8214554137126,1.91515449584453,1.81833275349755,1.81489204455689,1.81163445457946,1.99373180674987,1.92054204849952,1.91633031234526,1.85594924368073,1.80746126978588,1.80235321449583,1.80275800378296,1.80224719825396,1.904176995891,1.80078224654813,1.80100391687204,1.80348084179571,1.80189059816767,1.85420479460998,1.86175122346302,2.03746832544095,1.9308641753215,1.92961125609941,1.95878499829375,1.96406653470686,1.95817781436304,1.9189132535108,1.91838317230146,1.95513225686935,1.96035596624145,1.95746461419047,1.9139497658233,1.90841764556576,1.90756951563081,2.04504366781451,1.95574907864022,2.02827382591885,1.90889953757426,1.95454434861899,1.95375404572505,1.83992151547816,1.84182016999164,1.95182647769107,1.92416587640341,1.95201923449447,1.951142191039,2.02885209632904,2.0139038062255,1.92072516746275,1.99431971500023,1.91856629126469,1.91766033428871,1.91789164245279,1.9146533281557,1.99133198454756,1.99614126679235,1.98822860001285,2.00103728959866,2.00415994981372,1.91689894491529,1.91870122102706,1.91806512357585,2.0118220327488,2.02165262972212,2.01530129305014,2.01091607577283,1.9176314207682,1.99070552493651,2.00800544804151,2.01212080579407,1.9981748510682,2.00149026808665,1.99528349901722,1.99982292173725,2.00511409599054,2.00050720838932,1.99507146653349,1.98559746964646,1.99351013642596,1.98474933971151,1.90751168858979,1.90449504461661,1.90723219122486,1.90751168858979,1.90571905031819,1.83570014148374,2.0327746972782,1.82893437768446,1.82404799271831,1.82391306295593,1.82086750546224,1.94008758836411,1.94141761030756,1.82117591634767,1.819662775441,1.81855442382146,1.81932545103505,1.82129157042971,1.82004828904779,1.86930729015624,1.87083970674326,1.9275969475039,1.88453507762471,1.99206446040047,1.8249153983336,1.82641890140011,2.00069996519272,1.87410693456086,1.827093550212,1.82665984740436,1.7437647841029,1.74144206462195,1.7406903130887,1.7383194044069,1.73198734341526,1.86073925024518,1.73422332233468,1.85748166026775,1.73080188907436,1.72913454272497,1.81468001207315,1.77571422426618,1.727264801732,1.77492392137224,1.72463367136562,1.72376626575032,1.72354459542642,1.77151212595209,1.72397829823406,1.82335406822608,1.92225758404976,1.71930394575165,1.83836982321081,1.85092792895221,1.85018581525912,1.82793204230679,1.71873531318163,1.84374773802562,1.84454767875972,1.71823414549279
1.83751205543568,1.83699161206651,1.83517969811456,1.83107397820218,1.83041860507063,1.87702720013234,1.83096796196031,1.82857777759817,1.82454916040715,1.91781453973143,1.81893993742825,1.86757247892565,1.81797615341126,1.926922298692,1.81369695237582,1.86128860713487,1.89500177204924,1.81058393000094,1.8559588815209,1.8544553784544,1.8039627338042,1.80466629613661,1.80400128516488,1.8037699770008,1.85090865327187,1.80389526892301,1.80523492870663,1.80542768551003,1.86462329983366,1.96278470196426,1.86116331521266,1.85996822303159,2.03665874686668,1.96133902593878,1.85351087011775,1.92102394050801,1.92084082154479,1.91742902612463,1.91736156124345,2.03346862177044,1.91151139226031,1.83773372575959,1.95969095526972,1.90918867277936,1.90870678077086,1.95696344650163,1.90915975925885,1.9567514140179,1.91104877593215,1.91098131105096,1.91303417100715,1.84418144083327,1.95264569410551,1.92518748746142,2.0315892429373,2.03743941192044,1.92281657877962,2.02341635447321,2.00829458324661,2.00752355603302,1.99456066100448,1.91827715605959,1.91548218241031,1.91816150197755,1.91760250724769,1.99219939016285,2.01677588259614,2.00553816095802,1.91733264772294,1.91827715605959,2.00551888527768,1.91856629126469,1.91979993480643,2.00109511663968,1.91913492383471,2.00317689011639,1.99189097927741,1.91798802085449,1.99741346169478,1.91456658759417,1.99811702402718,2.01216899499492,1.9154532688898,2.00788015611931,2.00057467327051,1.99999640286031,1.91182944098591,2.00096018687731,1.99830014299041,2.00512373383071,1.90913084573834,1.90799358059829,1.90642261265059,1.90659609377365,2.00096982471748,1.83386895185146,1.82945482105363,1.82752725301965,1.94065622093414,1.9283005098363,2.02123820259481,1.81914233207182,1.81812072101381,1.81892066174791,1.81746534788226,1.86711950043767,1.81994227280593,1.82051090537595,1.82019285665034,1.82369139263202,1.82351791150896,1.99168858463385,1.92059987554054,1.88137386604898,1.82477083073105,1.82449133336613,1.82755616654016,1.87402019399933,1.82589845803093,1.82567678770703,2.03910675826984,1.74107582669549,1.73981326963324,1.73552443075762,1.732199375899,1.73400165201078,1.73270054358784,1.73049347818893,1.84587770070317,1.84365135962392,1.72788162350288,1.7753865377004,1.77422035903984,1.77547327826193,1.72470113624681,1.85117851279663,1.72291813581537,1.72217602212229,1.72100984346173,1.72353495758625,1.72228203836416,1.72099056778139,1.7184558158167,1.71978583776015,1.71878350238248,1.71914974030893,1.71976656207981,1.71768478860311,1.71706796683223,1.71917865382944
