1.89696839044098,1.90181321838026,1.90176712687074,1.9020462968878,1.90229481945246,1.90176349285154,1.90213798504685,1.90231121214035,1.90381987721901,1.90555361096496,1.90778862212542,1.90580718699515,1.90532384563251,1.9039739392961,1.91719673171884,1.91363353466248,1.93400834180921,1.92875875140664,1.92874784672373,1.91067394724455,1.90745647627463,1.91035502221135,1.92523974028596,1.91776548664423,1.90918953137838,1.90941808330047,1.91087242410346,1.92304021160454,1.93336254090083,1.91515362141845,1.91425091055176,1.91372071975778,1.9143455105226,1.91883561180494,1.93504838461931,1.92742198514826,1.93086081458506,1.92795827702833,1.94537059369114,1.93458156405208,1.93497743762019,1.92646454438923,1.92807032090204,1.92374127711721,1.92051271828183,1.92179889565206,1.93659481286139,1.93433538392773,1.92293654054445,1.92286797484463,1.92245865582776,1.92635010334344,1.95074478061309,1.93957452169931,1.94394070318689,1.9186353524092,1.85180931036948,1.92110225494686,1.92437071338976,1.92384174607007,1.92389829450378,1.92593728868872,1.93898361669349,1.92246908651438,1.85298992573838,1.9261359529149,1.9280692330893,1.91482706461397,1.85375277605768,1.85438473484486,1.8546456645732,1.85534517302712,1.85614634328531,1.85691540372555,1.85825764145506,1.8609530673453,1.85658903863853,1.88865438026744,1.85988470577939,1.86110412818831,1.83961595054242,1.81588270217254,1.79023147053087,1.79101228161914,1.78994859460125,1.79120751182249,1.78919701796896,1.79239911281504,1.79224750836856,1.79185440697048,1.84161938833325,1.84102708646153,1.89620517193656,1.83476055630491,1.79452444370988,1.81822707774158,1.86534383783994,1.84047645129711,1.96987084641713,1.79707267991124,1.79864815547997,1.79926057734443,1.80074155765512,1.80070834482516,1.80001135105726,1.80003630614741,1.79932625832018,1.80015283349895,1.79923804188262,1.79937667305683,1.79853799889841,1.79974682007966,1.84638949072689,1.7984436226035,1.7958523033837,1.79649712618564,1.79610301485862,1.79605154819698,1.7957832234025,1.79459686649381,1.79338712497743,1.79306984708452,1.79224464972905,1.79221010231658,1.79170729286768,1.79276702244599,1.79357298313969,1.79397412434023,1.79382914664564,1.79415814100073,1.7933765040702,1.79547487579889,1.82458922137465,1.82464523910514,1.82519089586728,1.78626543390167,1.81657970914655,1.7924266955629,1.82121851791195,1.73938149094677,1.71901484498889,1.71829721865694,1.71689266069115,1.71677677560983,1.71548211463717,1.71474587761791,1.7131348114744,1.71264775515455,1.71082163210043,1.71194561619585,1.80436746704298,1.71029306852931,1.70836629656547,1.70953039203892,1.75548991425201,1.73764142416158,1.75293522342817,1.73098600754123,1.70634418602889,1.70633970890531,1.706002317374,1.705692194996,1.83314614594834,1.76940448451414,1.83090769965391,1.70003301291947,1.7026008765585,1.70328603063942,1.70018549559938,1.7005956526936,1.70000049926714,1.69865062426202,1.69872707844987,1.69871057457709,1.74269206963941,1.69663112648683
1.83052989983822,1.90264244469832,1.90407177658914,1.90288072552708,1.90374949025351,1.9017175964443,1.90237412475289,1.90315293964188,1.90521643157304,1.90492274908484,1.90508922233722,1.90491380664075,1.9043874363388,1.90365646094779,1.90354357320382,1.90239632305186,1.90480986465485,1.92784673622611,1.92931549520382,1.91125505594987,1.91266704913344,1.91100961856317,1.93189593246086,1.92124459055793,1.92454165996398,1.90807275706744,1.91083798999333,1.91053990859681,1.91243194065681,1.91405129536006,1.93073377478886,1.91536861689274,1.9153552445034,1.9203783421369,1.93566626956566,1.92488389722143,1.92520210965366,1.92554778892629,1.9266101234829,1.92262199775122,1.84672794199483,1.92645887657458,1.93514415314816,1.93285885952621,1.91908018789608,1.92245673791038,1.94083479294928,1.93705579553796,1.94370715676098,1.92159536344114,1.84941035807574,1.86721103609433,1.84985267883351,1.93160101736482,1.92401416467444,1.92113747551607,1.92192982631684,1.92899941579645,1.93487288068576,1.92639923537451,1.92442012709982,1.92547860364383,1.94521852078945,1.92298318379493,1.92573430954435,1.9255153443774,1.92814402590303,1.91463549782112,1.85429719090271,1.85431008762576,1.85394747398404,1.85520964635756,1.85635497480268,1.85693656242911,1.94104716067327,1.94245025106003,1.94253527836992,1.93098711708319,1.93436049328977,1.8665686214177,1.8557101110459,1.82728718086375,1.79062455934211,1.79091644788756,1.79059725988449,1.81582500429772,1.86053638927051,1.7916340803514,1.79125785762246,1.79059978293433,1.84170941471546,1.84113108756737,1.79328861209182,1.82061487538709,1.79485793293983,1.79965854463527,1.79988999120212,1.83503448207898,1.84525604565099,1.79618588664048,1.79822061747043,1.79786170924719,1.97432894555407,1.85039900300406,1.96679180163735,1.83642140080457,1.98145976649315,1.80128223279327,1.8007632307612,1.8002782670349,1.79989305221996,1.80005816462553,1.84786920865441,1.7984491926677,1.79703418754462,1.79694340938099,1.79634480246033,1.79660587160878,1.79695471122233,1.79496732056151,1.79297757309415,1.79322251557122,1.79353226492722,1.79265100957547,1.79261544825303,1.79291703428352,1.79329647995708,1.79401413589259,1.79446712208919,1.7947392377371,1.79531390796725,1.79538566087575,1.84271379354861,1.82482931263677,1.8261227111805,1.77866440520375,1.7252950212062,1.79294360108959,1.8280166092711,1.74981036650095,1.71715047428131,1.71793711008089,1.71801847002747,1.71755691543566,1.71378897923056,1.71413720315455,1.71335242352765,1.71260491799795,1.71052466699251,1.71157544613266,1.71184877563571,1.71114226834219,1.70943190545529,1.70910204489907,1.70750815241546,1.72604204730638,1.70838824016143,1.73875134063715,1.75204566009916,1.7167211028961,1.70243126070343,1.70445667350099,1.8323527724468,1.75312775758533,1.70236732576556,1.69975046462916,1.82982153355061,1.70299104276555,1.70212246192883,1.70135807976826,1.82811200255326,1.69710515098592,1.69561770143755,1.69743860161132,1.69691678825735,1.6970163194062
1.89890457158726,1.90271266258003,1.90446821270001,1.90241246365448,1.902081135187,1.90011893758918,1.82730173186874,1.82887159029189,1.82891731533269,1.82970931383904,1.82980773355718,1.87059477779026,1.90687682277691,1.90408131256375,1.90471940435792,1.90104079389079,1.83306114968217,1.92479956015668,1.93124999775186,1.91082777081143,1.90656802733807,1.91037358288542,1.92062289984057,1.91942935663342,1.83639521223506,1.90720794623223,1.9110134789,1.91035372892725,1.91232210757268,1.91248161008528,1.92941592371094,1.91616572087472,1.91465781285561,1.92201169479091,1.92393522800029,1.92342141964364,1.92415888149802,1.9236782018678,1.92447312280583,1.92169940415356,1.92066018921419,1.92647690570348,1.93961208448535,1.93873116093353,1.94124723317377,1.92333146294754,1.92256213096662,1.92613095193326,1.84836197805574,1.92032129959945,1.91894605327282,1.88249507119114,1.85007309939282,1.93335662783003,1.93990693275346,1.93753765953818,1.94426920747876,1.93328338739922,1.92595651492279,1.92632074584951,1.94228163910178,1.92541970121738,1.9234260223428,1.92336398142432,1.92575485273907,1.92377843189897,1.9355611072263,1.91502015283649,1.85435105405234,1.8544150526454,1.85425162774618,1.85499744445949,1.85519631260652,1.85725838871659,1.85730888885857,1.94116311730819,1.9476898125037,1.93064620822532,1.93363212113033,1.87389818064642,1.88974007402337,1.85220940990285,1.97858851001139,1.84705845490549,1.84429073716425,1.82883846199649,1.83974810609876,1.79135346971283,1.79113295801611,1.79005705857832,1.84111352792845,1.84095680458564,1.89203523896279,1.83112667569266,1.84302493955676,1.79967738043631,1.80060705117838,1.82669991020229,1.8461313004429,1.79553861929773,1.79839388409282,1.7967861450763,1.98417980781934,1.84358745096644,1.80220635584563,1.80298471185265,1.8033913952016,1.80231646876177,1.8019030672302,1.80059447709918,1.79919887397679,1.79943811691109,1.79837715476843,1.79854330461371,1.79770315191335,1.79748583426424,1.79718325378366,1.79694105052077,1.7969256260798,1.79537586479915,1.7940706291536,1.7933626475319,1.79267959448463,1.7924351884027,1.79309962359427,1.79301940686203,1.79383807962646,1.79414352823455,1.79423144370621,1.7948514915736,1.79535264318733,1.79501168807071,1.72826032301329,1.77599218308167,1.82176056221304,1.77829808929358,1.72195062043842,1.79385803423367,1.82774328425976,1.75982844448109,1.71761776065671,1.75169182181186,1.82995376246754,1.77967601709477,1.77173648074033,1.72966359892505,1.71392433659458,1.71342658477104,1.70998296087574,1.71114758536775,1.71119835706544,1.71200665612261,1.70502298776821,1.72733354247695,1.75467181503766,1.75391451482106,1.7539574862389,1.75294135283263,1.75242755312322,1.72443084292194,1.70063679159175,1.70366609956675,1.70273783642277,1.73985553096764,1.80756929581704,1.6994986942438,1.70214737241446,1.70236260944937,1.70167588007587,1.70131177390929,1.69726403574446,1.69708331663522,1.82872592252468,1.69755126625999,1.69722861921141,1.6972895953238
1.90234376107895,1.90230492836572,1.90281477736601,1.90160161654302,1.90106037238054,1.89906223458069,1.85764440315685,1.82963412797809,1.82931374797872,1.82977695445223,1.82989071765339,1.86237810185604,1.90501145982038,1.90318990704372,1.90217332907297,1.89978584041,1.89900112561017,1.92119990460689,1.92206079125595,1.91017997617908,1.90985569609306,1.90972124341331,1.91963428467129,1.91852513915379,1.91574983096209,1.91277303153617,1.91034086091481,1.90983549756026,1.910952460351,1.91143684590152,1.91649752374629,1.91795048025313,1.92130148640051,1.92225872956995,1.92231764827499,1.92227311886982,1.92321778143567,1.92269583095451,1.92301093315247,1.92157677658887,1.92317874472957,1.92642765943966,1.92955073012166,1.9301680775388,1.9282067417172,1.92501379554621,1.92653561823195,1.92925050227939,1.93251882850753,1.93418510196846,1.93558486995138,1.93478058266406,1.9343801199324,1.93384039630437,1.937505581642,1.93736647005992,1.94039224261238,1.93320154587657,1.93220662018378,1.92756329135054,1.92639648937253,1.92666277739076,1.92667872222171,1.92400544535197,1.92360150576016,1.92257778037664,1.92246251766262,1.91587561323852,1.85424545344538,1.85453499372482,1.85474649850357,1.85516245879852,1.85547718201844,1.8741806776036,1.88111469170627,1.93595209730956,1.93294744901919,1.93110081592965,1.93252622459258,1.87434646096878,1.85158654343574,1.85162368126944,1.85061246384703,1.84865393717578,1.8470268751374,1.82076977835079,1.81384941701089,1.79123424100923,1.7908285421787,1.7900454450716,1.81809581044659,1.82568731800023,1.84599013374558,1.82283416697739,1.81719012978219,1.79922729204287,1.79956809522359,1.81871975330114,1.83181040531059,1.79483844313484,1.79643030428054,1.79590664577418,1.84693203203816,1.83512172320863,1.802264803245,1.80266524013259,1.80235073246325,1.80214383498187,1.80155704765625,1.80064715109037,1.7996434959138,1.79947775883809,1.79893708286499,1.79887968597233,1.7984015104667,1.79786157040688,1.79732711437149,1.79700556502372,1.79655712214685,1.79549457530918,1.79425220472155,1.79359227143476,1.79246868388851,1.79195162579753,1.79217339111176,1.79262022073929,1.79350078336267,1.79444612362542,1.79498180667881,1.79496190117872,1.79480574919252,1.79443907606467,1.74410343209469,1.74970670529689,1.75878505758859,1.77895705501788,1.77835204865694,1.79464961766469,1.79540949850349,1.79528483434691,1.79499869195681,1.79402377449339,1.79312475373886,1.78329991458682,1.7558889043971,1.72959392526023,1.7321808582575,1.73607791145023,1.74087779880549,1.74559511144814,1.74935173003199,1.75185666881057,1.7529183338889,1.75366991496137,1.75402699650794,1.75358161109557,1.75334005775091,1.75283404955661,1.75264430417715,1.73279896114587,1.70342240778486,1.70307704442506,1.70135518627491,1.69895918923141,1.69854369588313,1.69896168280326,1.70049520394619,1.70190428331381,1.70153403670241,1.70063786703704,1.69833207358886,1.69720901048325,1.69698058621094,1.69735415838403,1.69743254044488,1.69750959328705
1.90444171815505,1.90387636596815,1.90453797148933,1.90275299448885,1.90414693103477,1.89877332009636,1.89974546629551,1.82955063008982,1.82804400106727,1.82941710071366,1.82952184450996,1.85291468338908,1.90696866717816,1.9042393634278,1.9042940325139,1.90206456213896,1.90379331745917,1.91750643520687,1.92522539391897,1.90991165357053,1.83611186554005,1.90907495372127,1.92454691288932,1.92109228683614,1.92775088092188,1.91534021851264,1.9113174151269,1.91061524907396,1.91294354414621,1.91216987661062,1.9124896005656,1.91954369553265,1.92788328380202,1.92581436115088,1.9353166749141,1.92340442436974,1.92636011602547,1.92421109587163,1.92685915333877,1.92243490244506,1.92446038439911,1.88124288637866,1.84772916771283,1.92034762020616,1.92236682773089,1.92234919349958,1.93701334214283,1.93300634911748,1.93453955102956,1.93330336356296,1.94215168895179,1.93331227585037,1.93414006764426,1.93304692120064,1.92297373377605,1.93571739355771,1.94564845937154,1.93444592573995,1.93717775952346,1.92835184367514,1.92824497825341,1.93016672614111,1.93377763822103,1.92429202092056,1.92355596066907,1.92351410591106,1.92454744981173,1.91658948729168,1.85358974329084,1.85439949517534,1.85481627983034,1.8552283594773,1.85591708544281,1.88050820050875,1.92932119462123,1.93375272351931,1.9339585766489,1.93223825157156,1.93644441770177,1.87273149204202,1.7897033386776,1.78958543296632,1.78860908141224,1.81180370298986,1.97413050652657,1.81013666079477,1.79139338195498,1.79143872521499,1.79153745878357,1.79047867213038,1.78925172633485,1.81461882645673,1.96568674568878,1.81565453352067,1.79536933358634,1.79643321328524,1.79705965088677,1.81030921474157,1.84840905675166,1.79588737830777,1.79765927410169,1.79687179131227,1.9817525590949,1.82630764991692,1.80123180196745,1.80205466556456,1.80042955305099,1.80158496268027,1.80112790496212,1.80043810632944,1.79892260519734,1.79936367336419,1.79851338029902,1.79894487081335,1.79874912662504,1.79784078695103,1.79708497086571,1.79696532651826,1.796679350154,1.79565288906874,1.79380671201782,1.79442818532962,1.8397634237619,1.83688276132613,1.85832627253695,1.82588037859299,1.85594616045584,1.7951147632638,1.79623024538817,1.79519335508055,1.79472881575333,1.79411790802149,1.73016648642713,1.72978748947787,1.72871953665292,1.77994392731931,1.82594596659114,1.79408855501935,1.72363226626823,1.79473167255152,1.87708392642788,1.8249972677091,1.83301323765708,1.78437819714364,1.71258171959036,1.72766564791896,1.87894457618743,1.81620032680569,1.83169992083021,1.83104276287998,1.83581667597803,1.75252861783585,1.75639646136579,1.75430542198989,1.75428193957204,1.75362400971867,1.75346348049785,1.75290076389893,1.75301787329457,1.74015479362061,1.7032807011556,1.70387744306123,1.75067300282336,1.69989724651103,1.70034963887147,1.69982116696367,1.74867067719704,1.70202054478754,1.7010448648602,1.7011191684406,1.79808659274791,1.69691729385375,1.69682034149788,1.69733143151993,1.69730193012678,1.69756118986663
1.90774188702184,1.90529529770698,1.90565681560077,1.90304323338281,1.8273753380258,1.85602520965542,1.82995592436029,1.8299239123538,1.82855785766913,1.82973428792745,1.82994198591982,1.842147108075,1.83192972391534,1.90454310107915,1.90489870729999,1.90309633427702,1.90303900503823,1.90808828031036,1.90672203457671,1.90638321604117,1.90924717904922,1.90614267568091,1.90644350816272,1.92148372607593,1.93828690106134,1.91931379314096,1.92354085605027,1.92153413218842,1.91387973879536,1.91245716646676,1.91300941273731,1.92177157640023,1.92863302270613,1.92795102171103,1.92691708540903,1.92382570824405,1.8465295994194,1.91628890653474,1.92091514057481,1.92073131368569,1.84582128279756,1.86576272228167,1.84874920671124,1.92099975331385,1.92103156063823,1.91893728848243,1.84904987894452,1.87714157153719,1.84960869677593,1.93172880263864,1.93397961301041,1.93222133303354,1.84997699527521,1.93195654994412,1.93139552908394,1.93512833315604,1.9420625078091,1.93371603576256,1.92429861591576,1.93100482785571,1.93435438556343,1.93334670503448,1.93581167564393,1.92642642761256,1.92993934207203,1.92562581561964,1.93804294832344,1.92655666329613,1.92770394564025,1.88239466772746,1.85442921937127,1.85489473187842,1.85494981553456,1.88790216021684,1.93054863064843,1.93144742434603,1.92902105801214,1.92821740996883,1.92910066996931,1.86995940412955,1.79051074467151,1.79011517280567,1.7898016402202,1.78996163268513,1.78949510529246,1.79049145675805,1.79036246204003,1.79140268758804,1.7920763738719,1.79149416394575,1.79068935679474,1.79195353586638,1.79255300188151,1.79398245696731,1.79416585513378,1.79677497057301,1.7976712831136,1.7982364524673,1.79803779071719,1.79742198784779,1.98985630271774,1.79841516890763,1.79906718000225,1.81745216160715,1.96733016222768,1.80300667028083,1.803284527454,1.80200520169875,1.80017146350298,1.80078457075067,1.80076970039563,1.80017465716234,1.79926208229282,1.79918008672787,1.79822654151936,1.79741494853715,1.79591642071507,1.79679461859291,1.79624170606866,1.79630143092088,1.79520797066659,1.79543829460903,1.84034583166187,1.83298608444903,1.79302873569091,1.79417392760368,1.79318282449754,1.79439337798577,1.79439956035222,1.79489294219553,1.79513431545705,1.79411673238023,1.73034939334655,1.73025710971827,1.72705283108852,1.78046390548846,1.82498888109722,1.79340045346117,1.83018988553347,1.79411306077624,1.81046234478419,1.82014266990882,1.8311942086896,1.79339166526369,1.83495957146533,1.7267364895863,1.71558520897731,1.81392858327252,1.83186030900584,1.83141759385231,1.71073622524408,1.71136424529637,1.70659852753162,1.70806079773254,1.70826473474425,1.73331826327396,1.75361317218258,1.75259555119649,1.75186001442629,1.74560564713006,1.70270528877721,1.70380196962986,1.70343386090781,1.70164616256839,1.70075633448747,1.70098974328705,1.70047960107107,1.70154351490377,1.70070985676419,1.70101453692023,1.82812144747589,1.69748200913031,1.6978171344282,1.69789920626344,1.69809869800526,1.69797380207775
1.92954925670676,1.92441939147426,1.92807753208319,1.91152678277513,1.91443142427666,1.86972461245813,1.83014143653565,1.83079116236734,1.83191689970879,1.83045883306242,1.82953202244155,1.84704503161897,1.9081083369485,1.90603593543684,1.90564357889507,1.90516475489384,1.92722474516251,1.90962900770502,1.90603796353958,1.90504928778502,1.90589222184847,1.90504552108731,1.90705327439535,1.91513133938358,1.91142086008109,1.91966612168016,1.93587692310943,1.93012011846594,1.93489226036339,1.91219573411314,1.91431534480091,1.92404241530841,1.93278762516276,1.93138443452601,1.93373646433092,1.92299885981272,1.91688479553276,1.91515021291006,1.84652959845044,1.92252643787077,1.93161605772539,1.92811421583809,1.92795862141561,1.92497734192127,1.92464397291151,1.92098357133345,1.84987465284089,1.88805117647394,1.93918044509049,1.92979643072212,1.92901262937561,1.93131251672994,1.93307092831187,1.93190643895089,1.92164947166326,1.93450647802855,1.93485131883099,1.9340814527167,1.93159307071167,1.93065116771673,1.93044105882434,1.92487115734576,1.92515132447396,1.92333218046893,1.92464465541951,1.92536450035505,1.92600643454227,1.92662929565756,1.92711187489413,1.92617198261186,1.92532913636385,1.92477120834147,1.92428881329569,1.92164489270198,1.93811211409611,1.9335063225022,1.94457717755736,1.92789858768626,1.93004553104511,1.86649098183651,1.79000225644674,1.79019283692677,1.78909889387763,1.79001027032616,1.7897467091582,1.79072347503199,1.84380940833613,1.82364455490803,1.96413620385187,1.79237723169715,1.79172231559243,1.7921751222863,1.79175673611516,1.79452713941953,1.79527695397627,1.79694779099792,1.79778967827035,1.79855422009281,1.79901260756172,1.79917698552559,1.79955643812581,1.79954078731493,1.79906231175929,1.80108984230078,1.80110818659824,1.80262411784216,1.84755747323138,1.80230992402225,1.80133138234955,1.80145241785492,1.80135363138578,1.80087235097786,1.79963452627648,1.7998096799249,1.84671841140643,1.83001672546032,1.98031693085403,1.7975205049218,1.79726004355407,1.79744807731819,1.79631040158884,1.7958857071255,1.79517574216647,1.82689790191533,1.95100933591035,1.79521361574808,1.7931938697561,1.79439115596216,1.79370403768929,1.79490420669358,1.79523816458483,1.79413343361578,1.73021815864731,1.76411252926079,1.82777198496769,1.77986930673711,1.72546993431628,1.74835508376054,1.7201187802161,1.76657164211569,1.76553404777182,1.79015130693953,1.83192518848368,1.77003053617488,1.71431959388732,1.72646398896129,1.80119890433483,1.80949932602501,1.83493978135846,1.83277185824688,1.83395536917701,1.71103933823784,1.70708908288319,1.70849370958956,1.70890465512872,1.70922275661589,1.70434871017207,1.75220939338416,1.83335698195287,1.81067890658959,1.83109658940208,1.7040486603132,1.70352479641832,1.70293566465391,1.70254615658804,1.70310838956608,1.82782865487414,1.70175768850201,1.70086826059832,1.70045705095544,1.69922845042605,1.69835935188997,1.69859236330898,1.69839579760657,1.69870122636126,1.69893907443482
1.90936231570621,1.9188187700256,1.92324385249642,1.91019759874603,1.90883004724137,1.90570550089487,1.924044064212,1.83070535774088,1.83048942200481,1.83046619657145,1.83054397047674,1.85357837692288,1.90785591606357,1.90600430042106,1.91127409344631,1.90729180277213,1.91797198262032,1.9111247997837,1.90601825929898,1.90438266802944,1.83542236970067,1.90383706066235,1.92138014303605,1.91895405699909,1.92113807120636,1.91747693144335,1.91133805718241,1.91159492931354,1.91264548179474,1.91162158148397,1.92569409155814,1.92540194195092,1.93124617857623,1.93068873212532,1.91483646867572,1.92330473636835,1.92251547507608,1.9238891718353,1.92518704457065,1.92429875990444,1.93016064977815,1.9280890389077,1.92789527053328,1.92640779328773,1.93808473242976,1.92295099787186,1.92468510537388,1.91919675731562,1.91845133498659,1.92974395142324,1.93130255643731,1.93103332295437,1.94688954365653,1.93190077273658,1.92215747479494,1.93313252349866,1.93278559391642,1.93396358144045,1.94277598567449,1.93144623363771,1.92446075387272,1.92012856522149,1.85371718524206,1.92266952875006,1.92883438867696,1.92681962406258,1.92887858082644,1.92698275702139,1.92549058870156,1.92631312286433,1.92600411593126,1.92545274803288,1.92503987307854,1.92200724116251,1.85640898763307,1.92815150541215,1.927960724208,1.92746385472235,1.85828840458072,1.86254633238818,1.79047252817619,1.79102141475889,1.79089225052475,1.79057429870507,1.78982211414703,1.79080070826378,1.79109797115174,1.81196398569763,1.96507439950051,1.79299234111983,1.79259964386683,1.79287425695244,1.79305254386082,1.79462217330575,1.96857689201581,1.79762132652796,1.79789704856163,1.7985912330551,1.88286421908193,1.80005272059418,1.79949257495657,1.80051168523478,1.84837132901297,1.80179827155479,1.80154472535297,1.80248935082954,1.84894906703217,1.80251718007331,1.80127680583945,1.80188740704411,1.84851300325629,1.80162692848661,1.80040695229717,1.79996546512598,1.79910357533513,1.81713832659192,1.7965700044292,1.79762396116712,1.79795485013955,1.79890571086038,1.85987525294222,1.83063650448681,1.84224353079303,1.81939421991338,1.79695079026265,1.79620000202339,1.79548416721272,1.79529920612005,1.79553780399167,1.79579770843462,1.79602845344921,1.79502272089074,1.8212833037747,1.78297312088818,1.82909427413692,1.77819295710667,1.71995286246577,1.7592307719219,1.76887719568024,1.76742990244321,1.76768117072672,1.76599792014529,1.7147445686293,1.75317748841566,1.83387340536203,1.7260998965243,1.71335479583811,1.71244386201438,1.70957214144921,1.71047561624552,1.71094700851102,1.71021508931188,1.70856153796747,1.70896593437061,1.83155939931589,1.70825376565372,1.7058058199488,1.75210174387203,1.82856231076272,1.80845304978214,1.7032753472134,1.7035527455032,1.70238341434663,1.70338947735528,1.70496646021826,1.70412186110156,1.75952297361964,1.701589288609,1.70070114734134,1.70026369349087,1.6993451741813,1.6985645059438,1.82411680027766,1.75197586138328,1.7910123442944,1.69923780308681
1.90228333745021,1.91236968836471,1.91427729521598,1.91089452039308,1.91106211995863,1.9039278918703,1.82961094003953,1.83009363561462,1.82909604457634,1.8300786860866,1.8303232889316,1.86117474617018,1.90464712637491,1.90518336695724,1.9045985067771,1.90733971593863,1.91038766487079,1.91252018488081,1.91562840744053,1.91470032033428,1.91405464779032,1.90549246497644,1.83909645139545,1.87806579584692,1.83937979992543,1.91419589728165,1.91189822321697,1.91199464205949,1.91311656105817,1.91218989204991,1.91324377542384,1.91476300809861,1.91475126514968,1.92887350057181,1.92992179621715,1.92491309237457,1.91922131872986,1.92519075582052,1.92657503228903,1.92481009292987,1.84579289481118,1.92751797414915,1.92750987904555,1.92757874265861,1.92887429580203,1.92562155554513,1.92868188380292,1.91955854204199,1.92052891810618,1.9286786298842,1.93152185696491,1.93132132834537,1.94106097234075,1.93320704869667,1.93086601225793,1.93264355495858,1.94490950990123,1.93365323302942,1.92182747934014,1.93257910286698,1.94445295270723,1.91800413469414,1.85341494748719,1.91996530642779,1.9403786170498,1.92517864578597,1.92530376939867,1.92709861696969,1.92988665545856,1.92939118254584,1.93115315835519,1.92608021513101,1.92533592460713,1.92248633224587,1.93172223684141,1.92982247786757,1.93014219060758,1.92942193366199,1.9408491224047,1.87418832786377,1.98897792491247,1.79185469255539,1.79117387200096,1.79096791313725,1.79047713736059,1.79072828355171,1.79009977950559,1.791399309024,1.79160427746403,1.79274515644709,1.79242339169976,1.79316199659543,1.79329938900077,1.79528479009982,1.7966641336807,1.79736506495352,1.79791167323204,1.79865825626411,1.79978688575691,1.80026496533986,1.80060209332777,1.80132380196264,1.80123418480631,1.80195214561299,1.80126919426967,1.80202522568915,1.80133914971046,1.80269594107247,1.80330853244521,1.80223301875083,1.8012896247079,1.8023091717301,1.84906901760018,1.84811990088005,1.88622659442591,1.8530561135078,1.98644668564566,1.84834010656496,1.98366987839028,1.79941063720138,1.79786417395097,1.82217894920367,1.84349572120056,1.81216389370098,1.79520834093185,1.82364074040598,1.96422751640447,1.79840276073407,1.79742963271691,1.79677725201493,1.79687597168462,1.79540021917108,1.7294656476341,1.72946856850114,1.72571501203272,1.77602322413723,1.81599416597298,1.7768492697672,1.81255620319504,1.76668491624779,1.76616141924953,1.76539423278024,1.71584027029736,1.73603731314531,1.71313475896403,1.71326411621828,1.71231552205532,1.71173058010435,1.70935359534092,1.71006860739547,1.70988880169102,1.70970222990036,1.70907527656881,1.70851801102961,1.70731347226226,1.70818508999726,1.83012377107501,1.75234538790968,1.70145558702154,1.79836864187185,1.79861352907159,1.76486238592381,1.79096508605894,1.70232252867992,1.70074842603751,1.70167158154332,1.70084239931049,1.70110448369171,1.70010148614198,1.70023466978593,1.69959806394767,1.69865908778169,1.7437486787389,1.73540675498164,1.69979154378659,1.70018163092932
1.82866925673273,1.86722993734556,1.82968931155972,1.91007698981259,1.92754804967901,1.90329459255097,1.90199498377645,1.85346308208124,1.82911987841233,1.83007040863024,1.83065742557989,1.86830728676231,1.90658574137851,1.90495114538323,1.90405388143331,1.90568129716716,1.93188544302207,1.91382150599266,1.91536403984427,1.91539766514652,1.91914290318373,1.90560131644973,1.90746432991899,1.90467157182595,1.92284994344406,1.91730104630786,1.93071184836253,1.91825382774328,1.92441222700994,1.91213505513016,1.91431375203676,1.91601050171396,1.925284239727,1.92591432344975,1.92821341091764,1.9265050929023,1.9312452649028,1.92730507020832,1.93791305406285,1.93110267372283,1.93539343200169,1.92813497048675,1.93002470779531,1.92844049018225,1.92890597160088,1.92401627993386,1.85000533027618,1.9191226770491,1.93348687595207,1.92708898599716,1.91925232967248,1.93174039920142,1.93775778511056,1.93579897937241,1.93765919419875,1.93351594427403,1.9340905585431,1.93364215680568,1.94320398650962,1.93402739939348,1.92392502218816,1.92083430215602,1.92238787510067,1.92165933992738,1.92328609816716,1.92486386544615,1.9273063924659,1.92723999539878,1.92909593085629,1.92929381431695,1.93280473245935,1.92666378378269,1.92617172022505,1.92315162030546,1.85554634477704,1.93037032959988,1.93368902768058,1.93145896954201,1.93439838225065,1.87384417842125,1.791480816957,1.79228196680546,1.7917906647325,1.82084053219958,1.89491594036718,1.81894821295294,1.79115575689097,1.79164477014457,1.7917647825324,1.79311308002588,1.79322741412904,1.79384830280826,1.79427117096156,1.79528114108355,1.79553396657327,1.79665545054506,1.79658990385155,1.79788889807005,1.79745593766542,1.80013307119448,1.80114737921457,1.80182336935819,1.97958022688831,1.80252537794137,1.80135874795014,1.82848867400435,1.87909566905436,1.82812941186548,1.80175298735424,1.8018359970963,1.80050100473987,1.80236312228057,1.84813044881192,1.84798752788481,1.84835095292896,1.84741227356902,1.79867220671763,1.82922287201697,1.84486724864014,1.79942095960515,1.79837554219589,1.81188638475301,1.97141036880701,1.80668188445681,1.79568527903515,1.83665266596116,1.96420860292291,1.79844334821416,1.79728361061323,1.79700508060216,1.79673293740037,1.79560255835404,1.72943655169103,1.72900072036994,1.72664770489449,1.77386570691603,1.7718657448735,1.76315177113864,1.71990153280828,1.76686602241941,1.76714657472476,1.76475527866449,1.76455620716067,1.74703913465157,1.83108715318402,1.71333408681714,1.71248915032437,1.71180417456864,1.71045323304299,1.70962138557287,1.70788048489742,1.70877667356969,1.82652525555018,1.70755049989627,1.70592569919156,1.70697129085989,1.70454475795563,1.75274815189518,1.80825873793387,1.79901082720367,1.80044734739165,1.76016074324495,1.70118416135614,1.70178170121468,1.70093514230578,1.70111213951142,1.69976705416131,1.70106772283012,1.70164260976131,1.70075465438792,1.69978155061845,1.6986910558669,1.74615956169055,1.72906683833206,1.69833366879598,1.70010029537223
1.89947811128471,1.89938683443987,1.90149024283465,1.90063089678664,1.90162381812017,1.90070839497227,1.90127504710549,1.86371146362833,1.83001708696986,1.83019367679601,1.8302903803179,1.87319899456141,1.90526200577189,1.9045546995824,1.90502852516835,1.90471082739349,1.93587637656274,1.91036509727977,1.90383169218664,1.90376148136175,1.90511893157821,1.9047454205782,1.90607709215693,1.90412172912999,1.92437195985199,1.91461917289091,1.91168440604672,1.91071562890754,1.83945535173102,1.91161623962317,1.92150323286632,1.91867428782409,1.93477227411279,1.9221169086797,1.84381890594283,1.91020917697666,1.91004929613106,1.92136603995904,1.92188142277399,1.9229716703582,1.92609354211578,1.9237328763507,1.91790270452932,1.91853500572354,1.91876531624708,1.92307453001639,1.92225907501371,1.92098280272665,1.92269014488806,1.9253851864584,1.92162468961057,1.93181273140343,1.93789080629317,1.93540613441756,1.85099704698412,1.93243210664966,1.93449603242597,1.93438983184413,1.93580760278124,1.9355304743577,1.93745092583414,1.92171909429744,1.92331670977805,1.92305467209684,1.92516083305828,1.92455380663121,1.92428398992856,1.92606288027834,1.92702325997952,1.92848760905751,1.929405923325,1.9279569979245,1.92761555973509,1.92407162431311,1.85636493500672,1.92908464710616,1.92880162592388,1.93057580317071,1.94187746410685,1.87372735369597,1.79182983567161,1.79299851652656,1.96527116909274,1.83993075055078,1.84033693779387,1.83961683332445,1.83957507651039,1.8397733586959,1.84551167739557,1.79373174069845,1.7926434597837,1.79415866984711,1.79509180814337,1.81517311575538,1.84341523347974,1.81697040250791,1.79749351829735,1.79807258636844,1.79842297777137,1.79976950008104,1.80035975698889,1.80161359959964,1.8014690223294,1.80289294542238,1.9841799042127,1.83900005631032,1.85434994436034,1.83826655064772,1.87977572937952,1.80218311628258,1.80215329011649,1.80259768243506,1.84773572322889,1.84795042341352,1.84862017941674,1.8476098939401,1.84759000235001,1.81990208873614,1.79824147172869,1.79876598596795,1.79762500224938,1.79731164659773,1.79617572140084,1.80380037263894,1.96706570439383,1.85227295390256,1.96269741529448,1.79857827114097,1.79695582499417,1.7971927966961,1.79676795769766,1.79581540498509,1.73068792837796,1.76797112658649,1.82860102340026,1.77827345959522,1.72466179953426,1.75740377882258,1.76885997517905,1.76723649153845,1.76638640531299,1.74663377536619,1.71585405707995,1.71581108606406,1.71279302315014,1.71300254019587,1.711665799443,1.71200522598427,1.82967041478842,1.70932588777535,1.70773920041501,1.70781297831561,1.70535614680026,1.70692739683439,1.7064107866073,1.70757526544716,1.8314759687953,1.75279216415467,1.75221366623658,1.76617620023247,1.79330777282813,1.75854463097417,1.70258870995158,1.70207525143155,1.7014479896671,1.73063192662492,1.82737527605179,1.73048996892389,1.7014134333782,1.70107632732551,1.7473011926084,1.6986177798912,1.69946899313181,1.72123697560504,1.74637556470534,1.72269988588007
1.9234301293743,1.89859092819635,1.90109082967611,1.9004077416271,1.90207392768688,1.90047158002825,1.89982496515947,1.87667795849312,1.90514476382468,1.86374520071022,1.90864883400326,1.88018685784721,1.90527029921727,1.90399023514046,1.83345782584977,1.90444449935251,1.90576269781012,1.90498791394955,1.9051411117524,1.90360172435219,1.83638575181132,1.90388810850854,1.90647503970424,1.9039357273204,1.83924756333915,1.9094870638216,1.91140403287758,1.91128579290431,1.9120761983324,1.91244588270834,1.91174257775715,1.91987287081399,1.93825072419823,1.91998883922358,1.91833698785522,1.91449415015134,1.9415171237841,1.92153591849727,1.92205701322424,1.91995194486669,1.84763168591348,1.85973389747244,1.84918371124981,1.92097351537709,1.92359151145603,1.9240284657285,1.93052511327251,1.92817747067875,1.9286733500228,1.92637550092261,1.92165939995899,1.93203959260953,1.93211099702978,1.93406219614126,1.93615130762236,1.93209346028361,1.85094983259345,1.93004198725174,1.93264592090047,1.93450782084605,1.93852265765319,1.92347540358772,1.92409628892198,1.9233177422431,1.92464196503332,1.92442100042534,1.92528238473206,1.92575307775859,1.92634911770548,1.92753540170121,1.93084903894789,1.92855588937596,1.92761302601094,1.92461151767347,1.949073112381,1.92883490534023,1.85498282817561,1.9313636674505,1.93682492900665,1.87434547651245,1.79260670577929,1.79354408768414,1.89115686041628,1.83965358155062,1.8395206729297,1.83932691033379,1.89861835004102,1.84092371318708,1.84278238783882,1.79433303614794,1.79366054531002,1.7945012834365,1.84198615130424,1.83662589793968,1.8441585129653,1.84396329363553,1.84325844108567,1.82897711358812,1.89279411023696,1.83055056849577,1.84714340502327,1.82609804832585,1.85009027020144,1.80307137242518,1.80245270907189,1.80215552357459,1.80141738004134,1.8014575962201,1.8012461126539,1.80173314586111,1.80104357308914,1.80188226867512,1.80110968027218,1.82456180957832,1.84949702010131,1.82276658688663,1.80051240321155,1.80034893451695,1.79874530077942,1.79886253123367,1.79780426565567,1.79787458415091,1.79753859240999,1.79792680994483,1.79760249097869,1.82906630342997,1.96290522723792,1.798953758576,1.7976513697743,1.79785939478457,1.7974989724688,1.79608582113689,1.82661966867823,1.79433234300657,1.82925063912888,1.80159896639814,1.83073767589058,1.74664591047753,1.7223131830324,1.74412836118127,1.7185321078882,1.73617084045682,1.71610074670296,1.71534962551157,1.7140281434511,1.71352387623384,1.71262735883755,1.71170235568446,1.70942829129886,1.70920521455195,1.70808718424752,1.70771122062975,1.70664951720487,1.70719596536481,1.70611769266113,1.70741209068959,1.83231341860248,1.74733979128617,1.7034484656979,1.76019728945744,1.75082157296911,1.74958002698451,1.75004356286649,1.70462298696457,1.70226291208373,1.74893238374496,1.79785996001668,1.74893128913244,1.70050874690704,1.70078980880781,1.69770037525099,1.69858610376983,1.74600722416581,1.71325741996085,1.69680183561652,1.69772071646936
1.82999154738933,1.89827527173087,1.90103998939211,1.8994833927402,1.82962319588811,1.90083087913876,1.90327118176718,1.87094663266345,1.8308977287316,1.83201501191654,1.83225825380644,1.87260899428873,1.9044443798406,1.90366429188778,1.90410042220598,1.90418877117991,1.90585327674533,1.90504293124151,1.90661686920193,1.90395522276798,1.90579153159727,1.90268887312222,1.93193056102457,1.90737114669944,1.9103096541901,1.90962644570607,1.91212578662483,1.91221629764637,1.91373411292872,1.91456855216607,1.91697204715062,1.9215333366704,1.94655885996975,1.87871718063555,1.84582137188919,1.91551610596363,1.9175675425652,1.92233992835038,1.94173154096926,1.91978830356941,1.84784557906155,1.86851266531385,1.93493326658794,1.92272820797715,1.92358432955449,1.92580750497139,1.93896660666743,1.92721433228853,1.92832202977533,1.92661590621732,1.9334906180626,1.93230257824619,1.93556221328586,1.93353086310782,1.93527491579416,1.93081516941814,1.92509555001167,1.92703903885909,1.85212108046428,1.92990454951902,1.92569007923566,1.92582770376392,1.95012147867916,1.92251552747244,1.92402061616527,1.92392121529662,1.92519077348949,1.92558546187481,1.9274875336009,1.88331468255405,1.85220668761097,1.8822855885017,1.92816102760478,1.92514711995079,1.92518399135449,1.92917781370954,1.93206932835138,1.93036659052288,1.92865145816739,1.87552432088966,1.79327612718463,1.79372512330576,1.79223437049157,1.79298159380736,1.79266611715053,1.79292321423046,1.79242371229751,1.79323755838311,1.79279535117488,1.79438310679989,1.79424502760033,1.79482128560023,1.79435190423004,1.83282599016448,1.84387948700814,1.84472392477806,1.79647889569322,1.82013609152662,1.88613832903266,1.82051975682384,1.79965890013577,1.79991267552987,1.80126734609732,1.80243965139142,1.80210648333409,1.80229737133702,1.79945505541321,1.80094972139663,1.80115705988158,1.80181217046663,1.80196314915093,1.80198726440111,1.80154610831306,1.80177921170769,1.80147375689791,1.80159296150196,1.80124399353852,1.80076577423318,1.80013887339205,1.79949323735015,1.79822784000226,1.79861970693753,1.79884314369397,1.79848149882199,1.79818563236951,1.79876631051971,1.79821902668669,1.79926995295154,1.7988425433625,1.79878409135104,1.87296594015799,1.79591461166044,1.73098041878747,1.79126276354941,1.82504871540727,1.80247100261668,1.72639024284322,1.73921792283445,1.72232573310482,1.75905667109506,1.82305895774578,1.75259988702601,1.71465238252892,1.71505733207627,1.71492217335992,1.71376756921907,1.71207635198051,1.71195062393372,1.71045172040407,1.70914040720768,1.83152161962534,1.76162046268395,1.83339171430753,1.70794347303038,1.70641985541181,1.70669761237881,1.70473307115717,1.74469395857563,1.82741307827809,1.76481433541125,1.70559802378882,1.70486590890306,1.70294796607702,1.70487918841156,1.82962319017523,1.77055937297209,1.82703525775505,1.7684419311346,1.82535408514315,1.70105949944081,1.69959283979722,1.69971078293165,1.69993874023042,1.69935806828023,1.69788940348321,1.69810345711408
1.91270023585656,1.89933959356957,1.90067308481352,1.9009410213771,1.90045849392369,1.90150442222546,1.90270173579519,1.86426053109288,1.83143811641026,1.83200628579471,1.8320834690509,1.86815131068882,1.9038306083779,1.90368713496953,1.90359067468836,1.90384320336367,1.90476212733522,1.90428488317174,1.9041375716535,1.90242585757748,1.90194926289574,1.90124412173763,1.90348959601985,1.90557778201231,1.90758550349313,1.90863446379816,1.91102882398147,1.91288287322152,1.9137438900726,1.91484219914424,1.91950505310778,1.9225783125508,1.87939277728126,1.87251955364424,1.86292483855281,1.91668058408671,1.91685569828747,1.92381380363988,1.92594188048787,1.91966973881688,1.86774192575823,1.87807509702642,1.92446838779906,1.92454686136449,1.9260077054777,1.9281464651363,1.92920324945979,1.92770804983456,1.92818496037439,1.92658947733726,1.92964765463314,1.92989466543543,1.93193595643775,1.93140339719066,1.93163713802358,1.92941280451036,1.92777087104791,1.92729874476176,1.92863946293651,1.93029060632168,1.92895296572947,1.92666595074696,1.92428552271868,1.92213722090606,1.92229150748853,1.92322077426872,1.92456233911021,1.92457176461116,1.88298343857504,1.87556002949169,1.86592171655286,1.8754225535792,1.88151284468511,1.89573694652832,1.92649917221458,1.92808906473892,1.92918411038981,1.9298915423888,1.93008321123677,1.87647693323145,1.82722845183207,1.79481288988742,1.79399579188525,1.79356837296079,1.79300839704259,1.79306233664199,1.79304648190946,1.79371453833466,1.79409004368439,1.7951728645162,1.79557716461976,1.79537926002961,1.79464484758709,1.82667332688495,1.84517859399688,1.84649478706868,1.79779940994207,1.79819456562444,1.79850190526387,1.79852900932923,1.79894212109453,1.79915343270923,1.80858335375366,1.81051565174749,1.80973967908893,1.80900365600489,1.80862737753605,1.8087380832532,1.80935841654605,1.81042779819778,1.81132452368227,1.81074584572457,1.80747774128278,1.80201860417508,1.80170076435808,1.80169664745918,1.80122416285401,1.80108390417658,1.80068903993085,1.80025521931733,1.79967219759619,1.79924725567592,1.79879700267967,1.79871711994886,1.7987193412912,1.79922692239812,1.79951647119997,1.79994987189913,1.79962688744869,1.7990223646183,1.79805121590745,1.79687115057458,1.78498002775852,1.78853056724091,1.79346158845039,1.80348789421423,1.80331908270532,1.80301511806093,1.80378589400613,1.8049158742707,1.80530442158491,1.76998893981651,1.7587368850698,1.74836422173912,1.73777313990161,1.71370373884039,1.71270646578958,1.71243608484791,1.71046408357644,1.7093500301574,1.70903803309074,1.70861887547792,1.70857780684654,1.70860581076133,1.70709783997868,1.70673740416682,1.70556115666021,1.74096250192055,1.76761893092801,1.76710377780057,1.70485781135254,1.70485615849802,1.70513564632858,1.70510897041573,1.74413005724543,1.75405389767462,1.77096083055961,1.75090789986689,1.7346343930714,1.70181635683561,1.70122610805807,1.70055041617023,1.69999023902184,1.6996269199568,1.69893382440681,1.69871502879906
1.91777729574971,1.89975213713084,1.90179223219542,1.90557828466351,1.91539975823418,1.90262546059068,1.90779085614744,1.85569212305519,1.83055448572909,1.83139648058899,1.83113327465974,1.86018525887481,1.90725387603802,1.90520183603858,1.90432281149395,1.90477799289415,1.90666860431705,1.90520864086041,1.90564957464849,1.90326941524827,1.83500997013984,1.9032646950525,1.90634079063373,1.90605248129491,1.92456755579146,1.92073148274653,1.91197385290966,1.915224155118,1.84199011033815,1.8728385507369,1.9323556137016,1.92547995602873,1.84315790778161,1.86131574219154,1.84418903027366,1.91767509282762,1.91762823579916,1.92415912094795,1.93028052481156,1.91973189397495,1.8469625936917,1.88617067006179,1.9252143092594,1.92474205863067,1.84991097447912,1.87310967548162,1.8512332694973,1.92676721447016,1.93300061530031,1.92433226563107,1.92451791897808,1.92799362632993,1.94274713093862,1.93064309540309,1.9324585910682,1.92985377732041,1.9511793152257,1.92563755082838,1.92571873824297,1.92882462234434,1.8495158613848,1.88265510774067,1.92411142725186,1.92195848667581,1.85111045174332,1.92417885283313,1.92670937458359,1.92524028119485,1.8527002516481,1.85351077932162,1.85476446453843,1.85383939544701,1.84988428821475,1.89415542317828,1.93229746110106,1.92828740825792,1.94179271719715,1.93107394052421,1.93516659116482,1.93523892736269,1.97133417243814,1.79536249233805,1.7945566284029,1.79358743715933,1.79216604290943,1.79245779692978,1.79220717158437,1.79348706737177,1.79375811414301,1.79546040632976,1.79656422849489,1.7953870815895,1.79342119200806,1.81922236281026,1.89210135268001,1.84943897899401,1.79848020015598,1.79859898651339,1.7993199731454,1.79886928372656,1.79901487801557,1.79919481531331,1.96395832484615,1.85219943887602,1.96512949525318,1.84398610842083,1.88030464349832,1.84123750042909,1.95202938755519,1.83999812342772,1.97921187490546,1.83973791304762,1.97782347127777,1.80208807819289,1.80116309439668,1.80170832904766,1.80042667006781,1.82185153884943,1.84763460503152,1.80053747927034,1.80053117992076,1.79949116148216,1.7980772635249,1.79844629399377,1.79824248597288,1.79898461602176,1.96206934031868,1.80010970220744,1.79986228844315,1.79901683126686,1.7982238871418,1.79729707895321,1.77874473108757,1.77167794679238,1.72656020178897,1.80397960471292,1.82694500188032,1.80236339019337,1.82987817977042,1.80547970139167,1.82745085796864,1.78444984828242,1.82682749307458,1.77592650838649,1.82712509297745,1.71327624491602,1.71134110195865,1.71270692858441,1.83109187527472,1.73739428860716,1.70918216286145,1.70835620651835,1.70899200825946,1.70924018693537,1.70512382627503,1.70577359438717,1.70405211842601,1.73436925998227,1.82800809763943,1.7686093516608,1.70212622826243,1.72893958220256,1.82441903780206,1.7050579315035,1.70003943154347,1.73344896971365,1.98980907810456,1.73094183802564,1.70043385652947,1.7015474340285,1.70196748694306,1.700656905293,1.69933893679592,1.6997575889845,1.81495522531944,1.73400360306961
1.9015456412157,1.90012327251766,1.91752790055861,1.90868514950083,1.91255209006118,1.90175940776769,1.90286166992387,1.84631419027303,1.83071097611871,1.83116576965023,1.83057313955928,1.85083096516832,1.91210943178864,1.90641859766318,1.90812225745386,1.90559523120493,1.90628199863059,1.9055152539084,1.90626746724902,1.90396759952792,1.8357781218066,1.90476307205394,1.90796945093926,1.90753215487962,1.90867526386403,1.9276295063908,1.93263897605219,1.92110846014378,1.84105977553227,1.86153494525523,1.84246836914972,1.92529846761083,1.92544547460502,1.86917183990021,1.84366822323572,1.91814766880145,1.93716108331,1.92496036164208,1.92515019751028,1.91986067226049,1.84752290255461,1.89021162994288,1.93003229221121,1.93176735715924,1.93486399977969,1.92279347216897,1.92515925820593,1.92512200359741,1.9242862918347,1.92433977719751,1.92372108744166,1.92786411959994,1.93040248140484,1.92596865817796,1.92320296079546,1.92159184371462,1.92245614995064,1.92402716279381,1.92376435404946,1.92678508825197,1.85027769210024,1.86780837086586,1.85110100681317,1.92213902309328,1.92409927283569,1.92392749027061,1.92831020308473,1.92617097692095,1.92634546496944,1.85281479160771,1.85225246391364,1.85289720153749,1.85211270839465,1.89072798779491,1.92695146624856,1.92730656173646,1.92849789234259,1.93013419222488,1.9404025166781,1.93703617398662,1.96735913324213,1.79545204462903,1.79442680004636,1.79351071080797,1.79195714304853,1.79210924398715,1.79282786432419,1.82062698239941,1.8893056563206,1.81959601728234,1.79570391752642,1.79535716306054,1.79450613806836,1.81151528883051,1.96733003202395,1.85119573417809,1.79775629168681,1.79839838901645,1.7983001573443,1.79900000902337,1.79969783825679,1.79970555053212,1.84840333713086,1.84845657471465,1.80110485024742,1.80034787222041,1.8012835079988,1.80176692174123,1.80201554384865,1.80182915606484,1.80114696331486,1.80165395544462,1.80173117934715,1.80246134283458,1.80330088110303,1.80283817221503,1.96337273964263,1.82831695703763,1.79960248798918,1.80028605795605,1.80034026044436,1.79976508236292,1.79863123365621,1.79843265778967,1.79696888464509,1.79876025637747,1.79901789556495,1.79948075740495,1.79852973576166,1.7985671516197,1.7978809552612,1.79732436512512,1.73159435773133,1.7617815806147,1.84418726088201,1.80327702534195,1.8253030741563,1.79508498601338,1.72003094127855,1.71957780603743,1.72118917453762,1.7196656252006,1.71798814002999,1.75899963269897,1.82231745693421,1.71359758269126,1.7131547487753,1.71304552392786,1.83254639336087,1.7446802575539,1.75523734629227,1.75564210921914,1.75551689898976,1.76628234379024,1.82712973059897,1.70583587324128,1.70467201767684,1.72706373310049,1.79257076714388,1.77534042641117,1.83059601720688,1.73799134705291,1.7007567399987,1.70490914101325,1.70168375455696,1.70199218609618,1.70203416005414,1.70148801368294,1.69941216877853,1.70086058833106,1.82373900337217,1.70046432955476,1.69743489097364,1.69962356588666,1.69965310238193,1.72603477906621
1.91450395567889,1.90078503949654,1.90246455278516,1.90228775557961,1.90389065639677,1.90234874215052,1.83123185265682,1.8320381572398,1.83096218202712,1.83145169784599,1.83091297382236,1.84171458945481,1.90731096033007,1.9060772439794,1.90496410219045,1.90439266849539,1.90520022527673,1.90490678034319,1.93170377818727,1.91178663735531,1.90773339806975,1.90676242058172,1.90860078291749,1.90809577134958,1.90901009998906,1.93117911892473,1.94256447801075,1.92517391438087,1.84061524936315,1.87124346093685,1.92798860787744,1.9240330046623,1.91634075045067,1.87823075677361,1.84386411554677,1.9184293861368,1.92658118352211,1.92571819648158,1.92759235291798,1.92629471838462,1.92285539498472,1.92425810320185,1.93498545546336,1.93376127494422,1.93429190580262,1.92158614839888,1.84935363049392,1.92605558375434,1.9377995817735,1.92610217501307,1.93070464883299,1.92687906290238,1.92578533213376,1.92432304239132,1.85232878116844,1.92125338837014,1.93852639383397,1.92481381467959,1.92536087480482,1.92626131441567,1.94405654699104,1.94034290073297,1.94871407100433,1.92195253896683,1.92296458275612,1.92411012056298,1.92775894476577,1.87973953552238,1.85070111439455,1.85222569936894,1.85244202293832,1.85322481514472,1.85373459141206,1.88541444270983,1.9276097680942,1.9275517884777,1.93012050152633,1.92995715472612,1.93136210215234,1.87401852047299,1.79582921685667,1.79550926553602,1.97817293341535,1.79366467082627,1.79327541482148,1.79192447320785,1.84172024394383,1.84106885534772,1.84085253518183,1.83704839130462,1.84275011583343,1.79512307622661,1.79366901518006,1.80480947091887,1.96146499473238,1.85266539824902,1.97617060981623,1.798709671759,1.7987016593636,1.79923847115752,1.79966620288415,1.80018951135766,1.80084468644664,1.84816315345631,1.96339062408653,1.79962251090315,1.80096797231116,1.80168206869734,1.8018618899354,1.80180230591942,1.80126302508186,1.80152211065957,1.80096707533876,1.80209493584383,1.80173153958948,1.80240713745008,1.84649172162332,1.8340907090002,1.97778937878702,1.83253737210791,1.80093154549986,1.80017009331415,1.79930975671631,1.79914060593243,1.79941158053388,1.79932893366286,1.79894263114202,1.79957263142407,1.86181146099208,1.83019292581449,1.86081187676023,1.80408127339888,1.83131379621707,1.75301687940846,1.72642798042453,1.78732674762053,1.82256741050148,1.78962313795192,1.76728364278366,1.71777904847672,1.71814058788698,1.71894493088981,1.82746030289128,1.74282602526687,1.71355746469878,1.71341254469097,1.7122979775273,1.71252311585535,1.71219495435147,1.73969098755345,1.75653298361867,1.75619787853293,1.81721571679949,1.77451816050972,1.70536203315327,1.70580156158315,1.70315746200967,1.72196954694274,1.83137994574875,1.74246583788853,1.70326179527599,1.74453122581694,1.75007547917602,1.72785358184698,1.70204093154843,1.70192922148982,1.70147715686585,1.70129914138757,1.70045163956284,1.70052219532624,1.69913852403892,1.70042245776141,1.70148573491327,1.70063672568886,1.69984899508145,1.69984379380224
1.90187444363045,1.90095855959656,1.90070169499835,1.90187545368479,1.90356036088331,1.9028766844061,1.9041912935001,1.83275949439752,1.83193754481395,1.83221471267793,1.83263612851812,1.83350880257123,1.83389945567332,1.8338975285557,1.83331396247742,1.90335502858297,1.90549505729052,1.90493343033547,1.91902947390591,1.91646658116739,1.908615872404,1.9077844321951,1.90921380433997,1.91492162509579,1.93828933933116,1.93737746772089,1.94115079884041,1.92587987659147,1.84027669484933,1.88463473036174,1.92322453709606,1.9230482737915,1.84307275699844,1.88927822805487,1.93565711664876,1.93259992204144,1.92710896317351,1.92449642018025,1.84777160600116,1.92847477737882,1.93036168033785,1.92759681519945,1.93457109205073,1.92950837033851,1.91863222738516,1.92111433436571,1.93540655207894,1.92847004125949,1.93161542147026,1.92425769093587,1.92477183239897,1.92533400403015,1.92410595774666,1.92376735894145,1.92429802922328,1.92362302723596,1.94019143803267,1.92652689830373,1.92988291497114,1.92654218719118,1.93818670973644,1.93652724120607,1.93483189919482,1.92182764632976,1.92196087097557,1.92316545907947,1.85185995928179,1.85324166778999,1.85254269208099,1.85264038305191,1.85234653835332,1.85369056820521,1.85505879788124,1.87883923648474,1.93821041310181,1.92674528900857,1.92782177380822,1.92828250413868,1.93474145479312,1.87161196331458,1.79312726230793,1.79462978106919,1.79410809678581,1.79391865632576,1.79335701045289,1.7917155965082,1.84153085848804,1.84871201099931,1.89162910728938,1.83131685325479,1.79482189821074,1.79516349720269,1.79484144415747,1.80066163908311,1.79558391068653,1.82332507672224,1.79754016283049,1.79845250141684,1.79859948613595,1.79940366269463,1.79996418297211,1.80032179264523,1.8005753820403,1.8477126471044,1.96676447152958,1.79937736404967,1.80200711497094,1.80183607814538,1.80194487022023,1.80173864333401,1.80138174622814,1.80160777660846,1.88431873716808,1.80238963514716,1.80187842986009,1.80139154066016,1.79907879888387,1.82753485144675,1.97105721872839,1.8510448245632,1.96989918118504,1.80016102649954,1.79994848925005,1.79921848781674,1.79810349969909,1.79977351121968,1.80033863073061,1.79958647115136,1.79861399385475,1.82044335854709,1.86032706741378,1.78970458902271,1.73215280730088,1.74797977948041,1.77511724166786,1.77360987629574,1.77208763853993,1.78321404557962,1.7684054559427,1.71669476097731,1.71781975146344,1.71823870788042,1.71724929427763,1.71804652125618,1.7140666701283,1.71372387267445,1.71307652696439,1.71211181367046,1.71105278083717,1.72925655728069,1.75654493773204,1.75636410059786,1.81666159269744,1.78664537375549,1.82869758775677,1.70665896874619,1.70587653789811,1.7055125401217,1.70440686947375,1.70448877943877,1.70333430397958,1.75237535812637,1.82735798252542,1.73679608553534,1.70185903907516,1.70185885058746,1.7014897817639,1.70131490147108,1.70152906121127,1.70087557480898,1.69991896600605,1.70036566357165,1.69999985525697,1.70073128474955,1.82000825893042,1.69998575038069
1.90232877635711,1.90126739753826,1.90266730971916,1.90199037907242,1.90205117770729,1.90224091852485,1.83330197793701,1.83306236449655,1.83212371689322,1.83222689943899,1.83162880111049,1.83361123757428,1.83385751916767,1.83393233878729,1.83351883278853,1.9028693624369,1.92897420490663,1.90575853585767,1.90729890853105,1.91930602631801,1.9471933300404,1.91631160288093,1.91020982863356,1.91937748137198,1.93725572113026,1.93648254747258,1.9347655893042,1.92435403387269,1.92810982575093,1.92584513366019,1.92425811412063,1.92675932708595,1.9455689441351,1.93427841536206,1.93744535259348,1.93565465670399,1.93819718924374,1.92237265117242,1.84695934325519,1.92847264040545,1.92969848772315,1.92681816673029,1.91837251127627,1.91819481096084,1.85110094130348,1.92122031315148,1.92102708041088,1.92402844381988,1.92328494133149,1.92348074919099,1.85032645765739,1.92636635834731,1.93561344701263,1.929558239653,1.92876820739595,1.92756623738433,1.9276387340758,1.92684776941337,1.92838818676443,1.92532073559103,1.92342918604934,1.92260356209922,1.92373756920323,1.92275982700182,1.92353463076666,1.92394569393653,1.92575638886683,1.85256495122875,1.85270233759236,1.85329388606332,1.8536018113522,1.85403302745302,1.85432616860746,1.87216764480413,1.92593303407051,1.92634682381214,1.92753707412337,1.9276261624694,1.92798811516856,1.86737276588985,1.79527950743498,1.79527968639645,1.79474496585098,1.79437163784463,1.79355094551939,1.79204382707138,1.96110123537773,1.85561608788215,1.7963440104438,1.82459153322589,1.89230914097803,1.8444698814813,1.84477191440901,1.84418470352116,1.84552580928031,1.83509572626824,1.86058993627275,1.81566392067187,1.79915542332764,1.79963117379618,1.80008047066402,1.82026120799223,1.84669238925786,1.84737560376501,1.8469742927587,1.79890204109804,1.80067880609677,1.80141436191613,1.84942917617766,1.80134201974434,1.80079070392671,1.80128025872166,1.8014906337474,1.8020902178219,1.80146732629623,1.8012268755128,1.80015906160607,1.80035988188744,1.79956837610695,1.83218099623611,1.79851513527001,1.79956526240974,1.7993749914929,1.82971652686263,1.86911241098072,1.80042496415198,1.79944377607219,1.79923685533373,1.79827035646406,1.79815466203559,1.79761692782614,1.78527727034428,1.73183390065978,1.73140802941769,1.72429744214273,1.76777916283902,1.82696917418482,1.78842750778832,1.76837169758491,1.7161826157955,1.71657561849184,1.71832748395236,1.71825889570342,1.71806116668965,1.71490799791555,1.71402897450515,1.71214216085719,1.71145166628901,1.70975649139685,1.70934905341922,1.70834019462209,1.7087601881579,1.70773438585798,1.70771573580839,1.7064780064078,1.70690301338841,1.83336337953962,1.70529257888298,1.70441654787342,1.70478408753971,1.83015210584292,1.76937070860504,1.82713760099722,1.74631413284097,1.70235331929578,1.70181148972086,1.70085348145818,1.70051895795068,1.69895215154759,1.7168441818807,1.7483259492407,1.73047678825407,1.8259491152693,1.7002073074439,1.69804678858647,1.69949975044067
1.83211664681611,1.90080598029534,1.90259551431682,1.90252224254252,1.92102154705748,1.90346846894288,1.90454034173611,1.9031449493377,1.9033478400742,1.87810760107734,1.90626066520374,1.90634637504332,1.90694607893508,1.90982451926558,1.91143704964336,1.90613826377023,1.90822201389474,1.90632908930608,1.92595583416712,1.91971970776491,1.93747492284047,1.92321582245502,1.92673802480983,1.9257811798232,1.92790153314539,1.9269786812447,1.91529580178361,1.91894235976417,1.91683842921763,1.92604451804218,1.93427575293412,1.92992291462108,1.9314190634116,1.92862683306131,1.91824822522819,1.92161362252175,1.92445368570011,1.92346077790007,1.92549517998867,1.92676086004225,1.92621209675441,1.92729205696138,1.91893706711951,1.91975723194187,1.92159568104663,1.92166403905964,1.92845975159746,1.92573624179319,1.92519378908228,1.93126429432153,1.94715482334371,1.9280851753319,1.92931322986612,1.92986472067843,1.9363087367545,1.93023662058726,1.92331541533724,1.92583256891464,1.93163975557365,1.92345522983595,1.92409073882926,1.92298100388007,1.92436903084522,1.93197603437875,1.93792394135653,1.92627424873415,1.92712644597455,1.85210830601635,1.85307466295994,1.85394227039111,1.85542160631309,1.85432807520787,1.85355700802342,1.86670881570723,1.92630391665011,1.92640953507207,1.92802516719347,1.92704038799381,1.85690385802194,1.86241081886008,1.79651037699073,1.79610857231981,1.79613842462259,1.79509136843678,1.79436368890297,1.79278682993002,1.96300910975048,1.86148833217255,1.7949650525689,1.81819761683097,1.96456279989494,1.84396705981791,1.84329293491465,1.84299459141006,1.79659273529279,1.82747653964198,1.85967057515681,1.82351244714158,1.79973367284785,1.82069342890392,1.8479085184206,1.82970892140669,1.8003345386041,1.84821888838485,1.84854672909016,1.79940456767885,1.80110537032587,1.80146474136481,1.80155189572248,1.80100933016731,1.80001055130739,1.80076595583427,1.84939137919636,1.84650440760046,1.84917408847063,1.80095262984807,1.80026857041902,1.80048526669964,1.98923293782368,1.85088980444395,1.96211166527486,1.96744703669869,1.97456491567829,1.85082557724384,1.97071144453185,1.80057382108159,1.79968396170795,1.79902961911141,1.79854247829955,1.79832664582311,1.79880405536605,1.7860306016294,1.72833236339452,1.729611063388,1.72691701797115,1.76180674000677,1.82678024824633,1.79922757809317,1.82384286066147,1.71741397605212,1.72104346438209,1.71952176605868,1.82729973920644,1.71771147747053,1.71627685506102,1.71511891996462,1.71211285505325,1.71137076066096,1.7100467685768,1.70966282363896,1.70689584732594,1.70880722951075,1.79455419242278,1.70746225135852,1.7060524158913,1.70576379828872,1.70351266407885,1.70457595415418,1.70437938921597,1.7042055214111,1.70303055002826,1.7024784821176,1.70088165069376,1.75703931480129,1.83185091153284,1.76358335409131,1.82725251459326,1.72599763804788,1.74799062814999,1.72909074640341,1.74747592452883,1.72061161084115,1.69864799482406,1.69974399034352,1.69921472105056,1.69934184148655
1.91469285442498,1.90751348200549,1.83337282146563,1.90437862373604,1.90597149960228,1.90473102960887,1.90544685330183,1.90331269070578,1.83306115969902,1.86757963446452,1.90675985015089,1.90644659456857,1.90690272604399,1.9098920726403,1.83425123155175,1.86861011386232,1.83643300740972,1.90679045491505,1.90720742004912,1.91482644292564,1.90978144944443,1.92045007302658,1.91448515091716,1.92438377228131,1.92206113404287,1.92617380160216,1.93448614672315,1.9285759427333,1.9282665887747,1.926990008105,1.92645560509838,1.9274872683798,1.92585406725694,1.92692103904503,1.92392601121872,1.92036759929908,1.84597235346006,1.92060618664273,1.9171270710379,1.88039397634339,1.84706174522022,1.92803004130739,1.92357302204274,1.92150833848974,1.92210726055602,1.92330731069187,1.92669750681448,1.92565972933265,1.93258937569094,1.93271543821198,1.93370777075761,1.93073563208291,1.85166763652,1.93103898000096,1.9342349640157,1.9323407040591,1.92557316684471,1.92464638028402,1.8537077649827,1.88997310335075,1.85290494400885,1.92670488908391,1.94818415129225,1.93644558929665,1.93629645826166,1.92680178392117,1.92567257404738,1.85151997750635,1.85296421921514,1.85396837661928,1.85489799049713,1.85424221578123,1.92800150436579,1.8627628440419,1.8539155777131,1.92636750314084,1.92756377585527,1.92682805556184,1.92716200962697,1.86609272524424,1.79551259588401,1.79622004489644,1.84350717348308,1.79531132232658,1.79355381377953,1.79336378866833,1.88712387845013,1.86452749226935,1.88393154738479,1.81322108969096,1.79467476042287,1.82765820236836,1.84384517991888,1.84265317132516,1.79669980468964,1.82025350574782,1.84651069372608,1.83534885172646,1.84826732939724,1.82994187134207,1.9634388541011,1.83964168728873,1.84958664806138,1.84879499916823,1.84858642380615,1.80065932985577,1.80225800851555,1.80165380104859,1.80078606501134,1.80090213594842,1.80041605571365,1.80072956670615,1.97427218036613,1.8469870097748,1.79944257671902,1.80048871139427,1.80089944752712,1.79984976473354,1.79833814616524,1.83272474745145,1.97284593954657,1.96794060371007,1.96355129476371,1.83257253304942,1.79925058547925,1.79995474270597,1.84620844047122,1.79817356585171,1.7963143925618,1.7975409706709,1.79802633237362,1.78725255140951,1.72985016540643,1.73032931290178,1.8240900392929,1.75464976354922,1.72210030101607,1.72118196338674,1.71857096280865,1.71714438913697,1.7169915653549,1.71811982607853,1.71702226380662,1.71769387005917,1.82433403349832,1.75002222649461,1.83044489844468,1.71134469528154,1.71108427235688,1.71037919968308,1.7977465762742,1.7086881635691,1.70670813284867,1.70679231626945,1.70524765047804,1.70526871481005,1.70321217653891,1.70404626986155,1.70333467651224,1.70359991412289,1.70241393496781,1.70277746030445,1.81720311690713,1.77273061920993,1.82789604897616,1.74706677777308,1.69829992899366,1.70022856548798,1.70034696802947,1.70080455332023,1.70005624921853,1.70028761180677,1.6999272867675,1.70010988736965,1.69908636655116,1.69914606731723
1.90798529148448,1.90816936054726,1.91051967097036,1.90557050884813,1.90771297822373,1.9056355295202,1.90781795455526,1.90310688980004,1.90458816870803,1.85796270707106,1.83404441179077,1.83416867904315,1.83381795100219,1.9103752795492,1.90840155585418,1.90711010994643,1.91017938907194,1.90863528279877,1.90828779337259,1.91590004148584,1.93246722007618,1.92758727108121,1.83910588951885,1.92466897409808,1.93205809560305,1.92516844996664,1.91992594017503,1.92772375752596,1.93395163346678,1.93248879412561,1.93394457938377,1.9275930539845,1.92867585996558,1.92726339968102,1.93414911935857,1.9186016099456,1.91997595148898,1.92152270951223,1.84764420298035,1.86580214698158,1.84715231019288,1.931800598092,1.95424892573596,1.92276776290788,1.92174633126666,1.92379089149206,1.92565199356968,1.92459272255027,1.9447755694728,1.9330851342902,1.9383766280546,1.93369618697516,1.93826346542693,1.92973103141862,1.93235535106298,1.93185464458501,1.93908953386242,1.93130084084338,1.92851722499302,1.92897689193819,1.93146720785911,1.93097439705021,1.93443232193584,1.93668863830145,1.93513481111322,1.92822251697279,1.92593621886403,1.85160910944551,1.85305886280729,1.85366045410647,1.85401961805343,1.85335041439704,1.85224431568636,1.86062905419993,1.92935436263535,1.92689770912184,1.92797461701776,1.9341555282357,1.94555523695972,1.88997541020945,1.88809707738485,1.79676392958338,1.79687913438091,1.79568372507792,1.79455770127288,1.79457131421451,1.79627904014809,1.84874093640746,1.89469863452752,1.81011250932953,1.79487577015914,1.81660076904229,1.84395489619782,1.84253868506151,1.85578558766024,1.81414568856257,1.79811306940303,1.79831230680978,1.79741441753297,1.79945999374976,1.79911142437269,1.83247801552479,1.85171073268124,1.84103393578992,1.80307009164822,1.802083171535,1.80291956526842,1.80202601278722,1.80127695183614,1.80128731282233,1.80070952036496,1.80091898826847,1.84665443974496,1.84722574518271,1.79993006102304,1.8003448421688,1.7967349325536,1.79898349364978,1.79911397471632,1.79901205458204,1.79871385924073,1.79846241273633,1.79851362491681,1.79841785922342,1.7990304625286,1.79876988164127,1.79827157315779,1.79755229751243,1.79725407010236,1.79720411782081,1.79766399951843,1.78835951299712,1.72940987111718,1.72993014915113,1.82454969219459,1.74727187779405,1.7232995949334,1.72095581929837,1.71925545893148,1.71713727673633,1.82798292157326,1.82817650368932,1.87328706752766,1.71676354637463,1.71393788158303,1.71383519969662,1.71123613762659,1.71098482406898,1.70949252377422,1.7098444862828,1.7087082205775,1.70862813643341,1.70701984838409,1.70575094004981,1.75457375551843,1.73630821223593,1.75189164168292,1.74860408333182,1.75076721175196,1.70336720846615,1.70165043168721,1.70250612354766,1.70244852260652,1.70232449655684,1.7022026139253,1.73024771737956,1.82465516086799,1.70113523003041,1.70037745823996,1.70109181741093,1.70003731419972,1.70021151528785,1.6996197206031,1.70090386409428,1.70239713007733,1.7367078555375
1.92094490990587,1.90763682542352,1.83155941324412,1.90355398452728,1.90564868424592,1.90389018798601,1.83316810652166,1.83271134474387,1.83321823494523,1.84289605728288,1.83397473833492,1.83419557300953,1.83398961441686,1.90984685024204,1.90831259799332,1.90554725668353,1.83525238229589,1.90993094055626,1.91727123441239,1.91567606659035,1.93428629035719,1.92625290789029,1.92915782652683,1.92610992047262,1.92946496812033,1.92390726399389,1.9215000266187,1.92582161413057,1.93159899977917,1.93054934790017,1.93424141234691,1.92825679427988,1.84716244613163,1.90988739290794,1.91357779987372,1.91280776993095,1.84634077098196,1.92202633461225,1.92048844176044,1.87838407443798,1.84844448128687,1.93089297360878,1.92692817774041,1.92509608677303,1.9338505145199,1.92376748337221,1.92631463153791,1.92403815150572,1.93392976439043,1.93049304502953,1.92978055371074,1.92523731622826,1.85312222652304,1.92798387150909,1.93196880531717,1.93113899842758,1.93716977866247,1.93119235994221,1.93254533583255,1.93091654881194,1.93404453288656,1.93234421096512,1.95080128786303,1.93903158763614,1.85304667376453,1.93002585038081,1.94149822805445,1.85230363694492,1.85459417676114,1.85348321448666,1.85251768218361,1.85288509814815,1.85289473778394,1.85945248782974,1.85446873413165,1.92512793436415,1.94054768850491,1.9350679625131,1.94951975991009,1.89037548498622,1.79648343807649,1.79691444671407,1.95723353992836,1.8408787308017,1.96183321725275,1.84528083335776,1.84423873074625,1.84488764229479,1.79544283163933,1.79653373622088,1.79626936561293,1.79740141144903,1.7975374126862,1.79827845385802,1.79837068512372,1.79891832721267,1.79842880428064,1.79903401203795,1.7991309828705,1.79986141565056,1.97036198239427,1.82544366729198,1.80188625407973,1.83372634970335,1.97442329912833,1.80203749157766,1.80124600398964,1.8021372606148,1.80273714229316,1.8021300289533,1.97397938776437,1.80131133907212,1.80140942178656,1.84731422792845,1.84686511644034,1.83766155673807,1.96050148316088,1.79934927333223,1.79869867237687,1.7988869993372,1.87938848755139,1.79832636358401,1.79913008250888,1.79799046607387,1.84545281024808,1.79745344363945,1.797575723258,1.79660796662538,1.7968415081157,1.79641346248403,1.79731433716303,1.78865124504021,1.7295206728288,1.72887396872339,1.72589356426715,1.72372801394491,1.72276854059121,1.72050913814256,1.72027191424234,1.71710804823331,1.82803329449399,1.82835670433215,1.71614172393751,1.71638504067428,1.71550683354876,1.7139064705157,1.71236638515474,1.71135858819205,1.70873473570328,1.70983750824289,1.83238110758534,1.75666636020334,1.82709195090842,1.70490020449886,1.70585446101223,1.72211213166654,1.70283461966418,1.74731334060373,1.75107970495899,1.70340567008188,1.7019352212618,1.70239467134012,1.70181477927281,1.70170453780629,1.69987041189514,1.7012923639023,1.70118247650591,1.70151624881459,1.7003755687956,1.70193742975022,1.83079436058226,1.76972398037469,1.82005038288863,1.81760787693934,1.82458252024151,1.80397558797526
1.91699720178969,1.90838492548532,1.90072783994037,1.90183109033904,1.90338234871983,1.90284544131042,1.8634189460996,1.83226348008775,1.8324622326223,1.8516688692791,1.86021800014042,1.86716178152142,1.87200911927411,1.90831772652398,1.90714745389994,1.90474321316085,1.90836873169935,1.91017998511658,1.91309356539044,1.91457378227567,1.91887780773868,1.92231754178885,1.92325258270027,1.92343350465332,1.92214499627831,1.92108734881799,1.92123055685127,1.92369210546065,1.92692596089491,1.928136138147,1.92999497570106,1.92716917193023,1.91103824929039,1.91059786939015,1.91291434134735,1.91453557614634,1.91854172193629,1.92239205069732,1.92485003526636,1.92882625706982,1.93208495585535,1.93063533315705,1.92855764837973,1.92723285992809,1.92832102625655,1.92381861690853,1.92322541368981,1.92270438902699,1.92364817687764,1.92485275807978,1.92599323754023,1.92412322691918,1.92283391674947,1.92547484161393,1.92955200894171,1.92930120231795,1.93055641824797,1.92874865399026,1.92873007204875,1.92902136093922,1.93129700849953,1.93305997912303,1.93776485984795,1.93779716807673,1.93396297392014,1.9321979582916,1.93340169690402,1.8525923314451,1.85321045130801,1.85291829319651,1.85253467800755,1.85273440393422,1.85292547972412,1.86604403321602,1.87811393910345,1.92684732058511,1.92764971382834,1.92713860147001,1.92634878514274,1.89030574823836,1.79711206673092,1.79737983992857,1.81507171854883,1.82414997514702,1.83234344886809,1.84574325681033,1.84505128510433,1.84502884359339,1.79621567499312,1.79706938648293,1.79739304367949,1.7978443160812,1.79798147532848,1.79848824527686,1.79899221139339,1.79946150344422,1.79941875681388,1.79983996938966,1.80011536199199,1.80069512670152,1.80134475828409,1.80146081155592,1.80139181219256,1.82583351589038,1.84499086441491,1.80250877659731,1.8021093502673,1.8022261850484,1.80211432887079,1.80197924883652,1.8014100411124,1.80148601312407,1.80158723133841,1.84662708745143,1.84600520955511,1.83292086554259,1.82176470039484,1.7994435662606,1.79900576397092,1.79864223851375,1.79806015670561,1.79782355139932,1.79773519441333,1.79719006204519,1.79703936477464,1.79648964186829,1.79593209926244,1.79535995181489,1.79518522813208,1.7951827561216,1.79549790900713,1.78772147678834,1.72905512459456,1.7281540705776,1.72573644507788,1.72334370613522,1.72216802082968,1.71898430777548,1.71837667404891,1.7166812343832,1.82866524576703,1.82862134196148,1.75756873477557,1.73054440570209,1.71463897358168,1.71386466042316,1.71301745130158,1.71158074188418,1.71038235486733,1.70978335358357,1.70810787422,1.70642160362061,1.70517030497767,1.70485743404456,1.72133951188396,1.72785516499426,1.73535037331555,1.74246485281751,1.72516375027834,1.70339916842921,1.70243748072599,1.70254941855338,1.70236625302278,1.70224346990768,1.70174366573041,1.7020282287865,1.70190138255102,1.70202027158512,1.70154057834839,1.70232922152,1.73616619902226,1.75445062412537,1.81882696175065,1.8160265770431,1.81427614482457,1.80023802590118
1.93388558360559,1.90935395318779,1.90425551435482,1.90321055023746,1.90589630348799,1.90414499259824,1.90540116952253,1.83233310976786,1.83242297424116,1.86012831062125,1.90600649825003,1.90720894683059,1.90850796363655,1.90834880996649,1.90716914256065,1.90554446377772,1.93176997180984,1.91049170845201,1.91157978020866,1.91471333468192,1.83670692657032,1.87904513915731,1.92277729407811,1.91986058371451,1.92075512467944,1.91926981101575,1.94931867648159,1.92234798503375,1.91506464418063,1.92624698398272,1.93336052921287,1.92518319535632,1.91592325495475,1.91337121060725,1.91586952147512,1.9155334349105,1.91868536029626,1.92151810220322,1.92872415841175,1.92710364173756,1.93630607858837,1.92948404588639,1.92898045539366,1.92935726370855,1.93104558512437,1.92444980653782,1.85177157976184,1.92228270039748,1.92131484205082,1.92594223019839,1.92704135142746,1.92567907450732,1.92613130449624,1.92488579076755,1.93443376258734,1.92981972964065,1.93166426945579,1.92840931514117,1.94731172700616,1.92923674019739,1.92961561322969,1.9319910911564,1.85191646736056,1.93419423764833,1.92887938943156,1.93057628121634,1.93467685047251,1.85375601374411,1.85192383990941,1.85237555219466,1.85190856614363,1.85261556891802,1.85315875535599,1.87252383552486,1.93439600515915,1.92986911122723,1.93060675538296,1.92813238458641,1.92637045128816,1.89042327435987,1.79750905878179,1.79800830827903,1.79817545991164,1.79892945763254,1.79879726370841,1.84600441274285,1.84479904496876,1.84492350890685,1.79528855276164,1.79694254381504,1.88607549277863,1.79781124156156,1.79749761537087,1.79809908717397,1.96237157784308,1.79977243816435,1.79941799526003,1.80022491607667,1.80027192063418,1.80091063234235,1.80141000923275,1.80124658189852,1.80062440897168,1.81861303863514,1.9666784625657,1.80242896506998,1.80184996486648,1.80194761623959,1.80100663888513,1.80155264891969,1.8001626739241,1.80122519460136,1.80166313191077,1.84641696302995,1.95605374373183,1.82490267093118,1.79829791220291,1.79915051283867,1.7988634595418,1.79851418542966,1.79805339867859,1.79774485397938,1.96008590656484,1.79722500657979,1.79894008700829,1.7968383263771,1.9571674254699,1.84172900288667,1.96285461246873,1.8359379869821,1.96358997286329,1.78576511276989,1.72867961109546,1.72836951058801,1.83002932184864,1.78369682620184,1.82517492692646,1.71918858002147,1.71931059380926,1.71737920298497,1.82755443149811,1.82869737104356,1.87737671902963,1.73952939045883,1.71045714769481,1.73220479932514,1.81000608585747,1.71115919947371,1.71044916796852,1.71000343022997,1.70864337444055,1.70786958866026,1.70578601939694,1.70616218791155,1.79685163540011,1.80522181761278,1.83238224789586,1.74515534081004,1.70313569403137,1.70313092877202,1.70079489441293,1.70200654287349,1.70206908869222,1.70229056451359,1.70202830797295,1.7020498078293,1.70112889557258,1.70138652177499,1.69968102471777,1.70106414481797,1.69966943569609,1.74068864891855,1.82165185821922,1.81470165726755,1.81475430978867,1.79648693027901
1.91268413171036,1.910448783398,1.83352394005896,1.90314718606708,1.90423152248346,1.87051931830981,1.83353791158112,1.83281633411987,1.83281366432534,1.86808707519308,1.90714300232604,1.90784473781059,1.90886763224544,1.90874410493194,1.90846147275138,1.90820414312811,1.91136595478106,1.91116851454114,1.91290617842585,1.91599215601021,1.92618307494279,1.86758639793238,1.83715236079588,1.87363078747028,1.92082163527938,1.91855882715208,1.91861486403147,1.91885465443153,1.91777407858446,1.92573670084711,1.9224953089977,1.92502883580244,1.93855145265325,1.91359366143381,1.91664158794892,1.91503729275932,1.84766302640518,1.8798850820417,1.84905143302756,1.92376749186264,1.92764051448616,1.92801651080465,1.93744685409981,1.93141936552877,1.93359944040291,1.92259944839619,1.92159266109209,1.92448483165338,1.93699278964849,1.92711696171675,1.85081445350758,1.92705614015774,1.92336880127588,1.9250414260902,1.85252712422118,1.92776225642588,1.95600565393221,1.92920917151384,1.93369879557123,1.9318429843306,1.93393991357762,1.93265293615713,1.85276007721163,1.93232066259669,1.93303034121258,1.92977092578029,1.85372916089076,1.85470647071619,1.85295235181218,1.85265511982217,1.85208258760339,1.85260403184619,1.8522780669258,1.87881301747344,1.93120160423291,1.92946371925255,1.92817038818758,1.9277768448042,1.9490734721894,1.89062740620755,1.95916030414638,1.79860787716546,1.79780118630621,1.79867895279233,1.84334826546189,1.84814082429834,1.97263820874987,1.85011871996674,1.7960561268188,1.79735447571748,1.79766937394803,1.79745785839704,1.7965845142366,1.79780221536243,1.79839979918355,1.79962454369967,1.89005180520895,1.8007762404571,1.8004984439396,1.80082664501918,1.98067583791425,1.83712053701992,1.98348097993754,1.81315282296323,1.80156595213172,1.80212062636257,1.802044852621,1.80215033964754,1.80157369248298,1.80218258380588,1.96137986096616,1.80110565200059,1.80058157974529,1.84597964936711,1.96050455436852,1.8180610251336,1.79973219379486,1.79941263373364,1.96043536870242,1.83700512764784,1.9799296890259,1.7976703695905,1.79753893707631,1.79646060422433,1.79508577801526,1.79592876788083,1.79642913812792,1.82443961230317,1.95883783246433,1.81928767230188,1.7957607271803,1.78344799313486,1.7269977161913,1.72725489801539,1.72505829480325,1.76723416018272,1.82713247631692,1.72004987901593,1.7200792945855,1.71855139589402,1.82690147793128,1.76618013013309,1.71377021936899,1.74917955729212,1.75971592959711,1.74169873066456,1.70939632209,1.7103942619013,1.71024885902013,1.71047604057835,1.75527269213926,1.7087225085067,1.70844317354094,1.70753478430156,1.70660315608452,1.80995352809884,1.83219748296716,1.75653369619878,1.70325404070926,1.70300896839307,1.70240777504778,1.70177932412296,1.7004919088299,1.70191095762621,1.7009284252297,1.73755546504841,1.82768855481773,1.76820373499105,1.83044489844468,1.70096723868653,1.69981821481995,1.72693242104648,1.82406619496729,1.74236277848424,1.69973506332652,1.71548406929383
1.83417563994614,1.91025038271455,1.91311955496464,1.904296455577,1.83318396775552,1.85774694684264,1.83417453810104,1.854432179769,1.90881885111665,1.87596271605366,1.90830896366696,1.90919763538666,1.91062561395083,1.90958504393168,1.90945580056592,1.90868718144645,1.90797453178867,1.92307221931995,1.92302431715873,1.91839414264288,1.83848257781307,1.85519119393788,1.83870773001419,1.86305161550409,1.8406140064837,1.91851500900677,1.91942883540348,1.92013007964027,1.92767369332242,1.92818709693136,1.93073172318659,1.9266757200684,1.84513965302847,1.8766509012125,1.84694521759684,1.91562435780253,1.91925240328828,1.91770092781801,1.92045348733664,1.91975001599908,1.91990377525113,1.92084720213715,1.92227102174676,1.92248634554588,1.92361167648388,1.92319897123879,1.92436812218808,1.92788210725358,1.93038025079457,1.92815102399732,1.8510663139213,1.9337349578232,1.93674389231088,1.93033598328617,1.93355701792592,1.93057539069856,1.93342250054596,1.92921785526279,1.85307493004882,1.93201575589351,1.9319982172405,1.93203359985924,1.93414100227618,1.92852797006162,1.9270260735324,1.92745401883547,1.92224659845277,1.86970248627073,1.85311975342161,1.8531711351743,1.85296986733577,1.85338438423516,1.85391431694402,1.88385591901021,1.93159167515399,1.92960986595316,1.92884776447743,1.92884137940765,1.94457695776566,1.84107255362506,1.80008990891429,1.79930376048253,1.7975691999636,1.79782543022807,1.79604117556202,1.84936817048975,1.89531096969872,1.85685247016753,1.88838003607997,1.79792348158851,1.79817854381569,1.79737669687169,1.79615072340184,1.79782138559671,1.79908143432586,1.79992848483123,1.80046669487821,1.80084582793789,1.80072837550726,1.80064628087727,1.80012289672527,1.80109005339484,1.8015426750418,1.80191174863273,1.80131421935238,1.80187930276188,1.80164029102818,1.8023439696851,1.9767939747103,1.80198786718605,1.80014255220319,1.80081804921109,1.80051027146458,1.84531593198671,1.96210322818598,1.81315462341926,1.79818844312808,1.79863720218537,1.79763350315758,1.79873203735503,1.79805003879623,1.79768348887185,1.79677037850117,1.7963248326174,1.79524551390297,1.79572244832047,1.79585244067725,1.79647114297125,1.79687494217265,1.79708002969814,1.79488084378152,1.78139606793411,1.72831013386556,1.72792903278137,1.72641757625313,1.75155319976528,1.825020470337,1.72115608318913,1.72083708680725,1.71925539960193,1.71806451385427,1.74849128767574,1.71546398099678,1.7550707424326,1.7606045920635,1.74935951643487,1.70994390021916,1.71018970643408,1.70964159310155,1.70993753205222,1.7086881762286,1.70888894517909,1.70692487322283,1.71365280900059,1.82050880874356,1.81242037641845,1.83067460588303,1.7723160014653,1.83258237239738,1.73499518110172,1.70014787160174,1.70149944924134,1.70110332455217,1.70276143944983,1.82828043663634,1.7578779890049,1.82943271719809,1.75163643390066,1.69980687260231,1.70053922955345,1.69979582845885,1.69956603329438,1.69865871069491,1.71936356035041,1.69957768386237,1.73030602716543
1.90834968177748,1.90830041503962,1.91850350741679,1.9065983901832,1.90749386503382,1.90800782807947,1.9107752575502,1.86474214958315,1.83601460773343,1.83622749980996,1.8349949865024,1.91131721290891,1.91076800648186,1.90978723150557,1.90890812180828,1.90879388757701,1.93069204133304,1.92756558229265,1.93138216052057,1.92895043310368,1.9352456138706,1.92130795393876,1.92192319959714,1.87779260610346,1.84147024022188,1.92039560352685,1.92523357066826,1.92211634119154,1.93858642000096,1.92893463802154,1.93113821235787,1.92605243863625,1.84490663632615,1.88841577243415,1.93809636089424,1.93657545202499,1.93896646078915,1.91603728119166,1.84998644033206,1.91754488591908,1.94243321886221,1.92135839639149,1.92248427514662,1.92277949455142,1.92272203813002,1.92320600880199,1.93162845669483,1.92917558625847,1.93282257221045,1.9287790265819,1.94755249422509,1.9355033192477,1.93538934450323,1.92839270425869,1.92513968883598,1.92413914719496,1.92570545431058,1.92703251423623,1.93431572928937,1.93265685195327,1.93760953473052,1.9295742566559,1.85350939651536,1.92609515781658,1.92606524844908,1.92556419306405,1.92457315895962,1.8775101222482,1.85370430108133,1.85375408651378,1.85407251652935,1.8538097150534,1.85348274343244,1.8878638955408,1.94867708987254,1.94247641759952,1.95177238413696,1.93139950674474,1.92803631515738,1.8278509369732,1.80046159276952,1.80024392742907,1.84630147613244,1.83912268482643,1.84381984078965,1.85172498002743,1.89218801366173,1.84604139790852,1.79578033710211,1.797277253313,1.79736530853404,1.79723588770104,1.79658458691247,1.79791009407076,1.79929404736562,1.80376985041474,1.89010847400353,1.80043100749668,1.79931055186002,1.80033372046184,1.80126799567643,1.8010975010466,1.80120103447978,1.80194081570189,1.84865464471893,1.82465035015414,1.97427218036613,1.80227074599687,1.80204577652508,1.80200302811489,1.80107356094984,1.83591337937858,1.86960774541929,1.84452360681484,1.79801722617583,1.80911908486215,1.79724559362509,1.81737836833666,1.98621056257973,1.7991265151816,1.79740498325969,1.79788565075074,1.79758357514194,1.79669549222634,1.79524172058335,1.79565711872219,1.79560041652658,1.79613516881892,1.79573023099764,1.79680853146759,1.77851765326954,1.77980537586863,1.77611944008542,1.72929180922367,1.72451554517738,1.72376989180159,1.72280645959096,1.72233820469087,1.71923295878791,1.71969166064345,1.82514629684513,1.76648789438121,1.82642136140117,1.76884167181726,1.82324786739502,1.75478182918248,1.71023655143302,1.71020396629627,1.8313610559405,1.76651917403443,1.82693138722359,1.76599253425563,1.83958758355763,1.71295868660637,1.70481398856438,1.70457128775409,1.70424046521947,1.74143623157078,1.82860966127514,1.75382129428515,1.79436529397003,1.70208542012492,1.70141524690057,1.7032619013958,1.82880305568894,1.73889716977553,1.69900387416997,1.7453984446146,1.74652639769522,1.72845610067356,1.69993713000045,1.69969376247972,1.69907560149705,1.72483909092258,1.82341604790876,1.73784689597908
1.92427000636237,1.90854715851312,1.90782141042123,1.90775201094601,1.91552662829056,1.90634169338707,1.90608055710297,1.87425129132786,1.8363303324925,1.83704016040807,1.83903648699715,1.91241262148831,1.91070412399743,1.91023987439472,1.90987418352441,1.90919970596399,1.90951204768524,1.88295675769876,1.83697605119661,1.9275921348706,1.93473932086367,1.92246450206233,1.92614275497022,1.92022965115488,1.93177533421306,1.92632624140827,1.92531912046934,1.92168465001822,1.91586336336989,1.91532519230473,1.91770540703311,1.92360383983035,1.93081638610348,1.91791872515393,1.91933736046704,1.9180528950993,1.92021774951225,1.91834087799114,1.92133219286335,1.91953718632945,1.92220878265222,1.92237051536997,1.9239704313269,1.92400686052838,1.92539548652168,1.92410727662367,1.93561176777003,1.92618753684585,1.92525198431389,1.92225753594823,1.85272551333567,1.88122914509306,1.85231151333771,1.92050319480315,1.92432875083781,1.92376396706221,1.92490475811941,1.92530861258598,1.92538095783491,1.92447269500863,1.92463136034743,1.92736974265847,1.93306234973676,1.93034922363253,1.93865726626806,1.9249279497963,1.9239491178667,1.88637977635627,1.85357564164328,1.85387416488744,1.85368602410174,1.85398817146861,1.85363692902818,1.89129120461242,1.92791931154842,1.93840050504668,1.95690488173483,1.93315890735451,1.80147836400234,1.80121463574476,1.80025285910849,1.80014067618697,1.79929870935271,1.83133775565961,1.891988004957,1.85492151540779,1.79775602960591,1.83629949472661,1.96872801077801,1.79734881563778,1.79714501351705,1.7972912852323,1.79756587074105,1.7977383975061,1.79748845892183,1.80240346688541,1.97086256329405,1.80002661840225,1.79911246726519,1.79989070055546,1.7995618840821,1.8003671249541,1.7992048632526,1.80184167192287,1.80283960240928,1.80219859844996,1.80161476375703,1.80137535305729,1.79946475256983,1.80150098879116,1.87437320556242,1.86382184622532,1.87113874686637,1.84397359599816,1.79860939534015,1.82571796823775,1.84413765473081,1.82856701271811,1.79988032026177,1.79974383899226,1.79732250656747,1.79830900403677,1.79898957889383,1.79741319719212,1.79624567148038,1.81141336584766,1.84171321705237,1.83996630584017,1.87208756235272,1.8423720486898,1.84097198408213,1.78757857122947,1.72900006667909,1.72959355794389,1.72358256353535,1.72341392689906,1.72228310445751,1.72223460083103,1.83325948539061,1.71908490250961,1.71710400045297,1.72816330458299,1.71513190678312,1.7393818458594,1.71239283134983,1.76551186822526,1.82357843931671,1.70942855203214,1.70693492580442,1.75376956840398,1.75385827319038,1.7532557305649,1.70583490951257,1.71167387122027,1.75292562414179,1.70441532340996,1.70202091586713,1.70273624643126,1.70163887832721,1.70198037125373,1.70140505556759,1.70198370706372,1.8242018045814,1.70318390870557,1.70201547828976,1.70192924192632,1.70074065376454,1.74525130874964,1.74605895818731,1.74621342782463,1.81128115041351,1.72999914248235,1.74583588792878,1.73106009649024,1.82223713740876,1.75118608812226
1.9096277289234,1.90985727425461,1.9149686530505,1.90746179304717,1.90688361744462,1.90660617130851,1.90788280337044,1.88191305394977,1.90913052199255,1.83651305073617,1.83548586397641,1.9130886911949,1.9123206871157,1.91096026888837,1.91086992580163,1.9091308761478,1.83752861904988,1.86912250952636,1.83775056962383,1.92664996796907,1.9284085036375,1.92164762390865,1.91448193880467,1.91821918604951,1.93040373762313,1.92806727001281,1.94462446065435,1.91923237580022,1.91733811849876,1.91480980456125,1.8455095469928,1.92273319954613,1.92217266308889,1.91963326488336,1.92026987873793,1.91732944200779,1.84776689829396,1.88512482046915,1.85054371435884,1.91970131756707,1.92128766722736,1.92343508801591,1.92576035561898,1.92512354407302,1.92434187474599,1.92479183863292,1.92415363724178,1.9244706983033,1.92282729284276,1.92220725207371,1.93516169060487,1.89208923250651,1.85261998138487,1.92053258323477,1.92420943844302,1.923803775674,1.92539888203552,1.92509490555722,1.9254765614844,1.9247210798904,1.92368963442939,1.92632173361161,1.92444490700572,1.92931521591306,1.94208315516541,1.92508548350208,1.92352113903121,1.89335733320921,1.85399051286579,1.85415472498814,1.85424670732508,1.85425414775162,1.92926710282032,1.89987114300044,1.92869298709253,1.92816674768012,1.93011026297679,1.93217303897064,1.8476535459209,1.80098185805598,1.79888112829193,1.80006176899805,1.79984014488785,1.82253662600581,1.86220360799147,1.85836067377452,1.9570918660888,1.82760419274137,1.79697814883182,1.79680039381034,1.79584982298292,1.7967243641705,1.85074198924826,1.83363360243867,1.85132285601079,1.80065703532325,1.79794183669019,1.79926450154035,1.79930440813268,1.79992123472157,1.80016433136723,1.80068780783067,1.96848244278944,1.80176229586201,1.79660023979178,1.80187304104911,1.80195391354926,1.80118832103411,1.79982802102902,1.80106891918364,1.95287943059255,1.85634517026858,1.84692858650629,1.8448634662458,1.96367497716703,1.84425447347904,1.84518274664904,1.84433231549294,1.84392766697451,1.83058385137954,1.95872583770506,1.84513664502367,1.96480181800537,1.82568142303213,1.79584367251909,1.82191080555809,1.84060072171333,1.83968035784068,1.79305874222327,1.84303129818506,1.85696627953048,1.79466649342341,1.8110449139853,1.7542146892023,1.7246267134448,1.73989736848443,1.78429699861514,1.72131860743218,1.71820480321323,1.71872885017097,1.71590506484178,1.74041894295214,1.76158543301946,1.74663080679977,1.82674248877084,1.78146225902267,1.8241829143655,1.7099760910088,1.7081162109037,1.75467816211772,1.75526510842594,1.75368825817299,1.70525562727712,1.71014199081744,1.75358681745921,1.7047980937839,1.70413121180417,1.70358000779435,1.70249856205504,1.70209253022787,1.70054722226926,1.70118787086733,1.70015406563767,1.70208543266186,1.70213098444655,1.7019934136107,1.82895260066798,1.75987251489984,1.81120559103241,1.74626920552683,1.74612321257328,1.72104479136756,1.6995521608301,1.725482296784,1.82287202036485,1.76759268537914
1.90531437933559,1.90807296604135,1.90865466702693,1.90739101331337,1.90815643316378,1.90646542809441,1.83491156357292,1.83455729044669,1.8357981710859,1.8362773910745,1.83573741581314,1.91295972468647,1.91391193380565,1.91091334182625,1.90966341778953,1.90845679055435,1.93035321096978,1.90775230278181,1.90941809590721,1.90859285437057,1.91017392863023,1.9107642761736,1.91347146206845,1.91340771776736,1.91292720756647,1.91599957216985,1.91716259795586,1.91810252608427,1.93119194122851,1.92913872852925,1.93207374842454,1.92267341977798,1.84632181022461,1.92064999465463,1.92425896770903,1.92477239373304,1.93693926005403,1.92396107984311,1.92251674225907,1.92093893093481,1.92262369150571,1.9239712537281,1.92693978243632,1.92634885576873,1.93047980050354,1.92685812000806,1.9254748588653,1.92614428985669,1.92791420920347,1.92409339292178,1.92277768611143,1.9238143697326,1.92746935830107,1.92552560777314,1.93472756773667,1.93342946478297,1.93462041497819,1.93003898550741,1.92649106688994,1.92654389844403,1.93025633216354,1.92857791263588,1.93160103534757,1.93021932540249,1.93193012460625,1.9256335444087,1.92635455486675,1.92569655166096,1.92636938465151,1.88304440830923,1.85246282155633,1.85368417977604,1.85361212997959,1.88660947245717,1.85492617370501,1.92730959255617,1.92881449321032,1.93084460438266,1.93018926942317,1.80107862972563,1.79902379792354,1.80049107584476,1.95836535612045,1.81505300758406,1.79876848293559,1.83287575771789,1.88920176143035,1.81782458335157,1.79609958999443,1.79653764635503,1.79563755831409,1.79656414023176,1.79637454642414,1.8220325700418,1.85202183672732,1.79896418214204,1.7980653337751,1.7992074184889,1.79991667399606,1.8001204227114,1.80009022855747,1.80090703638519,1.80127354231605,1.80106365158419,1.97686008916876,1.80104169882274,1.80081266650046,1.800809792268,1.79945886288992,1.80011693900571,1.79816651533781,1.84528046467166,1.8462552744641,1.83965276986839,1.7983494891158,1.84404139113936,1.84477372993009,1.84415456560591,1.84386564690855,1.82475751023612,1.79674515345929,1.82829015998456,1.95912907359273,1.84305162904359,1.97068310976394,1.82687095134894,1.8405112293341,1.83988274346423,1.79331065296234,1.84284439519486,1.86836619034753,1.78673994671561,1.77206900174044,1.77089111632809,1.77873814302291,1.75057705797497,1.72075879195425,1.72107499077363,1.71855354117146,1.71900304007361,1.76331973730538,1.74945161149367,1.76186163929806,1.7403996816162,1.71222058055485,1.712473503568,1.71239719300448,1.71149768048027,1.75824345387077,1.75599001076389,1.82419235965876,1.75357230609179,1.75444077743744,1.7095291050379,1.70555933380497,1.70501173475488,1.70387526806778,1.7041774003038,1.83067157658798,1.70265176943958,1.70048358782628,1.7011252049586,1.70011287306332,1.70149148553959,1.7007181433739,1.70068866366452,1.69865516491137,1.72931332736182,1.74773565198481,1.72892199054245,1.6999663129265,1.700291624584,1.7000049319757,1.69996387064723,1.69937486275592,1.69868189730948
1.92496834437998,1.90736880425843,1.83570571731003,1.90644454364969,1.90762290378377,1.90643429713623,1.9081448244904,1.83418680618834,1.83591661358583,1.8365334425947,1.83642907519134,1.91201698426647,1.91352639518256,1.90998114087906,1.90918502784669,1.90859855328648,1.91103739434523,1.90889129656992,1.90999487328193,1.90885174631038,1.91090107172237,1.91064761546863,1.91196202734634,1.91440258374593,1.92632850698907,1.91546367872498,1.91594641942199,1.91851219483164,1.93833281547389,1.92595471369649,1.92435418765184,1.92293277846198,1.93005978282274,1.92599309507147,1.93640635691483,1.92642323029776,1.92860734077183,1.92623796772441,1.92714617327425,1.92387714832837,1.94156433374994,1.92601947822902,1.92506498798594,1.92557929396497,1.92074697068409,1.92829139633501,1.9318554276572,1.92779737147363,1.92517404388975,1.92418985105839,1.92367183435932,1.92719067692145,1.93101173224686,1.92660148886213,1.85444444735164,1.9330484167335,1.93736242918217,1.9295247948175,1.92582946627539,1.92526441156506,1.94342422316286,1.92684659338234,1.92667895644861,1.92928263857122,1.92758711426174,1.92611174484493,1.92648633696326,1.92530032172101,1.9255209752518,1.92582173301321,1.92800466890427,1.92649955030162,1.92814755626818,1.92398628001575,1.94012723113737,1.933246679978,1.95123595605674,1.92364495377248,1.80121635035188,1.80134006832976,1.80073028673304,1.80117030003099,1.96002136588953,1.81054597678203,1.79697094012369,1.79573399748492,1.79683954537988,1.8066306386586,1.79712925502802,1.79719937983917,1.79708555823659,1.79715417850474,1.79722895541856,1.8134253048787,1.8826847582828,1.79874630665806,1.79808560701182,1.79906634390171,1.79966458665072,1.80002427659218,1.80025431848655,1.80093396767994,1.80123309682611,1.7999820303234,1.79861499043186,1.8000171813017,1.97743622944964,1.80110375672356,1.80045693126208,1.8006918004552,1.84758397510421,1.84572152876555,1.98039249023513,1.83045155948467,1.79951436656555,1.8438090721,1.84417956796832,1.8439655480515,1.79547040446784,1.81507569451373,1.79570666039192,1.79584388293073,1.79566568656647,1.79541660583501,1.79511439157579,1.81734869430358,1.84059791902364,1.84053028351162,1.84243978059521,1.84213373621806,1.84116431249475,1.78110599263955,1.77369051439034,1.77030104633564,1.7698977592238,1.76107188966846,1.7877915888645,1.75578818023491,1.81739201535987,1.7179320486089,1.71589721780674,1.71500188303823,1.71364805474449,1.72997882754906,1.71206740901019,1.71255567459088,1.70882256549545,1.70891247117344,1.70804407497205,1.70765793739085,1.70648343695794,1.70626862606835,1.70478942165172,1.71036008504975,1.7524545334161,1.7260119657559,1.70420605505419,1.7041530045217,1.70332350615212,1.70280395445597,1.70172054480006,1.70186449398957,1.70160487512611,1.70199828499186,1.8342700921128,1.70044422003371,1.69887153506703,1.6998287632946,1.69914049824785,1.70011334013706,1.69985242903961,1.70029331953185,1.82748863765919,1.6998622805072,1.69936779929332,1.69853893718171
