1.9377, 1.93227, 1.92792, 1.9787, 1.93044, 2.03938, 1.97875, 1.92192, 2.04171, 1.91833, 1.91423, 1.91403, 2.00132, 2.12455, 1.90655, 2.02729, 1.90353, 1.9546, 2.0139, 1.89997, 1.89864, 1.89928, 1.89669, 1.89769, 1.89707, 1.89677, 1.89739, 2.0744, 2.04398, 1.96143, 2.06656, 2.02966, 2.02923, 2.02492, 2.06326, 2.02147, 2.1391, 2.01406, 2.01053, 1.93448, 2.00984, 2.00681, 2.05695, 2.05675, 1.9244, 1.92421, 1.99688, 1.99795, 1.99687, 2.00402, 2.00308, 2.00314, 2.00975, 2.04464, 2.04645, 2.04398, 2.1011, 2.01457, 2.09156, 2.01165, 2.01047, 2.00815, 2.00991, 2.08687, 2.08301, 2.094, 2.00681, 2.09508, 2.00609, 2.00555, 2.1036, 2.10325, 2.09381, 2.10452, 2.09393, 2.001, 2.09371, 2.08714, 2.0931, 2.10269, 1.99698, 2.07868, 2.0765, 2.07011, 2.07906, 2.08174, 2.08374, 2.08416, 1.98744, 2.05957, 1.983, 1.98287, 1.9825, 2.08214, 2.05725, 1.95372, 1.89595, 2.0106, 1.88994, 2.01351, 1.88271, 2.10392, 1.87662, 1.87556, 1.87376, 1.92316, 1.92296, 1.87182, 1.87181, 1.97234, 1.96857, 1.86946, 1.86923, 1.87121, 1.99977, 1.87118, 1.86827, 1.86971, 1.86962, 1.8985, 1.79968, 1.79568, 1.91119, 1.79062, 1.78514, 1.78403, 1.78481, 1.77893, 1.77814, 1.82929, 1.82721, 1.89696, 1.89083, 1.77761, 1.77506, 1.9027, 1.77489, 1.77509, 1.90806, 1.77266, 1.82446, 1.773, 1.77173, 1.77611, 1.90695, 1.90479, 1.7718, 1.77503, 1.77872, 1.90261
1.93592, 1.93364, 1.98909, 1.92805, 1.92511, 1.92443, 1.925, 1.92442, 1.92049, 2.10415, 1.91466, 1.91287, 1.91256, 1.95839, 1.90672, 1.90479, 1.90536, 1.95547, 1.90105, 1.90151, 1.89884, 2.01936, 1.94666, 1.94783, 1.89758, 1.89983, 1.90097, 1.9007, 2.04076, 1.96169, 2.03805, 2.06867, 2.14203, 2.14918, 2.02318, 2.01858, 2.01769, 2.06212, 2.01317, 1.93282, 1.93195, 2.00644, 2.00237, 2.00086, 2.00077, 2.1434, 1.9252, 2.00369, 2.05297, 2.05205, 2.0027, 2.13746, 2.01041, 2.13628, 2.0224, 2.04486, 2.11269, 2.09426, 2.09062, 2.01301, 2.00996, 2.00831, 2.01008, 2.00865, 2.09052, 2.09022, 2.0977, 2.118, 2.00642, 2.09824, 2.09321, 2.09557, 2.09488, 2.09409, 2.10132, 2.00193, 2.08653, 2.09374, 2.09344, 2.00049, 2.08277, 2.08181, 2.09258, 2.08043, 1.99273, 1.98924, 2.08745, 2.07733, 2.07686, 2.05999, 1.98283, 1.98104, 1.97897, 1.97928, 2.05586, 2.00616, 2.01042, 1.89073, 1.88899, 1.8844, 1.88156, 2.01451, 1.87709, 1.87386, 1.92485, 1.87306, 1.87075, 1.87052, 1.87106, 1.87161, 1.87008, 2.00429, 1.86942, 2.00617, 1.86894, 1.86818, 1.87035, 1.87205, 1.91994, 1.80369, 1.79947, 1.79872, 1.79099, 1.78754, 1.78438, 1.78325, 1.77979, 1.89165, 1.90765, 1.77812, 1.77615, 1.89635, 1.77602, 1.77504, 1.90233, 1.77357, 1.7743, 1.77019, 1.77492, 1.7745, 1.90672, 1.90308, 1.77164, 1.77341, 1.90318, 1.77557, 1.77179, 1.82324, 1.77487, 1.88295
1.98668, 1.93228, 2.03877, 2.03413, 1.92698, 1.9248, 1.92583, 2.0479, 1.97189, 1.91767, 1.91702, 1.91282, 1.9098, 2.03704, 1.95865, 2.11678, 1.9042, 1.90326, 1.90145, 2.10149, 1.90127, 1.8995, 1.89994, 1.94896, 2.08672, 2.00496, 1.90086, 1.90303, 2.15297, 2.04076, 2.14582, 2.03204, 2.14477, 2.02565, 2.14151, 2.02517, 2.01739, 1.94148, 1.93759, 2.01016, 2.00762, 2.00452, 2.06117, 1.92591, 2.00302, 2.00151, 2.00116, 2.00111, 2.00026, 2.00758, 2.00455, 1.93077, 2.00892, 2.13611, 2.1284, 2.13819, 2.1044, 2.10333, 2.10503, 2.01561, 2.01191, 2.01009, 2.00752, 2.08432, 2.0929, 2.0084, 2.00791, 2.00685, 2.00778, 2.00672, 2.00581, 2.10019, 2.00382, 2.0797, 2.08051, 2.08816, 2.09699, 2.08235, 2.08998, 2.07552, 1.99681, 2.09599, 2.08024, 2.08295, 2.07438, 2.0903, 2.06422, 2.08619, 2.08305, 1.98345, 1.98403, 1.97934, 1.97892, 1.9803, 1.97998, 1.89894, 1.89563, 1.89307, 1.88714, 1.93693, 1.88145, 1.87944, 1.87776, 2.01372, 1.87384, 1.87229, 1.87232, 1.87006, 1.96307, 1.87073, 2.09995, 1.86898, 1.86891, 1.869, 2.00006, 1.86982, 1.99435, 1.99706, 2.0693, 1.79933, 1.79739, 1.89846, 1.89913, 1.7861, 1.89258, 1.83666, 1.78242, 1.90742, 1.77579, 1.77532, 1.77594, 1.77582, 1.77644, 1.77878, 1.77481, 1.7751, 1.77404, 1.90357, 1.77349, 1.77133, 1.90617, 1.77191, 1.77227, 1.77348, 1.77219, 1.77289, 1.77475, 1.89961, 1.7736, 1.82373
2.03795, 1.93359, 1.93346, 1.93159, 1.92841, 1.92927, 1.92566, 1.97255, 1.97323, 1.91806, 1.91781, 1.91689, 1.91247, 2.0358, 1.90564, 2.00328, 1.90607, 1.90525, 1.90366, 2.10158, 1.90001, 1.89792, 1.89816, 1.90019, 1.89917, 1.89864, 1.99795, 1.90233, 2.07187, 2.14829, 2.03727, 2.03484, 2.14862, 2.02914, 2.06628, 1.9456, 2.02035, 1.94159, 2.06181, 2.01161, 2.0098, 2.00584, 2.00629, 1.92692, 2.00115, 2.05799, 1.99992, 1.99943, 2.00229, 2.00168, 2.00466, 2.00861, 2.01416, 2.01555, 2.02135, 2.04564, 2.01821, 2.10321, 2.10111, 2.01335, 2.01047, 2.01042, 2.01056, 2.01028, 2.09185, 2.00714, 2.10213, 2.00801, 2.0911, 2.10812, 2.00558, 2.09101, 2.07783, 2.07722, 2.07816, 1.99975, 2.08089, 2.00114, 2.09357, 2.07378, 1.99621, 2.08717, 2.08819, 2.08722, 1.99011, 1.98914, 2.0797, 1.98693, 2.07557, 2.06023, 2.06006, 1.98013, 1.97894, 1.97974, 2.07279, 1.90194, 2.01056, 1.89625, 1.88748, 1.93603, 1.88046, 1.87912, 1.92876, 1.87346, 1.87344, 1.8723, 1.873, 2.00264, 1.8704, 2.10416, 1.8696, 2.00291, 1.9644, 1.9172, 1.91798, 1.86895, 2.00035, 1.86819, 1.86819, 1.87224, 1.88655, 1.79203, 1.7876, 1.78588, 1.78233, 1.7819, 1.90688, 1.77813, 1.77587, 1.90449, 1.77532, 1.77394, 1.77594, 1.77625, 1.77392, 1.7755, 1.90333, 1.77294, 1.90426, 1.77248, 1.77224, 1.90403, 1.77135, 1.77258, 1.76996, 1.77251, 1.90163, 1.89619, 1.77613, 1.77237
2.04064, 2.04024, 1.93429, 1.93268, 1.93185, 1.93028, 1.97724, 1.9246, 1.91908, 1.91807, 1.96886, 1.96508, 1.96248, 2.00829, 1.95894, 1.95791, 1.90733, 1.95531, 1.90521, 2.10047, 1.9006, 1.90049, 1.90012, 1.9004, 1.90075, 1.90129, 1.90175, 2.07909, 2.07318, 2.07294, 2.038, 1.95875, 2.03134, 2.03209, 2.02758, 2.02027, 2.06555, 2.15553, 1.94022, 2.0099, 2.01024, 2.00823, 2.00412, 2.14283, 2.05903, 1.92579, 2.05869, 2.00184, 2.00306, 2.0036, 2.0073, 2.05185, 2.01725, 1.94408, 2.13384, 2.04718, 2.01766, 2.09846, 2.12407, 2.01476, 2.01172, 2.01264, 2.01087, 2.01019, 2.00991, 2.10765, 2.00841, 2.11471, 2.00694, 2.00783, 2.09866, 2.08327, 2.08784, 2.00288, 2.10471, 2.00161, 2.09471, 1.99991, 1.99867, 2.10086, 2.09188, 2.08866, 2.07723, 1.99433, 1.99148, 2.08036, 2.08271, 2.08926, 2.0702, 2.0729, 1.98317, 1.98159, 1.97998, 2.06122, 2.0689, 1.9013, 2.01175, 2.10367, 1.88969, 1.8863, 1.93408, 1.93069, 1.92818, 1.8759, 1.87392, 1.87282, 1.87238, 1.8714, 2.10021, 1.86969, 1.86904, 1.86706, 1.96887, 1.86841, 1.98472, 1.9178, 1.86758, 1.99016, 1.86715, 1.7975, 1.88764, 1.89888, 1.78982, 1.7864, 1.89583, 1.90542, 1.90586, 1.77687, 1.77651, 1.77528, 1.77567, 1.89427, 1.77292, 1.77551, 1.77191, 1.77454, 1.77297, 1.90456, 1.90334, 1.7698, 1.77113, 1.77186, 1.82235, 1.76813, 1.82061, 1.77221, 1.77313, 1.89198, 1.88634, 1.7738
1.93694, 1.93777, 1.93485, 1.93471, 1.93049, 1.93127, 1.97963, 1.97626, 1.92483, 1.92128, 1.91893, 1.91569, 1.91326, 1.91167, 1.91036, 1.90606, 2.11054, 2.02682, 2.01018, 1.95482, 1.90326, 1.993, 1.90215, 1.90313, 1.90306, 2.00081, 1.90322, 2.00369, 2.04189, 2.04092, 2.03491, 2.03748, 2.03172, 2.02898, 2.14499, 1.94735, 1.94576, 2.01648, 2.01408, 2.01146, 1.93484, 1.93382, 2.06212, 2.14873, 1.9271, 1.92515, 2.00275, 2.0019, 2.00385, 1.92845, 2.00725, 2.00971, 2.01295, 2.01993, 2.04733, 2.14142, 2.11018, 2.10039, 2.11422, 2.09287, 2.01219, 2.01247, 2.00974, 2.01148, 2.09318, 2.11144, 2.00873, 2.1068, 2.00731, 2.00771, 2.09294, 2.08302, 2.08905, 2.0036, 2.09323, 2.00035, 2.10702, 2.09433, 1.99769, 1.99604, 1.99735, 2.08639, 2.08368, 2.09374, 2.09372, 1.98965, 2.07636, 2.08293, 1.98408, 2.05803, 1.98288, 1.98288, 1.98015, 2.06171, 2.07416, 1.95123, 1.94773, 1.8932, 1.88986, 1.93807, 1.93439, 1.88056, 1.87897, 1.87771, 1.87504, 1.87539, 1.87222, 1.87179, 2.10044, 1.86845, 1.86817, 1.86581, 1.86865, 1.91786, 1.86604, 1.91707, 1.86877, 1.86771, 2.08416, 1.8506, 1.79527, 1.79254, 1.78626, 1.90348, 1.90268, 1.87226, 1.7792, 1.7757, 1.90062, 1.77368, 1.77499, 1.77368, 1.77427, 1.77222, 1.77141, 1.90309, 1.77401, 1.77196, 1.7717, 1.76972, 1.77061, 1.90491, 1.77023, 1.77205, 1.76978, 1.91286, 1.76964, 1.76986, 1.77087, 1.7714
1.9394, 1.93919, 2.06236, 2.05903, 2.0591, 1.928, 1.97868, 1.92733, 1.92767, 1.92307, 2.01528, 1.9152, 2.04183, 1.91294, 2.04121, 1.90764, 1.90653, 1.9047, 2.00978, 1.97019, 1.9031, 1.90246, 1.90144, 1.95136, 1.90323, 1.90391, 1.90376, 2.00623, 2.07634, 2.03949, 2.03751, 2.07184, 2.03258, 2.03146, 2.02733, 1.94762, 2.0215, 2.06634, 2.14135, 2.01383, 2.01373, 2.00834, 2.00682, 1.93098, 1.92848, 2.14652, 2.00043, 2.00324, 2.00258, 1.92814, 2.00474, 2.00991, 2.01347, 2.01516, 2.048, 2.04719, 2.1096, 2.10807, 2.01733, 2.09324, 2.01429, 2.01208, 2.00992, 2.09784, 2.09372, 2.11687, 2.11025, 2.10528, 2.00811, 2.00866, 2.09063, 2.08273, 2.0989, 2.00371, 2.08761, 2.08318, 2.09786, 2.09295, 1.9983, 2.08689, 2.08953, 1.99608, 2.07273, 2.07904, 2.07555, 1.98916, 1.98737, 2.07596, 2.07733, 2.06587, 1.98243, 1.98207, 1.97966, 1.98021, 1.97832, 1.90039, 1.8986, 1.89611, 1.88998, 2.00814, 1.88241, 1.87949, 1.87673, 1.87884, 1.87517, 1.87418, 1.87094, 1.92084, 2.00323, 1.86965, 1.96275, 2.00066, 1.86683, 1.98459, 1.93011, 1.91531, 2.07942, 1.86792, 1.86558, 1.84863, 1.79368, 1.83839, 1.78602, 1.90217, 1.78076, 1.77832, 1.7757, 1.77647, 1.77486, 1.90061, 1.89925, 1.90745, 1.77241, 1.77058, 1.77023, 1.90628, 1.90036, 1.89935, 1.77138, 1.7707, 1.77116, 1.76979, 1.77029, 1.77151, 1.77222, 1.77079, 1.89925, 1.89602, 1.81972, 1.89285
1.9405, 1.94167, 1.93758, 1.9352, 2.22124, 1.9301, 2.05542, 2.05177, 2.05234, 1.92157, 1.9188, 1.91764, 2.04165, 1.91159, 1.96104, 1.90839, 1.909, 1.90616, 2.12182, 2.02708, 1.90577, 1.90305, 1.90369, 1.90314, 1.90292, 1.90505, 2.03249, 1.90738, 2.07538, 1.9661, 2.0734, 2.03592, 2.03436, 2.03466, 2.02701, 2.1585, 2.0209, 2.06771, 2.0168, 2.06601, 2.01169, 2.0118, 1.93049, 1.93052, 2.00694, 2.00295, 2.00718, 2.00467, 2.00552, 2.00399, 2.05214, 2.01074, 2.05235, 1.9436, 2.02443, 2.12098, 2.10468, 2.11219, 2.11772, 2.09003, 2.01348, 2.01294, 2.01434, 2.01134, 2.1016, 2.09866, 2.1112, 2.09487, 2.00746, 2.10405, 2.10682, 2.10039, 2.08444, 2.00409, 2.10336, 2.10445, 2.08682, 2.08885, 2.08886, 1.99742, 1.99568, 2.08007, 2.07632, 2.0747, 2.0727, 1.9899, 2.08181, 1.98668, 2.06248, 2.05891, 2.05918, 1.98192, 1.98356, 2.05675, 2.06436, 1.90393, 1.89777, 1.89503, 1.889, 1.97839, 1.88329, 2.01023, 1.87871, 2.00715, 1.87503, 1.87199, 1.87006, 2.00274, 2.00319, 1.962, 2.0012, 2.00239, 1.96508, 1.86595, 1.91461, 1.91622, 1.8639, 1.86506, 1.99067, 1.79584, 1.9133, 1.78627, 1.90001, 1.88362, 1.90039, 1.77789, 1.90696, 1.77476, 1.77261, 1.7729, 1.77159, 1.90686, 1.76826, 1.821, 1.77149, 1.76992, 1.77159, 1.82054, 1.81964, 1.9017, 1.86481, 1.76876, 1.7705, 1.77092, 1.82105, 1.76843, 1.89672, 1.77028, 1.76952, 1.76994
1.94092, 1.94141, 1.99752, 2.05847, 2.05965, 1.93181, 1.92933, 1.92796, 1.97542, 1.97565, 2.04401, 2.04008, 1.91641, 2.10103, 1.96185, 1.90967, 1.96651, 1.90616, 1.9059, 1.90464, 1.90591, 1.90368, 1.90504, 1.90267, 1.90468, 1.90493, 2.00708, 2.00467, 2.07701, 2.04547, 2.07499, 2.03905, 1.95897, 1.95593, 1.95539, 1.94884, 2.02171, 1.94439, 2.01744, 2.01398, 2.01179, 2.15906, 2.15289, 2.00434, 2.14911, 2.00312, 2.00464, 1.92718, 1.92751, 2.05601, 2.05498, 2.01074, 2.01217, 2.02175, 2.05478, 2.14878, 2.11849, 2.10078, 2.09697, 2.09026, 2.09086, 2.01284, 2.01483, 2.01028, 2.09972, 2.10297, 2.10499, 2.09778, 2.10083, 2.10733, 2.084, 2.00647, 2.00523, 2.08116, 2.08551, 2.00167, 1.99989, 2.09595, 2.08641, 1.9989, 2.07835, 2.08014, 2.08626, 2.08089, 1.99029, 1.98925, 2.07697, 2.07345, 2.07427, 2.07962, 2.05882, 1.97917, 1.98067, 2.06276, 2.07239, 1.95467, 2.00329, 1.89481, 1.89, 1.88785, 1.88507, 1.88141, 1.93123, 1.87718, 2.10092, 1.87371, 1.8734, 1.87153, 2.00342, 2.09016, 1.8653, 1.8636, 1.86279, 2.00017, 2.00097, 1.8655, 2.09255, 1.95655, 1.97505, 1.79316, 1.79089, 1.78924, 1.89098, 2.00269, 1.90494, 1.77776, 1.7746, 1.89638, 1.8222, 1.89587, 1.7718, 1.90234, 1.76901, 1.82029, 1.76858, 1.76968, 1.82604, 1.81951, 1.76929, 1.76902, 1.90345, 1.82015, 1.8859, 1.76767, 1.76657, 1.76768, 1.90111, 1.76844, 1.89683, 1.76956
2.08722, 2.03588, 1.99667, 2.0541, 1.93504, 1.9821, 1.9813, 1.97857, 1.97539, 1.92353, 2.04865, 1.92009, 2.12518, 1.96538, 1.91379, 1.96097, 1.95951, 2.10839, 1.90478, 1.90645, 2.11952, 1.90634, 2.09418, 2.09281, 1.90513, 1.95433, 1.90683, 2.00618, 2.07883, 2.07663, 1.96585, 2.03855, 2.07603, 2.03488, 2.07192, 2.02598, 2.02448, 2.01764, 2.01839, 2.01516, 2.14694, 2.01134, 2.01056, 2.00715, 2.14201, 2.00457, 2.00505, 2.00337, 2.00367, 2.00703, 1.93419, 2.01443, 1.9384, 2.05365, 2.04871, 2.14856, 2.12451, 2.11439, 2.1046, 2.0168, 2.09107, 2.01354, 2.01283, 2.10797, 2.10575, 2.09286, 2.01088, 2.10051, 2.01032, 2.0076, 2.09757, 2.08274, 2.0799, 2.08026, 2.09632, 2.09756, 2.0952, 2.08703, 2.08569, 2.08234, 2.07951, 1.99301, 2.08795, 2.08172, 1.98992, 2.0957, 2.07557, 2.0621, 2.09323, 2.05972, 2.06147, 2.05867, 2.05819, 1.97891, 2.05827, 2.00759, 1.94887, 2.00744, 1.89335, 1.88611, 1.8844, 1.93114, 1.92945, 1.87603, 1.87513, 1.87189, 1.87062, 1.87159, 1.87026, 2.00139, 2.00114, 1.86601, 1.86496, 1.86486, 1.86489, 1.86273, 1.86291, 1.86282, 1.8645, 1.94809, 1.95109, 1.78649, 1.78545, 1.77948, 1.90673, 1.88539, 1.89916, 1.77243, 1.77198, 1.76906, 1.76697, 1.87031, 1.89625, 1.76547, 1.86589, 1.82685, 1.76789, 1.76856, 1.76825, 1.76638, 1.88984, 1.76731, 1.89381, 1.88389, 1.76567, 1.89908, 1.88551, 1.76799, 1.89609, 1.77057
2.00054, 1.94096, 2.06617, 1.98749, 1.93419, 1.93136, 1.9304, 2.05592, 2.12767, 2.04288, 1.92694, 1.92022, 1.91841, 1.91639, 1.91298, 1.9618, 2.1286, 1.90879, 1.90719, 2.10514, 1.90735, 1.90533, 1.90447, 1.90636, 2.01347, 1.99371, 1.90726, 1.90803, 2.17917, 2.04531, 2.04362, 2.03857, 2.03727, 2.03432, 2.0307, 2.16179, 2.02507, 2.14807, 2.07033, 2.17204, 2.01258, 2.14402, 2.01042, 2.14523, 2.00638, 2.00648, 2.0039, 2.05969, 1.92962, 2.00629, 2.14494, 2.15627, 2.01445, 2.0204, 2.02108, 2.12743, 2.11201, 2.09593, 2.01669, 2.01768, 2.01511, 2.01416, 2.0132, 2.1022, 2.09003, 2.01228, 2.01061, 2.08321, 2.00907, 2.1021, 2.11045, 2.10132, 2.10391, 2.09107, 2.08807, 2.09098, 2.09636, 2.08581, 2.08103, 2.08652, 2.083, 2.08413, 2.08555, 2.07666, 2.06933, 2.07677, 1.98921, 2.07968, 2.06059, 2.05987, 1.98084, 1.97932, 1.97856, 2.07352, 2.06829, 2.10503, 2.00868, 2.00397, 1.89108, 1.95374, 1.88641, 1.93189, 2.07696, 1.92712, 1.87504, 1.96818, 1.87166, 1.86851, 1.86995, 1.86622, 1.86612, 1.86572, 1.86426, 1.86704, 1.86295, 1.86343, 1.9956, 1.86473, 1.86377, 1.94804, 1.95139, 2.02399, 1.78008, 1.78045, 1.77565, 1.77539, 1.77268, 1.76848, 1.90037, 1.7706, 1.76963, 1.7704, 1.7664, 1.76533, 1.90304, 1.7663, 1.76684, 1.76611, 1.81784, 1.8787, 1.89699, 1.7669, 1.7658, 1.90195, 1.76669, 1.89726, 1.76719, 1.76541, 1.7645, 1.76774
2.01093, 2.04792, 1.94004, 1.93543, 1.93509, 2.06247, 1.98453, 1.9319, 2.12748, 1.92606, 1.9243, 2.04105, 1.91901, 1.98046, 1.91426, 1.91149, 1.91193, 1.90866, 1.90861, 1.90725, 2.02525, 1.90696, 1.95579, 1.95623, 1.90712, 2.00052, 1.90747, 1.90991, 2.0458, 2.04301, 2.07611, 1.96475, 2.03802, 2.03241, 2.02957, 2.0276, 2.16998, 2.02352, 2.01878, 2.06632, 2.01406, 2.01114, 2.06587, 2.00711, 1.92844, 2.06334, 1.9278, 2.00531, 1.92937, 2.0067, 2.00824, 2.01388, 2.01795, 2.05417, 2.05169, 2.04998, 2.10553, 2.10745, 2.11515, 2.11028, 2.01434, 2.01387, 2.01373, 2.09308, 2.10419, 2.12275, 2.11793, 2.08417, 2.10477, 2.10349, 2.10641, 2.1004, 2.09004, 2.0942, 2.00412, 2.09033, 2.09299, 2.09927, 2.08431, 2.10028, 2.07562, 2.08357, 2.08343, 2.07744, 2.08718, 2.07985, 2.08771, 1.98301, 2.0765, 1.9819, 1.98229, 1.98085, 1.97894, 1.97652, 1.97703, 1.90465, 1.89989, 1.89414, 1.89197, 1.88787, 1.88432, 1.93192, 1.99262, 1.9281, 1.92536, 2.00189, 1.97873, 1.91988, 1.86839, 1.86666, 2.00098, 1.86595, 1.86485, 1.865, 1.86413, 1.86357, 1.99872, 1.86234, 1.86267, 1.79335, 1.94869, 1.7858, 1.78179, 1.82884, 1.77584, 1.85587, 1.7715, 1.77193, 1.77093, 1.76887, 1.76975, 1.7674, 1.76578, 1.76766, 1.76803, 1.76467, 1.7681, 1.89694, 1.76549, 1.76805, 1.77087, 1.76799, 1.76807, 1.9001, 1.76892, 1.76772, 1.76498, 1.765, 1.76369, 1.76681
1.99324, 1.94009, 1.93891, 2.04857, 2.05125, 2.06323, 2.04288, 1.98286, 1.92748, 2.02137, 1.92488, 2.0403, 1.92007, 1.91983, 1.91375, 1.91316, 1.90987, 1.90969, 1.90692, 1.90672, 1.90662, 1.95802, 1.95635, 1.95605, 2.0143, 1.90702, 1.99652, 1.95829, 2.08084, 2.04849, 2.04294, 1.96329, 2.03565, 2.03502, 2.03182, 2.07386, 2.02407, 2.02363, 2.02026, 2.06924, 2.01445, 2.06615, 2.01016, 2.06645, 2.00648, 2.00637, 2.00713, 2.06248, 1.92892, 2.0585, 2.00781, 1.93641, 1.94122, 1.94631, 2.0521, 2.05293, 2.02472, 2.11154, 2.11791, 2.12875, 2.01597, 2.01437, 2.01433, 2.10383, 2.08888, 2.09687, 2.12152, 2.08327, 2.10471, 2.00983, 2.08112, 2.00783, 2.09653, 2.07971, 2.10237, 2.10203, 2.09981, 2.00027, 2.08438, 2.086, 2.09725, 2.08675, 1.99281, 1.99292, 2.07904, 1.98917, 2.07578, 2.07464, 1.98307, 1.98074, 1.98085, 1.9792, 1.98035, 1.97786, 2.04789, 1.90578, 1.90038, 1.89413, 1.89257, 1.93813, 1.88708, 2.00731, 1.87836, 1.87721, 1.87696, 1.87339, 1.87134, 1.92162, 1.91971, 1.86643, 1.86529, 1.8648, 1.86436, 1.8634, 2.09095, 1.86468, 1.86286, 1.96776, 1.86304, 1.79172, 1.87946, 1.78332, 1.78287, 1.8297, 1.77594, 1.77394, 1.76976, 1.76907, 1.87326, 1.76645, 1.76773, 1.89818, 1.76449, 1.76576, 1.76601, 1.76723, 1.90059, 1.76475, 1.76828, 1.87215, 1.76845, 1.89772, 1.76655, 1.76257, 1.76431, 1.8997, 1.76513, 1.76811, 1.76319, 1.7656
2.06146, 1.9408, 2.06613, 1.93806, 1.98688, 2.0556, 1.93378, 1.98282, 1.93086, 1.97638, 1.97692, 2.04817, 1.92074, 1.9204, 1.917, 1.91304, 1.90994, 1.91034, 1.90966, 1.90774, 1.90805, 1.90885, 1.95678, 1.90669, 2.09356, 1.90631, 1.9968, 2.02819, 2.0491, 2.04893, 2.04767, 2.04124, 2.03548, 2.03421, 2.03184, 2.02783, 2.14843, 1.94837, 2.01935, 1.9418, 2.01404, 2.06813, 2.01046, 2.06591, 2.00671, 2.00744, 2.00534, 2.00647, 1.92907, 2.00647, 2.05857, 2.01167, 2.01497, 2.02234, 1.95131, 2.14944, 2.12158, 2.1075, 2.11524, 2.09212, 2.09109, 2.01449, 2.01427, 2.01365, 2.09389, 2.10429, 2.011, 2.11113, 2.10089, 2.01189, 2.1281, 2.07931, 2.10372, 2.09183, 2.00517, 2.09148, 2.0774, 2.00167, 2.07369, 1.99698, 2.09589, 1.9962, 1.99391, 2.07289, 1.99117, 2.07964, 2.07219, 2.07231, 2.08297, 2.07373, 1.98033, 1.97951, 1.97674, 1.9795, 2.05117, 1.90304, 1.89787, 1.9529, 1.94154, 1.93916, 1.88442, 1.88166, 1.87919, 1.87722, 1.8764, 2.00572, 1.86866, 1.86739, 1.86958, 1.86802, 1.8654, 1.86291, 1.99929, 1.86368, 1.95869, 1.86419, 1.95261, 1.97543, 1.86776, 1.84406, 1.78983, 1.7834, 1.83095, 1.89021, 1.77604, 1.77171, 1.95022, 1.76983, 1.89732, 1.76791, 1.76542, 1.76634, 1.90019, 1.89969, 1.76482, 1.90445, 1.90125, 1.76308, 1.76491, 1.76252, 1.76142, 1.90079, 1.76487, 1.76475, 1.89993, 1.7656, 1.76449, 1.8972, 1.76406, 1.95439
1.94276, 1.94259, 1.94028, 1.9381, 1.9393, 1.98628, 2.02128, 2.02067, 1.92792, 1.97669, 2.04779, 2.05257, 1.92158, 1.92094, 2.02474, 2.02584, 1.91118, 1.91228, 1.91017, 2.032, 2.03103, 1.90693, 1.90804, 2.01809, 1.90965, 1.90639, 1.91026, 1.91005, 2.05095, 2.04827, 2.08024, 2.04164, 2.04059, 2.07672, 1.95589, 2.07449, 2.02613, 2.17012, 2.02065, 2.07252, 2.01475, 2.06992, 2.06828, 2.00799, 2.0662, 2.00555, 1.93078, 2.00685, 2.13945, 2.00764, 2.0086, 2.01389, 2.01357, 2.02076, 2.05252, 2.1431, 2.1005, 2.11479, 2.09627, 2.09506, 2.09025, 2.01377, 2.01307, 2.01083, 2.10467, 2.10335, 2.01142, 2.09953, 2.0982, 2.11942, 2.08411, 2.00686, 2.00686, 2.09793, 2.09309, 2.00269, 2.07517, 2.07987, 2.09457, 1.99803, 1.99704, 2.07726, 2.07953, 2.07904, 1.98995, 1.98995, 2.07305, 2.07666, 2.06791, 2.07075, 1.98055, 1.97897, 1.97838, 1.97904, 1.97709, 2.01363, 2.00754, 1.89577, 1.89265, 1.88647, 2.0075, 2.1003, 2.00965, 2.00655, 1.99696, 1.87307, 1.8717, 2.0024, 1.86819, 1.86764, 1.86383, 1.91449, 1.86287, 1.86206, 1.86093, 1.97229, 1.91078, 1.912, 1.86121, 1.78855, 1.78564, 1.89962, 1.77916, 1.77873, 1.90295, 1.89694, 1.77219, 1.89507, 1.89582, 1.76855, 1.89036, 1.76446, 1.76377, 1.76406, 1.76316, 1.89991, 1.76315, 1.76433, 1.89764, 1.90086, 1.76397, 1.76357, 1.76412, 1.76425, 1.89953, 1.76091, 1.90599, 1.76478, 1.76474, 1.7627
1.94534, 1.94265, 2.03569, 1.94161, 1.98879, 1.93509, 2.05681, 2.04318, 2.03909, 1.97907, 1.92532, 2.0528, 2.04575, 1.91891, 2.03034, 1.96623, 1.91169, 1.91325, 2.03562, 1.90706, 1.90647, 1.90773, 1.90732, 1.9079, 2.0136, 2.09072, 1.90988, 1.90741, 2.04955, 2.04814, 2.04797, 2.04169, 2.07916, 1.96019, 2.03305, 2.02983, 2.02644, 2.07409, 2.02363, 2.01889, 1.93855, 2.07312, 1.93425, 2.01077, 2.00686, 2.06506, 2.13962, 2.14867, 2.00517, 2.00667, 2.01011, 2.01133, 2.0176, 1.94341, 2.02372, 1.9565, 2.10112, 2.09985, 2.09612, 2.09354, 2.09228, 2.01396, 2.01401, 2.01439, 2.09727, 2.11068, 2.09993, 2.11169, 2.10659, 2.08397, 2.08282, 2.10781, 2.09212, 2.09493, 2.00367, 2.1042, 2.0756, 2.00095, 2.1, 1.99797, 2.08185, 2.09811, 2.07655, 2.08648, 2.0762, 2.08897, 2.07614, 2.09323, 2.07205, 2.066, 1.9805, 1.97906, 1.97749, 2.06076, 2.0536, 1.90081, 1.89998, 1.89688, 1.89143, 1.88632, 2.00681, 1.88175, 2.09058, 1.87578, 1.875, 1.96273, 1.92207, 1.86923, 1.86542, 1.99641, 1.86527, 1.91477, 1.91291, 1.99799, 1.99717, 1.86028, 1.98922, 2.08055, 1.86008, 1.78991, 1.83523, 1.78133, 1.7772, 1.8933, 1.7751, 1.77161, 1.76957, 1.88061, 1.81637, 1.76458, 1.76464, 1.89264, 1.76234, 1.7618, 1.76452, 1.76174, 1.76339, 1.76486, 1.89752, 1.76227, 1.76505, 1.81517, 1.81359, 1.76197, 1.76263, 1.76268, 1.76225, 1.76281, 1.76309, 1.89508
1.94536, 2.06851, 1.94112, 1.93975, 2.062, 2.1389, 1.93518, 1.93323, 1.98085, 1.93022, 1.92622, 1.92409, 1.92115, 1.97195, 2.1048, 1.96597, 1.91157, 1.96174, 2.11362, 1.90657, 1.90818, 2.02457, 1.95926, 2.01444, 1.908, 1.90978, 1.90884, 1.90999, 2.08473, 2.04837, 2.04502, 2.04295, 2.08035, 2.03528, 2.07665, 2.07721, 2.0278, 2.07347, 2.15178, 2.17503, 2.01531, 2.0145, 2.0158, 2.00906, 2.01332, 2.00647, 2.00485, 2.06386, 2.00654, 2.0086, 2.00856, 2.01136, 2.01581, 2.02402, 2.02806, 2.13852, 2.11285, 2.09787, 2.11755, 2.01828, 2.09243, 2.09408, 2.01404, 2.01328, 2.10302, 2.10694, 2.10694, 2.10419, 2.0102, 2.10727, 2.0108, 2.0963, 2.00789, 2.08634, 2.00495, 2.09629, 2.09118, 2.00177, 2.09357, 1.99764, 2.09335, 2.07756, 2.08644, 2.08571, 2.07634, 2.0946, 2.07475, 1.98652, 2.0792, 2.061, 1.97974, 1.97834, 1.97768, 2.05448, 2.05316, 1.90325, 1.89693, 1.89426, 1.88993, 2.09607, 1.88353, 1.87997, 1.87899, 1.87502, 1.873, 1.87204, 1.86982, 1.86716, 1.86712, 1.86637, 1.86503, 1.86266, 1.86127, 1.86414, 1.86002, 1.85947, 1.85892, 1.86128, 1.99178, 1.88625, 1.78281, 1.78086, 1.7776, 1.89498, 1.89552, 1.82013, 1.87841, 1.76592, 1.81645, 1.76216, 1.76195, 1.89783, 1.8965, 1.81188, 1.80988, 1.76074, 1.89824, 1.75932, 1.76418, 1.89735, 1.7602, 1.81381, 1.88345, 2.07185, 1.76202, 1.89674, 1.76275, 1.76332, 1.7628, 1.76323
1.94537, 1.94585, 1.99284, 2.14299, 1.93669, 1.98665, 1.9345, 1.93228, 1.93089, 1.92837, 2.12837, 1.97557, 1.92357, 1.92324, 1.96993, 1.96647, 2.00113, 2.00269, 1.91111, 1.96033, 2.02837, 1.9591, 1.90881, 2.10259, 2.09958, 1.91024, 1.91033, 1.91251, 2.08576, 2.08697, 2.04555, 2.04309, 1.96378, 2.0371, 1.95703, 2.07737, 2.07562, 2.02827, 2.02155, 2.02045, 1.94113, 2.01414, 2.07047, 2.06861, 2.01012, 2.00649, 2.00586, 2.06308, 2.00789, 2.00818, 2.00745, 2.05854, 2.01556, 2.05793, 2.02448, 2.05157, 2.02346, 2.11398, 2.10686, 2.11752, 2.01717, 2.0166, 2.0136, 2.01468, 2.01334, 2.11014, 2.01149, 2.01109, 2.10091, 2.10676, 2.10894, 2.08114, 2.00802, 2.09836, 2.10508, 2.00412, 2.08739, 2.09436, 2.09645, 2.0898, 2.08991, 2.09053, 1.99302, 2.07726, 2.08962, 2.07383, 2.07667, 2.0758, 2.07337, 2.05841, 2.06124, 1.97674, 2.05699, 2.05345, 2.05235, 1.90355, 1.89798, 1.89574, 1.88851, 1.88458, 1.88411, 1.87994, 1.97567, 1.87582, 1.87327, 1.87236, 1.86894, 1.87097, 1.86586, 1.86558, 1.86182, 1.97141, 1.86386, 1.91181, 1.86211, 1.86063, 1.85791, 1.91024, 1.91129, 1.83724, 1.89315, 1.83277, 1.77659, 1.90162, 1.94629, 1.76984, 1.76577, 1.76551, 1.90161, 1.89964, 1.9482, 1.75989, 1.89657, 1.81133, 1.81184, 1.80977, 1.89113, 2.01567, 1.76086, 1.89744, 1.82518, 1.76064, 1.76241, 1.76067, 1.7613, 1.89682, 1.89431, 1.76063, 1.76285, 1.76546
1.9965, 1.9459, 1.94284, 2.12616, 2.05945, 2.03024, 1.93444, 2.13892, 2.13178, 2.05317, 1.9281, 1.976, 1.92574, 1.92362, 1.91839, 1.91778, 1.91504, 1.96445, 2.02063, 1.96038, 2.01701, 1.91027, 1.95997, 1.9128, 1.90912, 1.91081, 1.91105, 2.07533, 2.05165, 2.05157, 2.04794, 2.04258, 1.96287, 2.08127, 2.0804, 1.95777, 2.02579, 2.02536, 2.02322, 2.01941, 1.94085, 1.93864, 2.0705, 2.06948, 2.06748, 2.0067, 2.00739, 2.00653, 1.93174, 2.05997, 2.01188, 2.01383, 1.94063, 2.0559, 2.02855, 2.05252, 2.11794, 2.11418, 2.12067, 2.10449, 2.01647, 2.01549, 2.01176, 2.1003, 2.09634, 2.01497, 2.08759, 2.09667, 2.1032, 2.01021, 2.10067, 2.08365, 2.00834, 2.10066, 2.10007, 2.00392, 2.0029, 2.08784, 2.09408, 1.99935, 2.08681, 2.09415, 2.08297, 2.09077, 1.99288, 1.98967, 1.9881, 2.07308, 2.08425, 2.08524, 2.05997, 2.05865, 1.97924, 1.97797, 2.05348, 1.90224, 1.89764, 1.89553, 1.89017, 1.88855, 1.88392, 1.93071, 1.87695, 1.92688, 1.92416, 1.87289, 1.86874, 1.86764, 2.08874, 1.99751, 1.99691, 1.86271, 1.85862, 1.85923, 1.86165, 1.90964, 1.85816, 1.85984, 1.8383, 1.83593, 1.89297, 1.77774, 1.89601, 1.77329, 1.76984, 1.76688, 1.76429, 1.76343, 1.9008, 1.89391, 1.75939, 2.00023, 1.75962, 1.76021, 1.76103, 1.75956, 1.75991, 1.89601, 1.90099, 1.76087, 1.75999, 1.8129, 1.8104, 1.81214, 1.76132, 1.76, 1.76245, 1.76365, 1.76245, 1.76491
1.99739, 1.94837, 1.94424, 1.94454, 1.9421, 2.03013, 2.0594, 1.93479, 1.93368, 1.93055, 1.92848, 1.92812, 1.92721, 1.92008, 1.92308, 1.91954, 1.9148, 2.03931, 1.96254, 1.96193, 1.96178, 1.90943, 2.10496, 1.96195, 1.9087, 1.90975, 2.09017, 1.9116, 2.08757, 2.04936, 1.96935, 2.04356, 2.04103, 2.15854, 2.03582, 2.03475, 2.02579, 2.02406, 2.02176, 2.02156, 2.07425, 2.07356, 2.00992, 2.01111, 2.00868, 2.00964, 2.15192, 2.00827, 2.00942, 2.01025, 2.06088, 2.14266, 2.01706, 2.05537, 1.94871, 2.05332, 2.11765, 2.02122, 2.11855, 2.1041, 2.01729, 2.0166, 2.01476, 2.0947, 2.09777, 2.11081, 2.107, 2.09402, 2.10047, 2.09538, 2.09122, 2.09745, 2.00811, 2.00665, 2.09849, 2.0039, 2.00154, 2.09651, 2.00029, 2.07907, 2.07762, 1.99705, 2.0778, 1.99431, 2.07578, 2.0794, 2.06392, 2.06408, 2.06192, 2.08309, 2.0606, 1.97724, 2.0497, 2.05269, 2.05162, 1.90274, 1.89663, 2.00738, 1.8898, 1.88725, 1.88292, 1.93131, 1.87695, 1.98314, 1.87311, 1.92156, 1.86969, 1.93754, 1.86632, 1.86584, 1.8627, 1.99629, 1.86478, 1.99671, 1.86004, 1.99415, 1.85768, 1.95023, 1.98922, 1.88742, 1.77867, 1.82878, 1.89403, 1.77128, 1.86183, 1.76669, 1.89697, 1.76406, 1.76308, 1.89732, 1.88149, 1.90033, 1.8622, 1.89721, 1.75757, 1.89844, 1.75714, 1.89579, 1.75524, 1.76021, 1.75845, 1.75902, 1.81093, 1.81069, 1.76065, 1.7624, 1.76162, 1.75916, 1.76195, 1.76265
2.12903, 2.05302, 2.05102, 1.99293, 1.93946, 1.98746, 1.93542, 2.04483, 1.98467, 1.93063, 2.12814, 1.92746, 1.92673, 1.92449, 1.92138, 1.92012, 1.91469, 1.91393, 1.91037, 1.91266, 2.03726, 1.96182, 1.91055, 1.91006, 1.91123, 1.91151, 1.91191, 1.91328, 2.05457, 2.04945, 2.04561, 2.0859, 2.04212, 2.03805, 2.03471, 2.07942, 2.0267, 2.16193, 2.02428, 2.02158, 2.07286, 2.01757, 2.01138, 2.00984, 2.00828, 2.00965, 2.00754, 2.00898, 2.14348, 2.06162, 2.01437, 2.01447, 1.94271, 2.0547, 2.14566, 2.1513, 2.02415, 2.02254, 2.11327, 2.10472, 2.01601, 2.0147, 2.01375, 2.01381, 2.11602, 2.1283, 2.10356, 2.10062, 2.0934, 2.01083, 2.10376, 2.00756, 2.09206, 2.00572, 2.09771, 2.08009, 2.08545, 2.09428, 2.00059, 2.08597, 2.08228, 2.08154, 2.08145, 2.09093, 2.07583, 2.07772, 2.08661, 2.05934, 2.08321, 2.05536, 1.98042, 2.05322, 1.97916, 1.97779, 2.05599, 2.02806, 1.89679, 2.00429, 1.94041, 1.88567, 1.88368, 1.8808, 1.87838, 1.87514, 2.00648, 1.8715, 1.86781, 1.86563, 1.95851, 1.86351, 1.86175, 1.86189, 1.96768, 1.85823, 1.85987, 1.85881, 1.99496, 1.85672, 1.85813, 1.89251, 1.77954, 1.77584, 1.87558, 1.77179, 1.76819, 1.76486, 1.89373, 1.76376, 1.89186, 1.76016, 1.75814, 1.88982, 1.90017, 1.75637, 1.75735, 1.75562, 1.75634, 1.75596, 1.75634, 1.75811, 1.89578, 1.89747, 1.75567, 1.81036, 1.762, 1.75975, 1.76489, 1.76203, 1.7622, 1.81378
1.99759, 1.99651, 1.94334, 1.94145, 1.93875, 1.93854, 1.98677, 1.98592, 1.98246, 2.04152, 1.98217, 2.0175, 2.12333, 2.12466, 2.12727, 1.91837, 1.91821, 1.91182, 1.91182, 2.13464, 1.91277, 1.91098, 1.90984, 1.91026, 2.02116, 1.91219, 2.01389, 1.91333, 2.17674, 2.16693, 2.04505, 2.08616, 2.04195, 2.03749, 2.03414, 2.07897, 1.95217, 1.94933, 2.07627, 2.02019, 2.01933, 1.93942, 2.01129, 2.01091, 2.15284, 1.93369, 2.00872, 1.93172, 1.9312, 2.01001, 2.01037, 1.93833, 2.05964, 1.95142, 2.05493, 2.15013, 2.09885, 2.09963, 2.13472, 2.10964, 2.01742, 2.01487, 2.0141, 2.01423, 2.09694, 2.0877, 2.01338, 2.0862, 2.01156, 2.01079, 2.01064, 2.00987, 2.09623, 2.00669, 2.10325, 2.00356, 2.09079, 2.09703, 2.09265, 2.0936, 2.08063, 2.08376, 2.0788, 2.0739, 2.09084, 2.07403, 1.98788, 1.9863, 2.07003, 2.07189, 1.98082, 1.97876, 2.05494, 2.06482, 1.97833, 1.90023, 1.89544, 1.89415, 1.93924, 1.88522, 1.88176, 1.8807, 2.0042, 2.07709, 2.00112, 1.86995, 1.86815, 2.08487, 1.99933, 1.96364, 2.07992, 1.86166, 1.86169, 1.85908, 1.85863, 2.09155, 1.85823, 1.85688, 1.96708, 1.78182, 1.77796, 1.77496, 1.77269, 1.89646, 1.89625, 1.76451, 1.89085, 1.76146, 1.8997, 1.89601, 1.80985, 1.86254, 1.89744, 1.89738, 1.90079, 1.89681, 1.75698, 1.7575, 1.75751, 1.89563, 1.89353, 1.8938, 1.89294, 1.75895, 1.88964, 1.75969, 1.76254, 1.76158, 1.86867, 1.76277
1.94737, 1.94473, 1.94395, 1.94129, 1.94148, 1.9415, 1.93791, 1.93708, 1.98287, 1.98235, 1.93106, 1.92906, 2.00884, 1.92732, 1.9243, 2.04842, 1.91775, 1.96609, 1.91319, 1.97217, 1.91063, 2.0283, 1.91082, 2.01674, 1.9616, 1.91105, 2.01062, 1.91377, 2.05182, 2.05127, 2.04817, 1.97065, 2.04194, 2.03717, 2.03484, 2.03138, 2.02909, 2.02719, 2.0249, 2.02048, 2.01994, 2.01527, 2.01132, 1.93585, 2.06772, 2.00979, 2.00799, 2.00946, 2.00865, 2.01007, 2.01036, 2.01452, 2.01791, 1.94457, 2.02787, 2.13878, 2.10725, 2.10072, 2.01964, 2.09339, 2.01437, 2.01343, 2.01388, 2.09566, 2.08751, 2.08973, 2.10611, 2.09392, 2.10422, 2.01149, 2.09843, 2.09253, 2.08641, 2.10017, 2.09575, 2.09889, 2.09695, 2.08286, 2.08703, 2.08993, 2.08697, 2.07927, 2.07658, 1.99367, 2.0745, 2.07274, 1.98687, 1.98565, 2.07094, 2.07897, 1.97885, 1.97852, 1.97768, 2.05586, 2.06522, 1.94975, 2.01991, 1.94213, 1.93936, 1.93586, 1.93241, 1.87726, 1.87673, 1.87347, 1.86925, 1.87068, 1.86666, 1.86525, 1.86575, 1.86211, 1.91314, 1.8618, 1.85988, 1.85943, 1.85684, 1.85516, 1.85531, 1.85837, 1.78349, 1.77994, 1.77645, 1.77287, 1.89272, 1.76722, 1.76471, 1.76479, 1.89595, 1.75973, 1.75844, 1.75909, 1.89396, 1.89032, 1.89657, 1.89605, 1.90203, 1.86616, 1.89921, 1.75745, 1.75517, 1.75637, 1.75609, 1.8576, 1.75778, 1.89411, 1.89019, 1.75772, 1.76111, 1.86968, 1.88665, 1.76324
1.94787, 1.94789, 1.94698, 1.94302, 2.03197, 1.94091, 2.04534, 2.05632, 1.93331, 2.05712, 2.05558, 1.9284, 1.97865, 1.92666, 1.92521, 1.9211, 1.92085, 1.96524, 1.91396, 1.91343, 2.01755, 1.90993, 1.90896, 1.96156, 2.08368, 1.91348, 2.00461, 2.09007, 2.05607, 2.16661, 1.97374, 2.04519, 2.08662, 2.04179, 2.04115, 2.15953, 2.03073, 2.02868, 2.02367, 2.01961, 2.01812, 2.0169, 2.01474, 2.01397, 2.01032, 2.01019, 2.00883, 2.00838, 2.00997, 2.06358, 2.01198, 2.01482, 2.01752, 2.02196, 2.02817, 2.04939, 2.02524, 2.09921, 2.02143, 2.09623, 2.09268, 2.01466, 2.01396, 2.11644, 2.0898, 2.08715, 2.08624, 2.10151, 2.1091, 2.10606, 2.10697, 2.11108, 2.09702, 2.00573, 2.00331, 2.08459, 2.09081, 2.00118, 2.08268, 2.08215, 2.09456, 2.07135, 2.08481, 2.09068, 2.07886, 2.07199, 1.98734, 2.07381, 2.07341, 1.98187, 1.97904, 1.97808, 1.97918, 2.0575, 2.05254, 2.0859, 1.89434, 1.89066, 1.93943, 1.88564, 1.87911, 1.87874, 1.87687, 1.96282, 1.87204, 1.86912, 1.95805, 1.86551, 1.86521, 1.91296, 1.85976, 1.91011, 1.9971, 1.85851, 1.90764, 1.85815, 1.98998, 1.99266, 1.78271, 1.78144, 1.77841, 1.77453, 1.8807, 1.76311, 1.76387, 1.87893, 1.88009, 1.89986, 1.85493, 1.75607, 1.75603, 1.89664, 1.89688, 1.75755, 1.8937, 2.00282, 1.75468, 1.88072, 1.89566, 1.75627, 1.75562, 1.75477, 1.89035, 1.89122, 1.75692, 1.7587, 1.88782, 1.75928, 1.88607, 1.76082
1.94796, 1.94484, 1.94615, 2.07166, 1.94164, 1.94062, 1.93789, 1.93677, 1.93603, 1.93498, 1.93115, 1.93082, 1.92812, 1.92579, 1.97564, 2.13838, 1.91889, 2.01853, 2.04242, 2.03793, 1.9103, 1.91047, 1.96197, 1.91109, 1.91201, 1.9105, 1.91329, 1.91254, 2.05644, 2.05278, 2.05107, 2.04798, 2.08515, 2.03963, 2.03894, 2.03563, 2.1736, 2.08215, 1.94842, 2.02244, 2.0201, 2.07198, 2.14911, 1.93633, 2.01029, 1.93353, 1.93389, 2.06598, 2.00795, 2.01038, 2.01448, 2.01565, 1.94342, 1.94623, 2.05272, 2.0524, 2.11178, 2.11724, 2.11525, 2.11854, 2.01731, 2.01468, 2.01492, 2.09003, 2.08962, 2.08815, 2.10788, 2.10095, 2.0949, 2.11902, 2.08929, 2.09439, 2.00721, 2.1058, 2.00498, 2.09046, 2.09291, 2.09352, 2.09702, 2.09335, 1.99706, 2.08647, 2.07776, 2.08066, 2.08607, 1.98955, 1.98663, 1.98568, 2.07601, 1.98187, 2.05882, 1.97888, 2.05865, 1.9771, 2.05325, 1.90021, 1.89598, 1.89321, 1.88986, 1.88504, 1.88106, 1.87878, 1.87606, 1.87183, 1.87133, 2.00345, 1.86492, 1.8654, 1.91313, 1.9121, 1.98213, 1.911, 1.85758, 1.85551, 1.8576, 1.85579, 1.90635, 1.85588, 1.78239, 1.77946, 1.77238, 1.77344, 1.7679, 1.89246, 1.81431, 1.76201, 1.76062, 1.89735, 1.8976, 1.94835, 1.85509, 1.8601, 1.75431, 1.75427, 1.75393, 1.75223, 1.89959, 1.75198, 1.753, 2.00391, 1.89118, 1.85339, 1.88863, 1.88749, 1.75619, 1.75881, 1.88617, 1.76116, 1.76146, 1.883
2.07778, 1.94748, 2.06865, 1.94704, 2.13922, 1.94132, 1.93991, 1.93634, 1.93732, 2.13564, 1.9339, 2.05486, 1.93227, 1.97846, 2.00325, 1.92361, 2.04161, 1.92022, 1.91522, 1.91114, 2.01714, 1.96145, 2.08726, 1.91357, 2.10342, 1.91225, 1.91309, 1.91168, 2.09393, 2.05192, 2.04849, 2.049, 2.08398, 2.03721, 2.08276, 2.0346, 2.02965, 2.07861, 1.95115, 2.02413, 2.15103, 2.01736, 1.93816, 2.01016, 1.93568, 2.01057, 2.01028, 2.06615, 2.06299, 1.93325, 1.93768, 1.93817, 2.0206, 2.02528, 2.05499, 2.05401, 2.02456, 2.02186, 2.02024, 2.10491, 2.01748, 2.01508, 2.01466, 2.10236, 2.12131, 2.09752, 2.11688, 2.09673, 2.09769, 2.09908, 2.01354, 2.0085, 2.09689, 2.00694, 2.09288, 2.08978, 2.08114, 2.08339, 2.0808, 2.09319, 1.9968, 2.08914, 2.08942, 1.99232, 2.0796, 2.08467, 2.08253, 2.08013, 1.98338, 2.06484, 1.97842, 1.9771, 1.9778, 2.05154, 2.06356, 1.9015, 2.01048, 1.89142, 1.88857, 2.1087, 1.87929, 1.88025, 1.87634, 1.8721, 1.92214, 1.86637, 2.09404, 1.86438, 1.91384, 1.91246, 1.86079, 1.9098, 1.85854, 1.8559, 1.99629, 1.85544, 1.85767, 1.99263, 1.78322, 1.77958, 1.77272, 1.77262, 1.89839, 1.89235, 1.81484, 1.81237, 1.75819, 1.75817, 1.89496, 1.7557, 1.75395, 1.75392, 1.75149, 1.88924, 1.75443, 2.00752, 1.94479, 1.75184, 1.75334, 1.75431, 1.75465, 1.7535, 1.75517, 1.75519, 1.88766, 1.75896, 1.88102, 1.76042, 1.76064, 1.76172
1.94776, 1.9478, 1.94633, 1.94473, 1.94176, 1.93984, 1.93818, 2.06144, 1.93754, 1.93482, 1.93506, 1.93079, 1.9825, 1.93043, 1.99261, 2.12432, 1.92178, 2.04325, 1.91569, 1.91309, 1.91146, 2.03459, 1.91129, 1.91046, 2.02729, 1.91397, 1.91331, 1.96391, 1.9809, 2.09014, 1.97638, 2.08587, 2.04471, 2.04064, 2.08205, 1.9564, 2.03156, 2.02737, 2.02458, 1.9445, 2.07604, 2.01829, 1.93817, 2.01271, 1.93577, 2.01359, 1.93134, 2.00986, 2.01315, 2.01027, 2.00993, 2.01452, 1.94182, 2.02344, 2.05499, 2.05192, 2.10234, 2.11041, 2.11702, 2.10457, 2.09478, 2.01483, 2.01486, 2.11809, 2.09393, 2.09601, 2.01326, 2.09605, 2.09996, 2.10255, 2.01053, 2.09989, 2.0903, 2.09705, 2.00371, 2.10059, 2.08063, 2.10368, 2.00025, 2.09252, 2.08982, 2.08224, 2.08386, 2.08342, 2.07406, 2.08089, 2.07863, 2.09043, 2.06778, 1.9796, 1.97899, 1.97739, 1.97701, 2.06737, 1.97552, 2.02606, 2.00061, 1.89178, 1.96201, 1.8847, 2.00981, 2.09717, 1.87476, 1.98213, 1.92029, 1.96595, 1.86725, 1.86521, 1.86228, 1.91052, 1.86155, 1.91009, 2.07604, 1.8587, 1.85429, 1.85509, 1.85443, 1.85765, 1.93685, 1.77709, 1.77449, 1.77152, 1.76728, 1.76556, 1.83112, 1.82802, 1.89459, 1.75721, 1.89114, 1.75334, 1.7521, 1.89321, 1.75284, 1.75253, 1.89377, 2.00628, 1.75278, 1.89079, 1.75471, 1.75313, 1.75147, 1.75494, 1.88395, 1.88716, 1.7565, 1.88623, 1.75721, 1.75965, 1.75896, 1.75957
2.06423, 1.94736, 1.94496, 2.00033, 1.94284, 1.93982, 1.93931, 1.93727, 2.13751, 1.93474, 1.93504, 1.93281, 1.98079, 1.98234, 1.97793, 1.92543, 1.92201, 1.91865, 2.04305, 1.96383, 1.96236, 2.02736, 1.91253, 1.91351, 1.91362, 1.9632, 1.96327, 1.91355, 2.05493, 2.0533, 2.0477, 1.96974, 1.96914, 2.03946, 2.03892, 2.08343, 2.02888, 2.02897, 2.02716, 1.94674, 1.9443, 2.0175, 1.94058, 1.93824, 2.01047, 2.01208, 2.06714, 2.00734, 2.00859, 2.01084, 2.01116, 2.01501, 2.01666, 2.05558, 2.05491, 2.05267, 2.10107, 2.11946, 2.10132, 2.09493, 2.0157, 2.0171, 2.01432, 2.00997, 2.10679, 2.10694, 2.10312, 2.0118, 2.0965, 2.01116, 2.08666, 2.09378, 2.10127, 2.08991, 2.00429, 2.08461, 2.09071, 2.09861, 2.09333, 1.99751, 2.10369, 1.9963, 1.99382, 2.08028, 2.077, 1.98911, 2.07203, 2.08021, 2.07829, 2.07897, 1.97828, 2.05251, 1.97897, 2.06738, 2.0761, 1.9001, 1.89487, 2.09264, 2.00423, 1.93435, 1.9317, 1.92852, 1.97587, 1.92178, 1.92061, 1.91711, 1.86663, 1.86237, 2.00305, 2.07932, 1.86184, 1.85906, 1.85836, 1.85689, 1.8591, 1.85718, 1.98939, 1.90884, 1.78177, 1.77654, 1.77369, 1.88252, 1.89058, 1.76488, 1.82018, 1.89247, 1.89361, 1.89322, 1.89461, 1.89395, 1.75267, 1.89375, 1.75068, 1.89106, 1.7517, 1.75105, 1.75263, 1.75081, 1.75439, 1.75178, 1.75271, 1.75157, 1.75447, 1.88313, 1.88339, 1.75672, 1.75908, 1.75828, 1.75946, 1.75796
1.94719, 1.99998, 1.94563, 1.94231, 1.94089, 1.94189, 1.94075, 1.93889, 1.93787, 1.98631, 1.93534, 2.1409, 2.05257, 1.93203, 2.05222, 2.04283, 1.92435, 1.91801, 2.04058, 2.09651, 1.96226, 2.0276, 1.91094, 1.9116, 1.91333, 1.91345, 1.96332, 2.07917, 1.98221, 2.05469, 2.05041, 2.04912, 2.04489, 2.03856, 2.04076, 2.08119, 2.03145, 1.95188, 2.0249, 1.94565, 2.02036, 2.01679, 2.01547, 2.01475, 1.93475, 1.93425, 1.93296, 2.00747, 2.00979, 2.01068, 2.01281, 1.93833, 2.02027, 2.14545, 2.02707, 2.05187, 2.09994, 2.10849, 2.09673, 2.09571, 2.01926, 2.01635, 2.01397, 2.00795, 2.0973, 2.1106, 2.10594, 2.10683, 2.01056, 2.01081, 2.08432, 2.08289, 2.08271, 2.08125, 2.00631, 2.0795, 2.08014, 2.09053, 1.99973, 2.08895, 1.99527, 2.07922, 2.08635, 1.9898, 2.07199, 2.07724, 2.08219, 1.98482, 2.07044, 1.97933, 1.97871, 1.97549, 1.97713, 1.97563, 2.07319, 1.90254, 1.89343, 1.8899, 1.88698, 1.97806, 1.95164, 1.9278, 1.8753, 1.99192, 1.99081, 1.86609, 2.00257, 1.86279, 1.86092, 1.85929, 2.07717, 1.8587, 1.85699, 1.99685, 1.85804, 1.85544, 1.85515, 1.8562, 1.89524, 1.89405, 1.77105, 1.88328, 1.76533, 1.87779, 1.86826, 1.76088, 1.75663, 1.89541, 1.75197, 1.75231, 1.75231, 2.0059, 1.75169, 1.88921, 1.88702, 1.74853, 1.8909, 1.88921, 1.75099, 1.75031, 1.75108, 1.85121, 1.75448, 1.86239, 1.87516, 1.75624, 1.75667, 1.75751, 1.7611, 1.76073
1.99871, 2.06577, 1.94223, 1.99633, 1.94124, 1.94212, 1.94113, 1.99043, 1.98915, 1.93516, 1.93749, 2.05312, 1.93269, 1.93111, 2.12111, 1.92681, 1.92146, 1.92163, 2.03989, 1.96344, 1.96284, 1.9623, 1.96177, 1.91105, 1.91386, 2.02271, 1.91347, 1.96462, 1.98211, 2.05567, 2.04981, 2.04748, 2.04483, 2.16189, 1.96232, 2.03438, 2.08585, 2.02815, 2.02631, 2.02162, 2.16756, 1.94206, 2.01592, 2.0135, 1.93536, 2.01053, 2.01009, 2.01133, 2.01013, 2.01171, 2.01685, 2.01429, 2.0183, 1.94628, 2.13485, 2.05232, 2.12887, 2.12754, 2.12045, 2.12098, 2.01532, 2.0161, 2.01488, 2.10678, 2.11057, 2.08763, 2.10415, 2.01174, 2.11557, 2.00999, 2.10201, 2.1071, 2.10187, 2.09975, 2.09457, 2.09909, 2.0942, 2.08956, 2.094, 2.09098, 2.08595, 1.99573, 2.087, 2.07444, 2.07726, 2.07699, 2.06982, 1.98476, 2.05695, 1.98, 1.97782, 1.97511, 1.97607, 1.97579, 2.07295, 1.89959, 1.89441, 1.89122, 1.88643, 1.88626, 1.88201, 1.87666, 1.87167, 1.87436, 1.86815, 1.86669, 1.86334, 1.91328, 2.00085, 2.00089, 1.85597, 1.85547, 1.85504, 1.85714, 1.85605, 1.85765, 1.85565, 1.85706, 1.7791, 1.77322, 1.77165, 1.76914, 1.76258, 1.7594, 1.76026, 1.75709, 1.75521, 1.75268, 1.75114, 1.89576, 1.89048, 1.75113, 1.75171, 1.75288, 1.74835, 1.887, 1.88723, 1.75132, 1.75039, 1.74865, 1.75066, 1.75012, 1.75427, 1.75266, 1.88105, 1.75428, 1.75489, 1.75788, 1.86752, 1.75936
1.9496, 1.94777, 1.99867, 1.99671, 1.94465, 2.06488, 2.13527, 1.98965, 1.98747, 2.04214, 1.9379, 1.93672, 1.98577, 1.93161, 1.9315, 1.926, 1.92062, 1.96931, 1.91734, 1.96547, 2.00407, 1.96104, 1.96201, 1.96137, 2.02551, 1.91402, 1.9144, 2.09366, 2.09277, 1.97622, 2.0525, 2.04707, 2.0456, 2.0407, 2.03676, 2.03547, 2.08053, 1.95167, 2.07682, 2.02434, 2.02089, 1.94268, 2.01745, 1.93832, 2.01224, 1.93382, 2.00872, 2.15334, 2.01064, 2.01132, 2.01023, 2.01443, 2.02012, 2.02741, 2.02708, 2.05315, 2.02471, 2.09745, 2.10075, 2.1113, 2.01721, 2.0169, 2.01537, 2.01402, 2.1178, 2.01309, 2.10358, 2.01306, 2.09697, 2.1008, 2.01032, 2.00743, 2.0076, 2.00591, 2.00625, 2.08939, 2.09354, 2.08833, 1.99964, 1.99844, 1.99619, 2.0946, 1.994, 1.99124, 2.0861, 2.07261, 2.07463, 1.98442, 2.07405, 2.05827, 1.97779, 1.9764, 1.97432, 2.05302, 1.97672, 1.94927, 1.89473, 1.88992, 2.00775, 1.88387, 1.88154, 1.87666, 2.00801, 1.87278, 1.86926, 1.99048, 1.91466, 1.91329, 1.91216, 1.86091, 1.85889, 1.85814, 1.85777, 2.08604, 1.85649, 1.85691, 1.85726, 1.85669, 1.8847, 1.88203, 1.8911, 1.76815, 1.76177, 1.75807, 1.75877, 1.75722, 1.80383, 1.75157, 1.75404, 1.74798, 1.88895, 1.89277, 1.74757, 1.84743, 1.7489, 1.88622, 1.88938, 1.88976, 1.75087, 1.88544, 1.74828, 1.75065, 1.75091, 1.75109, 1.75325, 1.75271, 1.75498, 1.75632, 1.87932, 1.75813
1.94871, 1.94797, 1.94498, 1.99701, 1.99436, 1.99392, 2.14452, 1.93775, 1.93713, 2.12137, 1.98646, 1.93602, 1.9362, 1.9828, 2.0481, 2.12747, 1.92239, 1.91772, 1.96745, 1.9148, 2.03441, 1.91125, 2.02048, 2.02695, 1.91336, 1.91384, 2.02273, 1.91547, 2.08984, 2.16669, 1.9745, 2.04708, 1.9685, 2.04331, 2.0419, 2.03532, 2.03257, 2.029, 2.02454, 2.02516, 2.17599, 1.94208, 2.01763, 2.01355, 2.01179, 2.01033, 2.06533, 1.93333, 1.93465, 2.01113, 1.93767, 2.05739, 2.01774, 2.02227, 2.02748, 2.05471, 2.02552, 2.1012, 2.13479, 2.0202, 2.09337, 2.01592, 2.01466, 2.01391, 2.11195, 2.09947, 2.10413, 2.09953, 2.10079, 2.09356, 2.10018, 2.08207, 2.07942, 2.00536, 2.08049, 2.00348, 2.08474, 2.07444, 1.99866, 2.08776, 2.08864, 2.07372, 2.06635, 1.99102, 2.0735, 2.08872, 2.07769, 2.07464, 2.06886, 1.97913, 1.97743, 1.97649, 1.97502, 2.05142, 2.05469, 1.94909, 1.94589, 2.01022, 1.88685, 1.88548, 1.9312, 1.88011, 1.87629, 1.96919, 1.87107, 1.86592, 1.86668, 1.91344, 1.86243, 1.86188, 1.86004, 1.85975, 1.95573, 1.95759, 1.85608, 1.85722, 1.85667, 1.90865, 1.89151, 1.88203, 1.76822, 1.76474, 1.76404, 1.98956, 1.75632, 1.75289, 1.80234, 1.74879, 1.74961, 1.74789, 1.84772, 1.74518, 1.74525, 1.79873, 1.79885, 1.74544, 1.8865, 1.74667, 1.7482, 1.74943, 1.74898, 1.8835, 1.74841, 1.75341, 1.7541, 1.80416, 1.80366, 1.75479, 1.75549, 1.75836
1.95148, 1.99885, 1.94662, 2.07036, 1.9952, 1.99211, 1.94012, 2.06131, 1.93512, 1.98719, 1.9371, 1.93742, 1.98344, 2.03556, 1.93107, 1.92765, 2.13362, 1.92102, 1.91787, 1.91673, 2.03769, 1.9114, 1.91229, 1.91125, 1.91471, 1.91673, 2.01508, 1.91733, 1.98208, 2.05416, 2.16538, 2.08488, 2.0446, 1.96594, 2.0372, 2.03428, 1.95805, 2.03146, 2.15499, 2.02416, 2.02061, 2.01762, 2.0166, 1.93927, 1.93657, 2.00849, 2.0107, 2.00997, 2.01045, 2.01057, 2.01101, 2.01314, 2.1314, 1.94435, 2.03348, 2.15249, 2.11702, 2.10784, 2.09651, 2.02015, 2.09783, 2.01549, 2.01509, 2.09116, 2.09158, 2.10213, 2.09702, 2.08694, 2.10438, 2.108, 2.10974, 2.09124, 2.09232, 2.09335, 2.09512, 2.00344, 2.09921, 2.08374, 2.08934, 1.99648, 2.09046, 2.06999, 2.0697, 2.06692, 1.98962, 2.06308, 2.08262, 2.05802, 2.07087, 1.97925, 1.97643, 1.97617, 1.97233, 1.97501, 1.97266, 1.89846, 1.94551, 2.09939, 1.88725, 1.93555, 1.88228, 1.99907, 1.92414, 1.87304, 1.99408, 1.86695, 1.86325, 1.86499, 1.86171, 1.86028, 2.08362, 1.99572, 1.95607, 1.85765, 1.8554, 1.91799, 1.8565, 1.85585, 1.87936, 1.77285, 1.88679, 1.89634, 1.76048, 1.7583, 1.75525, 1.74985, 1.75188, 1.75125, 1.75058, 1.74783, 2.01179, 1.74527, 1.88949, 1.79739, 1.74816, 1.79728, 1.74701, 1.74549, 1.88333, 1.74765, 1.74711, 1.74839, 1.87916, 1.75134, 1.74864, 1.74989, 1.7547, 1.75497, 1.87477, 1.75766
2.05749, 2.06139, 1.94797, 1.99629, 1.99344, 2.05452, 1.99138, 1.98949, 1.98916, 2.14187, 1.93737, 1.93449, 1.93392, 1.97986, 1.92918, 1.92665, 2.04401, 2.12307, 2.03005, 1.91461, 1.91358, 1.91019, 1.91065, 1.91348, 2.02048, 1.91299, 1.91701, 2.01712, 2.05647, 2.05575, 2.08437, 2.04984, 1.96891, 2.04272, 2.08258, 2.035, 1.95683, 1.95437, 1.95043, 2.02597, 2.07635, 2.02058, 2.01871, 2.14748, 2.01172, 2.01033, 2.00951, 2.00791, 2.00888, 2.01062, 2.06169, 1.94038, 1.94111, 2.02362, 2.02575, 2.05145, 2.11166, 2.12112, 2.11856, 2.09729, 2.09685, 2.09446, 2.09401, 2.0912, 2.10899, 2.1076, 2.01316, 2.09748, 2.10031, 2.08591, 2.08608, 2.08261, 2.09704, 2.09632, 2.09558, 2.08397, 2.08593, 2.09266, 2.093, 2.09278, 2.07393, 2.07993, 2.0687, 2.08793, 2.07249, 1.98736, 2.06197, 2.05639, 2.07633, 2.05167, 1.9766, 1.97409, 1.9729, 1.97338, 1.95244, 1.99079, 1.94557, 2.00698, 1.88381, 1.88627, 1.88034, 1.87773, 1.92655, 2.00163, 1.86903, 1.99871, 1.86623, 1.86114, 1.85994, 1.86128, 1.9962, 1.9145, 1.91733, 1.98925, 1.85914, 1.99282, 1.99267, 1.98745, 1.77162, 1.76887, 1.76617, 1.76307, 1.76146, 1.75608, 1.75611, 1.80297, 1.89426, 1.74916, 1.74751, 1.89297, 1.7443, 1.74695, 1.74594, 1.74392, 1.79699, 1.7958, 1.88479, 1.74757, 1.74669, 1.74747, 1.74531, 1.74807, 1.75007, 1.75096, 1.7488, 1.75205, 1.75196, 1.84739, 1.87702, 1.75677
1.9516, 1.99963, 1.99743, 1.99555, 1.94471, 1.94299, 1.93901, 2.12523, 2.12793, 2.05683, 1.93457, 1.93426, 2.12799, 1.92919, 2.04307, 2.04171, 1.9216, 1.91872, 1.96621, 1.91428, 1.91337, 1.91127, 1.91152, 1.91263, 1.9966, 1.9151, 1.97488, 1.91393, 2.0589, 2.16698, 2.05147, 2.04881, 2.08464, 2.04159, 2.15853, 2.08227, 1.95649, 2.02906, 1.94958, 2.02342, 1.94487, 2.16667, 2.01523, 2.0112, 2.06544, 1.93403, 2.01084, 2.00988, 2.01022, 2.00999, 1.93593, 2.01534, 2.0182, 1.94788, 1.95016, 2.14028, 2.11377, 2.12777, 2.12799, 2.02032, 2.09561, 2.09538, 2.09102, 2.09103, 2.09489, 2.09291, 2.01191, 2.08948, 2.01126, 2.09498, 2.1007, 2.00797, 2.00504, 2.08918, 2.08264, 2.00178, 2.09437, 2.07729, 1.9994, 1.99808, 2.07301, 2.07634, 2.09022, 2.10028, 1.99081, 1.98658, 2.0788, 2.05718, 2.057, 2.06659, 1.97705, 1.97543, 1.97449, 1.97224, 2.06708, 1.89988, 1.89461, 1.99783, 1.88607, 1.88428, 2.00679, 2.00323, 1.97961, 1.92237, 1.86819, 1.86763, 1.86596, 2.08286, 1.86213, 1.86049, 1.99441, 1.85873, 1.91346, 2.08587, 1.85653, 1.85804, 1.85578, 1.8563, 1.77206, 1.76843, 1.76527, 1.89115, 1.87747, 1.75511, 1.75403, 1.75089, 1.85876, 1.89696, 1.89541, 1.89596, 1.74391, 1.7439, 1.74261, 1.79413, 1.74456, 1.79376, 1.88582, 1.74341, 1.83918, 1.74586, 1.74519, 1.74425, 1.74869, 1.74592, 1.74779, 1.87367, 1.86223, 1.75019, 1.80259, 1.75579
1.99977, 1.9498, 1.94815, 1.94546, 1.94538, 1.94441, 1.94161, 1.93765, 1.93628, 1.93726, 2.13134, 2.02211, 2.05201, 2.04996, 1.97666, 1.92223, 1.92157, 1.91882, 1.9664, 2.10065, 1.91322, 1.91068, 1.91033, 1.91296, 1.91274, 1.91427, 1.96601, 2.00368, 2.05828, 2.08687, 1.9762, 1.97231, 2.04467, 2.04152, 2.03965, 2.03789, 2.03256, 2.02976, 2.07628, 2.02364, 2.02228, 2.16704, 2.06983, 2.01755, 2.0136, 2.06691, 2.01129, 2.0109, 1.93419, 2.14939, 1.93616, 2.05936, 2.01881, 2.02094, 2.02735, 2.15217, 2.02407, 2.13194, 2.02077, 2.01901, 2.09561, 2.09522, 2.09469, 2.0917, 2.09059, 2.11411, 2.08712, 2.10161, 2.1108, 2.01085, 2.09773, 2.09217, 2.09931, 2.08657, 2.10088, 2.09255, 2.0937, 2.08986, 2.08696, 2.07424, 2.0738, 2.10045, 2.0777, 1.99074, 2.08973, 2.08653, 2.08656, 2.09019, 2.05622, 1.97813, 1.97605, 1.97576, 1.97299, 1.97421, 2.0468, 1.94978, 1.8946, 2.00675, 1.88954, 1.88321, 2.09673, 1.92843, 1.92486, 1.96573, 1.8671, 1.91975, 1.91944, 1.9676, 2.08532, 1.86229, 1.86048, 1.86037, 1.85895, 1.99281, 1.85736, 1.98697, 1.85862, 1.85845, 1.77015, 1.76818, 1.76272, 1.89247, 1.8913, 1.75348, 1.89129, 1.75078, 1.7481, 1.74371, 1.74357, 1.89047, 1.74329, 1.88746, 1.89031, 1.7935, 1.8705, 1.74123, 1.74144, 1.74457, 1.7443, 1.74449, 1.7441, 1.84581, 1.74517, 1.87476, 1.87355, 1.74642, 1.75065, 1.75052, 1.854, 1.85162
1.95121, 1.94831, 1.94774, 2.04421, 1.94492, 1.9446, 1.99128, 2.01743, 1.98732, 1.98631, 1.93711, 2.05075, 2.12805, 1.92727, 2.12383, 1.9236, 1.92209, 1.91807, 1.96524, 1.9647, 2.02171, 1.9098, 1.91055, 1.90986, 1.91204, 2.00777, 1.96737, 1.96669, 2.08803, 2.05595, 1.97931, 2.04856, 2.04408, 2.07996, 2.03787, 2.03481, 2.08005, 1.95317, 2.02826, 1.95064, 2.02234, 2.07347, 2.01756, 2.01573, 2.1571, 2.01093, 2.01062, 2.00971, 2.01047, 2.01097, 1.93502, 2.14484, 1.94019, 2.02133, 2.0313, 2.05204, 2.11872, 2.02241, 2.12407, 2.01707, 2.01694, 2.09505, 2.01633, 2.01499, 2.10715, 2.01383, 2.11811, 2.01054, 2.10778, 2.01016, 2.10122, 2.08689, 2.00664, 2.00646, 2.09454, 2.00051, 2.09436, 1.99979, 2.08509, 2.08362, 2.09335, 2.0871, 2.08351, 1.99084, 2.08204, 1.98654, 2.06976, 2.06995, 2.0765, 2.06359, 1.97497, 1.97294, 1.97086, 1.97168, 1.96985, 1.89705, 1.89569, 1.89064, 1.88878, 1.8833, 1.88061, 1.9279, 1.87488, 1.87262, 1.86816, 1.95907, 1.86344, 1.86295, 1.86301, 1.86293, 1.86323, 1.86135, 1.98576, 1.858, 1.85768, 1.90916, 1.86121, 1.85838, 1.76943, 1.76704, 1.76304, 1.89183, 1.75555, 1.75393, 1.75189, 1.89585, 1.74235, 1.74583, 1.89588, 1.74279, 1.89, 1.88702, 1.7418, 1.74178, 1.74184, 1.74299, 1.88695, 1.88292, 1.85246, 1.74414, 1.74455, 1.8735, 1.87683, 1.74429, 1.87492, 1.74518, 1.86987, 1.74575, 1.86475, 1.74849
2.00397, 1.99981, 1.99671, 1.9457, 2.14721, 1.94181, 1.99068, 1.98899, 2.12812, 1.98543, 1.93325, 1.93352, 2.12765, 1.92746, 1.97658, 1.92177, 2.04613, 1.91832, 1.9162, 1.91358, 2.02056, 1.91029, 2.01566, 2.02226, 2.02496, 1.9153, 1.91638, 2.06201, 2.05938, 2.08914, 2.05251, 1.973, 2.08313, 2.04425, 2.03962, 2.0355, 2.03335, 1.95491, 2.02515, 2.02457, 2.02155, 2.07233, 2.01699, 1.94023, 1.93706, 2.01102, 2.01015, 2.06318, 2.00862, 2.0114, 2.01355, 2.01442, 1.94173, 1.94652, 2.02974, 2.04797, 2.02588, 2.11412, 2.10347, 2.10054, 2.01695, 2.01668, 2.0172, 2.10316, 2.10133, 2.09881, 2.09498, 2.10254, 2.10165, 2.01027, 2.09402, 2.09637, 2.09213, 2.09388, 2.00426, 2.08082, 2.08674, 2.08681, 2.09009, 2.08768, 2.08796, 2.0808, 2.08999, 2.08048, 2.08811, 2.07546, 2.07357, 2.07495, 1.97956, 1.97783, 1.97834, 1.97273, 1.97576, 1.97212, 2.05443, 2.00134, 1.89507, 2.00119, 1.98162, 2.00056, 1.87993, 1.9898, 1.8752, 1.87384, 1.87078, 1.86693, 1.86591, 1.86341, 1.97846, 1.8616, 1.91197, 1.86162, 1.86266, 1.86113, 1.99315, 1.85923, 1.85921, 1.85908, 1.76959, 1.81657, 1.86456, 1.759, 1.75616, 1.75278, 1.74927, 1.8928, 1.74723, 1.99978, 1.74248, 1.74054, 1.8909, 1.73991, 1.88788, 1.88479, 1.74065, 1.74098, 1.74074, 1.74178, 1.74083, 1.74203, 1.8742, 1.74413, 1.74138, 1.87585, 1.74365, 1.74514, 1.87187, 1.74772, 1.88269, 1.8681
1.94939, 1.9496, 1.95136, 2.04289, 1.94515, 2.06545, 1.94172, 1.94052, 1.98674, 1.93462, 1.92816, 1.93256, 1.97902, 1.97709, 1.97356, 1.97384, 1.91951, 1.91675, 1.91461, 1.91362, 1.91152, 1.91316, 2.02688, 1.91056, 1.91067, 2.01021, 1.9171, 1.91686, 2.05825, 2.05417, 2.05253, 1.9738, 2.04557, 2.04436, 2.08021, 2.03631, 2.03089, 2.03139, 2.02893, 2.02479, 1.94509, 2.07302, 2.01957, 2.07127, 2.0122, 1.93466, 2.01047, 2.01047, 2.00877, 2.01125, 2.06279, 2.14361, 2.01825, 2.02649, 2.02814, 2.05252, 2.11977, 2.12559, 2.02157, 2.11729, 2.01779, 2.01658, 2.01393, 2.09591, 2.01197, 2.11717, 2.10135, 2.01314, 2.10726, 2.01022, 2.01014, 2.09959, 2.00612, 2.09832, 2.09166, 2.07794, 2.0971, 2.08271, 1.99882, 2.09291, 2.0853, 2.08046, 2.09318, 1.99116, 1.98997, 2.07381, 2.07172, 2.09432, 1.97932, 1.97634, 1.9743, 1.97363, 1.97274, 1.97101, 2.0568, 1.99345, 1.89895, 1.99679, 1.8868, 1.88391, 1.87993, 1.87693, 1.97067, 1.96826, 1.87201, 1.86854, 1.86622, 1.86565, 1.86287, 1.86271, 1.86238, 1.86232, 1.86245, 1.86248, 1.86287, 1.98657, 1.85783, 1.86018, 1.76599, 1.76263, 1.76023, 1.86409, 1.7545, 1.75194, 1.74882, 1.89595, 1.74473, 1.74285, 1.89281, 1.89133, 1.73914, 1.74035, 1.73935, 1.74199, 1.83513, 1.88306, 1.73957, 1.88006, 1.74057, 1.74032, 1.87635, 1.83713, 1.8757, 1.87578, 1.74478, 1.86396, 1.74604, 1.74781, 1.74585, 1.74813
2.08015, 1.94976, 1.94885, 1.9472, 1.94563, 2.14002, 1.94416, 1.93842, 1.93738, 1.98531, 1.93385, 1.92927, 2.04886, 1.9757, 2.03407, 2.047, 1.91752, 1.91739, 1.9164, 1.91141, 1.91058, 1.91027, 1.91235, 1.91292, 1.91405, 1.91497, 2.01092, 2.06184, 2.0624, 2.05387, 2.05234, 2.04636, 2.04782, 2.04311, 2.04015, 2.03898, 2.03247, 2.0793, 2.02721, 2.16484, 2.02055, 2.01876, 2.01477, 2.01444, 2.01227, 1.93552, 2.01136, 2.00795, 2.00997, 2.01047, 2.01233, 2.01378, 2.05749, 2.05422, 2.05421, 2.05352, 2.1168, 2.09894, 2.09534, 2.09783, 2.09384, 2.01685, 2.01377, 2.01321, 2.01215, 2.08758, 2.08936, 2.01073, 2.1037, 2.00987, 2.1001, 2.10286, 2.11417, 2.08073, 2.11118, 2.003, 2.08494, 2.08212, 2.10057, 2.0963, 2.09278, 2.08097, 2.07681, 1.99043, 2.07983, 1.98573, 1.98324, 1.98151, 2.05332, 1.97682, 1.97354, 1.97238, 1.97203, 1.97518, 2.0627, 1.90184, 1.94687, 1.94214, 1.99524, 1.99178, 1.88278, 2.00323, 1.87412, 1.99751, 1.86889, 2.09365, 1.86683, 1.86489, 1.86442, 1.86435, 1.86353, 2.08665, 1.94242, 1.92052, 1.86496, 1.86187, 1.86269, 1.86226, 1.76629, 1.76334, 1.75902, 1.75618, 1.89522, 1.74984, 1.74967, 1.74552, 1.74131, 1.74019, 1.74072, 1.7384, 1.88931, 1.73869, 1.7369, 1.7386, 1.73532, 1.73808, 1.7381, 1.73934, 1.73896, 1.74074, 1.87577, 1.87546, 1.87249, 1.74194, 1.74227, 1.79653, 1.74534, 1.86868, 1.87174, 1.86864
2.14408, 2.06947, 1.94554, 1.9463, 1.99503, 1.99305, 1.93961, 1.94082, 2.05908, 1.98277, 1.93222, 1.97999, 1.92652, 1.92523, 1.92449, 1.92019, 2.03295, 1.96652, 1.91482, 1.91322, 1.91299, 1.9103, 1.91022, 1.96206, 1.91118, 1.9132, 1.9166, 2.01925, 1.98245, 2.05501, 2.05185, 2.08102, 2.04926, 1.96569, 2.04103, 2.0799, 1.95618, 2.02893, 2.16694, 2.0789, 2.02075, 2.01796, 2.16566, 2.01664, 2.01337, 2.06627, 2.01029, 2.00901, 2.01084, 2.01128, 2.01152, 2.01056, 2.14961, 2.05573, 2.05521, 2.05393, 2.09774, 2.09816, 2.09389, 2.02059, 2.09015, 2.0149, 2.01541, 2.01653, 2.10354, 2.10668, 2.09585, 2.08643, 2.09456, 2.10331, 2.1077, 2.09438, 2.00739, 2.00387, 2.00339, 2.09507, 2.09665, 2.07267, 2.08416, 2.08352, 2.09317, 2.06706, 2.06662, 2.08309, 1.98819, 1.98598, 2.06831, 2.07286, 2.08996, 1.97675, 1.97438, 1.97214, 2.04548, 1.96987, 1.97026, 1.95134, 1.89841, 1.99403, 1.99766, 1.98967, 1.9316, 1.87839, 2.08518, 1.87266, 1.92041, 1.87096, 2.09142, 1.86529, 1.86466, 1.99715, 1.86364, 1.91532, 1.86304, 1.91326, 1.98627, 1.86405, 1.98904, 1.86293, 1.76483, 1.89773, 1.75784, 1.75461, 1.87961, 1.74896, 1.74684, 1.89573, 1.74073, 1.74088, 1.74005, 1.89003, 1.7379, 1.73726, 1.73698, 1.73485, 1.73658, 1.73774, 1.73723, 1.73736, 1.73645, 1.73672, 1.74046, 1.7417, 1.74154, 1.87184, 1.87117, 1.85128, 1.74417, 1.74231, 1.74375, 1.7449
1.94812, 2.13922, 1.94721, 2.0455, 2.06187, 1.99289, 1.93986, 1.9377, 1.98295, 1.98448, 1.98056, 2.04917, 2.05386, 1.92458, 2.05289, 1.91851, 2.03124, 1.91468, 1.91291, 2.0401, 1.91056, 1.91045, 2.11252, 2.03068, 2.02769, 1.9147, 1.91698, 2.09086, 2.05744, 2.05429, 2.05537, 2.04869, 1.97035, 1.96605, 2.03925, 2.03806, 2.03207, 1.95339, 2.02491, 2.02708, 2.02575, 1.94211, 2.01811, 2.01251, 2.1475, 2.06841, 2.1574, 2.16229, 2.00961, 2.01277, 1.93788, 1.93627, 2.01657, 2.02406, 2.14469, 2.1485, 2.11047, 2.11903, 2.09844, 2.09439, 2.09475, 2.0919, 2.01438, 2.01221, 2.01224, 2.01321, 2.113, 2.11029, 2.09665, 2.11101, 2.10534, 2.09151, 2.09809, 2.10044, 2.00219, 2.08564, 2.10216, 2.08191, 2.0834, 2.08603, 2.09576, 2.082, 2.06357, 2.07637, 2.08014, 1.98794, 1.98336, 2.05534, 2.07224, 2.06666, 1.97298, 1.97263, 1.97216, 1.96955, 1.96906, 1.95099, 1.89741, 1.8933, 1.88979, 1.98629, 1.93047, 1.92871, 1.87541, 1.92383, 1.87145, 1.86888, 2.00278, 1.86917, 1.86584, 1.99602, 1.99472, 1.86526, 1.86566, 1.86461, 1.86274, 1.98425, 1.86517, 1.98522, 1.89708, 1.75808, 1.86874, 1.75268, 1.89474, 1.89757, 1.74763, 1.7437, 1.74056, 1.74003, 1.73844, 1.73763, 1.73838, 1.73448, 1.73517, 1.73687, 1.88201, 1.7352, 1.73655, 1.73781, 1.7357, 1.87847, 1.73835, 1.73772, 1.78975, 1.87334, 1.79266, 1.7427, 1.86303, 1.79401, 1.79547, 1.74343
1.99866, 1.9997, 2.14438, 1.94627, 2.05992, 2.06522, 1.93936, 1.93806, 1.93546, 2.13331, 1.93367, 1.92566, 1.92721, 1.92464, 1.92195, 1.91854, 1.91791, 2.01491, 2.04244, 1.91347, 1.91145, 1.91193, 1.91268, 2.01382, 2.02751, 1.96566, 1.91796, 1.91892, 1.98274, 2.15904, 2.0525, 2.04852, 2.04634, 2.04236, 2.03919, 2.03853, 2.07584, 2.02897, 2.02697, 2.02527, 2.01878, 2.0182, 2.01627, 2.15189, 2.01389, 2.01331, 1.93404, 1.93295, 2.0624, 2.00717, 2.05906, 2.01138, 2.01709, 2.025, 2.02793, 2.15468, 2.11724, 2.0212, 2.11094, 2.09418, 2.01486, 2.01468, 2.01369, 2.01346, 2.08764, 2.08661, 2.10587, 2.10837, 2.01108, 2.00697, 2.1214, 2.11087, 2.00512, 2.10122, 2.08976, 2.08865, 2.08458, 2.0927, 2.08697, 1.99714, 2.08945, 1.99369, 2.08759, 2.08493, 2.07764, 2.07625, 2.08272, 1.97985, 1.97866, 2.0491, 1.97081, 1.9719, 1.97176, 1.9728, 2.05554, 1.90298, 1.89718, 1.89279, 1.88969, 1.95488, 1.9321, 1.92923, 1.87632, 1.87458, 1.87094, 1.87081, 1.86761, 1.86823, 1.86595, 1.86596, 1.86798, 1.91642, 1.91681, 1.86514, 1.86522, 1.8629, 1.91465, 1.86231, 1.75944, 1.75755, 1.86804, 1.75188, 1.74786, 1.87044, 1.89267, 1.89145, 1.89013, 1.74079, 1.73729, 1.73715, 1.89059, 1.88301, 1.73416, 1.73447, 1.73402, 1.73401, 1.73525, 1.7362, 1.88266, 1.73523, 1.83355, 1.7378, 1.78913, 1.73848, 1.73995, 1.74086, 1.86812, 1.74125, 1.74161, 1.79369
2.0591, 1.9459, 1.94554, 1.94616, 1.94597, 1.94199, 1.93955, 1.93718, 1.93594, 1.93216, 2.06016, 2.0447, 1.92393, 1.92412, 1.92113, 1.91745, 2.0344, 2.03531, 1.9132, 1.91263, 1.91085, 1.91343, 1.91243, 2.02816, 1.91394, 1.91386, 1.96584, 1.96911, 2.08462, 2.08212, 2.05077, 2.04861, 2.04535, 2.04398, 2.03991, 2.03471, 2.07291, 2.03109, 2.02571, 2.02451, 2.02093, 2.07227, 2.01773, 2.01469, 2.01265, 2.00832, 2.00984, 2.01013, 2.01044, 2.01167, 2.01172, 2.01197, 2.05616, 2.05445, 2.13943, 2.14184, 2.12433, 2.09515, 2.1152, 2.01697, 2.01558, 2.01385, 2.01216, 2.11433, 2.01084, 2.09716, 2.01036, 2.08746, 2.08364, 2.01011, 2.10271, 2.09456, 2.09941, 2.00491, 2.09269, 2.00138, 2.09341, 2.088, 1.99733, 1.9963, 2.08158, 1.99428, 1.99353, 1.99094, 2.07702, 2.07522, 2.08502, 2.06588, 2.06574, 2.06886, 2.04712, 1.97239, 1.97201, 1.97003, 2.05629, 1.90143, 1.99605, 1.99766, 1.88714, 1.88634, 1.88225, 1.87974, 1.99666, 1.99924, 1.87168, 1.99201, 1.91995, 1.91881, 1.86867, 1.86767, 1.86636, 1.91653, 1.86544, 1.86595, 1.86324, 1.91529, 1.86549, 1.91563, 1.8097, 1.75537, 1.7542, 1.75083, 1.75072, 1.74412, 1.86637, 1.74054, 1.73902, 1.73767, 1.73378, 1.7355, 1.73392, 1.73674, 1.73211, 1.73409, 1.88324, 1.88657, 1.73451, 1.7342, 1.73436, 1.87528, 1.73102, 1.73798, 1.73521, 1.86847, 1.74192, 1.74391, 1.73748, 1.97051, 1.74064, 1.79304
1.94702, 1.94766, 2.14238, 1.94424, 1.94508, 1.94143, 2.05155, 1.93661, 1.93605, 1.93128, 1.93141, 1.92772, 1.92639, 1.92231, 2.13928, 1.96861, 2.03187, 2.03386, 1.9148, 1.9126, 1.91292, 1.911, 1.96424, 1.96503, 1.96446, 1.97378, 1.91405, 1.96908, 1.9819, 2.08006, 2.05335, 2.04769, 2.07662, 2.07568, 1.96311, 2.03421, 2.17707, 2.03131, 2.14979, 2.02446, 2.02019, 2.02018, 2.02083, 2.0148, 2.06959, 1.93515, 2.01058, 2.05997, 2.0103, 2.00877, 1.93803, 2.14974, 2.06148, 2.14132, 2.0257, 1.95865, 2.09689, 2.11463, 2.01807, 2.01705, 2.01514, 2.01359, 2.01185, 2.08938, 2.09891, 2.1035, 2.09698, 2.10291, 2.10327, 2.11486, 2.09826, 2.09446, 2.07998, 2.00476, 2.10767, 2.08995, 2.00083, 2.09361, 2.08706, 1.99639, 1.99607, 2.07677, 2.06551, 2.07855, 2.07506, 2.07246, 2.06561, 2.07969, 1.97893, 1.97598, 1.97348, 1.97202, 1.96918, 1.9713, 2.04196, 1.90164, 1.89991, 1.8932, 1.89012, 1.88646, 1.98161, 1.88141, 1.87502, 1.87561, 1.87455, 1.92262, 1.98235, 1.87147, 1.97855, 1.86752, 1.91713, 1.8655, 1.86815, 1.86522, 1.9157, 1.86559, 1.86437, 1.81207, 1.81027, 1.75561, 1.75156, 1.74934, 1.74648, 1.80294, 1.89953, 1.7391, 1.73725, 1.89559, 1.73227, 1.78396, 1.73422, 1.73177, 1.73158, 1.7322, 1.87886, 1.73175, 1.73181, 1.73126, 1.87988, 1.73235, 1.8748, 1.73447, 1.73712, 1.73695, 1.86231, 1.73706, 1.73679, 1.74041, 1.73918, 1.86447
2.06564, 1.94804, 2.06583, 2.0617, 2.05995, 1.99103, 1.99002, 1.93388, 1.98301, 1.98307, 2.12937, 1.92713, 2.04915, 1.92157, 1.91905, 1.918, 1.9173, 2.03198, 1.96427, 1.96226, 1.91409, 1.91426, 1.91355, 1.96655, 2.10998, 2.10485, 1.91487, 1.91766, 1.98054, 2.05385, 2.05017, 2.07728, 2.0482, 2.07833, 2.15408, 2.03491, 1.95511, 2.02953, 2.02418, 2.02365, 2.02141, 2.01826, 2.01608, 2.15317, 2.01057, 2.00986, 2.00782, 2.00698, 2.01062, 2.0107, 2.00975, 2.01402, 1.94171, 2.02411, 2.02916, 2.14535, 2.11774, 2.02222, 2.01791, 2.01525, 2.01399, 2.01366, 2.01138, 2.0965, 2.01092, 2.11775, 2.11359, 2.11203, 2.10074, 2.00966, 2.00879, 2.0976, 2.08598, 2.10469, 2.08518, 1.99998, 1.99994, 1.99786, 2.08405, 2.08284, 2.08658, 1.99258, 2.0764, 2.08229, 2.07606, 2.07148, 1.98222, 2.07037, 2.06956, 2.06507, 1.97492, 1.97094, 1.96986, 1.97076, 2.05179, 1.90305, 1.89619, 2.08637, 1.89196, 1.88684, 1.88362, 1.87988, 1.87752, 1.87521, 1.87292, 1.87261, 1.94509, 1.91999, 2.07988, 1.86865, 1.91757, 1.86721, 1.86647, 1.86701, 1.86606, 1.91736, 1.86615, 1.86509, 1.89136, 1.75328, 1.75064, 1.90142, 1.74438, 1.74077, 1.74002, 1.83568, 1.78634, 1.89213, 1.73443, 1.73363, 1.89154, 1.72953, 1.7299, 1.88613, 1.85065, 1.77944, 1.7319, 1.88296, 1.73325, 1.73006, 1.7338, 1.73474, 1.73555, 1.73413, 1.86833, 1.73951, 1.73829, 1.73874, 1.73953, 1.73821
1.99825, 1.94809, 1.94545, 1.94451, 1.94235, 1.99059, 2.02293, 1.98531, 1.98286, 1.93207, 2.05936, 1.92519, 1.92476, 1.92129, 1.97004, 2.02047, 2.13075, 1.91531, 1.96499, 1.91459, 2.02097, 1.96484, 2.0314, 1.91602, 1.9144, 2.10036, 1.9147, 1.92043, 2.05774, 2.0535, 2.04898, 1.97192, 2.07974, 2.04114, 2.0756, 2.0375, 2.03352, 1.95293, 2.02467, 2.07238, 1.94484, 2.01886, 2.01702, 2.01391, 2.01396, 2.0101, 1.93058, 2.00993, 2.05935, 2.01015, 2.00993, 2.1396, 1.9392, 2.01999, 2.02605, 2.14066, 2.11502, 2.10155, 2.01759, 2.0167, 2.01359, 2.01321, 2.01188, 2.01341, 2.00998, 2.12407, 2.09997, 2.11807, 2.00956, 2.0081, 2.09316, 2.0866, 2.11444, 2.00435, 2.09094, 2.00273, 2.00026, 2.09384, 2.08264, 2.0871, 2.09153, 2.07688, 2.07298, 2.07884, 2.07917, 1.98341, 1.98448, 2.07939, 1.97862, 2.05255, 1.97212, 1.97176, 1.97182, 1.9685, 2.04273, 1.90236, 1.89693, 1.89318, 2.00093, 2.08716, 1.88315, 1.88233, 1.87934, 1.87699, 1.8727, 1.87321, 1.92264, 1.92128, 1.86823, 1.87142, 1.8716, 1.93765, 1.98969, 1.86726, 1.98599, 1.91904, 1.86797, 1.75785, 1.82058, 1.75301, 1.74843, 1.74417, 1.74071, 1.73929, 1.73824, 1.73484, 1.73454, 1.7338, 1.73109, 1.73157, 1.89096, 1.72685, 1.72993, 1.8861, 1.7281, 1.77913, 1.78014, 1.73055, 1.73062, 1.73056, 1.73215, 1.73268, 1.83746, 1.78662, 1.73431, 1.73711, 1.84911, 1.73923, 1.73845, 1.7392
1.94623, 1.94661, 1.94331, 1.94112, 1.94073, 1.98959, 1.93857, 1.93639, 1.93095, 1.93366, 2.03495, 1.92621, 2.04827, 2.03344, 1.97042, 1.9195, 1.91634, 2.12604, 1.96413, 1.91388, 1.96358, 1.91406, 1.91383, 2.02327, 1.91473, 1.91729, 1.91672, 1.918, 2.05994, 2.08073, 2.05352, 2.07767, 2.04852, 2.04415, 2.07398, 2.03377, 1.95795, 2.02993, 1.95199, 2.0241, 2.02062, 2.06872, 2.01635, 2.0125, 1.93422, 2.0133, 1.93108, 2.01041, 2.05954, 2.00778, 2.14892, 2.05605, 1.93952, 2.01801, 2.14548, 2.13275, 2.13093, 2.10798, 2.11691, 2.10634, 2.01365, 2.01269, 2.01107, 2.01079, 2.01058, 2.09699, 2.10331, 2.11898, 2.10446, 2.10476, 2.0966, 2.00667, 2.10115, 2.00376, 2.08763, 2.00167, 2.00058, 1.99893, 2.09423, 2.09387, 1.99396, 2.06896, 2.07645, 2.06451, 1.98691, 1.98399, 2.06891, 2.07011, 2.05178, 2.0524, 2.05205, 1.97166, 2.0447, 1.96717, 2.05765, 2.09305, 2.09678, 1.89447, 2.08962, 1.88612, 1.8822, 2.00172, 1.98582, 1.8781, 1.87685, 1.876, 1.87256, 1.99746, 1.87135, 1.87102, 1.87064, 1.8695, 1.87066, 1.86698, 2.08477, 1.86856, 2.07793, 1.86646, 1.75244, 1.74883, 1.9035, 1.7436, 1.79236, 1.73729, 1.89813, 1.78788, 1.73328, 1.73217, 1.73337, 1.89183, 1.89083, 1.72974, 1.7265, 1.72746, 1.72545, 1.72656, 1.72503, 1.73033, 1.82369, 1.87644, 1.72992, 1.87114, 1.87075, 1.73427, 1.73403, 1.86022, 1.73801, 1.73784, 1.73545, 1.74238
1.94281, 1.94367, 2.05857, 1.94247, 1.94137, 1.94049, 1.93803, 1.98295, 1.93112, 2.05838, 1.92862, 1.92688, 1.92251, 2.03389, 1.91853, 1.91728, 1.96592, 1.91447, 1.91465, 1.9646, 1.91452, 1.91333, 1.9169, 1.91548, 2.09905, 1.91659, 1.91491, 2.0828, 2.05811, 2.15557, 2.07642, 2.07668, 2.04506, 1.96515, 2.16865, 2.03458, 2.03443, 1.95369, 2.02516, 2.02426, 2.02048, 2.02013, 2.01523, 1.93696, 2.01165, 1.93419, 2.00901, 2.1538, 2.01013, 2.16045, 2.01066, 1.93537, 2.14543, 2.02034, 2.02658, 2.12419, 2.02116, 2.11168, 2.09655, 2.09353, 2.01226, 2.0104, 2.01013, 2.08755, 2.09988, 2.00762, 2.01011, 2.09645, 2.10303, 2.09349, 2.00699, 2.10367, 2.00378, 2.09119, 2.08252, 2.10458, 2.0005, 1.99806, 2.09607, 2.09233, 2.08896, 2.08632, 2.0796, 2.07382, 1.9861, 2.0827, 2.09122, 1.97963, 2.06748, 2.04636, 1.9722, 1.96933, 1.96796, 1.96854, 2.04396, 1.90434, 1.89932, 2.10307, 1.99311, 1.88994, 1.99556, 1.93157, 1.87902, 1.99756, 1.92756, 2.09328, 1.99421, 2.09326, 2.09531, 1.96999, 1.99213, 1.8718, 1.92615, 1.92375, 1.87032, 1.86941, 1.86921, 1.86841, 1.75194, 1.7486, 1.79616, 1.88543, 1.88371, 1.73808, 1.73387, 1.73317, 1.73084, 1.72726, 1.72901, 1.72686, 1.72551, 1.7262, 1.72536, 1.724, 1.88316, 1.72592, 1.72544, 1.83803, 1.72729, 1.72769, 1.83047, 1.73022, 1.869, 1.73192, 1.85781, 1.73476, 1.82374, 1.73703, 1.73707, 1.78727
1.9689, 2.00656, 1.94192, 1.94298, 1.9392, 1.93782, 1.93613, 1.93519, 1.92668, 1.93088, 1.92665, 1.92499, 2.03009, 2.03287, 2.03303, 1.91692, 1.91717, 1.91328, 1.91588, 1.91502, 1.91492, 1.91353, 1.91436, 1.91455, 1.91679, 2.00973, 1.91331, 2.05846, 2.05912, 2.05174, 2.05526, 1.972, 2.04803, 2.04221, 2.0748, 2.03238, 2.03137, 2.07289, 1.95198, 1.94759, 2.06904, 2.01815, 1.93959, 2.01148, 2.01221, 2.01092, 2.00869, 1.93144, 2.00685, 2.00861, 2.01156, 2.01225, 1.9388, 2.01627, 2.02388, 2.0502, 2.1275, 2.09426, 2.10811, 2.01432, 2.01166, 2.01181, 2.0084, 2.10093, 2.09484, 2.00835, 2.10797, 2.10143, 2.10706, 2.09012, 2.09235, 2.00322, 2.08855, 2.10222, 2.09026, 2.0935, 1.99947, 2.08004, 2.0855, 2.08876, 2.0806, 1.99025, 2.06459, 2.06289, 2.08059, 1.98534, 2.0723, 1.97844, 1.97712, 2.06606, 1.97128, 1.97119, 1.96943, 2.06004, 2.0561, 1.90234, 1.89896, 2.0966, 1.9416, 1.93798, 1.88437, 1.93212, 1.93046, 1.87765, 1.87807, 1.9934, 1.87543, 2.08322, 1.86949, 1.86928, 1.8703, 1.86988, 1.92593, 1.92468, 1.92309, 1.86879, 1.87124, 1.86886, 1.74719, 1.74577, 1.74422, 1.88449, 1.7874, 1.90513, 1.90248, 1.78652, 1.73026, 1.88917, 1.72832, 1.89659, 1.72695, 1.72656, 1.7264, 1.72384, 1.8824, 1.72408, 1.72395, 1.72471, 1.72571, 1.727, 1.72833, 1.73045, 1.73138, 1.84319, 1.84976, 1.78486, 1.73445, 1.73517, 1.78613, 1.78767
1.94468, 1.94484, 1.94288, 1.94143, 2.13745, 1.93765, 1.93532, 1.98245, 1.92994, 1.9256, 1.9782, 1.9224, 2.05132, 1.92377, 2.03171, 1.91832, 2.04205, 1.91647, 1.9136, 2.03827, 1.91369, 1.96599, 1.91558, 1.91447, 1.91551, 1.91353, 1.91386, 1.9668, 2.05639, 2.05308, 2.05042, 2.04704, 2.04557, 2.07299, 2.03596, 1.95637, 2.02915, 2.06945, 2.02491, 2.07094, 2.01972, 2.06773, 2.01664, 2.15194, 2.06556, 2.00983, 2.00855, 2.00737, 2.00691, 2.15226, 2.05691, 2.05555, 2.01315, 2.01757, 2.02116, 2.14467, 2.0937, 2.01875, 2.10132, 2.11406, 2.09422, 2.00932, 2.0097, 2.00923, 2.00728, 2.12463, 2.1028, 2.09909, 2.00711, 2.08369, 2.00625, 2.09095, 2.00456, 2.00426, 2.09268, 2.08977, 2.09054, 2.0876, 1.9968, 2.08483, 2.07029, 2.07756, 2.08751, 2.09646, 2.08608, 1.98254, 2.08068, 2.07297, 1.97595, 1.97323, 1.97076, 1.96898, 1.96908, 1.96736, 1.90672, 1.90294, 1.89803, 1.89352, 1.94093, 1.97029, 1.88403, 1.88271, 2.00102, 1.99843, 1.99922, 1.87581, 1.87596, 1.87444, 1.87285, 1.8715, 1.87036, 1.8714, 1.86979, 1.8717, 1.87059, 1.87003, 1.87015, 1.87232, 1.90685, 1.90005, 1.79213, 1.78987, 1.73317, 1.90152, 1.73053, 1.7273, 1.73039, 1.72704, 1.72592, 1.72624, 1.72506, 1.72288, 1.88563, 1.72283, 1.72173, 1.88545, 1.723, 1.77492, 1.72232, 1.72343, 1.72692, 1.86996, 1.72855, 1.73276, 1.78134, 1.81394, 1.73328, 1.73319, 1.73406, 1.73429
2.14429, 1.94483, 2.05828, 1.94148, 2.05691, 1.93649, 1.9363, 1.93273, 1.93382, 1.92821, 2.04096, 1.9761, 1.92367, 1.92367, 2.03422, 2.04823, 1.91517, 1.91523, 2.12744, 1.9146, 1.91444, 1.9147, 1.91525, 1.91693, 1.91701, 2.02996, 1.96597, 1.97246, 2.1763, 2.05325, 2.07588, 2.04912, 2.04307, 2.07295, 2.03514, 2.07198, 2.06998, 2.07078, 2.02399, 2.0237, 1.94449, 1.94165, 1.93858, 2.06961, 2.01349, 2.14637, 2.01017, 2.00725, 2.00683, 2.00833, 2.00875, 2.15347, 2.0123, 2.01819, 2.02467, 2.14155, 2.10528, 2.1115, 2.10943, 2.0983, 2.01185, 2.01152, 2.01031, 2.1017, 2.09683, 2.10365, 2.0082, 2.11003, 2.08369, 2.08217, 2.09736, 2.09741, 2.09444, 2.08552, 2.08841, 2.0891, 2.09384, 2.08587, 1.99677, 2.07898, 2.08135, 2.0741, 1.98973, 2.07218, 2.06833, 1.98279, 1.98035, 1.97915, 2.07078, 2.06124, 1.97096, 1.97225, 1.96906, 2.04665, 2.06937, 1.90533, 1.8962, 1.89394, 1.94032, 1.93642, 2.001, 1.99044, 1.99427, 1.99095, 1.87594, 2.08069, 1.87479, 1.92347, 1.92346, 1.87287, 1.87182, 1.8714, 1.87239, 1.87247, 1.87171, 1.92033, 1.87188, 1.7493, 1.74504, 1.74299, 1.79035, 1.73513, 1.73339, 1.73078, 1.89978, 1.72715, 1.72696, 1.72393, 1.72445, 1.72301, 1.72295, 1.89153, 1.88187, 1.72206, 1.7205, 1.93387, 1.71821, 1.88202, 1.72401, 1.72369, 1.72512, 1.72506, 1.729, 1.72984, 1.73173, 1.73024, 1.73113, 1.86382, 1.7346, 1.73329
2.05893, 2.13308, 1.94224, 1.94079, 2.13627, 1.93731, 1.98427, 1.93603, 1.9312, 2.05211, 1.92788, 1.92295, 1.92239, 1.92266, 1.92066, 1.91795, 1.91753, 2.0415, 1.91515, 1.91109, 2.11745, 1.9156, 1.96477, 1.96543, 1.96628, 2.02799, 1.91508, 2.01358, 2.0597, 2.07473, 2.05156, 1.97187, 2.04622, 1.96563, 2.03809, 2.03788, 2.03135, 1.95196, 2.0261, 2.02095, 2.01815, 2.01944, 2.06572, 2.01092, 2.01275, 2.01102, 1.93113, 1.93164, 1.93, 2.0564, 2.00806, 2.01044, 2.0147, 2.14011, 2.0243, 2.04892, 2.10508, 2.126, 2.12141, 2.01123, 2.01051, 2.00991, 2.00829, 2.00777, 2.10072, 2.11144, 2.00732, 2.11066, 2.10004, 2.08208, 2.00488, 2.00547, 2.00379, 2.00151, 2.09023, 2.08602, 2.0873, 2.07898, 2.08905, 1.99287, 1.99282, 1.99022, 2.07427, 2.08001, 1.98598, 1.98369, 1.98014, 1.9795, 2.0655, 2.06994, 1.9717, 1.96849, 1.97035, 1.96872, 2.06557, 1.90398, 2.0754, 1.89373, 1.94149, 1.88865, 1.88442, 1.99064, 1.99041, 1.9902, 1.87718, 1.99361, 1.87535, 1.87446, 1.87457, 1.87574, 1.9783, 1.92378, 1.92323, 1.87244, 1.86997, 1.87162, 1.87119, 1.74591, 1.74541, 1.73894, 1.90444, 1.73386, 1.90048, 1.72955, 1.72626, 1.7246, 1.724, 1.77642, 1.72051, 1.72072, 1.89154, 1.71907, 1.71955, 1.72018, 1.88067, 1.72025, 1.71861, 1.72117, 1.71999, 1.71986, 1.72004, 1.72405, 1.72662, 1.73037, 1.73028, 1.73092, 1.73114, 2.07853, 1.73416, 1.8311
2.05855, 2.06591, 1.94128, 1.94045, 1.93869, 1.94098, 1.9335, 2.13179, 1.92837, 2.12871, 1.92716, 2.12674, 2.03344, 1.92326, 1.99426, 1.96802, 1.96602, 1.91517, 1.91395, 1.91408, 2.03286, 2.02871, 1.91703, 1.96493, 1.98944, 1.91577, 1.91457, 1.9145, 2.05786, 2.15273, 2.05058, 2.04467, 2.04508, 2.04047, 2.03778, 1.95755, 2.02825, 2.02782, 2.0255, 1.94508, 2.06939, 2.01397, 2.06386, 1.93535, 2.00994, 2.00959, 2.00726, 2.0599, 1.93017, 2.05814, 1.93211, 2.01146, 2.01479, 2.13841, 2.01963, 2.04842, 2.01785, 2.10015, 2.10331, 2.10411, 2.01027, 2.00863, 2.00814, 2.09576, 2.00801, 2.10138, 2.09721, 2.09358, 2.10607, 2.09704, 2.10772, 2.08478, 2.00342, 2.10493, 2.09206, 2.08412, 2.0931, 1.99666, 2.08348, 1.99376, 2.09067, 2.07676, 2.07446, 2.07645, 2.08053, 2.0738, 2.06945, 1.97732, 2.07205, 2.06363, 1.9687, 1.96861, 1.96578, 1.96626, 2.0565, 1.90193, 1.89842, 1.89427, 1.89031, 1.88796, 1.99775, 2.07299, 1.98435, 1.88148, 2.0804, 1.87929, 1.87568, 1.87552, 1.87508, 1.996, 1.8738, 1.97536, 1.87443, 2.06678, 1.87275, 1.87108, 1.87046, 1.74707, 1.74358, 1.74078, 1.90029, 1.73438, 1.73015, 1.90659, 1.90472, 1.90202, 1.72081, 1.72163, 1.72074, 1.71911, 1.89368, 1.88898, 1.71754, 1.71793, 1.71686, 1.71777, 1.77854, 1.71896, 1.71853, 1.71749, 1.72, 1.72375, 1.77546, 1.72761, 1.86638, 1.86283, 1.86389, 1.85994, 1.86098, 1.73415
1.9418, 1.94209, 1.94074, 1.93869, 1.93878, 1.93622, 1.93423, 1.93165, 1.98007, 1.97968, 2.01787, 1.92413, 1.92087, 1.9195, 1.96952, 1.96789, 1.91629, 1.91592, 1.91608, 2.01143, 1.91344, 2.11122, 2.02447, 1.96833, 2.00972, 1.9144, 1.91579, 1.91676, 2.05776, 2.05244, 2.1561, 2.15236, 2.04513, 1.9651, 2.03636, 2.03162, 2.06629, 2.02611, 2.0251, 2.0222, 2.01846, 2.01776, 1.93721, 2.01033, 2.14063, 2.06177, 2.13836, 2.1407, 2.00667, 2.00698, 2.00906, 2.01239, 2.01351, 2.14199, 1.94535, 2.14896, 2.1182, 2.10672, 2.01667, 2.01296, 2.01011, 2.00853, 2.00529, 2.00746, 2.00693, 2.00755, 2.11088, 2.07933, 2.10773, 2.07992, 2.00408, 2.09341, 2.0896, 2.08882, 2.08619, 2.07638, 1.99666, 2.10047, 1.99362, 1.99335, 2.0735, 2.07424, 2.07534, 2.08415, 2.06558, 1.98248, 2.07003, 2.07102, 2.06222, 2.06286, 1.97079, 1.96772, 1.97158, 2.05791, 2.0515, 1.95184, 1.99964, 1.99693, 1.89066, 1.99974, 1.88316, 1.88211, 1.88198, 2.07081, 1.95175, 1.98616, 1.96477, 1.95189, 1.87782, 2.07287, 1.87376, 1.9249, 1.9245, 1.87359, 1.87287, 1.87209, 1.87329, 1.87262, 1.74076, 1.73611, 1.73386, 1.90486, 1.73054, 1.90481, 1.72309, 1.72152, 1.89729, 1.89588, 1.71853, 1.8145, 1.71686, 1.71648, 1.71743, 1.76499, 1.71647, 1.71678, 1.71443, 1.7169, 1.71567, 1.71448, 1.7181, 1.87144, 1.72063, 1.72374, 1.86618, 1.86205, 1.72873, 1.86231, 1.86296, 1.85933
1.94258, 2.05497, 1.94033, 1.93994, 1.93471, 1.93503, 2.02784, 1.98295, 1.93143, 1.93031, 1.92721, 2.04985, 1.92314, 2.12732, 1.92002, 1.91484, 1.98691, 1.916, 2.11442, 1.9151, 1.91299, 1.91225, 1.91321, 2.02398, 1.91486, 1.91404, 2.02628, 1.91343, 2.0761, 1.97672, 2.07118, 1.96983, 2.04317, 2.04221, 2.06908, 2.03126, 2.0342, 2.02706, 2.02224, 2.0208, 2.01715, 2.01598, 2.01292, 2.0107, 1.93174, 2.00519, 2.00698, 2.13796, 2.00299, 1.9304, 1.93125, 2.05569, 2.01254, 2.01212, 2.04813, 2.0314, 2.01883, 2.11752, 2.11471, 2.08415, 2.00872, 2.00921, 2.00686, 2.00593, 2.10168, 2.00644, 2.10418, 2.07874, 2.09394, 2.08914, 2.09607, 2.09041, 2.08313, 2.08253, 2.09691, 2.07561, 2.08336, 2.08629, 2.06985, 2.07256, 1.99024, 2.06964, 2.07071, 2.07721, 2.07924, 2.08008, 2.06591, 2.06609, 2.05642, 1.97145, 1.96884, 1.96742, 1.96723, 2.07945, 1.90719, 1.90106, 1.89923, 1.89376, 1.89083, 2.00299, 1.8844, 1.8821, 1.99037, 1.88039, 1.93021, 1.92886, 1.87721, 1.87752, 1.87752, 1.87813, 1.98663, 1.92367, 1.87409, 1.98588, 1.87327, 1.87043, 1.87228, 1.90401, 1.73905, 1.73542, 1.7334, 1.90297, 1.72712, 1.72337, 1.7721, 1.71978, 1.71994, 1.71681, 1.81964, 1.89635, 1.8959, 1.71545, 1.71452, 1.71704, 1.71101, 1.88308, 1.88178, 1.87883, 1.71343, 1.71498, 1.87473, 1.87309, 1.72032, 1.72207, 1.72506, 1.72659, 1.86093, 1.72827, 1.85816, 1.83185
1.9415, 2.05736, 1.93841, 1.93932, 1.93789, 1.93441, 1.93424, 1.98224, 1.93125, 1.92735, 1.92587, 1.92348, 1.92251, 2.04453, 1.96865, 1.96648, 1.91563, 2.00754, 1.91421, 1.96462, 1.91358, 1.9139, 1.91309, 1.91701, 1.91508, 2.01448, 2.01367, 1.97478, 2.07398, 2.0723, 2.07111, 2.0459, 2.06968, 2.03808, 2.14657, 2.03494, 1.95534, 2.0265, 2.02376, 2.01943, 1.9417, 2.01499, 2.01165, 2.15829, 2.00843, 2.00718, 2.00414, 2.00343, 2.00505, 1.93039, 1.93226, 1.93324, 1.93608, 1.93843, 2.02156, 2.02863, 2.12772, 2.10832, 2.10181, 2.08385, 2.00718, 2.00722, 2.00586, 2.09377, 2.09258, 2.09099, 2.00516, 2.10406, 2.10092, 2.10328, 2.09686, 2.0874, 2.08647, 2.08328, 2.09544, 2.07341, 2.08207, 2.0904, 2.08997, 2.07476, 2.07453, 2.0856, 2.07981, 2.06591, 2.06445, 2.07288, 2.06842, 2.06549, 2.05721, 1.97044, 1.96838, 1.96678, 1.96841, 1.9629, 1.90708, 2.06973, 1.9466, 1.89392, 1.89132, 1.98271, 1.88586, 1.88312, 1.88178, 1.88096, 1.945, 1.92836, 1.87879, 1.87814, 1.87842, 1.87903, 1.98102, 1.9822, 1.87473, 1.87281, 1.8716, 1.87324, 1.97833, 1.74266, 1.73781, 1.82742, 1.73075, 1.72677, 1.72477, 1.72323, 1.88959, 1.71892, 1.71652, 1.81375, 1.71347, 1.8918, 1.7134, 1.83899, 1.7128, 1.71174, 1.88453, 1.71356, 1.71095, 1.71292, 1.88044, 1.71228, 1.71561, 1.71486, 1.71852, 1.72126, 1.72397, 1.86355, 1.724, 1.86089, 1.85653, 1.85794
1.94328, 2.05543, 1.94044, 1.93576, 1.93539, 1.93523, 1.99003, 1.93184, 2.01823, 2.01016, 1.97657, 2.04756, 1.92091, 2.04243, 1.91812, 1.91902, 2.11375, 2.03503, 1.91379, 1.96336, 1.96333, 1.91148, 1.9111, 1.91647, 1.91523, 1.91317, 2.01374, 2.05491, 2.05253, 2.05113, 2.05083, 1.96855, 1.96554, 2.06546, 2.15812, 2.03546, 2.02867, 2.02442, 2.02207, 2.02321, 2.01855, 2.06498, 2.145, 2.06188, 2.00713, 2.00532, 2.00759, 2.00493, 2.00463, 2.00439, 1.93065, 2.01103, 2.0121, 2.01476, 1.94365, 2.02867, 2.01627, 2.01529, 2.09689, 2.11003, 2.00692, 2.00764, 2.00589, 2.00426, 2.00461, 2.00395, 2.07694, 2.10005, 2.09476, 2.09941, 2.08687, 2.00172, 2.0838, 2.07511, 2.08263, 2.09077, 1.99485, 2.07925, 2.07082, 1.99108, 1.9915, 1.98756, 2.07726, 1.98468, 1.98304, 2.07251, 2.06395, 2.06655, 2.05452, 1.97018, 1.9687, 1.96598, 1.96465, 2.06116, 2.03907, 1.90253, 1.9479, 1.99923, 1.8911, 1.88655, 1.88619, 1.9948, 1.8823, 1.88002, 1.98677, 1.99276, 1.9856, 1.98583, 1.87911, 1.97172, 1.87543, 2.00289, 1.87575, 2.05945, 1.87551, 1.87524, 1.87322, 1.73852, 1.73734, 1.90464, 1.84354, 1.72692, 1.72425, 1.72031, 1.71748, 1.89888, 1.7129, 1.71349, 1.71255, 1.88944, 1.70936, 1.7129, 1.71011, 1.7096, 1.71039, 1.71129, 1.71174, 1.71122, 1.71056, 1.87656, 1.82634, 1.87208, 1.71565, 1.72098, 1.72021, 1.86838, 1.86223, 1.85922, 1.85804, 1.72624
2.05295, 1.94092, 1.93782, 1.94074, 1.93509, 1.93453, 1.93476, 1.93052, 2.01726, 2.04646, 1.97921, 1.92326, 2.03928, 2.04256, 2.11758, 1.91643, 1.91355, 1.91288, 1.91229, 2.03408, 2.11819, 2.01658, 1.91458, 1.9164, 1.98506, 1.91783, 1.96729, 2.14786, 1.97843, 2.0699, 2.06749, 2.04509, 2.04346, 1.96189, 2.14167, 2.14142, 2.02602, 2.06587, 2.02203, 2.06261, 2.06507, 1.93915, 2.01128, 2.00807, 2.00644, 2.00594, 2.00456, 1.92774, 2.00419, 2.00506, 2.00667, 2.15285, 2.05227, 1.93746, 2.12756, 2.0454, 2.10013, 2.10117, 2.10093, 2.09609, 2.00731, 2.00683, 2.00512, 2.00386, 2.00403, 2.00457, 2.0029, 2.11011, 2.0895, 2.09118, 2.08611, 2.00186, 2.08592, 2.0909, 1.9976, 2.08952, 2.08476, 1.99272, 2.07967, 2.09416, 2.08193, 2.06297, 2.06357, 2.07278, 2.06599, 2.06981, 2.06711, 2.05789, 2.06252, 2.06516, 2.04236, 1.96722, 1.96583, 2.0686, 1.90376, 1.90205, 1.89678, 1.97897, 1.89272, 1.88905, 1.88737, 2.07601, 1.88279, 1.88201, 1.88152, 1.8788, 1.9293, 1.87813, 1.8761, 1.87737, 1.87733, 1.87884, 1.87581, 1.986, 1.87537, 1.92345, 1.87136, 1.73738, 1.90137, 1.9052, 1.90267, 1.72398, 1.72141, 1.71932, 1.71659, 1.89925, 1.71306, 1.89344, 1.89128, 1.71038, 1.75949, 1.70993, 1.88626, 1.71057, 1.75887, 1.70847, 1.70872, 1.71109, 1.70942, 1.70634, 1.87494, 1.71392, 1.71541, 1.86874, 1.96932, 1.72026, 1.72136, 1.85667, 1.72447, 1.72835
1.94052, 1.99003, 1.94086, 1.93753, 2.05451, 2.04999, 1.98301, 1.9329, 1.93068, 1.92683, 1.92322, 1.97725, 1.92325, 1.96965, 1.92069, 1.91522, 1.9134, 1.91296, 1.91154, 1.91125, 1.91326, 1.96193, 1.96493, 1.91421, 1.91419, 1.91695, 1.91758, 2.05883, 2.07, 2.14496, 2.04832, 2.06539, 2.0422, 2.0358, 2.03661, 2.0342, 2.03395, 1.94894, 2.02472, 2.02089, 1.9393, 2.01516, 2.06178, 2.00842, 1.93078, 2.13939, 2.13951, 2.00315, 2.0554, 2.00384, 2.00636, 2.1429, 2.05279, 2.04956, 2.01787, 2.04568, 2.10456, 2.01418, 2.09414, 2.08811, 2.08672, 2.00678, 2.00363, 2.00467, 2.0941, 2.00359, 2.09669, 2.00337, 2.11065, 2.00275, 2.00068, 2.09435, 2.00008, 2.08805, 2.10404, 2.08994, 2.09137, 2.09433, 2.07388, 2.07408, 2.07965, 2.08032, 2.08396, 2.07264, 2.08361, 2.06608, 2.07057, 1.97459, 2.05203, 1.96853, 1.96666, 1.9656, 1.9646, 1.96361, 2.06523, 1.90026, 1.89687, 1.98978, 1.88955, 1.88736, 1.88544, 1.88201, 1.8855, 1.88121, 1.88238, 1.97419, 1.98937, 1.99268, 1.87901, 1.87775, 1.87625, 1.876, 1.98609, 1.98464, 1.87563, 1.96946, 1.873, 1.73683, 1.73382, 1.90261, 1.72714, 1.77367, 1.83846, 1.7686, 1.71398, 1.71274, 1.71018, 1.89399, 1.71076, 1.7087, 1.71017, 1.88862, 1.7083, 1.70758, 1.70975, 1.70764, 1.8787, 1.70573, 1.87599, 1.87831, 1.876, 1.71248, 1.87121, 1.86869, 1.71941, 1.8665, 1.77236, 1.72227, 1.72365, 1.72786
1.94119, 1.94146, 1.93895, 1.93853, 1.93519, 2.02146, 1.98318, 1.93245, 1.93122, 1.92833, 1.92254, 1.97365, 2.03358, 1.97119, 1.91806, 1.91663, 1.91534, 1.9124, 2.03176, 2.03146, 1.91053, 1.91273, 1.91079, 2.03345, 1.96518, 2.00304, 1.91488, 2.05818, 2.05173, 2.07043, 2.06515, 2.04244, 2.04123, 2.03653, 2.14578, 2.06273, 2.02823, 2.02478, 2.06257, 2.0191, 2.0152, 2.01204, 2.01224, 2.0596, 1.93162, 1.92794, 2.00396, 2.00424, 2.15141, 2.0043, 2.00468, 2.00951, 1.93231, 2.01478, 2.01494, 2.04485, 2.01687, 2.0898, 2.08993, 2.08601, 2.08681, 2.00647, 2.00285, 2.08821, 2.09187, 2.10394, 2.00226, 2.09335, 2.0909, 2.08996, 1.99878, 2.08902, 2.08671, 1.99637, 2.0897, 2.08599, 2.08653, 2.07911, 1.99001, 2.08637, 2.09192, 2.07714, 2.09732, 1.98324, 1.97908, 1.97856, 2.06568, 2.06524, 2.07374, 2.05584, 1.96867, 1.96493, 1.96367, 1.96579, 2.05978, 2.07231, 2.09645, 2.10384, 1.98922, 1.94132, 1.88639, 1.99247, 1.8825, 1.88486, 1.88239, 1.99021, 1.87787, 1.99095, 1.87694, 1.88004, 1.87757, 1.87668, 1.87246, 1.97531, 1.87514, 1.87573, 1.87266, 1.78586, 1.84743, 1.72791, 1.77507, 1.82096, 1.71866, 1.71698, 1.83179, 1.89703, 1.70971, 1.89243, 1.80766, 1.70561, 1.70407, 1.70374, 1.88543, 1.70662, 1.75632, 1.70469, 1.70299, 1.70578, 1.70703, 1.87578, 1.70935, 1.70764, 1.7126, 1.71373, 1.71574, 1.86273, 1.71659, 1.72054, 1.72311, 1.72537
1.94052, 2.05339, 1.93975, 1.93807, 1.93412, 1.98195, 2.03594, 1.99636, 1.92747, 2.04148, 1.92679, 1.97376, 1.92349, 2.02663, 1.91922, 1.91789, 1.91664, 2.03419, 1.91045, 1.96122, 1.90989, 1.91232, 2.01704, 1.91344, 1.96386, 1.91653, 1.91646, 2.05548, 2.05321, 2.04997, 2.04683, 2.04211, 2.03978, 2.03556, 2.03373, 2.03127, 1.95271, 1.94803, 2.14507, 1.9427, 2.01546, 2.01364, 1.93436, 2.00945, 2.00716, 2.00386, 2.00338, 2.00445, 2.00048, 2.00507, 2.00525, 2.00718, 2.04803, 1.93632, 2.01897, 2.11431, 2.10909, 2.11746, 2.09455, 2.10223, 2.00602, 2.0041, 2.00365, 2.00118, 2.00127, 2.08596, 2.08701, 2.07506, 2.08745, 1.99977, 1.99983, 2.09, 2.08594, 2.09105, 2.08228, 2.094, 2.07754, 2.09918, 2.07751, 2.07666, 1.98803, 2.08247, 2.07518, 2.06785, 2.07118, 2.06984, 1.97335, 2.0647, 2.05997, 1.96854, 1.9669, 1.96445, 1.96246, 2.06575, 2.08744, 2.06911, 1.89689, 1.89296, 1.94081, 1.88991, 1.88895, 1.8845, 1.93486, 1.88315, 1.98968, 1.88038, 2.07357, 1.8802, 1.98162, 1.88011, 1.9828, 1.97892, 1.87767, 1.92531, 2.06591, 1.87434, 1.87547, 1.73465, 1.73032, 1.72725, 1.72325, 1.71916, 1.81967, 1.71263, 1.7115, 1.71037, 1.70835, 1.70596, 1.70541, 1.70695, 1.70395, 1.70303, 1.70489, 1.82913, 1.70406, 1.7008, 1.70264, 1.706, 1.87463, 1.87574, 1.87815, 1.7092, 1.70958, 1.70989, 1.71326, 1.71896, 1.71703, 1.71818, 1.71991, 1.72395
2.2207, 2.04881, 2.04181, 1.93657, 1.93564, 1.9315, 2.03408, 1.99401, 1.9279, 1.97798, 1.92497, 1.97265, 2.02101, 1.92084, 1.91757, 1.9164, 1.91646, 1.91117, 1.90989, 1.9113, 1.91063, 1.91123, 1.91175, 1.91321, 1.91416, 1.91561, 1.91678, 2.06741, 2.14297, 2.0502, 2.04464, 2.04223, 2.04067, 2.062, 2.06334, 2.03348, 2.02789, 1.94749, 2.01878, 2.01794, 2.01395, 2.01382, 2.05617, 2.00817, 2.05714, 1.92944, 2.00504, 2.00158, 2.00393, 2.00077, 2.00384, 2.04944, 2.05119, 2.01413, 2.1221, 2.11839, 2.10885, 2.08687, 2.08489, 2.0825, 2.00576, 2.00406, 2.00057, 2.00116, 2.09324, 2.07664, 2.10685, 2.08526, 2.08055, 2.07356, 2.08624, 1.99759, 2.08247, 1.99486, 2.08909, 1.99249, 1.99036, 2.07276, 2.0762, 1.98595, 2.06697, 2.06989, 2.07707, 2.06866, 2.06902, 2.07219, 1.97546, 2.08357, 1.96915, 1.96835, 1.96828, 1.9634, 1.96342, 2.05919, 1.95148, 1.89916, 1.89686, 1.8932, 1.94923, 1.99197, 1.88518, 1.88539, 1.93438, 1.93232, 1.88196, 1.87984, 1.87967, 2.07354, 1.88007, 1.87923, 1.92716, 1.87724, 1.92865, 1.9267, 1.87491, 2.06646, 1.87271, 1.7318, 1.90481, 1.72487, 1.72075, 1.90283, 1.71641, 1.71184, 1.70972, 1.70577, 1.70647, 1.70504, 1.75467, 1.70605, 1.70199, 1.70256, 1.7034, 1.70297, 1.86815, 1.70084, 1.81886, 1.80754, 1.70605, 1.75571, 1.82474, 1.70901, 1.90016, 1.70664, 1.86574, 1.86159, 1.71438, 1.72031, 1.77017, 1.77278
1.94051, 1.93958, 2.04949, 1.93587, 1.93393, 2.04046, 2.04185, 1.92892, 1.92815, 1.92674, 1.98573, 2.01489, 1.92237, 2.03535, 1.91715, 2.03427, 1.96133, 1.91093, 1.91016, 1.91222, 1.91061, 1.99755, 1.91108, 1.98114, 1.96848, 1.91697, 2.0111, 2.05542, 2.05177, 2.06243, 2.04498, 2.04189, 2.04131, 2.03389, 2.03341, 2.03112, 2.02705, 1.94776, 2.02177, 2.01887, 2.01268, 2.14575, 2.05921, 2.00869, 2.00721, 2.0014, 2.00105, 2.00122, 2.00275, 2.15235, 2.00314, 2.00352, 1.93203, 2.01457, 2.01516, 2.02432, 2.12813, 2.11373, 2.10708, 2.08276, 2.00507, 2.00352, 2.00104, 2.00056, 2.00156, 2.10187, 2.07254, 2.08448, 2.08364, 2.07397, 2.07925, 2.08645, 2.0799, 2.08295, 1.99251, 2.07943, 2.06872, 2.07401, 2.08029, 1.98659, 2.07211, 1.98289, 2.07456, 2.05375, 2.07285, 2.06922, 2.05615, 2.06883, 2.0624, 2.0523, 1.96621, 1.96474, 1.96143, 1.96403, 2.05297, 1.94802, 1.94479, 1.89255, 1.88936, 1.88872, 1.88638, 1.88576, 1.88211, 1.95263, 1.9391, 1.88031, 2.07666, 1.8796, 1.88128, 1.87694, 1.87631, 1.87977, 1.92575, 1.92466, 1.87429, 1.87319, 2.06178, 1.78024, 1.72387, 1.72368, 1.71973, 1.90349, 1.71396, 1.70959, 1.70807, 1.89056, 1.75519, 1.75178, 1.70346, 1.80555, 1.69941, 1.69975, 1.889, 1.70092, 1.70035, 1.70252, 1.70184, 1.87537, 1.70404, 1.75519, 1.75627, 1.75643, 1.84776, 1.70896, 1.71323, 1.71362, 1.71572, 1.71734, 1.71738, 1.72137
1.94098, 1.93848, 2.06779, 1.93493, 2.04159, 1.93373, 1.93, 1.92579, 1.93054, 1.92516, 1.92452, 2.04555, 1.92121, 1.97032, 1.91573, 1.91375, 1.91327, 1.91353, 1.96154, 2.09194, 1.90961, 2.02036, 1.91005, 1.99639, 1.91321, 1.91388, 1.91628, 2.05263, 2.05199, 2.06477, 2.06211, 2.04485, 2.04245, 2.03468, 2.03449, 2.05838, 2.1449, 1.94693, 2.01776, 1.94138, 2.13423, 2.01302, 1.93313, 1.9316, 2.00381, 2.05631, 2.00579, 1.92404, 1.92503, 2.00112, 2.00324, 2.00527, 2.1216, 2.04478, 2.04149, 2.04283, 2.11432, 2.11347, 2.10129, 2.00685, 2.00418, 2.00516, 2.07632, 1.99984, 1.99984, 2.00037, 2.0004, 2.08096, 2.08769, 2.07253, 2.07233, 2.07648, 2.08295, 2.08805, 1.99019, 1.9904, 2.07715, 1.98724, 2.07284, 2.08651, 2.0792, 2.07599, 2.0735, 1.98039, 2.04969, 1.97498, 2.073, 1.97133, 2.06307, 2.07087, 1.96614, 1.96338, 1.96459, 2.0354, 1.9004, 1.89844, 1.89159, 1.89123, 1.88986, 1.99738, 1.99395, 1.93416, 1.933, 1.88275, 1.93144, 1.88018, 1.88063, 1.93047, 1.88091, 1.8799, 1.87933, 1.87646, 1.92699, 1.92656, 1.87528, 1.87281, 1.87276, 1.72654, 1.72393, 1.71915, 1.71617, 1.81409, 1.71175, 1.70787, 1.70904, 1.89392, 1.75447, 1.75043, 1.70122, 1.75056, 1.69662, 1.76821, 1.69816, 1.8141, 1.69983, 1.69973, 1.70019, 1.87536, 1.70296, 1.76243, 1.85055, 1.7549, 1.75558, 1.75772, 1.71165, 1.85717, 1.85324, 1.71498, 1.71935, 1.89972
1.93965, 1.93579, 2.06603, 1.93395, 1.93571, 1.93138, 2.04444, 2.20491, 1.92608, 2.04126, 1.9253, 1.92201, 2.01369, 2.03416, 2.03174, 2.02466, 2.02884, 2.0169, 1.96235, 1.95892, 1.90935, 2.09772, 1.9103, 1.96117, 1.91312, 2.01322, 1.91729, 2.0515, 2.05995, 2.13941, 2.04215, 2.04188, 2.04122, 2.03465, 2.03186, 2.02861, 2.02404, 2.05663, 2.14203, 2.01991, 2.01449, 2.1503, 2.0078, 1.93029, 2.00463, 1.9275, 2.05576, 2.00094, 1.99911, 1.99947, 2.04821, 2.04757, 2.00666, 2.01272, 2.01518, 2.14162, 2.09312, 2.11166, 2.09352, 2.1001, 2.00667, 2.00619, 2.00236, 2.09418, 2.09673, 2.10048, 2.08877, 2.10341, 2.08733, 1.99711, 2.08093, 2.07763, 2.07374, 2.07161, 1.99122, 2.08362, 1.98706, 2.07543, 2.07634, 1.98463, 2.06823, 2.07351, 2.06789, 2.06283, 1.97732, 2.05875, 2.06849, 2.06214, 2.05842, 1.96685, 1.9663, 1.96172, 2.04259, 1.96147, 2.05978, 1.89662, 1.89679, 1.89261, 1.94069, 1.99396, 1.9363, 1.93422, 1.93345, 1.8824, 1.93079, 1.88104, 1.88115, 1.87934, 1.92809, 1.87643, 1.87598, 1.87586, 1.87596, 1.87625, 1.87356, 1.87432, 1.87209, 1.72471, 1.72231, 1.7183, 1.71993, 1.71166, 1.70939, 1.70462, 1.70413, 1.89212, 1.77542, 1.75109, 1.70012, 1.69894, 1.88606, 1.69913, 1.6967, 1.69669, 1.69723, 1.88192, 1.81008, 1.69989, 1.8738, 1.70205, 1.70302, 1.70283, 1.75635, 1.707, 1.70647, 1.71309, 1.85449, 1.71666, 1.71537, 1.84394
1.93792, 1.93524, 2.04331, 1.935, 1.93414, 1.9316, 1.92926, 1.9277, 1.92444, 1.92511, 1.92409, 2.01392, 2.03837, 1.92019, 1.91983, 1.96517, 1.91407, 1.91124, 1.90994, 1.91008, 1.90686, 1.95984, 1.91297, 1.95987, 1.9119, 1.96354, 1.99638, 1.97501, 2.05891, 2.13583, 2.04237, 2.03896, 2.039, 2.05545, 2.05796, 2.02775, 2.02757, 2.02243, 2.02128, 2.14001, 2.05713, 2.14347, 1.93141, 1.92804, 2.00291, 2.05279, 2.00185, 2.00016, 1.99806, 2.00406, 2.00062, 2.00328, 1.93041, 1.93485, 2.01158, 2.14529, 2.01129, 2.10044, 2.0073, 2.09616, 2.00353, 2.0013, 2.00147, 2.08648, 2.1039, 2.10072, 1.99736, 2.09048, 1.99754, 2.08675, 1.99522, 2.08276, 2.08159, 2.07351, 2.07611, 1.98889, 2.07717, 2.07818, 2.0772, 2.05966, 2.06032, 2.06733, 2.08641, 2.08225, 2.06794, 2.06438, 2.06518, 2.06273, 2.06188, 2.05326, 1.96312, 1.96239, 2.04105, 2.0563, 2.06178, 1.89638, 1.89612, 1.89399, 1.93921, 1.88664, 1.98742, 2.08642, 2.07967, 1.88319, 1.88185, 1.8822, 1.98303, 1.93054, 1.92852, 1.87808, 1.87878, 2.06907, 1.87626, 1.87505, 2.07267, 1.87319, 1.96936, 1.72322, 1.72038, 1.71458, 1.9024, 1.71364, 1.81346, 1.70659, 1.70491, 1.79682, 1.69994, 1.69621, 1.69851, 1.6967, 1.69634, 1.69727, 1.79344, 1.69647, 1.69318, 1.69767, 1.69759, 1.69666, 1.69649, 1.69972, 1.81696, 1.86796, 1.70279, 1.86237, 1.70676, 1.7071, 1.854, 1.84852, 1.84613, 1.71753
1.93744, 1.93706, 1.93475, 1.93391, 1.93208, 1.92942, 1.92922, 1.92803, 1.92539, 2.03153, 1.92151, 1.92229, 1.91955, 2.01727, 1.96515, 2.01686, 1.91119, 1.91036, 1.95853, 1.95797, 1.9049, 1.95837, 1.9592, 2.00099, 1.91102, 2.09973, 1.96421, 2.06226, 2.05611, 2.04849, 2.04484, 2.03847, 1.96254, 2.05565, 2.05545, 2.15622, 2.02536, 2.02507, 2.0181, 2.05642, 1.93429, 2.01026, 2.00665, 2.05452, 2.00182, 2.0013, 2.00203, 1.99836, 2.1378, 2.0004, 2.00024, 2.00134, 2.0044, 2.0416, 2.01511, 2.12826, 2.10508, 2.09469, 2.09427, 2.08988, 2.00362, 2.00202, 2.00003, 2.09308, 1.99883, 2.09562, 1.99677, 1.99652, 2.09355, 2.08341, 2.07891, 2.06587, 1.9912, 2.08275, 2.07522, 2.08663, 1.98635, 2.08347, 1.98429, 2.07888, 2.05584, 2.05728, 2.06893, 1.97617, 1.97598, 2.06689, 2.06555, 2.06708, 2.06646, 1.96467, 1.96341, 1.96476, 2.04372, 2.05286, 2.08202, 1.89588, 2.09243, 1.98182, 1.93911, 1.88918, 1.88361, 1.88292, 1.88215, 1.98744, 1.88094, 1.88168, 1.88028, 1.92937, 1.92814, 1.92747, 1.87684, 1.87713, 1.87614, 1.87314, 1.87364, 2.06083, 1.87, 1.90331, 1.90285, 1.71642, 1.71081, 1.71003, 1.75631, 1.70521, 1.70263, 1.88732, 1.80043, 1.79855, 1.88515, 1.69425, 1.69394, 1.69567, 1.69264, 1.6943, 1.69367, 1.794, 1.69397, 1.69716, 1.87478, 1.87193, 1.69841, 1.70004, 1.69999, 1.7011, 1.70555, 1.85868, 1.7097, 1.84625, 1.84418, 1.71477
2.03249, 2.04128, 1.9374, 1.93171, 1.9314, 1.92707, 1.92758, 1.97797, 1.92704, 2.03143, 1.97292, 1.98545, 1.96868, 1.9165, 2.01705, 1.9135, 1.9617, 1.91035, 2.02383, 1.90763, 1.90868, 2.02213, 1.90522, 1.99957, 1.95919, 1.91128, 1.96191, 2.05984, 2.04937, 2.05938, 1.96591, 2.03852, 2.03863, 2.03467, 1.95367, 2.02767, 2.02695, 2.02165, 2.05289, 2.14942, 2.01319, 2.01075, 2.0075, 2.14164, 2.0012, 2.00111, 1.99944, 2.04682, 1.92296, 1.99686, 2.04615, 2.00003, 2.00661, 2.00981, 2.01133, 2.03783, 2.00996, 2.10293, 2.08197, 2.09321, 2.08287, 2.07817, 1.99935, 1.99833, 2.09544, 2.09809, 2.09781, 1.99658, 2.08148, 2.08491, 2.08012, 1.99203, 2.08163, 2.08021, 2.08285, 2.07536, 2.08704, 2.05908, 2.06508, 1.98208, 2.06539, 2.0682, 2.05208, 2.06295, 2.06858, 2.06372, 1.96953, 2.05308, 2.05413, 2.06153, 1.96483, 1.95888, 1.95911, 2.0524, 1.89984, 1.89608, 1.94311, 1.88983, 1.93812, 1.88587, 1.99259, 1.88263, 1.99006, 1.88279, 1.87912, 2.07555, 1.88082, 1.88148, 1.97069, 1.87887, 2.05949, 1.97485, 1.87476, 1.87357, 1.87323, 1.87172, 1.96902, 1.8977, 1.71625, 1.7653, 1.70798, 1.70713, 1.70418, 1.70284, 1.70103, 1.69749, 1.69594, 1.69633, 1.69435, 1.69359, 1.69196, 1.78748, 1.69372, 1.69176, 1.69224, 1.69313, 1.87471, 1.87009, 1.69538, 1.69636, 1.69548, 1.75028, 1.75083, 1.75238, 1.70271, 1.80697, 1.85125, 1.71034, 1.84454, 1.71354
1.93475, 1.93715, 1.93184, 2.12117, 1.93299, 1.93066, 1.92537, 1.9278, 1.97487, 1.97455, 1.92274, 1.91762, 1.92128, 1.91532, 1.96569, 1.9136, 1.9112, 2.01571, 1.90681, 2.0232, 1.90646, 1.90478, 2.09302, 1.90711, 1.95956, 1.90793, 2.01094, 2.04855, 2.04808, 1.9685, 2.04937, 2.05073, 1.96163, 2.03174, 2.03042, 2.02624, 2.02372, 2.05526, 2.14743, 1.93842, 1.93301, 2.01039, 2.05267, 2.13874, 2.00288, 2.04978, 2.14182, 1.99723, 1.99895, 1.99719, 2.13798, 1.9249, 2.00684, 2.03978, 2.01158, 2.1266, 2.00772, 2.10481, 2.08087, 2.07923, 2.07975, 1.99998, 2.00035, 1.99713, 2.07258, 2.08278, 1.99691, 2.07557, 2.07002, 2.08311, 2.08064, 2.07759, 2.08403, 2.08427, 2.08675, 2.07824, 2.0785, 2.08638, 1.98353, 1.98244, 1.97959, 2.06043, 1.97936, 2.06294, 1.97293, 1.97199, 2.05224, 2.05593, 2.05643, 1.96358, 1.96434, 1.96018, 1.95876, 1.96056, 1.8969, 2.09415, 1.97077, 1.89156, 1.88989, 1.88747, 1.88584, 1.88189, 1.88361, 1.88311, 2.07307, 1.98493, 1.95505, 1.87889, 1.87843, 1.87803, 1.87451, 1.87615, 1.87383, 1.8751, 1.87299, 1.87188, 2.04675, 1.89995, 1.71281, 1.89644, 1.70927, 1.70494, 1.70242, 1.88597, 1.6988, 1.69862, 1.69485, 1.69632, 1.69308, 1.8806, 1.6921, 1.87975, 1.69172, 1.69036, 1.6916, 1.69149, 1.69259, 1.69445, 1.77948, 1.89715, 1.89586, 1.74775, 1.74914, 1.69933, 1.70303, 1.70052, 1.80969, 1.70937, 1.84116, 1.71286
1.93403, 1.98359, 1.9828, 2.03456, 1.92905, 2.03723, 2.02369, 1.92698, 1.92354, 1.92181, 2.03512, 1.91783, 2.03498, 1.91455, 1.91455, 1.9112, 2.0182, 1.90436, 1.90603, 2.02597, 1.90498, 1.95532, 1.90414, 1.95696, 1.95832, 1.91094, 2.09141, 2.05803, 2.05559, 2.13507, 2.05561, 1.95955, 1.95868, 2.03166, 2.05565, 2.02749, 2.02239, 1.94539, 2.01645, 2.14152, 2.05199, 2.00949, 2.12695, 2.00413, 1.92466, 2.00146, 2.12715, 2.00116, 1.99893, 1.99708, 1.9995, 1.92447, 1.9284, 1.93124, 2.12531, 2.03531, 2.00837, 2.0883, 2.08641, 2.08584, 2.00296, 2.00033, 1.99754, 1.99673, 2.08504, 1.99725, 1.99501, 1.99424, 2.076, 2.08999, 1.99238, 1.98953, 2.07702, 2.08729, 2.08432, 2.07271, 2.07276, 2.07914, 2.06881, 1.97916, 2.06891, 2.0722, 1.97836, 2.06663, 1.97384, 1.96991, 2.05254, 1.96699, 2.04869, 2.03794, 1.96109, 1.95955, 1.95805, 2.03561, 2.03795, 1.99124, 1.89082, 1.88932, 1.8884, 2.07558, 1.88561, 1.98675, 1.88366, 1.93156, 1.88002, 1.97945, 1.98118, 1.87915, 1.87824, 1.87855, 1.87385, 2.04933, 1.87439, 1.87262, 1.92075, 2.05156, 1.86798, 1.71461, 1.71124, 1.70682, 1.70483, 1.70192, 1.70168, 1.7022, 1.69858, 1.88334, 1.78626, 1.88245, 1.69211, 1.74048, 1.68964, 1.68895, 1.68881, 1.68952, 1.68921, 1.87298, 1.87028, 1.69092, 1.69382, 1.6929, 1.84512, 1.74476, 1.69642, 1.69937, 1.7003, 1.70307, 1.70443, 1.7029, 1.70661, 1.70963
