1.94321, 1.94508, 2.00638, 1.941, 1.94059, 1.94213, 1.9448, 1.93855, 2.05908, 1.93747, 2.05881, 1.93503, 1.93378, 1.935, 1.92768, 1.92447, 1.93056, 1.92746, 2.03856, 1.92565, 1.92283, 2.05179, 2.02994, 2.0312, 2.03238, 2.03134, 2.03791, 2.04791, 1.91598, 1.91779, 2.11401, 2.01182, 1.91672, 1.91444, 1.91564, 1.9111, 1.91424, 1.91363, 2.12161, 2.00743, 1.91171, 1.91172, 1.9137, 1.91599, 2.09901, 2.10028, 2.01456, 2.02104, 1.91318, 1.91426, 2.05802, 2.1525, 2.15265, 2.051, 2.05116, 1.97486, 2.07401, 2.04486, 2.07376, 2.04802, 1.965, 1.96305, 2.07421, 2.03422, 2.03123, 2.03075, 2.07044, 2.07083, 1.95139, 1.94889, 1.94712, 2.02023, 1.9438, 2.01914, 2.01701, 1.93845, 1.93902, 1.9383, 2.0109, 2.01112, 2.00831, 2.00963, 2.00769, 2.06067, 2.00778, 2.0041, 1.93086, 2.00629, 2.00644, 2.00779, 1.93208, 1.93167, 2.01102, 2.14758, 2.01438, 2.0148, 2.04911, 2.02112, 1.94872, 2.12207, 2.14486, 2.12623, 2.09483, 2.10837, 2.1103, 2.09779, 2.01384, 2.01363, 2.01143, 2.01025, 2.01052, 2.00877, 2.00678, 2.09338, 2.10765, 2.10067, 2.09441, 2.11451, 2.10742, 2.09255, 2.10029, 2.09043, 2.1008, 2.00686, 2.09211, 2.09111, 2.09303, 2.10395, 2.00384, 2.00363, 2.09018, 2.08854, 2.10218, 2.00163, 2.08817, 2.0809, 1.9995, 1.99827, 2.09509, 2.08057, 2.08594, 2.08687, 2.08761, 1.99358, 1.99302, 2.07764, 1.98977, 2.0696, 2.07292, 2.06323, 1.98752, 2.07917, 1.98516, 1.98393, 1.98232, 2.0714, 2.07208, 1.97713, 1.97652, 1.97621, 2.08027, 2.05923, 1.97012, 1.97146, 1.97212, 1.96706, 1.96769, 2.05815, 2.04539, 2.05623, 1.90512, 1.90247, 1.89713, 1.89961, 1.89585, 2.00044, 1.94166, 1.88847, 1.93815, 1.93522, 1.88389, 1.88328, 1.93145, 1.93847, 1.92866, 1.87831, 1.87703, 1.87838, 1.87643, 1.99258, 1.87395, 1.87294, 1.99446, 2.08224, 1.9953, 1.86958, 1.86739, 1.87168, 1.87002, 1.87018, 1.86936, 1.92516, 1.92445, 1.92569, 1.92333, 1.92228, 1.86844, 1.86832, 1.86813, 1.87043, 2.06867, 1.86852, 1.74856, 1.74595, 1.74554, 1.74569, 1.79299, 1.74088, 1.88591, 1.73915, 1.78738, 1.7365, 1.90484, 1.73374, 1.73159, 1.7856, 1.73038, 1.72999, 1.88948, 1.72485, 1.80059, 1.72685, 1.7247, 1.89592, 1.72658, 1.72656, 1.72622, 1.72634, 1.72477, 1.72317, 1.72087, 1.72127, 1.72448, 1.72338, 1.72425, 1.72362, 1.72406, 1.72403, 1.72413, 1.72501, 1.7275, 1.72652, 1.72773, 1.72761, 1.72953, 1.73026, 1.73155, 1.73316, 1.84244, 1.84888, 1.73381, 1.84807, 1.73269, 1.73356, 1.73417, 1.73666, 1.73527, 1.78559, 1.78729, 1.78653
1.94349, 1.94454, 1.94417, 1.94328, 1.93957, 1.93913, 1.94125, 2.13624, 1.93772, 1.93576, 2.0552, 1.93473, 1.98217, 1.98231, 2.05964, 1.92979, 1.925, 1.92501, 2.11395, 1.97613, 1.92085, 2.04936, 2.03179, 1.92383, 2.02066, 2.03084, 2.03785, 1.9175, 1.91673, 2.04118, 2.123, 1.91443, 1.91365, 1.91315, 2.12799, 2.03729, 1.91443, 1.91088, 1.96354, 1.96365, 1.91402, 1.91402, 1.91418, 1.91376, 2.09893, 2.10012, 1.91315, 1.91326, 1.96506, 1.91694, 2.05693, 2.05531, 2.05378, 2.05162, 2.04923, 2.05023, 2.04538, 2.07314, 2.04358, 2.07083, 1.96361, 2.07199, 2.03473, 1.95555, 2.07303, 2.0693, 2.02835, 2.02797, 2.02428, 2.02434, 2.06973, 2.15244, 2.01839, 2.01787, 2.06652, 2.06595, 2.15887, 2.06437, 1.93733, 2.15617, 2.06524, 2.0096, 2.00883, 2.00719, 2.00665, 2.00562, 2.00585, 2.006, 2.15308, 2.05707, 2.15589, 2.01019, 2.01243, 2.01234, 2.01216, 2.01922, 2.01742, 1.94487, 2.02141, 2.14359, 2.13554, 2.11391, 2.0176, 2.10642, 2.10992, 2.09115, 2.11358, 2.01075, 2.01075, 2.01134, 2.00718, 2.00848, 2.00916, 2.00887, 2.00952, 2.00732, 2.10201, 2.12157, 2.00852, 2.10324, 2.09926, 2.0983, 2.09627, 2.00635, 2.10791, 2.00686, 2.07975, 2.00425, 2.0977, 2.09686, 2.00385, 2.00319, 2.08977, 2.09294, 2.09208, 2.09081, 2.08703, 2.09073, 2.08929, 2.08644, 1.99711, 1.9948, 2.1038, 2.08413, 2.0763, 2.08585, 2.09082, 2.08326, 2.07687, 1.98696, 2.09579, 2.08516, 2.05963, 2.07799, 2.08717, 1.98463, 2.06598, 2.07932, 1.97639, 2.06708, 2.06286, 1.97222, 1.97116, 1.96952, 1.96803, 1.96661, 1.96744, 1.96786, 1.96685, 2.04156, 1.90598, 1.90251, 1.90224, 1.89724, 1.94548, 1.9431, 1.94155, 1.93841, 1.97037, 1.88455, 1.88347, 1.99651, 2.02429, 1.88111, 2.00142, 1.99792, 1.87683, 1.8758, 1.99848, 1.87467, 2.091, 1.99454, 1.87301, 1.87413, 1.99372, 1.87233, 1.99281, 1.86978, 1.86962, 1.98989, 2.09285, 1.86917, 1.9748, 1.92318, 1.87126, 1.87142, 1.86922, 1.86926, 1.86944, 1.86859, 1.86939, 1.9028, 1.90622, 1.74446, 1.7457, 1.89948, 1.79182, 1.79055, 1.78914, 1.73412, 1.78618, 1.73174, 1.90076, 1.89887, 1.73024, 1.7268, 1.78264, 1.72716, 1.88619, 1.72572, 1.85351, 1.72685, 1.72524, 1.72638, 1.72411, 1.72447, 1.72137, 1.88673, 1.88511, 1.72106, 1.72275, 1.7218, 1.72328, 1.9352, 1.88438, 1.82005, 1.88112, 1.77555, 1.84666, 1.72226, 1.96847, 1.72364, 1.72723, 1.72698, 1.7266, 1.72675, 1.72986, 1.77917, 1.73164, 1.73154, 1.78061, 1.73396, 1.7363, 1.73273, 1.85879, 1.7332, 1.86323, 1.85854, 1.73425, 1.89406
2.14243, 1.94265, 1.94208, 1.9424, 2.05771, 2.05864, 1.93601, 1.93786, 2.05465, 1.93645, 1.93748, 1.93557, 1.98256, 1.9323, 1.932, 1.92904, 1.92772, 2.03887, 2.0401, 1.9785, 1.97375, 1.97441, 1.9234, 1.92302, 2.03391, 2.03367, 1.91824, 2.12887, 2.04693, 1.91519, 1.91449, 2.11652, 1.91358, 2.12562, 2.22822, 1.91386, 1.91638, 1.91155, 1.91372, 1.96334, 1.91376, 1.96293, 1.91602, 1.91661, 1.91265, 2.02848, 2.02999, 2.00345, 1.966, 2.05584, 2.05893, 2.07631, 2.05245, 2.0734, 2.04916, 2.07454, 2.04633, 2.0462, 2.03989, 1.96494, 2.0729, 2.07053, 2.03542, 2.03295, 2.07076, 2.02898, 2.02729, 2.07091, 2.16564, 2.02384, 2.0213, 2.1416, 1.94388, 1.94178, 1.94092, 2.06603, 1.93831, 2.01062, 2.06907, 2.0123, 2.06455, 2.00806, 2.14427, 2.06263, 2.01016, 1.9316, 2.05553, 2.00692, 1.93048, 2.00722, 2.00654, 2.00983, 1.93263, 2.12578, 2.01185, 2.01813, 2.01752, 2.02205, 2.13403, 2.14138, 2.1386, 2.01937, 2.0172, 2.10142, 2.10521, 2.113, 2.10991, 2.01096, 2.01092, 2.01034, 2.01082, 2.00796, 2.0096, 2.01134, 2.01002, 2.11542, 2.09094, 2.09621, 2.10336, 2.11305, 2.092, 2.1075, 2.08282, 2.08018, 2.00511, 2.08043, 2.09578, 2.00445, 2.0905, 2.09796, 2.09182, 2.08685, 2.09727, 2.0842, 1.99975, 2.08731, 2.08305, 2.09582, 2.09518, 2.08537, 2.08364, 1.99621, 2.07795, 2.0792, 1.99236, 2.08044, 2.07348, 2.0775, 1.989, 2.07195, 1.98653, 2.07812, 2.06731, 1.98278, 1.98112, 2.06757, 1.97849, 2.07268, 2.0693, 2.06886, 1.9725, 2.06236, 1.96988, 1.9689, 2.043, 1.96926, 1.96864, 1.96796, 2.04526, 2.06647, 1.90735, 1.903, 1.901, 1.89613, 1.8962, 1.89315, 1.94095, 1.93867, 1.93606, 1.9347, 2.00052, 1.88336, 1.99112, 1.99313, 1.99269, 1.99594, 1.98986, 1.8763, 1.8757, 1.87702, 1.87571, 1.87444, 1.87344, 1.92313, 1.87596, 1.92206, 1.87217, 1.87258, 2.08993, 1.87166, 1.87201, 1.87147, 1.99663, 1.87245, 1.87166, 1.87141, 1.9691, 1.87039, 1.95164, 1.87184, 1.86995, 1.74933, 1.74859, 1.7429, 1.74377, 1.74164, 1.74094, 1.78982, 1.73486, 1.786, 1.73335, 1.73152, 1.73091, 1.89957, 1.8993, 1.72725, 1.88365, 1.72688, 1.72545, 1.72227, 1.72312, 1.7239, 1.72306, 1.71837, 1.72326, 1.72254, 1.89065, 1.88865, 1.87996, 1.72297, 1.72135, 1.72067, 1.71847, 1.93274, 1.7198, 1.72084, 1.72284, 1.88022, 1.87739, 1.72331, 1.72172, 1.723, 1.86891, 1.72536, 1.72428, 1.72867, 1.7273, 1.72976, 1.72944, 1.73131, 1.73058, 1.72995, 1.7331, 1.72984, 1.731, 1.86289, 1.73458, 1.73423, 1.73389, 1.7858
2.05826, 2.06163, 1.94068, 1.94232, 2.13213, 1.9387, 1.94137, 2.13805, 1.93731, 1.93721, 1.93246, 1.98278, 2.03827, 2.04658, 1.93089, 1.93121, 2.0511, 1.9281, 1.92561, 1.925, 1.92121, 1.97232, 1.92092, 1.92188, 1.92129, 2.12066, 1.92033, 1.91941, 1.91596, 1.91171, 2.04123, 2.04123, 1.91437, 1.91466, 1.91081, 2.10894, 2.10882, 2.03528, 1.91419, 1.91449, 1.96322, 1.91403, 1.96461, 1.96492, 2.087, 1.91426, 1.96414, 1.914, 2.01208, 2.01303, 2.05897, 2.05838, 2.07677, 2.04898, 2.04971, 2.04924, 2.04633, 1.96897, 2.04367, 2.04456, 2.03946, 2.03736, 2.03632, 2.03536, 2.16223, 2.06905, 2.03097, 2.16469, 2.02604, 2.02471, 2.02134, 2.01893, 2.01761, 2.01744, 2.01709, 2.15676, 1.93606, 2.06332, 2.00992, 2.00946, 2.0114, 2.01011, 2.15006, 1.93017, 2.06167, 2.00694, 1.93196, 2.00411, 1.9286, 2.05517, 2.05644, 1.9335, 1.93423, 2.00955, 2.0151, 2.0134, 2.13989, 2.01973, 2.02401, 2.14549, 2.12894, 2.11109, 2.10567, 2.12803, 2.10223, 2.11872, 2.01089, 2.01112, 2.01039, 2.00955, 2.00899, 2.00915, 2.00751, 2.00749, 2.09843, 2.0066, 2.10125, 2.11064, 2.00632, 2.00709, 2.00672, 2.10832, 2.10018, 2.0842, 2.00465, 2.08013, 2.08014, 2.00388, 2.10013, 2.00422, 2.00354, 2.00191, 2.00002, 2.08785, 2.09012, 2.08434, 2.08268, 1.99738, 2.0802, 2.07784, 2.08574, 1.99674, 1.99236, 2.07995, 2.07106, 2.06857, 1.98984, 2.07889, 2.07416, 2.07968, 2.08618, 2.07553, 1.98362, 1.98303, 1.9802, 1.97942, 1.97907, 1.97671, 2.05936, 2.06583, 2.06931, 1.96961, 1.96967, 1.96914, 1.96723, 1.97149, 1.96658, 1.96696, 1.96682, 2.06279, 1.90708, 2.10046, 1.89997, 1.89626, 1.894, 1.89275, 1.9411, 1.93953, 1.9377, 1.88727, 1.88459, 1.88284, 1.98989, 1.99024, 1.88069, 1.98986, 1.98982, 1.97189, 2.08672, 2.08023, 1.87857, 1.87462, 1.87336, 1.87366, 2.06806, 1.87358, 1.87047, 1.87461, 1.97794, 1.92484, 1.92185, 1.92265, 1.87325, 1.87178, 1.87184, 1.86948, 1.86934, 1.87058, 1.98283, 1.87231, 2.07314, 1.74528, 1.74677, 1.74518, 1.89974, 1.74075, 1.73929, 1.73558, 1.73401, 1.73259, 1.89934, 1.95182, 1.72732, 1.72755, 1.72572, 1.72389, 1.89902, 1.89786, 1.77641, 1.77537, 1.89523, 1.79817, 1.72036, 1.72081, 1.88998, 1.89224, 1.71981, 1.82524, 1.71985, 1.72087, 1.71955, 1.71908, 1.88033, 1.76921, 1.71881, 1.71956, 1.72063, 1.71865, 1.71795, 1.88144, 1.71873, 1.72035, 1.96461, 1.84018, 1.72464, 1.92395, 1.77672, 1.73023, 1.72911, 1.86651, 1.72851, 1.73121, 1.86968, 1.7323, 1.86386, 1.7307, 1.73378, 1.73361, 1.73333, 1.73351
1.94046, 2.05883, 2.06289, 1.94038, 1.93959, 1.9405, 1.9392, 1.93739, 1.9377, 1.98463, 2.04085, 1.93289, 2.12478, 2.1309, 1.92795, 2.02864, 1.92769, 1.92706, 1.9268, 1.92337, 2.12487, 2.03078, 2.03436, 1.92137, 1.99237, 1.99313, 2.10799, 1.96821, 1.96539, 1.96505, 1.91468, 1.9146, 1.91312, 2.10802, 1.91378, 1.91263, 1.91124, 2.03215, 1.91342, 2.02681, 1.96162, 1.91476, 1.91501, 1.9875, 1.98922, 1.91432, 2.09407, 1.91411, 1.91382, 2.16582, 2.16232, 2.16602, 2.07459, 2.05181, 2.04886, 2.0442, 2.07198, 2.04293, 2.04476, 1.96327, 2.03833, 2.03748, 1.95767, 1.95634, 1.95567, 2.02736, 2.06921, 2.02755, 2.02479, 2.02353, 1.94478, 2.02082, 2.06882, 2.01497, 2.06513, 2.01431, 2.0637, 1.93417, 2.00724, 1.93404, 2.00851, 2.00741, 1.92949, 2.05914, 2.05977, 2.00621, 2.14124, 2.13288, 2.05569, 1.93224, 1.93168, 1.93143, 2.0108, 1.93622, 2.01357, 2.01487, 2.13635, 2.01834, 2.14588, 2.04656, 2.13829, 2.01732, 2.01718, 2.10858, 2.09959, 2.10231, 2.10324, 2.00989, 2.01, 2.00646, 2.0097, 2.00665, 2.00698, 2.0897, 2.09391, 2.00639, 2.09653, 2.10062, 2.09327, 2.09614, 2.09767, 2.09329, 2.00576, 2.10039, 2.09539, 2.07981, 2.10643, 2.09486, 2.09959, 2.08273, 2.00292, 2.00277, 2.00067, 2.09061, 2.08701, 2.08418, 2.09353, 1.99653, 2.09113, 2.09597, 2.08478, 2.091, 2.08973, 1.99266, 2.09091, 1.99051, 2.08045, 2.0731, 2.07283, 2.07587, 1.98328, 1.98388, 1.98346, 2.08429, 2.07355, 2.06958, 1.97799, 1.97618, 2.07277, 2.07004, 2.06319, 2.06472, 1.96766, 1.96863, 1.96748, 1.96554, 1.96459, 1.96667, 1.96532, 1.96604, 1.90727, 1.90263, 1.8989, 1.89681, 1.99037, 1.89305, 1.88962, 1.88908, 1.88706, 1.88628, 1.99748, 1.99708, 1.9967, 1.88243, 1.98379, 1.98212, 1.88002, 1.87742, 1.99526, 1.87876, 1.87898, 1.87569, 1.87461, 1.92705, 1.8731, 1.87545, 1.99396, 1.99329, 1.87372, 1.92332, 1.92345, 1.92397, 1.92254, 1.92214, 2.06649, 1.87147, 1.87214, 1.87178, 1.86857, 1.87217, 1.87053, 1.82706, 1.7441, 1.738, 1.73892, 1.79978, 1.90064, 1.83407, 1.73356, 1.82825, 1.73003, 1.90747, 1.82631, 1.90383, 1.90308, 1.90037, 1.90071, 1.71962, 1.72008, 1.89955, 1.71756, 1.72106, 1.71946, 1.71804, 1.89328, 1.93846, 1.71677, 1.71718, 1.71691, 1.8252, 1.71674, 1.7173, 1.71652, 1.71789, 1.71708, 1.77807, 1.71758, 1.87936, 1.87885, 1.71913, 1.71673, 1.71667, 1.72042, 1.76898, 1.72406, 1.72168, 1.77504, 1.7755, 1.72763, 1.86577, 1.86504, 1.72746, 1.86241, 1.86261, 1.85932, 1.86232, 1.86155, 1.85983, 1.734, 1.73184
2.13106, 1.94182, 2.03852, 1.94063, 2.13409, 1.94154, 1.93643, 1.93635, 1.93781, 1.93525, 1.93417, 1.93117, 1.93131, 1.97911, 1.97976, 1.929, 1.97834, 1.97704, 2.0168, 1.92378, 1.92329, 2.0458, 1.91942, 1.91953, 1.91812, 1.96839, 2.02771, 2.10693, 1.96725, 1.91485, 1.91443, 1.91618, 1.91713, 1.91114, 1.91099, 1.96368, 1.96381, 1.91279, 2.11061, 2.11693, 2.02311, 2.02394, 1.91341, 1.98693, 2.00627, 2.01286, 1.91367, 1.91432, 1.91389, 2.05589, 2.05583, 2.05238, 2.05218, 2.05111, 2.15405, 2.0453, 2.15268, 2.14878, 2.15026, 2.06737, 2.03855, 2.03574, 2.03419, 2.032, 2.02853, 2.06513, 2.03097, 2.06646, 2.02592, 2.02415, 2.06662, 2.02101, 2.15825, 2.0651, 2.01744, 2.01469, 2.01179, 2.06352, 2.01026, 2.1398, 2.0592, 2.00689, 2.16585, 2.00957, 2.13818, 2.00749, 2.00404, 2.00645, 2.00673, 2.00514, 2.00783, 2.00945, 2.01186, 2.0115, 2.01244, 2.13582, 2.14237, 1.94199, 1.94525, 2.05126, 2.14254, 2.01827, 2.01717, 2.1069, 2.09461, 2.09861, 2.09103, 2.00958, 2.00817, 2.00902, 2.00774, 2.00602, 2.00498, 2.00604, 2.09739, 2.00672, 2.00706, 2.00694, 2.00621, 2.09767, 2.08014, 2.07743, 2.08381, 2.09651, 2.07947, 2.10053, 2.00319, 2.08632, 2.08919, 2.08493, 2.09065, 2.10041, 2.08934, 2.08629, 2.08407, 2.07574, 1.99633, 2.08691, 1.99697, 1.99687, 2.06552, 1.99277, 1.99283, 1.99209, 2.08212, 2.0726, 2.07482, 2.07451, 2.06963, 2.07499, 2.08268, 2.06602, 1.98182, 2.06978, 2.07319, 2.06277, 2.07009, 2.07009, 2.07203, 2.05307, 2.06041, 2.06342, 1.96999, 1.96834, 1.96667, 1.96851, 1.96766, 1.96598, 2.05638, 2.05175, 1.90464, 1.95235, 1.95078, 1.99939, 1.99733, 1.89188, 1.88945, 1.88986, 1.9994, 1.88296, 1.88259, 1.88192, 1.99603, 2.08966, 1.98251, 1.87995, 2.06964, 1.95127, 1.929, 1.98593, 1.87679, 1.96374, 1.92582, 1.87371, 1.92404, 1.87633, 1.98944, 1.99004, 1.87326, 1.87254, 1.92419, 1.92401, 1.92255, 1.87207, 1.87494, 1.87168, 1.872, 1.87128, 1.87068, 1.8703, 1.87354, 1.87165, 1.74192, 1.901, 1.73591, 1.73595, 1.73246, 1.73175, 1.90293, 1.7305, 1.7298, 1.9038, 1.72562, 1.89741, 1.72173, 1.87955, 1.72372, 1.89638, 1.89452, 1.7169, 1.71953, 1.89307, 1.8152, 1.89289, 1.71574, 1.76844, 1.71629, 1.81677, 1.71695, 1.76492, 1.71282, 1.71549, 1.81338, 1.7161, 1.7143, 1.71401, 1.71499, 1.7168, 1.71486, 1.879, 1.71446, 1.7146, 1.876, 1.71733, 1.87047, 1.86889, 1.71797, 1.86905, 1.72406, 1.8681, 1.86466, 1.86241, 1.85983, 1.72794, 1.72754, 1.86116, 1.8605, 1.86212, 1.85684, 1.72937
1.94059, 1.94224, 2.05448, 2.03871, 1.93795, 1.93947, 1.93827, 1.93295, 1.93397, 1.93228, 2.05139, 2.0267, 2.02773, 1.98209, 1.93062, 1.93119, 1.92885, 2.03443, 1.92734, 2.04865, 2.049, 1.92242, 2.04173, 2.1205, 2.12803, 1.91888, 1.91882, 2.10723, 2.02401, 1.91681, 1.98673, 1.9148, 2.03135, 2.1133, 1.91491, 1.9628, 1.9116, 1.91292, 1.91057, 1.9112, 1.91251, 2.02157, 1.91203, 2.02485, 1.91414, 1.91294, 1.91378, 1.9169, 2.02574, 2.055, 2.07614, 2.15178, 1.97626, 1.97572, 2.15445, 2.0705, 1.97058, 2.04472, 2.04153, 2.04226, 2.03973, 2.15803, 2.03494, 2.03126, 2.02993, 2.02853, 2.0259, 2.02379, 2.02219, 2.06532, 2.02032, 2.01983, 2.01623, 2.01555, 2.06524, 2.01354, 2.01143, 2.0106, 2.00963, 1.93172, 1.93026, 2.00495, 2.05953, 2.00521, 2.05976, 2.00432, 2.00351, 2.00206, 2.00449, 1.92929, 2.00637, 2.0548, 2.14231, 2.01079, 2.01098, 1.93804, 2.01179, 2.01742, 2.04772, 1.94456, 2.14425, 2.01779, 2.09749, 2.09673, 2.09668, 2.0901, 2.08378, 2.08339, 2.00775, 2.00874, 2.00831, 2.00718, 2.00543, 2.00603, 2.00598, 2.10804, 2.09774, 2.09089, 2.00477, 2.00332, 2.09406, 2.10835, 2.09257, 2.11417, 2.09239, 2.09, 2.09406, 2.09691, 2.0911, 2.08321, 2.00138, 2.08218, 2.0824, 2.08582, 2.08967, 2.07488, 2.07428, 2.07164, 2.08504, 2.09434, 2.0758, 2.06931, 2.06599, 2.08348, 2.08805, 2.07197, 2.06939, 2.0685, 2.0708, 2.07683, 1.98532, 2.07933, 2.06344, 2.07281, 1.97917, 1.97723, 2.06018, 2.06564, 2.06494, 2.04833, 2.05218, 1.97108, 1.96744, 1.96654, 1.96592, 1.96752, 1.9658, 1.96476, 2.07838, 2.07922, 1.90658, 1.90092, 1.89931, 1.99683, 1.89531, 1.89229, 1.89127, 1.88919, 2.00295, 1.88622, 1.88342, 1.99167, 1.88023, 1.99079, 1.98933, 1.87981, 1.88053, 1.92911, 1.92762, 1.92768, 1.87536, 1.87661, 1.87877, 1.92711, 1.92581, 1.87722, 1.87878, 1.97707, 1.9765, 2.06323, 1.87473, 1.923, 1.98938, 1.87231, 1.98514, 1.8713, 1.87014, 1.869, 1.87204, 1.872, 1.87214, 1.90318, 1.90305, 1.73848, 1.74052, 1.85798, 1.8989, 1.73254, 1.90113, 2.08248, 1.72566, 1.72734, 1.77321, 1.77213, 1.77126, 1.71979, 1.81882, 1.72002, 1.71813, 1.71654, 1.71529, 1.82033, 1.89605, 1.71388, 1.89352, 1.88875, 1.71401, 1.71491, 1.71427, 1.88651, 1.71245, 1.71043, 1.88405, 1.88272, 1.88019, 1.88097, 1.87957, 1.71451, 1.88293, 1.71306, 1.714, 1.71762, 1.82459, 1.97741, 1.87559, 1.71937, 1.86539, 1.72224, 1.72058, 1.72116, 1.72394, 1.72262, 1.72701, 1.86141, 1.85838, 1.72895, 1.85945, 1.85778, 1.85582, 1.8311
1.94133, 1.93887, 1.94086, 2.05514, 1.9372, 1.93885, 1.93762, 1.9377, 1.93685, 1.93289, 1.93421, 1.93376, 1.98051, 1.98188, 1.93094, 1.93069, 1.92693, 2.03461, 1.9249, 2.04648, 1.92337, 1.92098, 1.92326, 2.11823, 2.04446, 1.9207, 1.96879, 1.96512, 1.96612, 1.91583, 2.10719, 2.00645, 1.91408, 1.96252, 1.96335, 2.02077, 1.96217, 1.91305, 1.91263, 1.91111, 2.02803, 1.91136, 1.91665, 1.91488, 1.91408, 2.01346, 1.96511, 2.01332, 1.91636, 1.9735, 2.07316, 2.05552, 2.05213, 2.07074, 2.04516, 1.97152, 2.04461, 2.0688, 2.06895, 2.03601, 2.03611, 2.03824, 1.95808, 2.0343, 2.06725, 2.0311, 1.95194, 2.02499, 1.94791, 2.02257, 2.01786, 2.01925, 1.94103, 2.01411, 2.01458, 2.0133, 2.01116, 2.00982, 2.06202, 1.93063, 2.00709, 2.00468, 2.00476, 2.1414, 2.00155, 1.92751, 2.00339, 2.00431, 1.92927, 2.00365, 2.00656, 1.93138, 2.05537, 2.00904, 1.93458, 1.93748, 2.05016, 2.0177, 2.02194, 2.02767, 2.04451, 2.10435, 2.10817, 2.01431, 2.1082, 2.10058, 2.08654, 2.009, 2.00736, 2.00703, 2.0074, 2.00478, 2.00604, 2.00528, 2.09284, 2.00457, 2.00374, 2.08947, 2.09343, 2.0043, 2.00397, 2.0968, 2.10181, 2.09948, 2.09985, 2.10077, 2.09147, 2.08466, 2.10297, 2.08815, 2.08395, 2.07884, 2.08266, 2.08322, 2.0821, 1.9965, 2.08084, 2.07958, 2.08962, 2.10042, 2.08069, 1.9919, 2.07396, 2.07483, 2.07356, 2.08659, 2.08387, 1.9863, 1.98609, 2.06768, 2.06394, 1.9862, 2.06923, 2.07263, 1.97726, 2.06844, 2.05983, 2.06558, 2.05741, 2.05661, 2.05339, 1.9689, 1.96843, 1.96671, 1.96628, 1.96356, 1.9633, 1.9631, 1.96229, 2.04102, 1.9066, 2.10107, 2.06798, 1.89698, 2.00059, 1.89336, 1.89097, 1.89022, 1.98243, 1.8861, 2.08555, 1.88621, 2.08092, 1.88139, 1.88508, 1.88137, 1.88011, 1.94508, 1.94446, 1.92775, 1.87825, 1.8788, 1.8766, 1.87708, 1.87873, 1.8763, 1.87688, 1.87733, 1.87415, 1.9803, 1.97997, 1.87503, 2.06582, 2.09084, 1.87239, 1.87237, 1.87038, 1.97777, 1.87537, 1.97759, 1.97544, 1.74272, 1.74055, 1.83125, 1.82754, 1.73352, 1.73096, 1.73038, 1.7269, 1.82347, 1.7245, 1.72323, 1.72235, 1.71842, 1.89025, 1.71802, 1.7183, 1.71651, 1.81377, 1.89686, 1.98558, 1.71286, 1.71311, 1.89028, 1.71119, 1.84043, 1.83792, 1.7121, 1.71346, 1.71068, 1.71061, 1.71285, 1.71069, 1.71324, 1.87641, 1.87863, 1.71005, 1.71267, 1.71395, 1.88002, 1.71162, 1.92736, 1.71599, 1.71408, 1.82384, 1.71502, 1.71952, 1.72332, 1.72066, 1.72262, 1.82001, 1.86298, 1.72399, 1.8653, 1.86137, 1.82678, 1.85564, 1.85631, 1.85826, 1.85657
1.94265, 2.05484, 2.05513, 1.94018, 1.93782, 1.93772, 1.93423, 1.93617, 2.04539, 1.93533, 1.93591, 1.98997, 1.93057, 1.93169, 2.01724, 1.97888, 2.00974, 1.97544, 1.97651, 1.92374, 2.04823, 2.04833, 1.92043, 2.0437, 1.91866, 2.11727, 1.91775, 1.91752, 1.96461, 1.91393, 1.91407, 1.91458, 2.03286, 1.96146, 1.96257, 1.96248, 1.96311, 1.96134, 1.91034, 2.0294, 2.00675, 1.91182, 1.91422, 1.91656, 1.91337, 1.91277, 2.00294, 2.01217, 1.91396, 1.91486, 2.16524, 2.05136, 2.05009, 2.04927, 2.04866, 1.97298, 1.96824, 1.96555, 1.96376, 2.03834, 2.03776, 2.06547, 2.15884, 2.03404, 2.02708, 1.95277, 1.95145, 2.02434, 2.02079, 2.02124, 2.02032, 2.01753, 2.01972, 2.06317, 2.06419, 2.13877, 2.14474, 2.0624, 2.05999, 2.00672, 2.06071, 2.15263, 2.00487, 2.00558, 2.00467, 2.0041, 2.00479, 2.00314, 2.00468, 2.0036, 2.00706, 1.92932, 2.00856, 2.01109, 2.01115, 2.01358, 2.01396, 1.94188, 1.94312, 2.02759, 1.9648, 2.122, 2.01461, 2.11357, 2.10137, 2.10373, 2.10721, 2.08282, 2.0064, 2.00674, 2.00819, 2.07915, 2.00452, 2.0052, 2.10351, 2.00486, 2.00383, 2.00312, 2.10869, 2.07612, 2.07603, 2.00291, 2.09375, 2.09055, 2.09554, 2.10007, 2.08795, 2.08664, 2.00041, 2.00125, 2.08534, 2.08576, 2.07405, 2.09085, 2.09966, 2.09102, 2.08012, 2.06986, 2.07586, 2.07717, 2.06978, 1.99061, 2.09065, 1.99075, 1.9906, 2.07974, 2.07521, 2.07677, 2.07747, 2.07642, 1.98363, 1.98249, 2.07661, 2.07629, 2.07254, 2.06844, 2.06255, 2.06608, 2.05565, 1.97026, 2.07396, 1.96879, 1.96888, 1.96625, 1.96498, 1.96337, 1.96341, 1.96298, 2.06043, 2.038, 1.90204, 1.90167, 1.9492, 1.94745, 1.99914, 1.99844, 1.9395, 1.88936, 1.88583, 1.99752, 1.88453, 1.88536, 2.10527, 1.88173, 1.88279, 1.88149, 1.87897, 1.98655, 1.98513, 1.99263, 1.87826, 1.93052, 1.98539, 1.87655, 1.92557, 1.87849, 1.87635, 1.97157, 1.9246, 2.00309, 2.0009, 1.97923, 2.07588, 1.87506, 1.98584, 1.87345, 1.87496, 1.87369, 1.87218, 1.87247, 1.87137, 1.7383, 1.73748, 1.90312, 1.73343, 1.90374, 1.84387, 1.84205, 1.72521, 1.72643, 1.72381, 1.72232, 1.71982, 1.71826, 1.71931, 1.89704, 1.89918, 1.71266, 1.71265, 1.89269, 1.71281, 1.71273, 2.00087, 1.71037, 1.70847, 1.80637, 1.76108, 1.71183, 1.89033, 1.71274, 1.70887, 1.8803, 1.70963, 1.71188, 1.71058, 1.7105, 1.97883, 1.71134, 1.87285, 1.70982, 1.87549, 1.87618, 1.82571, 1.82504, 1.87256, 1.71586, 1.71613, 1.72014, 1.72057, 1.72077, 1.71883, 1.86714, 1.86573, 1.72561, 1.86018, 1.72442, 1.85664, 1.85568, 1.85786, 1.72585
1.94037, 1.93859, 1.93919, 1.93862, 1.9363, 1.93844, 1.93481, 1.9348, 1.93404, 1.93348, 1.93286, 1.93215, 1.93008, 1.93081, 2.01615, 1.97785, 1.92629, 1.9761, 1.98287, 2.039, 1.92184, 1.92317, 2.03807, 1.92185, 1.92008, 2.1158, 2.04342, 1.91429, 1.91515, 2.11739, 1.91221, 2.03421, 1.9106, 1.91148, 1.91085, 2.03339, 2.03467, 1.91332, 2.01472, 2.0169, 1.91379, 1.91301, 1.91519, 1.98294, 1.98404, 1.91636, 1.91741, 1.96587, 1.91629, 2.05935, 2.05645, 1.97579, 1.97618, 2.0682, 2.06639, 2.06719, 2.0691, 2.04158, 2.06512, 2.0382, 1.96069, 2.0345, 2.03398, 2.03417, 2.03137, 2.02476, 1.94962, 2.06515, 2.13909, 2.02074, 2.02052, 2.06384, 2.01651, 2.01331, 1.93774, 2.01017, 2.01046, 1.93259, 2.06049, 1.93163, 2.00464, 2.05983, 2.00396, 2.00328, 2.00416, 2.00219, 2.00219, 1.92884, 2.0067, 1.92825, 1.93007, 2.00521, 2.15246, 2.04847, 2.05179, 1.93536, 2.01751, 2.0171, 2.01802, 2.04477, 2.1263, 2.09926, 2.01384, 2.09865, 2.10308, 2.09974, 2.09777, 2.08218, 2.00662, 2.00493, 2.00516, 2.00391, 2.00398, 2.00249, 2.09283, 2.10283, 2.00335, 2.00358, 2.09647, 2.09635, 2.00126, 2.00126, 2.09568, 2.08803, 2.09263, 2.08906, 2.08679, 2.0007, 1.99984, 2.10885, 2.0836, 2.08993, 2.09041, 1.99632, 1.99612, 2.08709, 2.08111, 2.08491, 1.99243, 2.06189, 1.99045, 2.07699, 2.08669, 2.09181, 1.98842, 2.08034, 2.06177, 2.06277, 2.05916, 2.07884, 1.9827, 2.06785, 2.08377, 2.07061, 2.07914, 2.0668, 2.06316, 2.05656, 2.05535, 2.06963, 2.0487, 1.96827, 1.96898, 1.96483, 1.96582, 1.96654, 1.96515, 2.06726, 2.06515, 2.05856, 1.90304, 1.90146, 1.99846, 1.8963, 1.94452, 1.89276, 1.88962, 1.89091, 1.88724, 1.88707, 1.88623, 1.88326, 2.083, 2.09433, 1.88235, 1.88141, 1.98061, 1.98618, 1.87983, 1.88088, 1.98059, 1.92882, 1.96141, 1.87664, 1.93029, 1.87586, 1.87709, 1.87425, 1.87578, 2.00315, 1.99589, 1.87652, 1.87521, 1.98578, 1.87543, 1.87564, 1.8732, 1.87263, 1.92174, 1.8689, 1.87233, 1.73777, 1.90006, 1.90246, 1.73245, 1.9037, 1.90207, 1.8504, 1.72365, 1.72419, 1.72102, 1.71908, 1.71881, 1.71716, 1.71542, 1.7135, 1.89756, 1.94858, 1.71239, 1.8916, 1.89043, 1.81088, 1.8909, 1.76102, 1.75869, 1.82095, 1.77294, 1.88622, 1.70954, 1.70979, 1.70983, 1.70765, 1.762, 1.81028, 1.7579, 1.70905, 1.71063, 1.8798, 1.7094, 1.70753, 1.81675, 1.87387, 1.87364, 1.87293, 1.71146, 1.71703, 1.71441, 1.71577, 1.86708, 1.71795, 1.86405, 1.7206, 1.72353, 1.7207, 1.85887, 1.85484, 1.72477, 1.85404, 1.72652, 1.85417
1.94038, 1.98886, 1.98949, 1.93549, 2.04843, 1.93784, 1.93595, 2.12463, 2.05212, 1.93394, 1.98133, 1.93189, 1.9319, 2.04574, 1.93015, 1.92755, 1.92568, 2.045, 1.92175, 1.97469, 1.97413, 2.03493, 1.97266, 1.96841, 1.92087, 2.1209, 2.04135, 1.91359, 2.1128, 2.03455, 1.91302, 1.91152, 1.91211, 1.91019, 2.10784, 1.90997, 2.11413, 1.96091, 1.96068, 1.96178, 1.96302, 1.96394, 2.02292, 1.91445, 1.91374, 1.91496, 1.91608, 1.96519, 1.91659, 2.05714, 2.05282, 2.06971, 2.06976, 2.14333, 2.14618, 2.04793, 2.04841, 2.06491, 2.04077, 2.06256, 2.03457, 2.15932, 2.0342, 2.06341, 2.02887, 2.03207, 2.02928, 2.02509, 2.02319, 2.02381, 2.02068, 2.0152, 1.93837, 2.15036, 2.01334, 1.9354, 2.13471, 2.06047, 2.00698, 2.1554, 2.05731, 1.92772, 2.0035, 2.14079, 2.0019, 1.92736, 2.00087, 2.05532, 2.00292, 2.00272, 2.00529, 2.00379, 1.9312, 2.14551, 1.93395, 1.93461, 2.01659, 2.01713, 2.01746, 1.94648, 2.04234, 2.0156, 2.11543, 2.01228, 2.1111, 2.10368, 2.0085, 2.09313, 2.08666, 2.00506, 2.00543, 2.00426, 2.00393, 2.00212, 2.00343, 2.10654, 2.09169, 2.00305, 2.10292, 2.09406, 2.08854, 2.00243, 2.09449, 2.00125, 2.09099, 2.00118, 2.00008, 2.08741, 2.09327, 1.99925, 2.08407, 2.088, 2.08575, 2.09322, 2.10369, 2.09017, 2.08738, 2.08997, 2.07636, 1.98995, 1.98938, 2.08625, 2.07416, 2.07298, 2.0703, 2.06876, 2.06966, 2.08644, 1.98398, 2.06907, 1.98222, 2.06573, 2.0831, 2.07657, 2.06911, 2.08335, 1.97405, 2.07501, 2.05236, 2.07017, 2.05791, 1.96752, 1.96601, 1.9647, 1.96397, 1.96391, 1.96362, 1.96299, 1.96231, 2.05927, 1.90093, 1.90089, 1.89758, 1.89589, 1.8955, 1.89229, 1.88938, 1.88915, 1.88893, 1.88721, 1.88517, 1.88371, 1.88339, 1.88308, 1.88351, 1.88169, 1.88054, 1.88253, 1.88015, 1.97328, 1.88296, 1.9887, 1.99301, 1.99129, 1.92872, 1.87888, 2.07514, 1.87619, 1.87508, 1.87659, 1.87528, 1.8732, 1.98626, 1.98423, 1.92442, 1.8747, 1.8743, 1.96978, 1.92183, 1.87242, 1.87227, 1.90391, 1.73464, 1.7321, 1.90316, 1.90099, 1.72655, 1.77525, 1.72021, 1.72354, 1.83888, 1.83782, 1.76822, 1.71328, 1.7134, 1.71607, 1.71111, 1.71011, 1.7102, 1.89315, 1.89127, 1.71104, 1.7074, 1.70831, 1.70928, 1.70896, 1.88895, 1.88651, 1.70761, 1.70879, 1.70661, 1.70585, 1.70731, 1.70658, 1.70659, 1.87759, 1.92749, 1.70751, 1.87546, 1.81354, 1.8776, 1.71203, 1.87494, 1.82612, 1.71242, 1.71175, 1.86914, 1.86877, 1.86798, 1.7187, 1.7166, 1.86567, 1.85447, 1.77204, 1.72184, 1.72139, 1.72341, 1.72247, 1.72411, 1.72699
1.93905, 2.04599, 2.04927, 2.05098, 1.9376, 1.93637, 1.99417, 1.9347, 2.01783, 2.02066, 1.98234, 1.98241, 1.93103, 1.93192, 1.93029, 1.92867, 2.11717, 2.11854, 1.92208, 1.97181, 1.97293, 2.03258, 1.96921, 1.97085, 1.96955, 1.91861, 1.91685, 2.00352, 1.91531, 1.91514, 1.91106, 2.1105, 1.90989, 2.03091, 2.00426, 2.03083, 1.96464, 1.96057, 1.9112, 1.96161, 1.91029, 2.03104, 2.03226, 1.96322, 1.96493, 2.00131, 1.99427, 1.99686, 1.91587, 2.0569, 2.05787, 2.06817, 2.06889, 2.14695, 2.06519, 2.06318, 2.04109, 2.04395, 2.03989, 1.95992, 2.03674, 2.14355, 1.95488, 2.15855, 2.03114, 2.02953, 2.02543, 2.02377, 1.94498, 2.16508, 2.15177, 2.0178, 2.0171, 2.01384, 2.011, 2.01105, 2.01179, 1.93379, 2.05856, 2.00556, 1.92831, 1.92549, 2.00287, 2.00259, 2.0558, 2.0038, 2.0014, 2.14957, 2.00325, 2.05202, 2.05158, 2.0032, 2.00426, 2.00883, 2.01054, 2.14368, 2.01385, 2.01438, 1.94466, 2.04276, 2.0512, 2.10114, 2.09002, 2.08997, 2.10125, 2.08986, 2.08555, 2.09646, 2.08497, 2.00521, 2.00698, 2.00304, 2.00301, 2.00269, 2.08617, 2.09317, 2.09037, 2.00204, 2.10479, 2.10344, 2.00077, 2.09381, 2.09026, 2.08862, 2.08933, 2.00083, 1.99808, 2.09285, 1.99939, 1.99742, 2.08869, 2.08659, 1.99554, 2.0825, 2.08742, 2.08145, 2.08902, 2.0806, 2.07794, 2.07258, 2.07453, 1.98933, 2.08228, 2.08748, 2.08358, 2.08423, 2.07566, 2.07741, 1.98312, 1.98266, 2.07013, 1.97933, 2.07682, 1.97671, 1.97733, 2.06947, 2.06363, 2.06448, 2.05725, 2.0728, 2.05821, 2.0556, 1.96859, 1.96619, 1.96341, 1.96402, 1.96226, 1.96405, 2.06095, 2.05969, 1.89862, 2.07133, 1.89714, 2.09649, 1.99945, 1.88907, 1.98915, 1.98877, 1.93821, 1.94007, 1.88666, 1.99267, 1.99102, 1.88311, 2.08474, 1.99296, 1.88124, 1.88166, 1.88043, 1.98978, 1.87834, 1.87755, 1.99202, 1.98981, 1.87596, 1.98175, 1.87968, 1.9829, 1.87605, 1.87761, 1.87614, 1.87567, 1.87243, 1.98308, 1.87418, 1.87443, 1.99002, 1.87567, 1.87295, 2.07389, 1.87097, 1.73452, 1.84745, 1.73098, 1.72867, 1.72733, 1.72428, 1.77242, 1.82019, 1.72349, 1.71734, 1.84014, 1.88546, 1.83253, 1.7121, 1.89682, 1.70938, 1.70919, 1.70866, 1.708, 1.89259, 1.7093, 1.70714, 1.70558, 1.70434, 1.70324, 1.703, 1.70644, 1.88447, 1.70611, 1.70623, 1.70462, 1.75485, 1.70405, 1.8892, 1.70407, 1.70405, 1.81278, 1.81381, 1.70693, 1.9796, 1.874, 1.70862, 1.7069, 1.70701, 1.71232, 1.71013, 1.7134, 1.71377, 1.71623, 1.86486, 1.86207, 1.7145, 1.71682, 1.71809, 1.7211, 1.72473, 1.72151, 1.72373, 1.85202
1.93898, 1.94035, 2.04415, 1.93798, 2.03941, 2.19091, 1.9356, 1.99401, 2.0454, 1.93409, 2.0338, 2.03562, 1.994, 1.99639, 2.04963, 1.92703, 2.02173, 1.92418, 1.92671, 1.9721, 1.97252, 2.03961, 2.0239, 2.02552, 1.92137, 1.91755, 1.9167, 1.91759, 1.91607, 1.91495, 1.96216, 2.03393, 1.90856, 2.0307, 2.10713, 1.96, 1.90939, 1.96399, 1.91075, 1.91072, 2.01734, 1.91236, 1.91292, 1.96244, 1.9633, 1.91567, 1.91657, 1.91583, 2.10166, 1.97858, 2.05331, 2.05145, 2.06228, 2.04688, 2.04829, 2.04549, 2.04128, 2.04169, 2.03767, 2.0627, 2.03423, 2.03477, 2.15317, 2.02831, 2.03047, 1.9519, 1.94871, 1.94677, 1.9445, 2.14471, 1.94286, 1.94092, 2.01351, 2.05988, 2.01243, 2.1465, 2.01077, 1.93445, 2.00832, 2.00726, 2.05914, 2.05825, 2.00194, 1.92715, 2.05484, 1.92544, 1.9271, 2.00011, 2.00522, 2.05178, 2.00422, 1.92796, 1.92821, 2.00815, 2.04799, 1.93588, 2.04502, 2.04436, 2.01839, 2.04488, 2.11362, 2.09865, 2.10886, 2.11763, 2.0952, 2.08508, 2.11445, 2.0829, 2.00574, 2.00412, 2.0035, 2.00259, 2.00326, 2.00277, 2.00012, 2.00028, 2.00018, 2.08393, 2.08626, 2.09327, 2.07353, 2.09642, 2.10146, 2.09574, 2.08312, 2.09369, 1.99873, 2.08456, 2.08263, 2.08867, 1.99702, 2.08907, 1.99403, 1.99442, 2.08117, 2.09408, 1.99086, 1.98965, 2.07874, 2.08653, 2.09784, 2.08518, 2.07583, 2.08152, 1.98786, 1.9862, 2.07021, 2.08683, 1.98339, 2.07722, 1.97942, 2.07015, 2.08585, 2.07191, 1.97626, 1.97242, 1.9731, 2.06573, 2.0694, 2.05946, 1.96734, 2.0614, 1.96615, 1.96452, 1.96429, 1.96446, 1.96299, 1.9616, 2.06544, 2.08436, 2.06995, 2.09447, 1.89631, 1.89604, 1.89289, 1.89272, 1.89178, 1.94033, 1.93832, 1.93643, 1.88789, 1.88434, 1.88375, 1.93526, 1.8827, 1.88297, 1.99367, 1.87977, 2.07608, 1.88072, 1.87923, 1.87885, 2.07393, 1.88035, 1.88104, 1.98095, 1.97941, 1.87927, 1.87685, 1.87844, 1.97672, 1.99164, 1.87794, 1.87608, 1.92402, 1.97276, 2.06465, 1.87355, 1.87489, 1.87492, 1.8757, 1.73383, 1.90365, 1.73009, 1.72765, 1.72427, 1.72324, 1.7179, 1.72058, 1.89836, 1.81857, 1.71146, 1.71289, 1.71231, 1.71087, 1.70996, 1.89344, 1.71009, 1.7062, 2.07045, 1.7065, 1.80653, 1.70613, 1.7046, 1.70414, 1.70349, 1.70278, 1.70295, 1.70662, 1.82892, 1.70387, 1.70313, 1.70585, 1.87637, 1.7, 1.70336, 1.70591, 1.70358, 1.81262, 1.87186, 1.7062, 1.8756, 1.87881, 1.87614, 1.70411, 1.70946, 1.71124, 1.70968, 1.71252, 1.71354, 1.71168, 1.95808, 1.71683, 1.85965, 1.85569, 1.71692, 1.72243, 1.77572, 1.77281, 1.72364
2.21854, 1.93873, 2.03578, 2.04061, 2.04212, 1.98913, 1.93542, 2.04318, 2.0509, 2.03868, 2.03964, 2.03411, 1.9927, 1.97975, 1.97775, 1.97668, 1.97741, 1.98558, 1.92464, 1.97255, 1.97256, 2.03858, 2.02086, 1.91939, 2.037, 2.11695, 1.91657, 1.91531, 1.91334, 1.91494, 1.9626, 1.90999, 1.90853, 1.91017, 1.91015, 2.10983, 1.90994, 1.91061, 1.90987, 1.91095, 1.96152, 1.91082, 1.91189, 1.91298, 1.91337, 1.91378, 1.91514, 2.01114, 2.08573, 2.14736, 2.06766, 2.14166, 2.0506, 2.04805, 2.04484, 2.06224, 1.9668, 2.0414, 2.04088, 2.03807, 2.0612, 1.95636, 2.06073, 2.03268, 2.05973, 2.02802, 1.94736, 2.06134, 2.01835, 2.01771, 2.01865, 2.01554, 2.01334, 2.01185, 2.01339, 1.93457, 2.0552, 2.00788, 2.00722, 2.05657, 2.00443, 1.9281, 2.0552, 2.00017, 2.00654, 2.00047, 2.0012, 2.13592, 2.12883, 2.0005, 2.00336, 1.92747, 2.04885, 2.04866, 2.00714, 2.12247, 2.01366, 2.01538, 2.02071, 2.11799, 2.04004, 2.11039, 2.0877, 2.0868, 2.08509, 2.08339, 2.08249, 2.08135, 2.00458, 2.00499, 2.00306, 2.00287, 1.99992, 2.00079, 2.00063, 2.10357, 2.09715, 2.07614, 2.07511, 2.1077, 2.08442, 2.07553, 2.07312, 2.08283, 2.10381, 2.09049, 2.08615, 1.99694, 1.99667, 2.11052, 2.08205, 2.08979, 2.0907, 2.08908, 2.07265, 1.99167, 1.9906, 1.98976, 2.08326, 1.98943, 2.07678, 2.07552, 2.09635, 1.98565, 2.06677, 2.06619, 1.98067, 2.08078, 2.07551, 2.06831, 2.06751, 2.07137, 2.06899, 2.072, 2.07259, 1.97597, 2.05969, 2.08287, 2.06191, 1.96859, 2.05555, 1.96686, 1.96645, 1.96864, 1.96296, 1.96228, 1.96228, 1.96379, 2.0575, 2.0497, 1.95076, 1.94838, 1.89798, 1.89579, 1.94318, 1.98562, 1.94058, 1.94863, 1.88687, 1.9915, 1.88648, 1.88336, 1.8848, 1.93329, 1.93468, 1.93384, 1.93139, 1.88161, 1.99079, 1.87938, 1.87969, 1.87928, 1.8774, 2.07264, 1.8791, 1.87955, 1.98056, 1.928, 1.92608, 1.8773, 1.87851, 1.92844, 1.92754, 1.92689, 1.92573, 1.92332, 1.8737, 2.06566, 2.07474, 1.87168, 1.87463, 1.73157, 1.90461, 1.90448, 1.89965, 1.89844, 1.72009, 1.9031, 1.90196, 1.71653, 1.71592, 1.71279, 1.71078, 1.7097, 1.7086, 1.81011, 1.70497, 1.70706, 1.70642, 1.70368, 1.75589, 1.75392, 1.70448, 1.76644, 1.70156, 1.7021, 1.70198, 1.88328, 1.87752, 1.81857, 1.70269, 1.76593, 1.70117, 1.69995, 1.70226, 1.70003, 1.80678, 1.7022, 1.98901, 1.70556, 1.75508, 1.75654, 1.82493, 1.71016, 1.70856, 1.90042, 1.71008, 1.90879, 1.71457, 1.86561, 1.8633, 1.86204, 1.85883, 1.85686, 1.71986, 1.71992, 1.77236, 1.76904, 1.72129, 1.77224
1.94141, 1.93928, 1.93624, 2.03934, 2.04803, 2.04294, 2.0443, 1.93438, 2.03389, 1.93091, 2.03927, 2.04177, 1.92979, 1.9276, 1.92755, 1.97523, 1.97652, 1.98398, 1.98568, 1.97295, 2.01347, 2.04092, 2.01882, 2.03353, 1.917, 1.91701, 2.11798, 2.03414, 1.91455, 1.91201, 1.95963, 1.91058, 2.10826, 1.90922, 1.91045, 1.91039, 1.90987, 1.90926, 1.91005, 1.99657, 1.91087, 2.01182, 1.97967, 1.96277, 1.91315, 2.01315, 1.91541, 2.08719, 1.91526, 2.05284, 2.05201, 2.06621, 2.04789, 2.15147, 2.04359, 2.04438, 2.06128, 2.04003, 2.03915, 1.95906, 2.03198, 2.05845, 2.03255, 2.03052, 2.05903, 2.0595, 2.02731, 1.9478, 2.02168, 2.01941, 2.01739, 2.01401, 2.01268, 2.01068, 2.01407, 2.14486, 2.00672, 2.00678, 2.00754, 2.14937, 2.05871, 2.00258, 2.14234, 2.00028, 1.92698, 1.99966, 2.00119, 2.00121, 1.99954, 2.00102, 2.00054, 2.00196, 2.00268, 2.04783, 1.93169, 2.12877, 2.01393, 2.01385, 2.01793, 2.02385, 2.14533, 2.12732, 2.08735, 2.11337, 2.08415, 2.10702, 2.09309, 2.09719, 2.00453, 2.00296, 2.00282, 2.00151, 2.0002, 1.99983, 2.09731, 2.10076, 2.00109, 2.10202, 2.0011, 2.09601, 2.10013, 2.08707, 2.0844, 2.08117, 2.08997, 2.07274, 2.0794, 2.07155, 2.08578, 2.08188, 1.99334, 2.09078, 2.08389, 1.98959, 1.99159, 2.0914, 1.98853, 2.06671, 2.07161, 1.98918, 2.07931, 2.0811, 1.98627, 1.98605, 2.08141, 2.07055, 2.06684, 2.07441, 2.07273, 2.0626, 2.05988, 1.97903, 2.05961, 2.06256, 1.97415, 2.07839, 2.05889, 2.06535, 2.06173, 2.06072, 2.05134, 1.96613, 1.96541, 1.96505, 1.9629, 1.96064, 1.96529, 1.9618, 2.06386, 2.05245, 1.94911, 1.94835, 1.94719, 1.94421, 1.89281, 1.89079, 1.99183, 1.8879, 1.88848, 1.88649, 1.88604, 1.88407, 1.88491, 1.88283, 1.8815, 1.87996, 1.95211, 1.93908, 1.88092, 1.88014, 1.87879, 1.87687, 1.87967, 1.87878, 1.88205, 1.87806, 1.87621, 1.87746, 1.8786, 2.06921, 1.87944, 1.92542, 1.87572, 1.96139, 1.92452, 1.92375, 1.87222, 1.87297, 1.87159, 1.8735, 2.06149, 1.77991, 1.72477, 1.72427, 1.72342, 1.72045, 1.71957, 1.71765, 1.90271, 1.71392, 1.80471, 1.71064, 1.89947, 1.89697, 1.70831, 1.7058, 1.89362, 1.75484, 1.75469, 1.75138, 1.75303, 1.70307, 1.806, 1.80448, 1.69923, 1.69769, 1.70054, 1.88741, 1.88615, 1.69967, 1.87436, 1.70221, 1.70092, 1.70117, 1.70149, 1.70188, 1.87556, 1.70063, 1.87509, 1.70292, 1.75471, 1.85337, 1.8508, 1.77535, 1.75621, 1.70659, 1.84733, 1.70808, 1.70943, 1.76096, 1.71225, 1.71321, 1.71383, 1.71519, 1.715, 1.71849, 1.71552, 1.71689, 1.72071, 1.72153
1.94073, 1.93876, 1.93731, 2.06529, 2.06744, 2.02017, 1.98366, 1.98325, 2.04105, 1.93231, 1.92755, 1.92957, 1.92525, 1.93108, 1.92987, 1.92452, 1.92453, 1.92394, 1.92329, 2.19611, 2.04209, 2.04223, 1.91968, 1.96933, 1.91723, 1.91688, 1.9136, 2.10678, 1.91293, 2.03115, 1.91072, 1.91284, 1.96152, 1.9604, 1.95908, 1.95936, 1.95806, 2.01963, 2.01967, 1.90868, 1.90968, 1.90808, 1.99506, 1.91162, 1.91296, 2.08897, 2.1955, 1.91527, 1.91481, 2.05156, 2.05184, 2.06261, 2.06192, 2.06004, 1.96552, 2.05972, 2.05916, 2.05886, 2.04101, 2.05856, 2.03418, 2.03268, 2.14953, 2.14814, 2.02964, 2.14267, 2.05675, 1.9446, 1.94325, 2.01679, 2.0165, 2.01695, 2.05554, 2.00959, 2.01228, 2.14615, 2.05813, 1.93037, 1.93082, 1.92891, 2.00167, 2.05519, 2.05425, 1.92459, 2.00535, 1.92351, 1.92322, 1.99914, 2.0003, 1.92514, 1.92478, 2.04755, 2.00407, 2.12766, 2.12142, 2.12057, 2.04332, 2.12411, 2.01697, 2.14564, 2.03952, 2.11445, 2.11133, 2.09719, 2.10079, 2.10164, 2.09972, 2.00537, 2.00364, 2.00633, 2.00572, 2.07548, 2.00113, 1.99948, 2.10141, 1.99944, 1.99899, 2.09368, 1.99893, 2.10466, 2.08043, 2.07256, 2.08065, 2.1014, 2.07239, 2.08003, 2.07177, 1.99681, 1.99457, 2.08083, 2.08341, 2.09898, 2.08633, 2.08137, 1.99062, 2.09119, 2.07558, 2.07314, 2.07889, 1.9865, 2.08628, 2.0712, 2.06227, 2.08567, 2.07775, 2.07357, 2.07617, 2.07377, 2.0733, 1.98021, 2.06267, 2.08292, 2.0693, 1.97397, 2.06079, 2.04924, 1.97207, 2.05888, 1.9688, 1.96849, 2.07044, 2.05321, 1.96603, 1.96339, 1.96217, 1.96321, 1.96366, 1.96233, 2.03439, 2.05438, 1.89937, 1.89816, 1.89615, 2.08703, 1.88963, 1.89051, 1.88959, 1.88897, 1.99726, 1.88592, 1.99364, 1.88392, 1.93303, 1.93196, 1.8823, 1.93172, 1.88197, 1.93061, 1.93068, 1.88104, 1.87965, 1.88193, 1.88026, 1.87902, 1.92806, 1.88024, 1.8792, 1.878, 1.87908, 1.87649, 1.87655, 1.93857, 1.92524, 1.92514, 1.92508, 2.04841, 1.87298, 1.873, 1.87158, 1.87186, 1.72801, 1.77834, 1.72474, 1.72399, 1.72035, 1.71794, 1.71623, 1.89782, 1.81474, 1.71351, 1.71042, 1.70963, 1.70721, 1.70619, 1.70668, 1.70318, 1.89218, 1.70089, 1.70438, 1.75081, 1.70073, 1.75167, 1.75079, 1.7483, 1.80094, 1.76855, 1.70004, 1.81724, 1.6971, 1.69643, 1.81417, 1.70067, 1.69795, 1.70248, 1.6993, 1.70062, 1.70192, 1.87555, 1.87329, 1.70319, 1.70225, 1.76225, 1.70042, 1.75444, 1.7553, 1.75404, 1.75703, 1.84171, 1.81933, 1.71109, 1.71277, 1.81374, 1.85395, 1.81697, 1.71122, 1.71615, 1.71965, 1.71757, 1.89927, 1.81457
1.9379, 1.93899, 2.04474, 2.06464, 2.06566, 1.93203, 1.93391, 1.9352, 2.03467, 1.93035, 1.93033, 1.9269, 2.20414, 1.92658, 1.92394, 1.92851, 2.03912, 2.04121, 1.92362, 1.9233, 1.92462, 2.01112, 2.01322, 2.03233, 2.03366, 2.03041, 2.03043, 2.02364, 1.91349, 2.02812, 2.01501, 2.01655, 2.09007, 1.96104, 1.90966, 1.95829, 1.90768, 1.90807, 2.09649, 2.02029, 1.90942, 1.99242, 1.9938, 1.91104, 1.91246, 2.01234, 1.91518, 1.9152, 1.91425, 2.05064, 2.05059, 2.06045, 2.05812, 2.1412, 2.14125, 2.03931, 2.04009, 2.05631, 1.96161, 2.03412, 2.03464, 2.03368, 2.02765, 2.02775, 2.02525, 2.02333, 2.05528, 2.05585, 2.05583, 2.14579, 2.01739, 1.93731, 2.0145, 2.01351, 2.01318, 2.00982, 2.0045, 1.92861, 1.92808, 1.92816, 2.00347, 2.05266, 2.00161, 1.92407, 2.00295, 1.99976, 2.05162, 1.99795, 1.99816, 2.00042, 2.13217, 2.04656, 1.92746, 1.9295, 2.00627, 1.93042, 2.04215, 2.01411, 2.13568, 2.0387, 2.12348, 2.0927, 2.10334, 2.00805, 2.08314, 2.09286, 2.00488, 2.09896, 2.00579, 2.00536, 2.0042, 2.00121, 2.00272, 2.00379, 2.09364, 2.08733, 2.08924, 2.08976, 2.08327, 2.09811, 2.10437, 2.08695, 2.09673, 2.06988, 2.0867, 1.99597, 2.08036, 2.07743, 2.08582, 2.07257, 2.09317, 2.08039, 2.07059, 2.0798, 1.9892, 2.08279, 2.0689, 2.07938, 2.07041, 2.07947, 2.07475, 2.07417, 2.06615, 2.08235, 2.06746, 1.98325, 2.07224, 1.9804, 2.06801, 2.07678, 2.07062, 1.97666, 2.06583, 2.06843, 2.06692, 2.08221, 2.05997, 1.9695, 2.06445, 2.05565, 1.966, 1.96492, 1.9649, 1.96461, 2.04137, 2.04476, 2.04178, 2.04215, 2.07214, 1.95959, 1.89987, 1.89821, 2.06618, 1.89641, 1.89275, 1.89139, 1.94037, 1.93936, 1.99437, 1.98985, 1.93713, 1.93452, 1.93323, 1.93366, 1.88074, 1.93171, 1.88193, 1.93066, 1.92978, 1.87849, 1.88245, 1.88035, 1.87878, 1.87891, 1.92778, 1.92745, 1.92695, 1.87515, 1.87529, 1.97818, 1.97416, 1.87532, 1.87607, 1.87791, 2.06244, 1.87206, 1.87192, 1.874, 1.87287, 1.87251, 1.86976, 1.72294, 1.9031, 1.72148, 1.71779, 1.71935, 1.71976, 1.7134, 1.71146, 1.70977, 1.81166, 1.70747, 1.70336, 1.70352, 1.70282, 1.89095, 1.70194, 1.77522, 1.70273, 1.69896, 1.75083, 1.70009, 1.69897, 1.69359, 1.88556, 1.69802, 1.69601, 1.69711, 1.69597, 1.69701, 1.69644, 1.69422, 1.7994, 1.88136, 1.8802, 1.69841, 1.80836, 1.69926, 1.69747, 1.87224, 1.70169, 1.70255, 1.86948, 1.70251, 1.70214, 1.70017, 1.75534, 1.70644, 1.81748, 1.70745, 1.70483, 1.85561, 1.71201, 1.71385, 1.85401, 1.71509, 1.71346, 1.71501, 1.81362, 1.8421
1.9374, 1.93653, 1.93305, 1.93308, 2.04252, 2.04203, 1.93399, 1.93439, 1.93131, 1.93079, 1.93121, 1.92881, 1.9801, 1.9271, 1.92338, 1.92341, 1.92429, 1.92387, 1.92336, 2.20909, 2.01433, 1.91854, 1.91799, 1.91706, 1.9157, 1.9205, 1.9152, 1.96485, 1.96275, 1.91359, 2.02754, 1.91093, 1.90855, 1.95793, 1.90927, 1.90969, 1.98348, 1.95855, 1.9586, 1.99407, 1.90981, 1.95802, 1.95929, 1.9591, 1.91086, 1.90968, 1.96193, 1.9141, 1.99618, 1.97337, 1.97362, 1.97341, 2.13542, 2.14194, 2.13982, 2.04182, 2.03776, 2.0378, 2.03889, 1.95854, 2.03473, 2.03293, 2.05665, 2.03038, 2.02655, 2.0276, 2.05566, 2.02179, 1.9412, 2.02102, 2.1423, 2.13911, 2.05618, 2.14841, 2.01068, 2.01145, 1.93034, 1.92855, 2.00403, 2.00071, 2.00116, 2.12955, 2.00023, 2.00079, 2.00083, 1.99734, 1.9239, 1.998, 2.14125, 2.00259, 1.9246, 2.0447, 2.04473, 2.0029, 2.00705, 1.93102, 1.93329, 1.93731, 2.01117, 2.14517, 2.13111, 2.10329, 2.00907, 2.10012, 2.0962, 2.10715, 2.09531, 2.0039, 2.00295, 2.07962, 2.0012, 1.99993, 1.99899, 1.99936, 2.08487, 2.08756, 2.1017, 2.10349, 1.99785, 1.99685, 2.09105, 2.08825, 1.99645, 2.09344, 2.10033, 1.99675, 2.08375, 1.99411, 2.08629, 2.082, 2.08135, 2.08021, 2.07356, 2.08604, 2.0731, 1.98804, 2.06935, 1.98661, 2.09412, 2.07919, 2.07747, 2.07636, 2.07331, 2.05846, 2.05665, 2.06493, 2.07304, 1.98065, 2.06628, 2.07308, 1.97616, 2.06054, 2.06698, 2.04836, 2.05584, 2.06376, 2.05279, 2.06254, 2.0625, 2.05646, 2.05131, 1.96567, 1.96262, 1.96213, 1.96176, 2.04103, 2.03971, 2.0361, 2.05534, 2.03526, 1.89801, 1.89938, 1.89527, 1.89463, 1.89349, 1.88878, 1.93996, 1.93743, 1.93737, 1.98761, 1.98603, 1.88448, 2.07921, 2.08629, 2.07989, 1.8828, 1.88317, 1.8814, 1.98698, 1.88032, 1.87983, 1.98143, 1.88165, 1.87897, 1.92712, 1.9286, 1.87759, 1.93438, 1.87824, 2.0743, 2.07411, 1.87273, 2.06072, 1.8754, 1.87295, 1.87526, 2.07254, 2.07299, 1.87052, 1.96876, 1.72413, 1.72231, 1.72104, 1.71781, 1.71407, 1.7141, 1.90364, 1.90092, 1.71251, 1.70876, 1.81309, 1.70651, 1.70459, 1.89338, 1.70324, 1.79692, 1.70213, 1.70012, 1.69628, 1.69627, 1.69777, 1.69905, 1.6965, 1.80819, 1.69575, 1.88524, 1.6977, 1.69475, 1.79209, 1.69566, 1.69659, 1.87649, 1.87354, 1.69852, 1.69629, 1.69924, 1.69663, 1.87673, 1.69663, 1.69983, 1.69972, 1.70075, 1.81672, 1.86852, 1.70427, 1.86505, 1.86595, 1.8613, 1.86171, 1.8587, 1.85472, 1.85971, 1.70583, 1.85334, 1.84927, 1.71461, 1.84726, 1.84317, 1.71849, 1.71568
1.93608, 1.93632, 1.93398, 1.93318, 1.93543, 1.93373, 1.93063, 1.93114, 1.92981, 1.9295, 1.9281, 1.93091, 1.97733, 1.92766, 1.92373, 1.92667, 2.03074, 1.91954, 1.92176, 1.9213, 2.03198, 2.03388, 2.02033, 1.91832, 2.0167, 1.9632, 1.96308, 1.91339, 1.91196, 1.91078, 2.10359, 1.91014, 1.90984, 1.95798, 1.9562, 2.00853, 1.90518, 1.95696, 1.95679, 1.95807, 1.95839, 1.9092, 2.00016, 2.00099, 1.9106, 2.09296, 1.9132, 1.96248, 1.96297, 2.14507, 2.06007, 2.05162, 2.046, 2.05406, 2.04492, 2.04114, 2.0377, 1.96193, 2.03755, 2.03391, 2.05505, 2.02852, 2.05452, 2.1552, 2.15591, 2.02403, 2.02324, 2.02389, 2.02409, 2.0164, 2.01688, 2.01416, 2.01726, 1.93381, 2.145, 2.00606, 2.00565, 2.00495, 2.05203, 2.00036, 2.00121, 2.00062, 2.00069, 1.99983, 1.99958, 1.99682, 1.99702, 1.99762, 2.00058, 1.9211, 1.99918, 1.99992, 2.00052, 1.92767, 1.92761, 2.00694, 2.12878, 1.93395, 2.01499, 2.02015, 2.04177, 2.10656, 2.0936, 2.09272, 2.09904, 2.09148, 2.08913, 2.07943, 2.00403, 2.00313, 2.00154, 1.99993, 1.99878, 1.9985, 2.08722, 1.99796, 1.99748, 2.09648, 2.09244, 1.99607, 2.08356, 1.99642, 2.09624, 2.09346, 2.07902, 2.08525, 1.99378, 2.07836, 2.09064, 2.06365, 1.99039, 2.08035, 2.08455, 2.07677, 2.07103, 2.06714, 1.98763, 1.98589, 2.07175, 2.07605, 2.06912, 1.9831, 1.98329, 2.07855, 2.05529, 2.07766, 2.06656, 2.06532, 2.0623, 2.0617, 1.97562, 1.97566, 1.97445, 2.06651, 2.07999, 2.06635, 2.06435, 2.06559, 2.05454, 2.04889, 2.05363, 1.96345, 1.96239, 1.96238, 1.96042, 2.04213, 2.0405, 2.03842, 2.05243, 2.05253, 2.08024, 2.08285, 1.89612, 1.89344, 1.8912, 1.94049, 1.93844, 1.93826, 1.88689, 2.06655, 1.88301, 1.8808, 1.88232, 2.08541, 1.88206, 1.88099, 2.0878, 1.88042, 1.97259, 1.87861, 1.8803, 1.87935, 1.9283, 1.92852, 1.96571, 1.87859, 1.92699, 1.92572, 1.87558, 1.87647, 2.05961, 1.87643, 1.87541, 1.87289, 2.0647, 1.87552, 2.06153, 2.05993, 1.96742, 1.86905, 1.72367, 1.72353, 1.90274, 1.7187, 1.71618, 1.8936, 1.7111, 1.71057, 1.7093, 1.70955, 1.70621, 1.82229, 1.70384, 1.70244, 1.70239, 1.88585, 1.69786, 1.69829, 1.79925, 1.79772, 1.88568, 1.69553, 1.69421, 1.69296, 1.6952, 1.69283, 1.69521, 1.87975, 1.69209, 1.93373, 1.6931, 1.69068, 1.79679, 1.79327, 1.8728, 1.69324, 1.69896, 1.69722, 1.87474, 1.87291, 1.87071, 1.8665, 1.69434, 1.69968, 1.69926, 1.69946, 1.7012, 1.70198, 1.70645, 1.86023, 1.70481, 1.70373, 1.85156, 1.70976, 1.85126, 1.84692, 1.84476, 1.8425, 1.71382, 1.71397
2.03115, 2.0322, 2.04053, 2.04149, 1.93501, 1.93237, 1.92987, 1.93221, 1.92783, 2.20307, 1.9266, 1.92619, 1.97613, 1.99807, 1.97495, 1.92518, 2.0293, 2.03038, 1.9721, 1.98262, 1.98565, 2.00323, 1.96711, 2.03347, 1.91547, 1.96357, 1.96252, 1.91074, 1.9101, 1.96059, 2.01978, 1.9099, 1.9092, 1.95507, 1.90598, 1.9064, 1.90678, 1.90771, 2.02084, 2.02078, 2.1002, 1.9052, 1.99857, 1.95792, 1.91334, 1.90928, 1.91065, 1.96072, 1.96198, 2.05932, 2.06157, 2.0561, 1.97001, 2.05956, 1.96537, 1.96465, 2.03779, 2.03803, 2.03454, 2.03463, 2.03286, 2.03212, 1.95199, 2.02959, 2.02408, 2.02606, 2.02097, 2.02068, 2.05363, 2.05215, 1.93635, 1.93771, 2.012, 2.05554, 2.01033, 2.00604, 2.05193, 1.92717, 2.00379, 1.925, 1.99973, 1.99951, 2.00063, 1.99721, 1.99722, 1.92133, 2.04601, 1.92158, 1.9965, 1.99595, 1.99806, 1.9244, 1.99937, 2.00712, 1.99971, 2.01054, 2.00863, 2.0106, 2.01118, 2.03644, 2.13333, 2.00789, 2.00892, 2.10095, 2.08088, 2.0804, 2.07933, 2.08066, 2.08334, 2.07687, 2.07701, 1.99855, 1.99778, 1.99728, 1.99776, 2.07392, 2.07743, 2.08083, 2.08957, 2.08994, 2.0954, 1.99651, 2.07961, 2.082, 2.08476, 2.08351, 2.07858, 2.07971, 2.09041, 1.99007, 2.07942, 2.09399, 2.08251, 2.08649, 2.09628, 2.07401, 2.07503, 2.08756, 2.07681, 2.06635, 2.06361, 2.06523, 2.07561, 2.06712, 2.06495, 2.05966, 2.07552, 2.05247, 2.05883, 2.04978, 1.97531, 2.05995, 2.06734, 2.06625, 2.07624, 1.96935, 2.06347, 2.05232, 2.05436, 2.0515, 2.06581, 1.96451, 1.96263, 1.9596, 1.9617, 1.95953, 1.95866, 2.03806, 2.05213, 2.06271, 1.89647, 2.08624, 1.89504, 1.94275, 1.94123, 1.94075, 1.9389, 1.88757, 1.88608, 1.88529, 1.99088, 1.98636, 1.88259, 1.8823, 1.88316, 2.06236, 1.88196, 2.06951, 1.8789, 1.88025, 2.07376, 1.88052, 1.87967, 1.97192, 1.96948, 1.97084, 1.87841, 1.87379, 2.06494, 1.97564, 1.9733, 1.87356, 1.87383, 1.87343, 1.87208, 1.87569, 1.8728, 1.87217, 1.96763, 1.9697, 1.72189, 1.90365, 1.71618, 1.71566, 1.76477, 1.76256, 1.71034, 1.70699, 1.70632, 1.70606, 1.70252, 1.70135, 1.70267, 1.70051, 1.69962, 1.69703, 1.88365, 1.69641, 1.80256, 1.69595, 1.69417, 1.69322, 1.69266, 1.69378, 1.69171, 1.69146, 1.69264, 1.79229, 1.6932, 1.69178, 1.69114, 1.69217, 1.69306, 1.69153, 1.69592, 1.87542, 1.87288, 1.86932, 1.69448, 1.69464, 1.69646, 1.69556, 1.84846, 1.74873, 1.75025, 1.69802, 1.75287, 1.7515, 1.69989, 1.70358, 1.69933, 1.70581, 1.80466, 1.84892, 1.70958, 1.70755, 1.70899, 1.84442, 1.7139, 1.71309
2.04145, 1.93461, 1.93606, 1.93175, 1.92912, 1.93136, 2.21361, 1.92791, 1.93139, 1.93122, 1.9285, 1.92491, 1.92521, 1.92853, 1.92423, 1.9735, 1.97469, 1.96974, 1.92107, 1.91678, 1.9707, 1.91893, 1.91359, 1.91508, 2.02426, 1.9656, 1.9636, 1.9128, 1.96108, 1.90987, 1.91078, 2.01464, 2.10351, 1.90572, 2.02153, 2.19114, 1.90485, 2.09728, 1.90346, 1.90428, 2.01492, 2.09344, 1.95686, 1.9562, 1.9586, 1.90615, 1.90915, 1.91191, 2.01034, 2.04794, 2.04832, 2.04599, 2.13396, 2.04174, 2.05384, 2.056, 2.0505, 2.05458, 2.03542, 1.95911, 2.03139, 2.02991, 2.05258, 2.02582, 2.05472, 2.02193, 2.05218, 2.13409, 2.13606, 2.04957, 2.01309, 2.01299, 2.05283, 1.93178, 2.00867, 2.12541, 2.05201, 2.05184, 2.13849, 2.00166, 2.00096, 2.04907, 1.92201, 1.99853, 1.9959, 1.99726, 1.99818, 1.99761, 1.99665, 1.92139, 1.91994, 2.00027, 2.00134, 1.92359, 2.00448, 2.00713, 2.03835, 2.03799, 2.01106, 2.12418, 2.12403, 1.95821, 2.10848, 2.08921, 2.09703, 2.07926, 2.0023, 2.07817, 2.07665, 2.07906, 2.07729, 1.9993, 1.99881, 1.99604, 1.99691, 2.07686, 2.07058, 2.09006, 2.08194, 2.08956, 1.99591, 2.09175, 2.07095, 2.06857, 2.06996, 2.0809, 2.07955, 2.07773, 1.99251, 2.07876, 1.98961, 2.08315, 2.08603, 2.06929, 2.08623, 2.07689, 2.07325, 2.07676, 2.07978, 1.98318, 2.08533, 1.98307, 2.07522, 2.07092, 1.97895, 2.06635, 2.06194, 1.97868, 2.06874, 1.97656, 2.0633, 1.97316, 1.97185, 2.07024, 2.04456, 2.0691, 2.05214, 2.06344, 2.06646, 2.05531, 2.05874, 1.96239, 1.96342, 1.9622, 1.9585, 1.95897, 1.95796, 1.95919, 1.95963, 2.0768, 1.89622, 2.09326, 1.96977, 1.94157, 1.94098, 1.89073, 1.88836, 1.88916, 1.88687, 1.88629, 1.88599, 1.88312, 1.88052, 1.88179, 1.88227, 1.88275, 2.06638, 1.97267, 1.88079, 1.98327, 1.88066, 1.9541, 1.87909, 1.87853, 1.87729, 1.87712, 1.8786, 1.87518, 1.87338, 1.87427, 1.87495, 1.87241, 2.05419, 1.87314, 2.07151, 2.06253, 1.87268, 1.87192, 1.87124, 1.86921, 1.71698, 1.90002, 1.89798, 1.71272, 1.89659, 1.71101, 1.70904, 1.70767, 1.70425, 1.70311, 1.70181, 1.88856, 1.88487, 1.70062, 1.6987, 1.69723, 1.69314, 1.69645, 1.69542, 1.69641, 1.69542, 1.69337, 1.88047, 1.87941, 1.69175, 1.6899, 1.87583, 1.69161, 1.69237, 1.69159, 1.69223, 1.6895, 1.69218, 1.68967, 1.69328, 1.69165, 1.69221, 1.6951, 1.76292, 1.7792, 1.69287, 1.89592, 1.89577, 1.8939, 1.84356, 1.94205, 1.74905, 1.70033, 1.69912, 1.7524, 1.70229, 1.70058, 1.70378, 1.80862, 1.70515, 1.70901, 1.70838, 1.70615, 1.70667, 1.83387
1.93253, 1.93518, 1.98264, 1.98238, 1.98396, 1.92916, 2.03333, 1.92793, 1.93051, 2.03559, 1.92485, 1.92049, 1.92521, 1.9258, 1.92216, 2.03328, 1.92109, 1.92012, 2.03181, 1.91722, 1.91778, 2.03439, 2.20452, 1.91539, 1.91237, 1.91386, 1.96178, 1.9098, 1.95845, 2.02432, 2.01854, 1.90289, 2.02422, 1.90615, 1.90639, 2.02452, 1.90519, 1.90362, 1.90425, 1.95466, 2.20056, 1.90434, 1.95537, 1.90642, 1.95709, 1.9593, 2.08665, 2.08112, 1.9077, 2.05013, 2.0579, 2.05901, 2.13395, 2.13526, 2.05256, 2.03985, 2.03674, 2.05556, 1.95833, 2.05184, 2.03122, 2.03114, 2.05468, 2.027, 2.02435, 2.02188, 2.02054, 2.01827, 2.01536, 2.12843, 2.01318, 2.01062, 2.14671, 2.05139, 2.00996, 2.00589, 2.12522, 2.00459, 2.00189, 2.00328, 2.13842, 2.04849, 1.99686, 1.92082, 1.91841, 2.00014, 2.0464, 2.04417, 2.04433, 1.99629, 1.99858, 1.99826, 1.92406, 2.0033, 1.92886, 1.92899, 1.93059, 1.93093, 2.01298, 2.01517, 2.03408, 2.07509, 2.00683, 2.0885, 2.08003, 2.0858, 2.0859, 2.08572, 2.00262, 2.00359, 1.9995, 1.99761, 1.9966, 1.99725, 2.08245, 2.08389, 2.08641, 1.99709, 2.09558, 1.99447, 1.99345, 2.07732, 2.08366, 2.07639, 2.08756, 1.99436, 2.08913, 1.99156, 1.98929, 2.07351, 1.9897, 2.08944, 2.08594, 2.08393, 2.08238, 2.09344, 1.98037, 2.08801, 2.07356, 2.06908, 2.06904, 2.06878, 1.97862, 2.09315, 2.06864, 2.06806, 2.07247, 2.07533, 1.97662, 2.06601, 2.04185, 1.9731, 1.97286, 2.05243, 1.96892, 2.05271, 1.96772, 1.96599, 2.04572, 2.0484, 2.05564, 2.03723, 1.9611, 1.95885, 1.96012, 1.95712, 1.95896, 2.03574, 2.03429, 2.03839, 1.89419, 1.99024, 1.89285, 1.89087, 1.88889, 1.88764, 1.88872, 1.88745, 1.88809, 1.93511, 1.9336, 1.88538, 2.07011, 1.88266, 1.88239, 1.9316, 1.88138, 1.93035, 1.87879, 1.97986, 1.97836, 1.98047, 1.97614, 1.8784, 1.87901, 1.87534, 1.87675, 1.87679, 1.87386, 1.87211, 2.05566, 1.87352, 2.05187, 1.9225, 1.87189, 1.86837, 1.91969, 1.91888, 2.05875, 1.8672, 1.72085, 1.71436, 1.71397, 1.70954, 1.70592, 1.70675, 1.70557, 1.70287, 1.70078, 1.70126, 1.70245, 1.70015, 1.69986, 1.69963, 1.69826, 1.88225, 1.883, 1.7857, 1.69339, 1.88191, 1.88008, 1.69176, 1.93869, 1.74013, 1.68932, 1.68916, 1.68848, 1.6883, 1.6889, 1.6886, 1.69008, 1.69012, 1.78768, 1.68979, 1.87104, 1.8688, 1.80131, 1.69208, 1.69281, 1.69361, 1.69328, 1.69145, 1.84412, 1.74536, 1.7456, 1.84096, 1.69791, 1.69875, 1.69996, 1.70066, 1.69977, 1.70291, 1.70449, 1.70341, 1.70275, 1.70305, 1.84079, 1.70691, 1.83741, 1.70718
1.93394, 1.93368, 1.93216, 1.93019, 1.97974, 2.02667, 2.02858, 1.9293, 1.97907, 1.92456, 1.97465, 1.97635, 1.92394, 2.03284, 1.92333, 1.92357, 2.03211, 1.91975, 1.91903, 1.91625, 1.91578, 2.03116, 1.91442, 1.91559, 1.91208, 2.02993, 1.91032, 1.90984, 1.90968, 2.02503, 2.01586, 1.90596, 1.90377, 1.90519, 1.95286, 1.90519, 1.90341, 1.90405, 1.95195, 1.95337, 1.90493, 1.90623, 1.95505, 1.95528, 1.90706, 1.90689, 1.95869, 1.91072, 1.91137, 2.04744, 2.05438, 2.05531, 2.03978, 2.04234, 2.04103, 2.0376, 2.03589, 2.03644, 2.03266, 1.9554, 2.02929, 1.95154, 2.04923, 2.13594, 2.02242, 1.94503, 2.01726, 1.9416, 2.04833, 2.00833, 2.01186, 2.01086, 2.12869, 1.92868, 2.00675, 2.00087, 2.00073, 2.00131, 2.00174, 1.92064, 1.99801, 2.04849, 1.99779, 1.92037, 1.92097, 1.9959, 1.99427, 1.99747, 1.99611, 1.91983, 1.99724, 1.99671, 1.99933, 1.99994, 2.00337, 2.00554, 2.0073, 2.00936, 2.00973, 2.03327, 2.03302, 2.0069, 2.09362, 2.10349, 2.09671, 2.09056, 2.07774, 1.99973, 1.99907, 1.999, 2.00016, 2.00008, 1.99752, 1.99607, 2.07337, 1.99584, 1.99618, 2.09108, 1.9963, 1.99272, 2.07893, 1.99399, 2.09036, 2.08026, 2.06623, 2.08038, 1.99032, 1.99253, 2.06263, 2.07488, 2.07711, 1.98615, 1.98598, 1.98652, 2.07297, 2.08033, 2.08396, 2.07466, 2.06651, 1.98005, 2.06241, 2.06251, 2.07568, 2.07971, 1.97744, 2.07256, 2.06536, 2.06517, 2.06633, 2.06374, 2.06453, 2.06969, 1.97115, 2.0582, 2.05927, 1.96895, 1.96621, 2.04905, 2.04924, 2.08036, 2.0392, 2.04197, 1.96, 1.96162, 1.95854, 1.95853, 1.95598, 1.95609, 2.03424, 2.03124, 2.07989, 2.06225, 1.89032, 1.8912, 1.89099, 1.88631, 1.88763, 1.88796, 1.88613, 1.8861, 1.93413, 1.88297, 1.88362, 1.88198, 1.93256, 1.93051, 1.96862, 1.93006, 1.87914, 1.97724, 1.88139, 1.88019, 1.97491, 1.97429, 1.87648, 1.87785, 1.97202, 1.87327, 1.87385, 1.96634, 1.8755, 1.87198, 1.96871, 1.87068, 1.86917, 1.91913, 1.95483, 1.86645, 2.05293, 1.95431, 1.81656, 1.71268, 1.7105, 1.71049, 1.70723, 1.70569, 1.89034, 1.70295, 1.70025, 1.70081, 1.88539, 1.69915, 1.69885, 1.7473, 1.74519, 1.69304, 1.78982, 1.69292, 1.69253, 1.69285, 1.69174, 1.68967, 1.68717, 1.87985, 1.78873, 1.68645, 1.87513, 1.68687, 1.73813, 1.87525, 1.87444, 1.77682, 1.68876, 1.87184, 1.68777, 1.86851, 1.86818, 1.79547, 1.68685, 1.69172, 1.74376, 1.74085, 1.74185, 1.69311, 1.74368, 1.69011, 1.74528, 1.69485, 1.74755, 1.74778, 1.74861, 1.70075, 1.84785, 1.96253, 1.84823, 1.70349, 1.70384, 1.70688, 1.707, 1.88461
1.93341, 1.93266, 1.93202, 1.93402, 1.92954, 1.92829, 1.92877, 1.92681, 1.97592, 1.97663, 1.98466, 1.98672, 1.97374, 1.92182, 2.03172, 1.92214, 2.02861, 1.91819, 1.91825, 1.91589, 1.9146, 1.91341, 1.91392, 1.91539, 1.91303, 1.90988, 1.91054, 1.90917, 1.90944, 2.02464, 1.90457, 1.90298, 1.90653, 2.02443, 1.90315, 1.904, 1.90256, 1.90233, 1.99948, 1.90435, 1.90481, 1.90407, 1.95479, 2.07684, 1.95606, 1.95693, 1.9066, 1.90619, 1.91083, 2.04809, 1.96901, 2.04472, 2.03959, 2.04511, 2.13068, 1.95986, 2.03398, 2.03433, 2.03346, 2.02858, 2.04949, 2.04996, 2.02779, 2.02682, 2.02122, 1.94551, 2.13801, 2.0189, 1.93807, 2.01693, 2.01409, 1.93509, 2.12738, 2.04856, 2.12642, 1.99871, 1.99842, 1.99958, 2.00049, 1.99839, 1.92088, 1.92118, 1.92174, 1.99502, 1.99431, 2.04262, 1.9945, 1.99325, 1.99589, 1.99597, 2.12942, 1.92045, 2.03952, 2.0009, 2.00398, 2.00456, 2.00489, 2.0109, 2.13837, 2.03143, 1.95634, 2.08731, 2.09665, 2.00176, 2.00403, 2.07659, 2.08394, 1.99961, 1.9987, 1.99725, 1.99814, 1.99714, 1.99725, 1.99594, 1.99618, 1.99491, 2.08393, 2.07712, 2.0706, 2.07897, 2.07885, 2.07884, 2.07929, 2.08379, 1.99186, 1.99051, 2.0788, 2.09397, 2.06387, 2.06608, 2.07954, 2.08268, 1.98318, 2.06953, 2.06031, 2.06934, 1.98036, 2.08273, 2.07343, 1.98066, 2.07381, 1.97707, 2.07999, 1.97903, 1.97668, 1.97568, 1.97501, 2.06821, 2.06492, 1.97402, 2.07087, 2.06466, 2.07335, 2.05193, 2.07881, 2.05628, 2.06823, 1.96494, 2.0384, 2.03746, 2.03813, 2.03454, 1.95823, 1.95558, 1.95716, 1.95712, 1.95561, 1.95554, 2.0525, 1.9558, 2.08738, 2.08568, 1.89012, 2.07702, 1.88908, 2.07883, 1.96585, 1.99525, 1.99367, 1.934, 1.93305, 1.9324, 1.88016, 1.93086, 1.93957, 1.92891, 1.92853, 1.93023, 1.92739, 1.87629, 1.87634, 1.87879, 1.97513, 1.87646, 1.87613, 1.87606, 1.8767, 1.87479, 1.87539, 1.87339, 1.96577, 1.87182, 1.87141, 1.86912, 2.05321, 2.04922, 1.86572, 1.86879, 1.91635, 1.91574, 1.71106, 1.70973, 1.71042, 1.89342, 1.70394, 1.70476, 1.70417, 1.81209, 1.75076, 1.88194, 1.74768, 1.69373, 1.69383, 1.69543, 1.74463, 1.74373, 1.69443, 1.68885, 1.68862, 1.689, 1.74603, 1.74194, 1.8794, 1.68989, 1.68671, 1.68622, 1.68561, 1.68673, 1.736, 1.68408, 1.68665, 1.68745, 1.87035, 1.68548, 1.6861, 1.68889, 1.78972, 1.86314, 1.74673, 1.86594, 1.68503, 1.6904, 1.84375, 1.84042, 1.69169, 1.83937, 1.838, 1.74416, 1.8347, 1.69619, 1.69861, 1.84855, 1.805, 1.84243, 1.84392, 1.70002, 1.70645, 1.70276, 1.70493, 1.83448
1.9797, 1.98015, 1.98219, 1.92922, 1.9296, 1.99836, 1.97597, 1.92633, 1.97511, 1.92484, 1.9237, 1.92206, 1.97231, 1.92, 1.91908, 2.04436, 1.91726, 1.91777, 1.91781, 2.03129, 1.96686, 1.96564, 1.91326, 1.91298, 1.911, 1.91094, 2.02598, 1.90982, 1.90981, 1.90641, 1.9559, 1.90385, 2.00856, 1.90428, 2.02405, 2.02161, 1.90299, 1.90365, 2.09107, 1.90152, 1.90256, 2.09349, 1.90348, 1.90327, 1.90449, 1.90731, 1.9047, 1.90699, 1.90773, 2.04709, 2.04448, 2.14182, 2.03799, 1.96529, 1.96243, 2.131, 1.95938, 2.03896, 2.03275, 2.03105, 2.02758, 1.95081, 2.02508, 2.13043, 2.12458, 2.02043, 2.01709, 2.01681, 2.04866, 2.01354, 2.01315, 2.01024, 2.0487, 2.00825, 2.1234, 2.13517, 1.9237, 2.00112, 2.0453, 2.13826, 1.92091, 1.9971, 1.99659, 1.99534, 1.99596, 1.9215, 2.12748, 1.92046, 2.1313, 1.91739, 1.99375, 1.99477, 1.99907, 1.92071, 2.00321, 2.00348, 2.12702, 1.92881, 2.12117, 2.03549, 2.11049, 2.09242, 2.09976, 2.09835, 2.09014, 2.0876, 2.08965, 1.99746, 1.99822, 1.99625, 1.99624, 1.99878, 1.99658, 1.99733, 2.09326, 2.07951, 2.07287, 2.07984, 2.08551, 2.09061, 1.99125, 2.10069, 2.09991, 2.08341, 2.07201, 1.98947, 2.07605, 2.07388, 1.98625, 1.98575, 1.98612, 2.09734, 2.07312, 1.98264, 2.09962, 2.07452, 1.97996, 2.06372, 2.05691, 2.0768, 2.06624, 2.05662, 2.06415, 2.06855, 2.07078, 2.0718, 2.06298, 1.97385, 2.05673, 1.97306, 2.07339, 2.07093, 2.06599, 2.06528, 1.96836, 2.043, 2.04686, 2.05389, 2.05527, 2.06387, 2.04126, 2.03801, 1.95882, 1.95937, 1.95917, 1.95273, 1.9532, 1.95516, 1.95575, 2.05318, 1.89447, 1.89338, 1.89257, 2.05825, 1.88774, 1.93737, 1.9628, 1.9933, 1.99286, 1.93305, 1.93108, 1.88171, 1.93147, 1.93076, 1.94219, 1.94129, 1.92852, 1.92723, 2.06687, 1.97686, 2.06928, 2.07004, 1.87496, 1.92595, 1.87555, 2.06293, 1.87342, 1.87223, 1.87015, 1.87208, 1.96962, 1.87177, 1.91893, 1.86671, 1.86886, 2.04557, 1.86369, 1.96554, 2.05968, 1.86158, 1.89369, 1.89063, 1.89433, 1.70605, 1.70441, 1.70346, 1.69969, 1.69793, 1.69712, 1.74798, 1.69611, 1.8797, 1.69402, 1.87127, 1.86897, 1.68922, 1.68844, 1.6908, 1.69008, 1.68902, 1.73762, 1.68639, 1.79552, 1.68382, 1.6831, 1.68442, 1.8772, 1.68528, 1.87589, 1.68728, 1.68572, 1.68364, 1.73578, 1.68609, 1.682, 1.8516, 1.8676, 1.86529, 1.86279, 1.68539, 1.85529, 1.68427, 1.74171, 1.74036, 1.74142, 1.69001, 1.83705, 1.74857, 1.75214, 1.69572, 1.69522, 1.8487, 1.69837, 1.70083, 1.75217, 1.8251, 1.69694, 1.75217, 1.82054, 1.7047
2.05633, 1.92888, 2.11381, 1.92842, 1.92755, 1.92657, 1.92739, 1.97502, 1.92524, 1.92353, 2.01429, 1.92332, 1.92122, 1.92084, 1.91965, 1.98199, 2.02786, 1.92016, 1.91687, 1.98608, 1.96377, 1.96334, 1.96111, 1.96178, 1.96173, 1.90973, 1.90947, 2.09689, 1.95493, 1.95696, 1.95451, 1.95448, 1.95481, 1.90294, 2.00424, 1.9032, 1.90064, 1.89989, 1.90238, 1.90096, 2.09244, 1.90257, 1.90262, 2.08647, 1.90589, 1.90654, 1.90512, 1.90817, 1.90917, 1.97168, 2.05176, 2.04915, 2.1282, 2.12596, 2.03718, 2.03428, 2.03292, 1.95525, 2.03284, 2.04804, 1.95116, 1.95074, 1.94978, 2.04794, 2.02047, 2.02323, 2.02079, 2.01379, 2.01442, 1.93671, 1.93516, 2.01052, 2.00663, 2.00728, 2.00372, 2.00356, 1.92717, 2.1356, 1.99954, 2.13241, 1.92202, 2.04767, 1.91697, 1.99305, 1.99387, 1.99281, 1.99501, 1.99361, 1.99625, 1.99337, 2.03779, 1.99615, 2.12812, 1.92112, 2.00103, 2.00632, 1.9274, 2.00695, 2.13775, 2.03083, 2.13436, 2.09013, 2.0961, 1.99968, 2.09451, 2.09638, 1.9987, 2.09033, 1.99653, 1.99442, 1.99663, 1.99466, 1.99354, 1.9941, 2.06956, 2.06881, 2.06957, 2.06957, 1.99186, 2.08278, 1.98944, 1.99241, 1.99102, 2.09608, 2.0968, 2.0797, 2.08317, 2.0763, 2.08386, 1.98666, 2.07307, 2.07861, 2.06612, 2.07644, 2.07412, 2.07906, 1.97993, 1.97866, 1.9775, 2.06994, 1.97701, 2.07254, 1.97588, 2.06928, 2.06963, 2.07773, 1.97435, 1.9739, 1.97302, 2.06958, 2.07006, 2.06188, 1.9689, 1.9674, 2.06014, 2.03833, 2.0479, 2.03986, 2.03833, 2.03708, 2.04565, 2.03292, 1.95564, 1.95499, 1.95421, 1.95383, 1.95568, 1.95455, 2.03876, 2.04387, 1.89421, 1.89245, 1.89239, 1.88746, 1.88602, 1.88648, 1.9343, 1.9336, 1.93334, 1.88348, 1.94163, 1.88184, 2.00535, 1.8775, 1.87568, 1.87747, 1.87687, 1.8767, 1.97618, 1.97616, 1.87558, 1.87382, 1.92482, 1.87479, 2.05305, 2.05256, 1.87208, 1.87209, 1.96654, 1.86947, 1.94513, 1.86856, 1.86843, 1.86736, 1.8656, 1.86506, 1.86349, 1.86217, 1.86132, 1.86048, 1.71099, 1.70743, 1.89408, 1.89037, 1.70318, 1.70048, 1.69948, 1.69584, 1.69392, 1.6936, 1.69211, 1.87727, 1.69167, 1.69272, 1.69082, 1.69062, 1.7917, 1.7579, 1.79193, 1.68897, 1.68793, 1.79271, 1.68497, 1.87195, 1.68492, 1.73556, 1.6824, 1.68317, 1.68007, 1.76583, 1.86965, 1.86754, 1.74663, 1.68504, 1.68326, 1.6827, 1.86246, 1.8612, 1.68509, 1.68623, 1.68339, 1.68679, 1.68751, 1.68814, 1.69018, 1.68932, 1.69166, 1.69261, 1.69244, 1.69339, 1.84169, 1.69517, 1.69338, 1.69845, 1.69891, 1.69999, 1.70233, 1.83335, 1.70011, 1.75439
1.93142, 1.93131, 1.93076, 1.93125, 1.93102, 1.92851, 1.92736, 1.92567, 1.92405, 1.97371, 1.92131, 1.9719, 1.97005, 1.97113, 1.97199, 2.011, 2.01284, 2.01263, 1.9156, 1.91439, 2.00758, 2.03178, 1.91158, 1.90984, 2.02388, 1.9073, 1.90876, 1.90387, 1.95486, 1.90321, 1.95394, 1.95277, 1.95364, 1.95151, 1.90245, 2.07946, 1.90079, 1.90062, 2.20193, 2.19487, 2.08855, 2.01459, 1.90321, 2.09062, 2.09017, 1.90499, 1.90505, 1.90592, 1.90733, 2.04554, 2.05212, 2.12811, 2.12681, 2.0494, 2.04976, 2.0365, 2.04587, 2.0323, 2.03465, 1.95307, 2.04677, 2.02593, 2.1251, 2.02517, 2.02063, 2.14109, 1.93989, 2.01427, 2.01656, 2.04544, 2.01021, 2.01041, 2.00753, 1.93114, 2.003, 2.00347, 2.04572, 1.9243, 1.99661, 1.99702, 2.1349, 1.9981, 2.11841, 1.99492, 1.99485, 1.9965, 1.99585, 1.99365, 1.9929, 1.99536, 2.03758, 1.91766, 2.03407, 1.92101, 1.99843, 2.12094, 2.03386, 1.93162, 2.00829, 2.03078, 2.13498, 2.08411, 2.07718, 1.99935, 2.0004, 2.07931, 2.08875, 1.9988, 1.99653, 1.99472, 1.99377, 1.99316, 1.99277, 1.99252, 1.99213, 2.06838, 2.0689, 2.07213, 2.10338, 2.08336, 2.0783, 2.08092, 1.99013, 1.99, 2.0799, 2.07892, 1.98936, 2.08633, 2.08357, 2.08295, 1.98363, 2.08314, 2.06665, 2.07077, 2.07653, 2.0728, 1.97867, 2.06466, 2.06303, 1.97592, 1.97594, 2.06073, 1.97552, 1.97857, 2.07261, 1.97365, 1.97454, 2.06498, 2.05887, 2.06054, 1.97052, 1.96961, 1.96705, 1.96568, 2.0709, 2.05816, 2.0507, 2.05583, 2.04547, 2.04987, 2.03228, 1.95644, 1.95908, 1.95529, 1.95307, 1.95362, 1.95315, 1.95214, 2.02408, 2.02155, 2.08194, 1.89039, 1.88737, 1.98832, 1.88681, 1.88559, 1.88228, 1.88178, 1.93171, 1.93085, 1.92997, 1.97941, 1.87929, 1.87851, 1.87586, 2.07224, 1.87438, 2.06808, 1.97263, 1.87586, 1.873, 1.96582, 1.8727, 1.87324, 1.87119, 1.96911, 1.9689, 1.86943, 1.86826, 1.86633, 1.86832, 1.86774, 1.86531, 1.91732, 1.86479, 1.915, 1.86339, 2.058, 1.85904, 2.04911, 1.70845, 1.89225, 1.7033, 1.70014, 1.69925, 1.88154, 1.6975, 1.69712, 1.69595, 1.69065, 1.68727, 1.87627, 1.87335, 1.68936, 1.68818, 1.87263, 1.87087, 1.77626, 1.68655, 1.68377, 1.68688, 1.68559, 1.68309, 1.68208, 1.6815, 1.68109, 1.67987, 1.6835, 1.68269, 1.77998, 1.78922, 1.68243, 1.68147, 1.86333, 1.67981, 1.8633, 1.68214, 1.68381, 1.68291, 1.68305, 1.68352, 1.85995, 1.85788, 1.85555, 1.68328, 1.68369, 1.78945, 1.84626, 1.84585, 1.79394, 1.84476, 1.84247, 1.83613, 1.83816, 1.83787, 1.69835, 1.69954, 1.83338, 1.83184, 1.75178
1.92745, 1.92786, 1.93093, 2.02872, 1.92818, 2.02924, 2.02782, 1.92265, 1.92085, 1.97264, 1.91822, 1.97335, 2.0135, 2.01342, 1.96875, 1.99468, 2.01007, 2.01013, 1.96393, 1.91348, 1.91116, 1.90986, 2.02727, 1.90879, 1.90914, 1.90749, 2.02467, 2.02482, 1.95422, 1.95425, 1.9532, 1.90281, 2.02451, 1.90096, 1.90096, 1.90035, 1.89944, 1.9491, 1.90017, 2.01438, 1.89898, 1.90051, 1.95474, 1.90315, 1.90267, 1.90369, 1.9046, 1.90719, 2.08593, 1.9687, 2.05306, 2.05178, 2.04557, 1.96269, 2.04625, 2.04723, 1.96009, 2.03226, 2.02907, 1.95223, 2.02546, 2.02452, 2.12555, 2.12376, 2.04455, 2.04583, 2.01562, 2.01419, 1.93643, 2.01015, 2.01092, 2.00842, 2.04498, 2.00475, 2.00411, 2.00329, 2.04542, 2.00061, 2.00082, 2.04537, 2.04794, 1.92002, 2.04159, 2.14233, 1.99357, 1.99418, 1.9969, 1.99077, 2.12481, 1.99221, 2.03754, 1.99479, 1.99304, 1.92008, 1.99706, 1.99697, 2.03207, 2.031, 2.03024, 1.93538, 2.12799, 2.00092, 2.07582, 2.07601, 2.08247, 2.07211, 1.99737, 2.08523, 1.9943, 1.99568, 1.99395, 1.99288, 1.99267, 2.06972, 2.06959, 2.06938, 2.06703, 2.06839, 2.07912, 2.08099, 1.99062, 2.08274, 2.07232, 2.08136, 1.98957, 1.98671, 1.98669, 2.07504, 2.07426, 2.06458, 2.06986, 2.06881, 2.07755, 2.0673, 2.05675, 2.0662, 2.09249, 1.97621, 2.08568, 2.07247, 2.07828, 2.0676, 2.0748, 2.07069, 2.07275, 2.06949, 2.06532, 2.08442, 2.05314, 2.06574, 2.05094, 2.05883, 1.96527, 2.05199, 1.96561, 1.96289, 2.05108, 2.03617, 2.04998, 2.04674, 2.0318, 2.02832, 1.95519, 1.95308, 1.95634, 1.95346, 1.95274, 1.95095, 2.05649, 2.06058, 1.89274, 2.07598, 1.88904, 1.9368, 1.93501, 1.94144, 1.88144, 1.88234, 1.98202, 2.05858, 1.87892, 1.92782, 1.87637, 2.07642, 2.06811, 1.87539, 2.06936, 1.87665, 1.97393, 1.97266, 1.97127, 1.96413, 1.87182, 1.86886, 1.86653, 1.96929, 1.86994, 1.86657, 1.8664, 1.86497, 1.86176, 1.86597, 1.86373, 1.8624, 1.8609, 1.86187, 1.91041, 2.05856, 1.85863, 1.85775, 1.70749, 1.88714, 1.79915, 1.69899, 1.69884, 1.69931, 1.69333, 1.6911, 1.69215, 1.78593, 1.68847, 1.68952, 1.68894, 1.87533, 1.68539, 1.68588, 1.68274, 1.68226, 1.87309, 1.68172, 1.68309, 1.68391, 1.68313, 1.68255, 1.68186, 1.68142, 1.68117, 1.86241, 1.68095, 1.68021, 1.68083, 1.68025, 1.6819, 1.86875, 1.67914, 1.86554, 1.86426, 1.68024, 1.67828, 1.68246, 1.68191, 1.68005, 1.68231, 1.85138, 1.84853, 1.68563, 1.68475, 1.80094, 1.79822, 1.68675, 1.68991, 1.69216, 1.79928, 1.68891, 1.69538, 1.83247, 1.69629, 1.69824, 1.82524, 1.6994
1.93026, 1.92868, 1.92799, 2.02948, 2.1074, 1.92722, 1.92207, 1.92348, 2.02962, 1.91887, 1.91637, 1.91963, 2.01035, 1.91654, 1.91743, 1.96661, 1.99928, 2.0021, 1.91318, 1.9119, 1.91074, 2.20116, 1.91085, 2.19762, 1.90762, 2.02364, 2.02786, 1.90472, 1.90541, 1.90176, 1.90371, 2.01996, 1.90026, 1.89945, 2.07754, 1.9492, 1.95035, 1.96516, 1.94796, 1.89834, 1.94883, 1.94876, 1.95007, 1.95266, 1.901, 1.90351, 2.01355, 1.90572, 1.95823, 2.04497, 2.04227, 2.12801, 2.04783, 2.04819, 2.03707, 1.95848, 2.03071, 2.03033, 2.02934, 2.02807, 2.02672, 2.02461, 2.02431, 2.01857, 2.04348, 2.02021, 2.02031, 2.12098, 2.04438, 2.04428, 2.01054, 2.00669, 2.0067, 1.92912, 2.00287, 2.13905, 1.99951, 1.92125, 1.99656, 2.12484, 1.9174, 1.91774, 2.04035, 1.99173, 1.99159, 1.91451, 1.91426, 2.03733, 2.0364, 2.03445, 1.99294, 1.91679, 1.99487, 1.9209, 1.99695, 1.9219, 2.12027, 2.02825, 2.02826, 2.01729, 2.01727, 2.09505, 2.10199, 2.09677, 2.10065, 2.07433, 2.11491, 2.0729, 2.07736, 1.99281, 2.07297, 2.07273, 1.99154, 2.07376, 2.06567, 2.09772, 2.09609, 2.06564, 2.07424, 2.08321, 2.06804, 2.07069, 2.06897, 2.07447, 2.07084, 2.06964, 2.07645, 2.07046, 2.06616, 1.9825, 2.08446, 2.0844, 1.97929, 2.06838, 2.07378, 2.0876, 1.97719, 2.05948, 2.07384, 1.97385, 2.04846, 1.97271, 2.06552, 1.97335, 2.061, 1.97192, 1.97202, 2.05839, 2.05929, 2.0618, 2.05829, 2.05657, 2.05714, 2.05179, 2.05301, 2.05226, 2.0471, 2.04745, 2.04777, 2.05261, 2.03212, 2.02903, 1.95504, 1.95595, 1.95413, 1.95103, 1.95389, 1.9512, 2.04029, 2.02161, 1.89138, 1.89002, 1.88899, 1.93464, 1.93402, 1.88346, 1.8825, 1.88124, 1.88028, 2.07846, 2.08028, 1.87642, 1.92507, 1.87618, 1.87479, 1.8752, 1.97312, 1.873, 1.8719, 1.87036, 1.87078, 1.87085, 1.86874, 1.86895, 1.86933, 1.86894, 1.95813, 1.8655, 1.86615, 1.86234, 1.86198, 1.9563, 1.86191, 2.06326, 1.86173, 1.85784, 1.86124, 1.85796, 1.85693, 1.85594, 1.7052, 1.80035, 1.79702, 1.69871, 1.78925, 1.69344, 1.87907, 1.69213, 1.6916, 1.69072, 1.7682, 1.68868, 1.6872, 1.68483, 1.73514, 1.68304, 1.68234, 1.68249, 1.68017, 1.68152, 1.68204, 1.68187, 1.68153, 1.68212, 1.73107, 1.72995, 1.68006, 1.68015, 1.67853, 1.67658, 1.67953, 1.6772, 1.67724, 1.67807, 1.67851, 1.68, 1.67895, 1.85436, 1.6786, 1.85831, 1.6816, 1.68094, 1.85433, 1.84945, 1.68068, 1.68132, 1.84368, 1.68426, 1.68358, 1.68673, 1.83901, 1.84049, 1.69235, 1.69261, 1.83672, 1.69345, 1.82242, 1.82795, 1.76523, 1.69937
1.9278, 1.92704, 2.02993, 2.03134, 1.92497, 1.92496, 2.02811, 1.92187, 2.20305, 1.91978, 1.92171, 2.02925, 1.91921, 1.91708, 1.91603, 1.91702, 1.91162, 1.91301, 1.96128, 1.96141, 1.96007, 1.95932, 1.95913, 1.90948, 1.90653, 1.90722, 2.02693, 1.9032, 1.90357, 1.90194, 1.90344, 1.89984, 1.89997, 1.9026, 2.1791, 2.023, 1.89668, 1.89841, 1.89935, 1.94764, 1.89923, 1.89927, 1.96086, 1.96063, 1.90233, 1.90178, 1.90373, 1.90533, 1.90638, 1.96836, 2.04096, 2.13522, 2.04433, 2.0442, 2.04486, 2.04556, 2.04401, 2.02924, 2.029, 2.02938, 1.94769, 1.94632, 2.02311, 1.94431, 1.9415, 1.94084, 1.9415, 1.93719, 2.04334, 2.00731, 2.01046, 2.00657, 2.14581, 2.0044, 2.00195, 2.00091, 2.13502, 2.04201, 2.0414, 1.99411, 1.917, 1.99024, 1.99091, 1.99022, 1.99109, 1.9895, 1.98994, 1.99121, 1.91437, 1.9902, 2.03327, 2.03375, 2.03198, 1.91996, 2.03119, 1.99974, 2.00133, 2.00356, 2.00684, 1.93196, 2.11506, 1.99947, 2.08321, 2.08396, 2.0701, 2.09983, 2.06936, 1.99284, 2.07075, 2.07211, 1.99064, 1.98924, 1.99021, 1.98997, 2.08336, 1.98671, 1.98912, 2.07936, 2.08264, 1.98687, 2.08108, 2.08237, 2.07883, 2.07913, 2.07169, 2.07296, 2.07489, 2.06573, 2.07337, 2.07325, 2.06658, 2.07112, 2.06414, 2.06976, 2.05123, 2.06616, 2.07233, 1.97538, 1.97596, 1.97451, 1.97434, 1.97213, 2.0657, 2.07257, 1.97354, 2.06914, 2.0674, 1.96988, 1.96794, 2.05933, 2.06921, 2.05596, 2.07208, 2.05009, 2.05413, 2.0574, 2.06005, 2.05284, 2.05807, 1.95653, 2.0278, 2.03858, 1.95259, 1.95432, 1.95143, 1.95163, 1.94944, 1.95053, 2.04436, 2.03953, 1.88909, 1.88918, 1.88619, 1.88545, 1.88301, 1.88283, 1.88148, 1.87903, 1.87736, 1.87895, 1.8742, 1.92469, 1.92385, 1.92342, 1.87375, 1.96754, 1.87025, 1.96484, 1.9834, 1.98225, 1.86922, 1.8692, 1.966, 2.07351, 1.96933, 1.86515, 1.86453, 1.86415, 1.86488, 1.86519, 1.85951, 1.85808, 2.05567, 1.85873, 1.90984, 1.90733, 1.85765, 1.8557, 1.85445, 1.85291, 1.70278, 1.70081, 1.69801, 1.69372, 1.88001, 1.69089, 1.68978, 1.69039, 1.68906, 1.68857, 1.68806, 1.68539, 1.76461, 1.77218, 1.73363, 1.6852, 1.87026, 1.86953, 1.86804, 1.67977, 1.68008, 1.91726, 1.67935, 1.72881, 1.67668, 1.67621, 1.73075, 1.67855, 1.85906, 1.86237, 1.86086, 1.67543, 1.67526, 1.67484, 1.67548, 1.67666, 1.67582, 1.67649, 1.67854, 1.67781, 1.6774, 1.67834, 1.67691, 1.67937, 1.67877, 1.84727, 1.84416, 1.8407, 1.78308, 1.68714, 1.83782, 1.83652, 1.68867, 1.69192, 1.69345, 1.69267, 1.82143, 1.69438, 1.69706, 1.69687
1.92704, 1.92826, 1.93071, 1.92814, 2.18159, 1.92362, 1.92152, 1.91886, 1.92177, 1.921, 2.01884, 1.91646, 1.9179, 2.19434, 1.91407, 1.91671, 1.91169, 2.0155, 1.91007, 1.91128, 1.95946, 1.90915, 1.90772, 1.95814, 2.02162, 1.90381, 1.90192, 1.9013, 2.02181, 1.90222, 1.94862, 2.01329, 1.89933, 1.89956, 2.20482, 2.02141, 2.01292, 1.89558, 2.02884, 1.8971, 2.01092, 2.06902, 1.89946, 2.00707, 1.90292, 2.17448, 2.07647, 2.07954, 1.90679, 2.04668, 2.04101, 2.04877, 2.03605, 2.04419, 2.03522, 2.03614, 2.0453, 2.04632, 2.02859, 2.02882, 2.04436, 2.02347, 2.04404, 2.01775, 2.04321, 2.014, 2.01593, 2.12871, 2.01168, 2.00823, 2.00737, 2.00692, 2.00415, 2.0006, 2.00059, 2.11748, 1.99685, 1.99733, 1.91937, 1.99204, 2.03947, 2.12929, 1.99279, 1.98983, 1.91389, 1.99177, 1.91094, 1.91145, 2.11519, 2.12923, 1.9911, 2.11378, 2.0304, 1.92054, 1.99679, 1.9973, 1.92328, 1.92552, 2.0064, 2.02646, 2.11516, 2.08263, 2.07998, 2.08062, 2.08667, 2.07624, 2.07368, 2.06979, 1.9902, 2.07249, 2.066, 2.06802, 2.06344, 1.98927, 2.06608, 2.07287, 2.06381, 2.06352, 2.06893, 2.07523, 1.98709, 2.06262, 2.06723, 1.98459, 1.98346, 2.05539, 2.07397, 2.07602, 2.07926, 2.06577, 2.0698, 2.08318, 1.97878, 1.97705, 2.06979, 1.97634, 2.06654, 2.06171, 2.07101, 2.06971, 2.06582, 1.9716, 1.97295, 2.05888, 2.05584, 2.06294, 2.06314, 1.96831, 2.07227, 2.04425, 2.05654, 1.96623, 1.96523, 2.05152, 2.05165, 2.04659, 2.05587, 2.04614, 2.04538, 2.0431, 2.04675, 2.02972, 1.95314, 1.95226, 1.951, 1.95168, 1.94948, 1.94874, 1.95141, 1.94765, 1.9656, 1.88779, 1.88631, 1.8838, 2.05165, 1.87933, 1.87911, 1.98337, 1.87766, 1.87633, 1.87499, 2.07211, 1.99298, 1.9911, 1.97855, 1.97544, 1.91993, 1.86886, 1.96927, 1.98668, 1.86574, 2.06927, 1.86515, 2.05809, 2.05621, 1.86427, 1.96381, 1.96301, 2.0459, 1.85819, 1.85848, 2.04334, 2.06666, 1.85634, 1.85469, 1.85502, 1.85293, 1.95764, 1.84945, 1.85086, 1.70044, 1.69764, 1.87818, 1.8784, 1.69116, 1.68895, 1.68977, 1.68878, 1.87134, 1.68429, 1.68487, 1.74415, 1.73352, 1.76635, 1.76435, 1.68117, 1.67916, 1.67934, 1.68071, 1.8688, 1.68117, 1.67721, 1.67769, 1.73922, 1.9382, 1.84564, 1.72806, 1.67649, 1.85527, 1.67717, 1.67469, 1.67464, 1.67364, 1.67399, 1.67465, 1.67275, 1.85288, 1.67495, 1.6739, 1.67621, 1.85192, 1.67836, 1.67589, 1.84536, 1.84461, 1.84303, 1.68258, 1.68279, 1.68473, 1.68361, 1.8355, 1.68658, 1.68625, 1.69046, 1.69061, 1.69083, 1.82651, 1.82422, 1.69596, 1.69465
1.9276, 2.1825, 1.92644, 1.9225, 1.92656, 2.02223, 1.92096, 1.92008, 2.02518, 1.91857, 1.92, 2.02604, 2.01799, 1.91454, 1.91427, 2.02322, 1.91228, 1.91077, 2.02031, 2.02187, 1.90989, 1.95766, 1.95537, 1.9571, 2.02045, 2.00618, 2.01434, 1.90108, 2.01441, 2.00366, 1.89968, 1.89819, 1.89811, 1.89595, 1.89631, 1.89562, 2.01746, 1.89667, 2.02702, 1.89451, 2.00736, 1.89883, 1.89678, 2.00934, 1.89907, 1.90151, 1.90003, 2.07964, 2.08013, 2.14926, 2.13137, 1.96053, 2.04454, 2.04445, 2.046, 2.03135, 2.0317, 2.0288, 2.04495, 2.03068, 2.02147, 2.04191, 2.02072, 1.94329, 1.94032, 2.12804, 1.9363, 2.13877, 2.01097, 2.00667, 2.04222, 2.00353, 2.00233, 2.12837, 2.00284, 1.99698, 1.99622, 1.9967, 2.12424, 1.99389, 1.99162, 2.03861, 1.99354, 2.13082, 1.91358, 2.13167, 1.98863, 2.11766, 1.91377, 1.91214, 1.9134, 1.99181, 1.99072, 1.9958, 2.02807, 2.02923, 2.02863, 2.00333, 2.0056, 2.02286, 2.12001, 2.09084, 2.08937, 2.07011, 2.07649, 2.06923, 2.07848, 1.98954, 2.06834, 1.98859, 1.98737, 2.0667, 1.9879, 2.06354, 2.07742, 1.98691, 1.98642, 2.08664, 2.08722, 2.07277, 1.9859, 2.06628, 2.07297, 2.07567, 1.98469, 1.98466, 2.07191, 2.06713, 2.06227, 2.07697, 2.06908, 2.05874, 2.06156, 2.0691, 1.97702, 2.07325, 2.05923, 2.06591, 2.05904, 1.97293, 2.05552, 1.97155, 2.07617, 2.06936, 2.05874, 2.04939, 1.96915, 2.03833, 2.06584, 1.96706, 1.96539, 1.96449, 2.0447, 2.05459, 1.96233, 2.05224, 1.95909, 1.95879, 2.03844, 2.03915, 2.04059, 1.95073, 1.95107, 1.94999, 1.94985, 1.94843, 1.94849, 1.9494, 2.03833, 2.04087, 1.93937, 2.04214, 1.93403, 1.93224, 1.88214, 1.88089, 1.92701, 1.87583, 1.92442, 2.06484, 1.9792, 1.87198, 1.87162, 2.07166, 1.86865, 1.86719, 1.86688, 1.99389, 1.99117, 1.8633, 1.86272, 2.05908, 2.0593, 1.86136, 2.05626, 1.85771, 2.05478, 1.86117, 1.85943, 1.8581, 1.85615, 2.04474, 2.04596, 1.8539, 1.9479, 2.04606, 1.84982, 1.85034, 1.84944, 1.89871, 1.69565, 1.87993, 1.69575, 1.69222, 1.69084, 1.68946, 1.68771, 1.97842, 1.80392, 1.86445, 1.77768, 1.78943, 1.68288, 1.68138, 1.67694, 1.67677, 1.72886, 1.67706, 1.67839, 1.67537, 1.86217, 1.67758, 1.67672, 1.72718, 1.72648, 1.72634, 1.73048, 1.79148, 1.67293, 1.67271, 1.67151, 1.67311, 1.77878, 1.76235, 1.67188, 1.6729, 1.79972, 1.84808, 1.67319, 1.8505, 1.84896, 1.84526, 1.67372, 1.67668, 1.67869, 1.84082, 1.79174, 1.79261, 1.68209, 1.78169, 1.83398, 1.78202, 1.82795, 1.68629, 1.78624, 1.68842, 1.68675, 1.6911, 1.69049, 1.692
1.92362, 2.02812, 1.92391, 1.92437, 1.92183, 1.97221, 1.9232, 1.92087, 1.91921, 2.01864, 1.91487, 2.02676, 2.02525, 2.02079, 2.18446, 1.91019, 1.91094, 1.90959, 1.90871, 1.90944, 1.90719, 1.90953, 1.90701, 1.90349, 2.00342, 2.00284, 2.00969, 1.89984, 1.96163, 1.90076, 1.99385, 1.89802, 1.8979, 2.18743, 1.89452, 1.89672, 2.01644, 2.01402, 2.01453, 2.0892, 1.99979, 1.89654, 1.97203, 2.00658, 1.89861, 1.89928, 1.9022, 1.9025, 1.90332, 2.04428, 2.0439, 2.03826, 2.03728, 2.03984, 2.04447, 2.03134, 2.03014, 2.12024, 2.02812, 2.02647, 2.02376, 2.02224, 2.01962, 2.04106, 2.01594, 2.01457, 1.93584, 2.04138, 2.11755, 1.93111, 2.00666, 2.00523, 2.00372, 1.92389, 1.9993, 1.99986, 2.13538, 1.99572, 2.12041, 1.917, 2.03664, 1.91487, 2.1262, 1.98897, 1.98744, 1.98663, 1.98677, 1.91231, 1.98655, 1.9893, 1.99019, 1.98999, 2.02981, 1.91382, 2.02767, 1.99607, 2.02551, 1.99966, 2.0236, 2.02312, 2.11282, 2.08954, 1.99337, 2.09459, 2.06496, 2.0654, 2.10639, 2.0686, 2.06857, 1.98655, 1.98599, 1.99002, 1.98681, 2.06556, 2.06056, 2.0743, 2.07738, 2.06621, 2.08047, 1.98579, 2.0842, 1.9856, 2.07362, 2.07168, 1.98265, 1.98298, 2.06509, 2.07975, 2.07345, 1.97873, 1.97838, 1.97736, 2.06069, 2.06083, 1.97622, 2.06179, 1.97176, 2.05994, 1.97207, 2.05452, 2.05525, 2.06046, 1.97016, 2.07995, 1.96902, 2.06935, 2.05636, 1.96613, 2.03488, 2.05919, 2.05686, 2.04546, 1.96108, 2.05199, 2.05081, 2.04851, 1.95844, 1.95529, 1.95544, 2.03489, 2.0525, 1.95133, 1.94949, 1.9489, 1.94965, 1.94887, 1.94827, 1.94683, 2.03601, 1.94598, 2.06211, 1.88295, 1.93339, 1.87792, 2.06879, 1.87717, 1.87458, 1.87524, 1.87384, 1.87241, 1.87006, 1.86995, 1.86824, 1.868, 2.07256, 1.86832, 1.86529, 2.06268, 1.86403, 1.85964, 1.86182, 1.86182, 1.96506, 1.96615, 1.96741, 1.91005, 1.85558, 1.90748, 2.06157, 2.06129, 1.95985, 1.85108, 1.95864, 1.85332, 1.95175, 1.8504, 1.84898, 1.84706, 1.84742, 1.79405, 1.69541, 1.69521, 1.92547, 1.9259, 1.68904, 1.68641, 1.78719, 1.68292, 1.68411, 1.68137, 1.68066, 1.67917, 1.67937, 1.8633, 1.79031, 1.7279, 1.67571, 1.77207, 1.67381, 1.67369, 1.67149, 1.67286, 1.67506, 1.67389, 1.6724, 1.67425, 1.72949, 1.72213, 1.67216, 1.67148, 1.67167, 1.67109, 1.67045, 1.67235, 1.67026, 1.67185, 1.67211, 1.67189, 1.84673, 1.84842, 1.67233, 1.67302, 1.67322, 1.77825, 1.8383, 1.67811, 1.83591, 1.6788, 1.68029, 1.9063, 1.68528, 1.6851, 1.82393, 1.68546, 1.68516, 1.6864, 1.82594, 1.68729, 1.82427, 1.6912
2.02809, 1.92598, 1.92681, 1.92323, 1.92368, 1.92116, 1.92257, 1.91819, 1.91853, 1.91555, 2.02532, 2.02226, 2.02323, 1.91466, 2.02477, 2.02181, 2.00987, 1.91052, 1.9071, 2.0094, 2.00989, 1.90471, 2.01816, 1.90324, 1.90421, 1.95221, 2.0057, 2.01189, 1.90223, 1.8976, 1.89912, 1.89776, 1.89632, 1.89697, 1.89685, 1.89431, 2.00449, 1.89273, 1.89253, 2.08655, 1.99783, 1.89641, 1.96963, 2.01303, 2.01282, 1.9508, 1.90001, 2.07639, 2.04582, 1.96518, 2.03858, 2.04489, 2.04087, 2.03469, 2.03378, 2.03211, 2.12184, 2.12106, 2.11888, 2.03938, 2.03948, 2.01863, 2.03854, 2.01702, 2.01466, 2.01429, 2.01304, 2.01285, 2.13451, 2.0381, 2.03816, 2.03962, 2.00313, 2.00065, 1.99923, 1.99858, 1.99769, 1.91699, 1.99289, 1.99277, 1.99071, 1.98901, 1.99041, 1.98953, 2.03639, 2.13234, 1.98703, 1.98599, 1.98649, 1.989, 1.98962, 1.99083, 1.99297, 1.99249, 1.99321, 1.9955, 2.02548, 2.0228, 2.11463, 2.01132, 2.11572, 2.089, 2.08725, 2.08436, 2.08536, 2.08795, 1.99039, 2.07665, 2.06572, 1.98948, 1.98651, 1.9862, 1.98463, 1.98464, 1.98361, 2.07562, 1.98294, 2.05566, 2.07424, 2.07349, 2.07036, 1.9829, 1.98299, 2.07419, 2.07249, 2.0735, 2.06739, 2.0672, 2.07564, 1.97505, 2.06858, 2.0763, 2.06781, 1.97497, 2.06821, 2.07299, 1.97214, 2.05664, 2.06867, 2.06575, 1.97138, 1.96902, 2.06945, 1.96942, 2.05923, 2.04943, 2.04692, 2.0656, 2.05225, 2.05887, 2.05955, 2.05211, 2.05127, 1.96204, 2.05167, 1.95556, 1.9569, 2.03491, 2.04055, 2.0523, 2.04139, 2.02586, 1.9486, 1.94882, 1.94614, 1.945, 1.94751, 1.94402, 2.03727, 1.94539, 1.88588, 1.93414, 1.93165, 1.87682, 1.8763, 1.97329, 1.87306, 1.87173, 1.87065, 1.87018, 1.86818, 1.86706, 1.98053, 1.86568, 1.86469, 1.86281, 1.8645, 1.86151, 1.86198, 1.85914, 1.86075, 1.85908, 1.9645, 1.96353, 2.04819, 1.85445, 1.90576, 2.03574, 1.90386, 2.02241, 1.85036, 1.84834, 1.85019, 1.96771, 1.84803, 1.84545, 2.04614, 1.84431, 1.84282, 1.84152, 1.87208, 1.69097, 1.68895, 1.87157, 1.86985, 1.68309, 1.85084, 1.67955, 1.86508, 1.67886, 1.86856, 1.67932, 1.67572, 1.67666, 1.78699, 1.74859, 1.72423, 1.67411, 1.67453, 1.67463, 1.85249, 1.67203, 1.85298, 1.67002, 1.9651, 1.77148, 1.66996, 1.67095, 1.66973, 1.67171, 1.84994, 1.84885, 1.66873, 1.6684, 1.66892, 1.7758, 1.84744, 1.66875, 1.66844, 1.84267, 1.66926, 1.67191, 1.83933, 1.67181, 1.83744, 1.67457, 1.67657, 1.67642, 1.83385, 1.67874, 1.6782, 1.68223, 1.67957, 1.68082, 1.68291, 1.68527, 1.68617, 1.68549, 1.68578, 1.68927
1.92738, 1.92442, 1.9256, 1.97354, 1.92049, 1.92233, 2.04524, 2.01793, 1.91816, 1.91856, 1.9146, 1.91294, 1.91382, 2.00995, 2.01034, 2.01684, 1.96083, 1.90667, 1.90718, 1.90696, 1.90746, 1.90499, 2.00475, 2.00534, 1.90187, 2.0139, 2.01472, 1.95063, 1.89908, 1.90031, 1.89546, 1.89449, 2.18372, 2.01455, 1.89311, 1.89372, 2.19075, 2.16975, 1.89152, 1.89361, 2.09358, 2.00477, 1.99978, 2.01128, 2.0105, 1.89945, 1.95122, 2.07893, 1.90481, 2.04, 2.04523, 2.04579, 2.12515, 2.04115, 2.04507, 2.03172, 2.12075, 2.12087, 2.11913, 2.02504, 1.94388, 2.0409, 2.01704, 2.01303, 1.93998, 2.01293, 2.12358, 2.01012, 2.03957, 2.04303, 2.12821, 2.03957, 2.00302, 1.99991, 1.99801, 1.99596, 1.99493, 1.99604, 1.99123, 1.99208, 1.98864, 2.0341, 1.98926, 1.98857, 1.98755, 2.11488, 1.98707, 1.98603, 1.98722, 1.98661, 1.98831, 2.02707, 2.02875, 1.9904, 1.99106, 1.99344, 1.99619, 2.1136, 1.92571, 2.1028, 2.11249, 2.07559, 1.99188, 2.09324, 2.07225, 2.07165, 2.07897, 1.98713, 1.98623, 1.98646, 1.98428, 1.98266, 1.98281, 1.98264, 2.05886, 2.0566, 1.98271, 2.0833, 2.07297, 2.07085, 2.07623, 2.08319, 2.07273, 1.97972, 2.0682, 1.9805, 2.06617, 2.06739, 1.97899, 2.06943, 1.97564, 2.0669, 1.97552, 2.06015, 2.06357, 2.05994, 2.0564, 1.97109, 2.06286, 2.05364, 2.05085, 1.9684, 1.96875, 1.96893, 2.05984, 2.05886, 2.0571, 1.96879, 2.05211, 1.96304, 2.0558, 2.03848, 2.04118, 2.05111, 2.05311, 2.03867, 2.03903, 2.02959, 2.0362, 1.95188, 2.03171, 2.02728, 2.03119, 2.02764, 1.94789, 1.95127, 1.94445, 1.94628, 1.94577, 1.94496, 1.88408, 1.88312, 1.88177, 2.0622, 1.87435, 1.98288, 1.9818, 1.9238, 1.97904, 1.97802, 1.86657, 1.86451, 1.97729, 2.07267, 1.86164, 1.86155, 1.90995, 1.90834, 1.85661, 1.85758, 1.90883, 1.85472, 1.8544, 2.05168, 1.85299, 1.95132, 1.94848, 1.85065, 1.85166, 1.85109, 1.84991, 1.84734, 2.04156, 1.96583, 1.95413, 2.04807, 1.8432, 1.94647, 2.04251, 1.9407, 1.69092, 1.87118, 1.87112, 1.68603, 1.68484, 1.73235, 1.73036, 1.68123, 1.67817, 1.6754, 1.67655, 1.67606, 1.9685, 1.85874, 1.85691, 1.76831, 1.76685, 1.67138, 1.67117, 1.67162, 1.67176, 1.67047, 1.66863, 1.66964, 1.85131, 1.6693, 1.66866, 1.85101, 1.66595, 1.66572, 1.80159, 1.79899, 1.66682, 1.66583, 1.66767, 1.66576, 1.6677, 1.66686, 1.66861, 1.66815, 1.66584, 1.67194, 1.67213, 1.67511, 1.7779, 1.83379, 1.72445, 1.67838, 1.77462, 1.77639, 1.82283, 1.6796, 1.68215, 1.78326, 1.68233, 1.81717, 1.68507, 1.81512, 1.81415, 1.81375
2.02753, 2.01742, 1.92353, 1.97249, 1.98115, 1.92099, 2.04331, 1.91691, 1.91687, 1.91646, 1.91429, 1.91521, 1.91431, 1.91296, 2.02048, 1.90908, 1.95832, 1.90818, 1.90716, 1.9051, 1.9072, 1.90748, 2.006, 2.00586, 1.90048, 1.90084, 1.89981, 1.89939, 1.89956, 2.00184, 1.89657, 1.89606, 2.00061, 1.8921, 2.01253, 1.89253, 1.89377, 1.89308, 2.01047, 2.01026, 1.89121, 1.89321, 1.99088, 1.95477, 1.89728, 1.89901, 1.90104, 1.90065, 1.98651, 2.03775, 2.03669, 2.04514, 2.11976, 2.03879, 2.12368, 2.03093, 2.03259, 2.02475, 2.02428, 2.02317, 2.02371, 2.02154, 2.13835, 2.01692, 2.12538, 2.01089, 2.03715, 2.00798, 2.00664, 2.00668, 2.03733, 1.92409, 2.00046, 1.92127, 1.99692, 1.99571, 1.99405, 1.99399, 1.99033, 1.99029, 2.13196, 1.98912, 1.98738, 1.9867, 1.98566, 2.1253, 1.90645, 1.98567, 1.9087, 2.11102, 2.13208, 1.91047, 1.98713, 1.98993, 1.99336, 2.02457, 1.91678, 1.91976, 2.00096, 2.00554, 2.10317, 2.07783, 2.08368, 2.08325, 2.09615, 2.08444, 2.07283, 1.98592, 1.98452, 1.98507, 1.98337, 1.98161, 1.98141, 1.98298, 2.06973, 1.98208, 2.07244, 2.07026, 1.98103, 2.06996, 2.07212, 1.98266, 2.07267, 2.07592, 1.9799, 2.0555, 2.08333, 2.06856, 2.06213, 2.07129, 2.07591, 2.0616, 2.05624, 1.97257, 2.06079, 1.9718, 2.0584, 1.9696, 1.96981, 2.0595, 2.05439, 1.96647, 1.96824, 1.96743, 2.05938, 2.05676, 2.04893, 2.06389, 1.96208, 2.0538, 1.96238, 1.9606, 1.95949, 1.95878, 2.04863, 2.05721, 2.0451, 1.95375, 2.03496, 1.95265, 2.03735, 2.0244, 2.0274, 2.02625, 2.02472, 2.02331, 1.94546, 2.02506, 2.0427, 2.04903, 1.8856, 1.87998, 1.87827, 1.87662, 1.874, 1.98136, 1.97917, 2.0376, 1.97668, 1.86654, 1.97839, 2.07624, 1.97318, 2.06998, 1.86001, 1.85832, 1.85721, 1.90644, 1.91312, 1.91188, 1.85379, 1.8519, 1.94451, 1.96529, 1.85098, 1.95827, 1.94503, 1.8989, 1.84718, 1.8462, 1.84568, 1.8452, 1.95257, 1.94138, 1.84443, 1.84079, 1.83836, 1.94661, 1.94397, 1.83598, 1.69089, 1.68879, 1.8493, 1.73367, 1.68243, 1.67857, 1.74543, 1.67914, 1.86074, 1.67596, 1.67202, 1.66809, 1.76865, 1.77211, 1.67029, 1.67161, 1.76641, 1.90303, 1.66935, 1.66923, 1.66652, 1.66779, 1.66642, 1.66648, 1.6681, 1.66758, 1.66794, 1.66835, 1.66349, 1.66529, 1.66436, 1.6681, 1.66444, 1.79006, 1.71668, 1.66439, 1.6632, 1.66809, 1.6684, 1.71852, 1.66945, 1.6679, 1.83499, 1.67108, 1.67029, 1.83211, 1.67358, 1.82746, 1.67541, 1.77274, 1.67717, 1.67763, 1.67919, 1.77453, 1.68038, 1.6771, 1.81446, 1.6835, 1.68326, 1.6826
2.02392, 1.97272, 1.97272, 1.96957, 1.92054, 1.96937, 1.96798, 2.09727, 1.91515, 1.9169, 1.91359, 1.91256, 1.91141, 2.01622, 2.0176, 1.90816, 1.90618, 2.02024, 2.02101, 2.01727, 1.90498, 1.90619, 2.01912, 2.01971, 1.90213, 1.90247, 1.90027, 1.89765, 1.89958, 1.99952, 1.9497, 1.9501, 1.89152, 2.01254, 2.01528, 1.89266, 2.19963, 1.89247, 2.00052, 2.08535, 1.89158, 1.89271, 1.89195, 1.95113, 1.89646, 2.08268, 2.08199, 1.98982, 1.95336, 2.03515, 2.03661, 2.12904, 2.03241, 2.03081, 2.02992, 1.95185, 2.03147, 1.94935, 2.02449, 2.02241, 1.94407, 2.01665, 2.03695, 2.01376, 2.11512, 2.03469, 2.03845, 2.03777, 2.1259, 2.00495, 2.00349, 2.00052, 2.00025, 2.03281, 1.99978, 1.99497, 1.99278, 1.99191, 1.91335, 1.99412, 1.98769, 2.11855, 1.98597, 2.0313, 2.03074, 1.90822, 1.98573, 1.90784, 1.98783, 1.98568, 2.02727, 1.98602, 1.98765, 1.98903, 2.11207, 2.11311, 2.1118, 2.02213, 2.00345, 1.92496, 2.10858, 2.07232, 2.07201, 2.06643, 1.98761, 2.08382, 2.06281, 2.0634, 1.98225, 1.98657, 1.98198, 1.98048, 1.98002, 1.98, 2.07137, 2.07293, 2.06851, 2.0805, 2.07979, 2.07226, 2.06872, 2.07982, 2.06979, 2.06184, 2.06706, 2.06908, 2.06578, 2.06054, 2.05915, 2.06574, 2.06984, 2.06749, 1.97373, 1.9717, 2.06047, 2.05545, 2.06078, 1.96838, 2.06215, 2.06904, 1.96856, 1.96846, 2.05477, 2.05035, 2.05187, 2.07301, 2.04507, 1.96171, 2.05312, 1.96059, 1.96138, 2.04951, 1.95738, 1.95853, 2.05579, 2.04293, 1.95336, 2.02758, 2.05163, 2.0376, 2.05579, 1.94631, 1.94543, 2.02249, 2.02399, 1.94208, 1.94236, 1.94124, 1.94342, 2.05145, 1.88117, 1.87865, 1.96875, 1.87317, 1.96893, 1.97191, 1.97366, 1.86715, 1.86526, 1.96639, 1.86192, 1.94765, 1.859, 1.8582, 1.90594, 2.04438, 1.90455, 1.90434, 1.92991, 1.92865, 1.84943, 1.84991, 1.84877, 1.95476, 2.04998, 1.84568, 1.8455, 1.89574, 1.89403, 1.89446, 1.89387, 1.89175, 1.84088, 1.83841, 1.94955, 1.83754, 1.8363, 1.8345, 1.83264, 1.83346, 1.68694, 1.68599, 1.80758, 1.97059, 1.68153, 1.67914, 1.6777, 1.67611, 1.72504, 1.67274, 1.67219, 1.79791, 1.79568, 1.67063, 1.66832, 1.76499, 1.6692, 1.66718, 1.66735, 1.85029, 1.66579, 1.71676, 1.66354, 1.84467, 1.66804, 1.66545, 1.66226, 1.84513, 1.84439, 1.66567, 1.66235, 1.66296, 1.66459, 1.78947, 1.66443, 1.66141, 1.83759, 1.7939, 1.66353, 1.72112, 1.71925, 1.71673, 1.71991, 1.66551, 1.66821, 1.6712, 1.67206, 1.67336, 1.67589, 1.6758, 1.67544, 1.77285, 1.81696, 1.67875, 1.67827, 1.81297, 1.68261, 1.68105, 1.68554, 1.68165
1.91898, 2.02144, 1.96982, 1.91886, 1.91961, 1.91797, 1.96814, 2.0962, 1.98928, 1.9117, 2.18431, 2.02038, 2.01095, 1.90992, 2.0179, 2.01548, 1.95906, 1.95961, 2.0205, 2.02176, 1.90132, 1.95247, 1.90235, 1.95134, 1.9512, 2.00658, 2.00808, 1.89995, 1.89982, 1.89523, 1.89245, 1.89301, 1.89061, 1.89054, 1.89237, 1.89211, 1.88893, 1.89007, 1.89139, 1.88934, 1.8925, 1.89295, 1.94394, 1.89205, 1.89341, 1.89757, 2.07291, 2.06988, 2.03858, 2.03754, 2.03496, 2.03502, 2.04126, 2.03821, 2.11943, 2.03716, 2.03815, 2.02354, 2.02285, 2.0372, 2.03919, 2.01731, 2.01795, 2.03801, 1.93743, 2.01081, 2.00839, 2.00706, 2.00395, 2.00325, 2.03479, 2.03442, 1.9208, 1.9197, 1.99402, 1.99354, 1.99337, 1.91548, 1.98983, 2.10885, 1.98804, 1.98676, 1.9861, 1.91023, 2.02889, 1.98985, 1.98569, 1.98461, 1.98359, 1.98338, 1.90975, 1.9835, 1.98704, 1.98745, 2.02467, 2.01893, 2.01944, 1.99269, 1.99864, 2.11157, 2.11212, 2.09239, 2.07956, 2.08222, 2.07681, 2.07802, 2.06318, 1.98311, 1.98314, 1.98207, 1.97892, 1.97859, 1.97889, 1.97967, 1.97902, 1.97836, 2.05518, 1.97971, 1.97839, 2.07214, 2.06928, 2.07273, 2.07, 2.06898, 2.05281, 2.06911, 2.05979, 2.06586, 2.06704, 2.04673, 2.07959, 2.0464, 2.06197, 2.05224, 2.05292, 2.06195, 2.04723, 2.05847, 2.0634, 2.04941, 2.04129, 2.05507, 2.04588, 2.05161, 2.03945, 2.04341, 2.05773, 2.05127, 2.0619, 1.95939, 2.05695, 2.04585, 2.0459, 2.0684, 2.04566, 2.05046, 2.04795, 2.04391, 2.0515, 2.04136, 2.02753, 2.02582, 2.02544, 2.02477, 1.94585, 2.01877, 1.94007, 1.93965, 1.94071, 2.02858, 1.87926, 1.87631, 1.96543, 1.86998, 1.86935, 1.9176, 1.86544, 1.96867, 1.97307, 1.85902, 1.85873, 1.85804, 1.85615, 1.85419, 1.8539, 1.90267, 2.05233, 1.84965, 1.89918, 2.0355, 1.89657, 1.84551, 1.84506, 2.05821, 2.04538, 1.96149, 1.84018, 1.89059, 1.89001, 1.84102, 1.91536, 1.83785, 1.94839, 1.83576, 1.94871, 1.83366, 1.92741, 2.03587, 1.82987, 1.73717, 1.68543, 1.73333, 1.80397, 1.67829, 1.67882, 1.85843, 1.67531, 1.67307, 1.72374, 1.72105, 1.72022, 1.71956, 1.72039, 1.8473, 1.66778, 1.66799, 1.84753, 1.66315, 1.71464, 1.65969, 1.66433, 1.84539, 1.84482, 1.66355, 1.84216, 1.83945, 1.75396, 1.75076, 1.83831, 1.83967, 1.83728, 1.65966, 1.71051, 1.71208, 1.71084, 1.66085, 1.65788, 1.83239, 1.66154, 1.88251, 1.66297, 1.75024, 1.66441, 1.81658, 1.94287, 1.67035, 1.67143, 1.82032, 1.67471, 1.9395, 1.81825, 1.67293, 1.67342, 1.67534, 1.67475, 1.8148, 1.67743, 1.77344, 1.67858, 1.91696
1.92377, 2.01522, 1.91883, 1.9933, 1.91783, 1.91772, 2.01349, 1.91613, 2.01234, 2.01771, 1.91195, 1.90973, 1.90978, 1.91005, 1.90877, 1.90739, 1.95854, 1.95638, 1.90628, 1.90226, 1.90354, 1.90308, 1.95097, 1.94944, 1.94851, 2.01013, 2.01193, 1.89746, 1.90008, 1.89223, 2.00763, 1.88985, 1.89044, 1.89398, 1.94076, 1.93963, 1.8913, 1.98999, 1.93921, 1.95254, 2.02316, 2.02335, 1.97419, 1.94408, 1.94508, 1.89358, 1.89845, 1.89952, 1.90015, 2.03828, 2.04033, 2.04104, 1.95465, 2.02847, 2.03518, 2.02594, 1.94788, 2.02352, 1.94447, 2.03839, 2.01771, 2.03367, 2.01501, 2.11806, 2.11166, 1.93165, 2.00686, 2.00738, 2.00538, 2.10699, 2.12409, 2.11747, 1.99727, 1.91927, 1.91708, 2.11115, 2.11373, 1.98943, 1.99006, 2.13117, 1.98956, 1.98916, 1.98915, 2.11514, 1.90616, 2.02797, 1.98252, 1.90683, 1.9804, 1.98112, 1.98284, 1.98615, 1.98442, 1.98997, 1.99276, 1.9913, 2.11464, 1.99622, 1.99656, 2.01641, 2.09473, 2.09116, 2.06592, 2.07704, 1.98482, 2.08674, 1.98184, 2.05608, 1.98165, 1.97923, 1.97905, 2.05191, 1.97691, 1.97749, 1.97585, 2.08588, 2.0547, 2.07631, 2.08555, 2.07049, 2.06701, 2.07652, 1.97567, 2.0551, 2.07064, 2.06195, 1.97389, 2.06015, 1.97263, 2.05703, 2.05604, 2.04556, 2.04885, 2.05523, 2.04501, 2.04757, 2.04445, 1.96651, 2.04623, 2.03994, 2.05568, 1.9658, 2.05884, 2.05984, 2.05325, 2.05269, 2.05644, 2.04859, 2.05859, 2.04643, 2.05164, 2.04174, 2.06211, 1.95519, 2.03823, 2.04057, 2.03956, 2.03954, 2.0492, 2.02457, 2.03768, 2.04462, 2.02545, 1.94431, 1.94362, 1.94195, 1.9423, 1.93922, 2.03502, 1.94164, 1.87851, 1.87494, 1.87497, 1.86875, 1.86757, 1.97647, 1.86313, 1.86072, 1.86105, 1.8575, 1.96862, 1.85452, 1.85299, 1.85176, 1.85336, 1.84835, 1.84776, 1.8473, 2.04914, 1.84558, 1.84324, 2.05927, 1.95871, 1.84038, 1.95894, 1.95808, 1.93146, 1.95377, 1.83549, 1.95305, 1.93281, 1.83424, 1.83226, 1.94658, 1.83123, 1.82982, 2.04262, 2.04083, 1.82691, 1.73471, 1.73382, 1.73251, 1.72967, 1.6783, 1.67703, 1.77251, 1.67175, 1.67135, 1.66936, 1.66822, 1.83513, 1.83318, 1.66569, 1.84482, 1.66222, 1.66759, 1.66117, 1.77146, 1.71467, 1.73042, 1.8439, 1.65772, 1.66177, 1.66033, 1.66206, 1.83593, 1.83375, 1.77851, 1.77488, 1.65833, 1.83796, 1.71003, 1.65858, 1.79024, 1.78801, 1.82581, 1.83231, 1.66046, 1.66149, 1.83045, 1.82548, 1.66333, 1.66369, 1.66516, 1.82032, 1.66757, 1.81866, 1.673, 1.67172, 1.67109, 1.67484, 1.8176, 1.81481, 1.81013, 1.67597, 1.6779, 1.67583, 1.67591, 1.79029, 1.67642
