1.96609968193476,1.96449447859732,1.90734160553034,1.90809944760767,1.90859743770096,1.9104414876534,1.9115484784243,1.91219148745641,1.91227887801234,1.84162479168026,1.84252463305645,1.91822635166486,1.91837562951349,1.91869238751665,1.95569916169221,1.9560798417304,1.85404698962119,1.86089174861458,1.95574967099082,2.05157358760202,1.9997988321419,1.99985316962006,1.92385860594958,1.92384760269921,1.99507646157643,2.00153907751909,1.99928401276172,1.99730125278612,1.91746801210915,1.91739777595792,1.91844366698479,1.91635007450117,1.91932407194762,1.9121471993953,1.91373591794413,2.01594722515098,2.00792839822246,2.00085081978894,2.00170667796301,2.00431722291701,1.99505016947916,1.99980740162659,1.91298020591917,1.9136201795654,1.99550395457259,1.99604067580496,1.98848155129047,1.99429037750743,2.01272513320196,1.99553286963674,1.98290011609634,1.9813983793601,1.99919278450603,1.90916590078382,1.98788711895749,1.98256004745192,1.98727804882948,1.90635903072439,1.97985298956006,1.98503738134079,1.97255734559167,1.99059427797528,1.99665507302782,2.0033374939832,1.98987691451403,1.98503757497756,1.9000648188891,1.98051004204618,1.89845437998513,1.97593364341794,1.98739352092353,1.89752711962246,1.89740232547647,1.98384481248317,1.98468291102421,1.97553975588247,1.97595575285205,1.97540247433147,1.97537501313183,1.89205478276525,1.9845119702254,1.98723836878863,1.97784650656182,1.97690523973755,1.97636050816602,1.97719132857678,1.97809350281475,1.88450503043925,1.88315717422573,1.88048922699983,1.88027647695155,1.8764105824256,1.88225697196143,1.87813647462915,1.88040245034388,1.96850501470623,1.96562800796762,1.88886176444156,1.88764138844367,1.85366723454849,1.80221137451951,1.80198324443906,1.98531113784152,1.99023869431052,1.98943922616806,1.99833587610672,1.84034311992807,1.83992764455605,1.83881803624759,1.83686978144072,1.78653396586813,1.83355050782244,1.78477966199794,1.87868747795032,1.78204566549052,1.7811840795875,1.82770509027242,1.77748624840961,1.77596896671161,1.82317772825204,1.77592373654814,1.90319379372447,1.77225150017587,1.7720602642048,1.77216882412551,1.90432631803431,1.97276317947554,1.90085260725468,1.77012261910892,1.76936031065448,1.76783182332596,1.89879058720589,1.76770873050008,1.76654316204115,1.76696941407662,1.76651093486599,1.76662462491629,1.76709958180712,1.76663298026137,1.76549665936088,1.76510489150542,1.76492381879951,1.76188224278758,1.81488538065216,1.69569429518417,1.73886348805415,1.78155709144329,1.80141879427402,1.68714633798023,1.79635104356985,1.7916214429324,1.78952662392492,1.79016313134254,1.79840190791855,1.67920427397669,1.67835561003245,1.79295818947381,1.73121420782171,1.79993417192004,1.66997714960029,1.67015878114506,1.66984010457234,1.8013254606051,1.79993039906204,1.80053063858552,1.66743335815277,1.66689711833657,1.8011657863426,1.66783424079672,1.79797185375585,1.80064091669851,1.80076922437376,1.66629862162795,1.71384321415434,1.79745023078601,1.66728293599248
1.90345056813632,1.89994015751564,1.90160652992611,1.90641899734499,1.90768469030609,1.90932078799264,1.91024213552576,1.91054882212659,1.91152620764949,1.87237054235468,1.86142108365969,1.91963085822844,1.91999019716514,1.92023020535947,1.94789147331129,1.94328225373857,1.93761466203652,1.94338425314376,1.95246732552761,1.97051607092378,2.00983712750141,2.00589781006448,2.00865627850989,2.00793486635415,1.99419966111615,1.99395762299345,1.99730155817565,1.99289865765622,1.9198487849602,1.91825845678858,1.91896802005949,1.91852318819949,1.91593462308335,1.9161398700338,1.93193993811139,1.94401786576014,2.00382725238022,2.0047819070842,2.0013192660065,1.9989818222159,1.99573783731865,1.9956407212666,1.98065663833137,1.98024905001516,1.98017843975824,2.0011847686772,2.00149423120886,1.99318039347279,1.9969830004418,1.99473456008137,1.9776471368276,1.97667909830894,1.97501535680725,1.97559727025172,1.97732513175564,1.98219372654654,1.99419144259562,1.99111079873377,1.9811168647232,1.98015469308313,1.98639414534414,1.99677288944872,2.00032414267218,1.93600697960123,1.93087930565377,1.92489322853056,1.91803428888052,1.9123189207489,1.90745776814242,1.9786008363043,1.98250926529529,1.9139487704224,1.9238300771166,1.97156291686572,1.96958914108404,1.96754508550356,1.97539706057932,1.97455763272273,1.97370998668026,1.91334691852741,1.98841012280397,1.99092393780067,1.95167082283396,1.95203401218671,1.95285761184024,1.95365806330397,1.91166327943432,1.89988212221985,1.88285802600089,1.88111842473055,1.87999918361291,1.88076349476233,1.87876703008535,1.88088462845797,1.87953639037889,1.9705892230614,1.9671541150349,1.88869194864393,1.88800380088716,1.84005375918899,1.83102826054098,1.81773559688294,1.92117350741411,1.92144317358892,1.91944227205925,1.86258084715743,1.85319811463509,1.84717094089667,1.83661471509482,1.83619767605006,1.83225838906647,1.83240240935741,1.79632704348031,1.80218012461126,1.80991929914945,1.81627629733687,1.82905949001644,1.82926802373045,1.82765611065852,1.82508833215789,1.82835773887129,1.82900050620858,1.77205338198507,1.7716471197604,1.77144797148835,1.8883855045667,1.88042601125554,1.80475781363328,1.76937252564555,1.76932965646302,1.76849108107462,1.76786891866841,1.76735182343464,1.76696330765922,1.76739380702542,1.76719857974246,1.76696968176616,1.76659668155551,1.76642311583124,1.76546584408054,1.76543242300375,1.7647516991694,1.76532690907949,1.78467083115507,1.75711703065781,1.76434261140552,1.77263700719091,1.7361337091846,1.7173883533138,1.7842320504618,1.78407495158261,1.78709103135154,1.7359431077006,1.71855536058314,1.70299440385439,1.72120041079853,1.7581156848626,1.74865058627778,1.72894311607485,1.7123276211953,1.697879126206,1.7158617723568,1.7381575550341,1.72083571449916,1.70384861068538,1.66868113122281,1.66948969267348,1.66921754790153,1.66857254278514,1.79823792349574,1.79874837355625,1.72816754061572,1.71108546135644,1.69818540998343,1.68682262404506,1.66892180359471
1.90791305038041,1.83835441453093,2.0512119410003,1.90782794369039,1.83790711382485,1.91057170434322,1.91155923838111,1.84071464019534,1.9132274001125,1.91372982417795,1.84257017970747,1.91982716257975,1.92006917742276,1.92057145314125,2.04034350891717,1.92632269784109,1.92604994006882,1.95371008747745,1.93457577397294,1.95103134501098,2.01735196991312,1.99876060838867,1.99811101053415,2.00505046498884,1.99346651360681,1.99370118512659,2.00196857726261,1.99447944674221,1.91801926900468,1.92597278812512,1.91527734920769,1.9157791158418,1.91804523826645,1.91442907210751,2.00611080296004,1.90960175995669,2.0135932888918,1.9910958533985,1.98588106065777,1.99917946193917,1.99903327646423,2.00016908832321,1.9993006267131,2.00472985710079,1.9129512820726,1.99481553394623,1.91107482662722,2.01280141499447,1.99900921818172,1.98227279705606,1.978924772197,1.9804160093495,1.97979338056306,1.97948798458449,1.97916147459289,1.97878079533065,1.90707503057071,1.98562265130357,1.97646717144902,1.98984604525025,1.98918263706176,1.90446944287416,1.99064292796981,1.90252180515424,1.90186197605204,1.90116936238389,2.00204721505634,1.89877294313448,1.89777612142982,1.97271301132165,1.97827109449466,1.89733955971992,1.97742120132647,1.98308079877266,1.89351909992989,1.89588653410986,1.9698319609919,1.89113490184729,1.97891617545725,1.89126686772755,1.97878981453836,1.98171647569532,1.88755298720112,1.88775298091489,1.887078778056,1.97272549099663,1.88262683713832,1.95752643712431,1.88208768464427,1.8842563147322,1.87921108196261,1.87386880692926,1.88461005876032,1.87699886445921,1.88006093244098,1.97264919901339,1.95925212745114,1.88772919206678,1.88674112564819,1.80573470415666,1.85098339802463,1.79988998563276,1.98988429096202,1.79868744083628,1.91277060274426,1.7941606157595,1.88169485466683,1.88040054051332,1.79182567594957,1.85656034498784,1.83369257883765,1.83251053082524,1.783494354197,1.78195587766204,1.82881828642249,1.89514123509019,1.89422838161751,1.88725006543578,1.90434539752791,1.7748187922188,1.90453093416199,1.90394087918025,1.77250479650199,1.77126708511417,1.77077929700249,1.90304217419315,1.86316865333036,1.76790320782613,1.76815115660823,1.96700538489559,1.76868849865228,1.76667933017747,1.76622912220584,1.7659301901957,1.98628278306759,1.98532672605564,1.76619899129254,1.76701121511688,1.76520100322028,1.76567605603208,1.81417161354535,1.76468748581947,1.76547059781304,1.814590352911,1.74254639583756,1.80236100923586,1.8015615795145,1.68615097350246,1.68542358705,1.78180152152646,1.68422305901632,1.79044649002185,1.67944629134145,1.67772057582166,1.67712171544838,1.78502400975498,1.77794111343494,1.77670884491323,1.67284289920449,1.79767863859157,1.67114491939358,1.80032436928083,1.80222777244775,1.6675496012978,1.66617465405302,1.66834664355147,1.80302561560856,1.66657993584968,1.66657864749567,1.7979272404317,1.90690542989997,1.66523568562189,1.7976405711027,1.66586408753328,1.66496519178462,1.66415351166289
1.91081165791991,1.91034617446484,1.83952495549297,1.9122945243859,1.91226629186904,1.91140527185747,1.91242141877005,1.91234992503807,1.91394114745454,1.96210256742464,1.91558489478922,1.91511283742984,1.9196846206957,1.91990447543173,1.85051235056128,1.85098820135301,1.92652183033338,2.02622546993412,2.02119957698375,1.95091232486147,2.0164446841361,1.92731808809001,2.02528753368383,2.00294588132789,2.00925109684337,1.92052427726142,2.0121273417472,1.92095915526279,1.91920900959788,1.91504954793827,1.91704999103793,1.92038010728723,1.91299786804308,1.91841577268435,1.91601225215199,2.00498506665456,1.99272628886032,2.00838586079398,1.98595484420011,1.98551122229953,2.00140882987981,1.99916113309704,1.91400481279859,1.99609194193407,1.91532666483701,2.005386387235,1.99904321202186,1.91137842504435,1.99912831306388,1.99372853161882,1.910527063209,2.00172940687403,1.99969766505731,1.99907987223816,1.90716238702526,1.98994207798516,1.99885545100662,1.99176297428125,1.99669716631918,1.98085492686079,1.98314111677256,2.00622514497482,1.98835107030483,1.99647741466148,1.98522408838136,1.98634115382282,1.99824971327427,1.98272498674669,1.98412193101658,1.97969737212444,1.89798918677206,1.89744005990324,1.98573579691606,1.98387902566533,1.97849178606829,1.89446504948584,1.97829966318494,1.97631685486285,1.97867382216005,1.89061012256752,1.89033752718491,1.966064287092,1.88759919979786,1.8873626446211,1.95650300146914,1.95662601676422,1.95991195070539,1.88348726397912,1.88031051855172,1.88434341065295,1.87283655530726,1.88659096586388,1.87242008582118,1.88414722454823,1.87736736116019,1.9509806338661,1.97561831225949,1.94933228592163,1.80734051915883,1.80608334371784,1.80297149520632,1.79958340567982,1.79898567017468,1.99581339182698,1.79355914035603,1.79320328655175,1.79288515920485,1.78887162208764,1.9784448379288,1.78918814783631,1.97189713103458,1.78478308695666,1.83073122809879,1.78018632745416,1.78089103631788,1.89486352665341,1.90420018346322,1.82562059593307,1.77588467060687,1.8974835842237,1.77278987953975,1.7720380404246,1.82009001065031,1.8191653766235,1.81791965624938,1.90323512697528,1.90347921044022,1.90341837623085,1.76708642427844,1.90333654838751,1.7648861745562,1.76560259503808,1.85057421317486,1.76595778669772,1.98786967268666,1.76622228055747,1.76659018138693,1.7652631884428,1.76735901067343,1.76640156043283,1.7660836211376,1.99109295197301,1.76569003476413,1.76622903664447,1.76478059041634,1.69134502611414,1.73693151887596,1.6857877324625,1.68478391034597,1.68454194065904,1.68396742401021,1.68036825420559,1.67691827448566,1.6758681159877,1.67346531196414,1.6753861075481,1.67376470015485,1.67254516605465,1.67160365724107,1.84518758221246,1.67119042061222,1.66708613453832,1.67033722091182,1.66619273535226,1.66625991237065,1.66315567441689,1.80359029188141,1.66608315425096,1.66486036176283,1.79872326553465,1.66467052688581,1.66502032758823,1.66587541877017,1.66548511085584,1.6659851131133,1.66481985152913
1.90966710895411,1.91009687676364,1.91013073810821,2.04809035980655,1.83885636184391,1.91177498904157,1.91276061754468,1.9123730581784,1.91192716120762,1.95867954938297,1.9155450816798,1.91507097694039,1.95502341169841,1.92071005549401,1.92159168946764,2.04772871320483,1.92686393513032,1.92638811027461,1.95298411575415,2.05006035323528,1.92607767642884,1.92615098820998,1.99458695703883,1.99537083484794,2.00890188924691,1.99676794629787,2.00995033730385,2.00645799195524,1.91809723475967,1.91775830849808,1.92016278268319,1.91348575689733,1.92048190827929,1.91486845608587,1.91630905485923,1.99814159132964,1.91580383740745,1.98861856245132,2.01530872706475,1.91476648267069,1.99640521298112,2.00856572083727,1.91486589069791,2.00704137339719,1.99594176136817,2.00835257033605,1.99807878097959,1.99865937450342,1.91292018160956,1.99541276558333,1.91009093511346,1.90941559387033,1.90930200731808,1.90819178442698,2.01232555320114,1.99980107854868,1.98420254768578,1.90705930350229,2.01151647548205,1.98646277577221,1.99189209259855,1.9906253388338,1.98728576891487,1.98315562320671,1.90146169454468,1.98843699746932,1.90076695267598,1.89985331915586,1.97818738955119,1.98328092752753,1.98335844077226,1.89699941712526,1.99586683661812,1.97072662967526,1.98271044590439,1.89399297238737,1.98273686851466,1.98042746386632,1.97029040146299,1.89025886746492,1.8904121865928,1.97226346084861,1.97079112495711,1.98225259422301,1.97173032003337,1.97295598654552,1.95904982368373,1.95901838854753,1.8827712116192,1.87530473389205,1.88661499724833,1.87146615957653,1.88582533382171,1.87405797115081,1.88051530479246,1.96008297315001,1.95923071199622,1.80947974209928,1.85411829967687,1.85333029770706,1.80217386434354,1.80243119898534,1.79782822291831,1.79807371652215,1.9095083334435,1.91009838842525,1.79225076189716,1.79086650959663,1.78949325222255,1.78893494270953,1.9065951159166,1.91267001232108,1.91037569702061,1.90960116780329,1.77904675759172,1.78014346547441,1.77851800825439,1.88829013370222,1.99232064701568,1.77440980328017,1.7737037430251,1.82043598918904,1.81978708131527,1.81951959507067,1.81917631855652,1.81824116770481,1.76956210715658,1.76928263255637,1.76899556344468,1.76835936920816,1.76654085594323,1.76758703923186,1.76649145442944,1.76738436344089,1.76623672121026,1.76628503205706,1.76567450569305,1.76639613785221,1.76557563880932,1.76700351901983,1.81413355195579,1.76597097064738,1.76597389234899,1.88735747937566,1.7922736450558,1.79191526551701,1.68663080581722,1.68550253249965,1.6839442627796,1.79779284306882,1.79653659697865,1.68059422675246,1.67735162963961,1.67424505171062,1.67281189208906,1.80081925381699,1.67205923047086,1.67238159206973,1.67150041737501,1.66958650453442,1.71633035932916,1.6689178019868,1.66328959330479,1.66739598700728,1.66613132025789,1.66522934123363,1.66376466076919,1.66235644373703,1.66418513235846,1.79580707478468,1.66552902515711,1.80009596118804,1.66133044989246,1.66337951950413,1.75683160720432,1.66450232426886
1.91029936139069,1.96459757984369,1.8385791102817,1.83828569376372,1.83948902387123,1.9620946047249,1.83837345016776,1.91206751028356,1.91225801134344,1.84256094781761,1.95715527269993,2.04218029297325,1.91656041352701,1.95712668611817,1.92244469133723,1.92589179104217,1.92692075067528,1.95282465711532,1.95347774712244,2.03253958420735,1.92651759780344,2.02890402246189,2.00757479775371,1.99566633687728,2.03203510688646,2.00301190729957,2.01678174627752,1.9204327192664,1.91941600360153,1.99137846244805,1.91700461906868,1.91963855985354,1.91428048472858,1.91743280104427,1.91495800189827,1.91595153987352,2.0053304076616,1.91422707210752,2.0103889573876,1.99665754433026,2.00202161045198,2.00138204547148,1.91453752496632,1.99683689518978,1.99750897581862,2.00972425350951,2.01133811011186,1.98246062480663,1.98159665862077,1.99784741932688,1.97892943774493,1.98082081048591,2.00661518351822,1.97434148222674,1.90746120179877,1.90664274812193,1.97814031423645,1.90639855101933,1.9888183892938,1.90474915628087,1.98139381004556,1.9726169021418,1.97307440823373,1.97302426490527,1.97952245532489,1.90124214533811,1.99893519287198,1.98629286612515,1.98333315089106,1.98741312017076,1.98835991186248,1.97139662778055,1.97164065664664,1.96487860006916,1.99200113186106,1.89410538692422,1.97390932905558,1.98584545600018,1.98744788046665,1.8898258170603,1.95928985759447,1.97625301723077,1.97377258016655,1.97254806393408,1.97011510276039,1.96777834727252,1.95580024160202,1.88147705314261,1.87899618312969,1.88360934709748,1.87531885834572,1.88442029121849,1.87353639401746,1.88124546817746,1.8765336752398,1.96937335646595,1.95428376804307,1.90128087296724,1.85517475439016,1.85220323946843,1.85123305478134,1.80198209980394,1.91136891032641,1.80007379484068,1.79445267491343,1.79325013505104,1.79200850833982,1.79123924393598,1.83719484439265,1.83697278065479,1.78784758812084,1.83223491463118,1.99050289699127,1.78489728950208,1.87226219370352,1.87113694768098,1.98536370844057,1.90216596751615,1.77483783375099,1.90400274007041,1.77496594279368,1.82040459177806,1.82056288099665,1.77077245772817,1.81885787472233,1.77001078631536,1.76992754881297,1.77000243341652,1.76949136664307,1.76834367442613,1.7683367956452,1.7680691849146,1.86080728740462,1.85917504798348,1.86293070100647,1.8612807701942,1.76528043911117,1.8146761210951,1.76652273708825,1.81358154152279,1.76562212895134,1.76645452818551,1.76681025344284,1.81482827128422,1.79994080542217,1.79745799734143,1.78516142660996,1.68357773762075,1.73361010610427,1.67992965418191,1.67914392929414,1.79848758493751,1.91602273106953,1.6757302163536,1.67414188649374,1.89232536164133,1.67081771800905,1.80220873870332,1.66949551775389,1.66836000727274,1.71459191776958,1.66348954492961,1.66545534136548,1.66326203430171,1.66464287600046,1.6640699329165,1.6635839537087,1.66402681346636,1.79884917740351,1.7581731079647,1.80038145010621,1.65877169351914,1.66010267859162,1.66303853887673,1.71082383676301,1.71034597568299
1.90815829093701,1.90763555142815,1.83858292591,1.8385349514517,1.86193610191429,1.90724771964022,1.90920920017895,1.90931124776084,1.90792486639913,1.90683855783705,1.90646669382123,1.90910235377253,1.91437013490663,1.94822636343792,1.92287346028996,1.92500568444607,1.94235063690715,1.94792744797283,1.95059766530168,1.9620227547439,1.97269313905183,2.0237870280806,2.01641521717582,2.01066434748501,2.00970587052017,2.00559821798316,2.00740328021263,1.9884528847645,1.98925674060848,1.99028037287583,1.94021249793799,1.91729680191022,1.91774917782947,1.91659824827906,1.91639102053096,1.93818756966263,1.98617027674764,1.9847165953536,1.9833693849072,1.99348242016853,1.99420656546737,1.9950762222144,1.99742313106362,1.99902687109035,1.99496723887219,2.00364164814481,2.00507177585552,2.00663053070437,2.00628277424415,2.00238149058649,1.99476194259034,1.99748910554981,1.99703149258739,1.969426512292,1.97796140573908,1.97996046837956,1.98149955971921,1.97351391741438,1.97360581855291,1.97392918836279,1.97685063727028,1.97749871841368,1.97855469873185,1.97752289485348,1.97950186051933,1.99174099847327,1.99978248680054,1.99424195548621,1.99332616307152,1.98370930620817,1.98225409375117,1.96731190714124,1.9689641843449,1.97169751744314,1.97441251544228,1.97538567898916,1.97658217995001,1.97708089212365,1.97212418472419,1.96214829897003,1.96246369335705,1.96092379494718,1.96224142639919,1.9670165874864,1.97097864571077,1.97035479452145,1.90378549341614,1.88144720719341,1.88140844368042,1.87971202047499,1.88108906170822,1.87761860822762,1.8794476120556,1.87782437036186,1.87863770258661,1.89276068131473,1.90531388812749,1.87242634170486,1.85594294324421,1.85011982280809,1.85021010253405,1.86372242017222,1.86700651996534,1.83071751589611,1.79807278225317,1.80069517868573,1.80496592735117,1.80963910998354,1.81459443921479,1.81918485309045,1.82306416689766,1.82573828093197,1.82702396606929,1.82815772078318,1.86958966642076,1.86748658978565,1.88383675332835,1.81800819688107,1.80380004329417,1.81923271574514,1.77466925255209,1.77427542466208,1.77442729285622,1.77253929517375,1.77118720943503,1.77015448466637,1.76949069730903,1.76961528358625,1.76900014387407,1.79057708916347,1.8020050115095,1.81339104179206,1.860793027865,1.86069789950277,1.86146702195674,1.80527155021172,1.78588645374822,1.79910831505227,1.78859959627508,1.78136000453415,1.76609770898182,1.76600743777872,1.76604759583429,1.77144318507309,1.77710037943,1.7863682941438,1.78553198768483,1.70416616288002,1.71539739312814,1.67944536040702,1.67904686430075,1.72884153128833,1.70805397125301,1.67428135334189,1.67335657716451,1.67188148858055,1.67075522504502,1.67020408791702,1.66976687545877,1.66796852963993,1.66671813251603,1.66509804066207,1.66395383500368,1.66438651321877,1.66435580433317,1.66393747204228,1.66338027995965,1.66337021156065,1.78254450637621,1.77379995750369,1.70248079618036,1.66402811478495,1.6626137088911,1.66261667726092,1.70971989931297,1.7091719834902
2.0553899109517,1.91117334339472,1.83832478325178,1.83843196343053,1.91108251382761,1.91023072728236,1.91492654103335,1.91095735108781,1.84041009806831,1.9115351733152,1.91154205719719,1.91263978666287,1.91876723126528,1.958449584437,1.92150111916966,1.92590513600697,2.04739561765062,1.93349612334938,1.93261038745363,1.949648414628,2.013219913854,2.02315630017883,2.01963966575401,2.00672904829884,1.9929521266672,2.00251789188416,2.00978570378907,1.9934233667721,1.99383097969759,1.99483587607168,1.99326661336286,1.91678841445745,1.91663512886838,1.91608711279923,1.91520362433877,2.0096320530881,1.99037629627389,1.98664144041999,1.91625041836642,2.00073253929206,1.91446833366715,1.98678211638343,2.00492136806601,1.91340630407808,1.98299599180007,2.00166570910101,2.00514648661699,2.00529735373127,2.00517464364946,2.00632953298873,1.99023877107717,2.01263950654048,1.99866667160043,1.9737778417357,1.99047050844751,1.99679238449564,1.99154422906389,1.9987799266011,1.90545251353791,2.00576826614949,1.98958615283538,1.99532470760141,1.98212942419739,1.97888494457573,1.99457353615147,1.98709947312282,1.99821170780561,1.89977684151041,1.89996718300708,1.98925511784773,1.96890676040456,1.96746371279495,1.96788408833207,1.97688071209223,1.96616213070322,1.97512459988312,1.98912322720378,1.8913062034457,1.9675544394541,1.96063824194976,1.97899862988958,1.96053284992566,1.95635676464572,1.96306671627047,1.88376895397262,1.96882443159822,1.88172350023725,1.88162589467297,1.87980572616069,1.88177299933107,1.87736028759511,1.88017585218428,1.87509366603083,1.87978175078868,1.87777011724356,1.87768330284141,1.94714323727581,1.85684417469984,1.85653565013904,1.80526371481159,1.85032930317522,1.89562142093296,1.89643353952009,1.99672702534711,1.79504225273258,1.84189768320183,1.84107215484552,1.84080132297357,1.79016347846142,1.7895372160144,1.90070985259163,1.78500337074108,1.78497940810552,1.82924330846371,1.87208116315262,1.78127130165407,1.89640816143438,1.77769115815141,1.77601754771368,1.89856171536981,1.77327176407098,1.77251126855636,1.77493215204011,1.81932031300584,1.77021759766499,1.77005357698489,1.76929747958578,1.76959575354215,1.76867853662033,1.98124284058418,1.89689352866748,1.82145428279698,1.86041581444826,1.86010424377815,1.86114261622451,1.76611005459676,1.76562718942606,1.81264869823744,1.82428836805879,1.76516940855434,1.76707767114699,1.76551293971111,1.76543433090591,1.76564132193161,1.68735167801712,1.7856968911488,1.78382265509458,1.68556459177866,1.7943952687031,1.67965695092501,1.67895242538363,1.80016258029888,1.67409363305679,1.67406696933667,1.67249503464065,1.67153164743463,1.66988232942857,1.66874530997284,1.66458056574061,1.66700800769389,1.66758655312754,1.66408981001634,1.66553218369098,1.66423370590689,1.78609643089531,1.66396456134002,1.66305104416451,1.66258439284584,1.91398291705508,1.91286625386382,1.66001574206017,1.66314391526111,1.79603219542665,1.66119528580085,1.7096906008056,1.78184232481724
1.91069524714807,1.91079574562508,1.90997308161344,1.90942382738813,1.90977275231467,1.91206632140406,1.911255690418,1.91339564824768,1.91358512288847,1.95960749072772,1.95868116775573,1.84507337572456,1.92005594345025,1.8459954405821,1.9212707546112,1.92452387598848,1.92593523647382,1.92966366411224,1.93118093296677,1.9505301637369,1.94950110328293,2.0085737438778,2.01673135359114,2.01154197426152,2.00764750870573,2.01454397212958,1.99631834089157,1.99246839856286,1.99610749775403,1.99290714377715,1.99242754413123,1.992462683103,1.99246110797673,1.91567189975216,1.98918614140475,1.9894516361062,2.00471480497535,1.99281668360717,1.99984887968204,2.00417558745101,1.91387278460964,1.91417317002381,1.98724622838005,1.99370230103349,1.99811547457792,1.99675909401739,1.98296345193178,2.00124318568075,1.99180745358286,1.98343468826485,1.98036059016901,1.979705743933,1.98696446862128,1.99484819445596,1.99397321350455,1.99309276780079,1.98072493200516,1.99161394068729,1.98181193760676,1.98601272123583,1.98579796567151,1.9823279289119,1.9896960057314,1.97379518288759,1.99018637730225,1.9027521488733,1.89872221632351,1.98661459669656,1.99097335953415,1.97482602082995,1.98635314354149,1.97930904977516,1.9667302162237,1.96743957984556,1.96595776902522,1.98784314688202,1.96589198799513,1.96402657174854,1.89046429161167,1.88995453992169,1.97057131414346,1.97662861402275,1.96476249591428,1.95560641236286,1.97432416988344,1.95346745656025,1.95130002400435,1.94969137175844,1.88120865636952,1.87740821714245,1.88126061538879,1.87417780577237,1.88107289193459,1.87515884730254,1.9517781595602,1.87702603195236,1.95682320453169,1.85702126509419,1.80372194192313,1.89325802919312,1.80507335821269,1.84960686239611,1.84762946809462,1.9092538262619,1.89039302337542,1.88978194676258,1.88587754187188,1.9051447443114,1.7918371353934,1.78762934232923,1.78735599648706,1.78537548600882,1.8836788080607,1.83115058443175,1.89938460516274,1.90599430975788,1.77798779638009,1.77749226343675,1.9062720655336,1.90058866320131,1.77505822730081,1.77317692230776,1.90496713048256,1.90406618621946,1.76901552293112,1.7694036147701,1.90364109346869,1.76947345918173,1.89793405578077,1.89859390211455,1.76845534210426,1.82181716359788,1.82357649659497,1.76626296759807,1.89329609663328,1.89291541609732,1.76643078642658,1.7666807370391,1.76623693406285,1.7643404660599,1.98647315816096,1.97965142919092,1.89122138718133,1.86070983446425,1.68498811596638,1.68436475995786,1.68258071040409,1.68242210037171,1.6821242585822,1.67917549329004,1.67761834540084,1.67557967188839,1.67469324843462,1.6735924035536,1.72081921917642,1.67024098956564,1.76838526442708,1.66901542318206,1.71486791152478,1.66602831230378,1.80113331591401,1.66541416749209,1.66404671616104,1.66297102572095,1.661816644941,1.80271948101893,1.66249737877056,1.80132524211277,1.65834803760482,1.65939309848842,1.6606062786167,1.66162404952597,1.66070350407394,1.660039287825,1.65875893443699,1.6579136435395
1.91134788716512,1.91199413107772,1.91107369644853,1.91164035564807,1.91099783568152,1.91089792503144,1.83882069631776,1.91201671867893,1.84116137798291,1.840871550033,2.04372204953846,1.9161385401406,1.92025427428215,1.84709505899043,1.84790645736169,1.92363720259285,1.85420971092579,1.93421963696487,2.03579437534822,1.94918894560934,1.9262707271482,2.01078240306806,1.92596262356512,2.02438110308631,1.99702773901653,2.01886549974046,1.92133196260099,2.00076957940459,1.9920789158524,1.99631140435664,1.99480706634822,1.99363309088049,1.99252247738054,1.98835301297441,1.98875397156581,1.9160703138458,1.98854708659152,1.9957879968747,1.98829597711368,2.00254718795079,1.91326715011636,1.99657422832358,1.98708869547966,2.01566605885707,1.98495660458176,1.91322168638969,2.01186852774378,1.98332800220621,1.98382916221972,1.9984691341743,1.90989812318943,1.90934449998992,1.90785006138181,1.99315964648547,1.99351016399047,1.90645403715825,1.90685263844406,1.98878972632389,1.90462134380177,1.99121156951623,1.90391814326451,1.9910181812708,1.97831675019862,1.97435889687083,1.9863902989981,1.9889935505553,1.90028402321159,1.97951326858993,1.97263070750768,1.98930505954086,1.97309032552523,1.97418025770506,1.98625161873184,1.97959623431301,1.97385286674953,1.98607466086748,1.98580758356798,1.89360063946528,2.00024832120592,1.88939835779528,1.8891252939475,1.95911938196318,1.95735515268485,1.95615201802215,1.88427396394735,1.95681469465977,1.96606516792369,1.8818176392395,1.87884724247093,1.88234076078079,1.87467023000514,1.88255511928118,1.87390733994799,1.87831676597885,1.87673707378195,1.87593942142194,1.95785755184089,1.85810127456466,1.85630043982154,1.854546251165,1.85233092577642,1.84842918263228,1.84814124195758,1.90033161364119,1.90092945822758,1.79307145347487,1.7926953758659,1.83780237735032,1.79059767135024,1.90990333934594,1.87703709864956,1.88400396749805,1.88309849084755,1.88217927451885,1.88993581265004,1.82785710116305,1.82785709997528,1.77648954518372,1.77471560248312,1.77617487918932,1.77508841113738,1.77435845700419,1.7739820766116,1.99671746901986,1.9800992338738,1.77060039116907,1.77100334393609,1.76979983939184,1.77001457727628,1.76979148537942,1.76897675832411,1.82139672443414,1.82059687704715,1.81901476973794,1.98349837333699,1.76832056164216,1.76628978470131,1.76576527072659,1.7670659596941,1.98393721968768,1.97618483369559,1.76456893877951,1.8915639998488,1.76514310835737,1.68488090737352,1.6841386730692,1.68252651307253,1.80419779386381,1.84683402595185,1.6780780793424,1.67670340862408,1.7983091817075,1.78565944537984,1.78182214307804,1.66811215232771,1.66973937842615,1.67020172933616,1.79217780401363,1.71375124823609,1.66550704571289,1.76644220616581,1.76776824370543,1.80419888472177,1.80256630652926,1.80240210129901,1.80308744518944,1.66037252244035,1.80239749256347,1.65909171937139,1.65912398230987,1.65927461354142,1.8004075936624,1.79857051120928,1.78897053988285,1.65971806974175,1.78101434443962
1.9124298446308,1.9127180784245,1.91220878906144,1.96077173846379,1.8395821158772,1.96155847892038,1.96158385753191,2.0440646621085,1.84080176320731,1.84101923822028,1.8406613126846,1.95936322118039,1.9179339785465,1.91997380350906,1.95554688431592,1.92255838671742,1.92711639957403,1.92693074307674,1.93006817310416,2.04661522235218,1.92504318443866,2.02146634649849,1.92466238807919,2.01621501799399,2.01748587083002,2.00836695340077,1.92052234876696,1.99860384656476,1.99511185354167,1.99368451109091,1.99349034920373,1.99244978023402,1.99464598436633,1.99364929602756,1.98881882713161,1.98736790056461,1.98618746212002,1.98643862464426,2.01130852609977,2.01188596304819,1.98541370989759,2.00918181488306,2.00914982488105,2.00130449832789,1.99523982405987,1.91304776342655,1.91292779790697,1.99835226041412,1.99730572558716,2.01630345247119,1.9914211909169,1.99104497107057,1.99302751113725,1.99908487418328,1.9936338644718,1.98703501956845,1.9065397577909,1.99925592786362,1.99151984399191,1.90496663578703,1.90455551724141,1.90330413882792,1.98833801095581,1.97323747909541,1.98473022486681,1.99907626688144,1.99906992466061,1.97400041169152,1.97178608164073,1.98942074092362,1.9958259336183,1.96517150834494,1.99325239435171,1.97549689769448,1.8936153293791,1.89343297041668,1.98696835536699,1.97998590641731,1.88992624261783,1.98145221493254,1.88810260912771,1.98498964161342,1.97935239244321,1.95534679197318,1.98290839781138,1.97018402325646,1.9540426618268,1.88078183766927,1.88139093059172,1.87606222222667,1.88166589320701,1.87419523606363,1.87912020059205,1.87500286014432,1.87906992273964,1.95371823064225,1.94788818776558,1.81162108715712,1.85522333828016,1.80581117875949,1.85113139480925,1.80197257129775,1.80107258520567,1.9080922786987,1.79836562647028,1.99522333684524,1.79149908725862,1.79008397002369,1.78923025620674,1.90545879346057,1.78434530821241,1.83286763950585,1.78466890183427,1.82976683693335,1.82876437914709,1.86891032378174,1.86767945770616,1.77560991548413,1.82706003584501,1.82560419112575,1.82498549279708,1.82476110003376,1.87119758648848,1.77217303452448,1.98230083231452,1.77077759117455,1.97551359705174,1.77080504231101,1.77071125002825,1.76909042735802,1.76876455769242,1.76930066105057,1.76859668253436,1.7679817421302,1.89782548573626,1.89412478754261,1.76641301025443,1.76613966780825,1.76650883186609,1.7669945833774,1.81468551609157,1.8967983590836,1.76862163458353,1.76585612781642,1.80141880329111,1.6830059749987,1.68225103385774,1.85004126028812,1.67665136831508,1.67665151281224,1.67552712409185,1.79881305649092,1.79943915441602,1.79941642027956,1.66824480425824,1.80070505020145,1.66591554592056,1.66621645529594,1.66505628169881,1.66417867244766,1.66375576634762,1.66007646136386,1.76284636063686,1.65754692366776,1.65882854846682,1.75515687457565,1.79855420462283,1.65770286690032,1.65789457703333,1.65842227470672,1.79641287606004,1.65692176892838,1.79809305541142,1.65531386727454,1.70687043998768,1.70589336071121
1.91125643014623,1.91204588465622,1.91210745009375,1.93810849002651,1.92346581115798,1.9298808352647,1.93374075162556,1.92695605456563,1.92902027857049,1.92539138620446,1.92399952595044,1.95515921476539,1.9481394390816,1.93929587440875,1.93221887024955,1.92228504931862,1.92286666577951,1.92484327020645,1.92336547958561,1.95613615748515,1.94351715182424,1.95237662131773,1.94299972610234,1.95245518495197,2.01954650342376,2.01870341600024,1.98912358153105,1.99013824624011,1.991355465886,1.98245298813859,1.98205338901667,1.98198015366281,1.98999557200888,1.98842222004248,1.98703875579174,1.97976855840094,1.98193646899527,2.00173972007517,1.99725925320285,1.99719295054336,1.99473949882341,1.99170750658611,1.98259104311086,1.98388172422723,1.98526765152227,1.94064938777102,1.92866249175174,1.99932483560997,2.00319432034257,2.00845789845178,1.99841089638652,1.9967752621272,2.00017893238165,2.00153065249682,1.99644100658855,1.99745652046521,1.99794524320633,1.99805711674785,1.99196544507966,1.90542074473532,1.90527326708755,1.92829979569553,1.98241278230432,1.98185186491075,1.98121778242311,1.97767326262661,1.97550951235112,1.97700366606067,1.98166964609071,1.98907395476342,1.99625682704173,1.99289611021164,1.99054778651767,1.91720098997081,1.89462278229506,1.89448515375777,1.99399975885914,1.98931650900407,1.92108514908414,1.91259996276387,1.90272744192307,1.97037318819764,1.96936233548052,1.97439745309653,1.97373146720814,1.96719902457334,1.95019498474268,1.90090435319225,1.87888263996728,1.88000325504134,1.87681014525111,1.87818216743497,1.87686162542396,1.87716905816693,1.87729424851376,1.90015015551118,1.89529272896334,1.86390636705484,1.85552348904134,1.80641958821035,1.80699017490936,1.80655919446871,1.79993255121679,1.79936043049756,1.79883793640326,1.79877810232887,1.79065626678727,1.79014301868404,1.78964525468261,1.80839013157988,1.81649460159803,1.82305305036311,1.82034715064416,1.8145767226514,1.80759788582196,1.80033629626372,1.79360504308014,1.78876275077353,1.80374853712402,1.82413740464583,1.82302697050162,1.82190441747144,1.83518287363915,1.83853371532999,1.84042406790256,1.77122667928587,1.77102649005654,1.7707343441635,1.77058459143196,1.76995929686397,1.76957230827367,1.77004023380594,1.79034171108277,1.80152240824714,1.81118273495727,1.82715595513931,1.81044499531485,1.79775384362217,1.78738633599566,1.79745008461789,1.80412444569657,1.79505101833768,1.7873988589451,1.76587778613353,1.74539821530099,1.72953086456776,1.71674215842189,1.70592196360319,1.6765910976016,1.67623799039601,1.67587854343434,1.74317214938963,1.72651444911487,1.71112636943861,1.69624778157718,1.73291705238062,1.71656700656661,1.70264829853087,1.68984324304756,1.6634215658855,1.66324648041759,1.66267329808646,1.69019775863515,1.70511844765127,1.72186112116078,1.75355835044305,1.75262153875664,1.70544323291033,1.68601360644925,1.70305505768398,1.7209864885838,1.65733506343927,1.65697303260319,1.65645889644853,1.65621928733318,1.65517760786269
1.91192410552491,1.91108511650979,1.91174411454984,1.96443579020022,1.9105859830054,1.84019120640826,1.96159019713963,1.91193142844091,1.95790711068393,1.91670204425377,1.91624855349403,1.95666528802938,1.95649988397608,1.95593220257207,1.92262701466224,1.92458873121448,1.8538291118823,1.9307420133141,1.85764544201193,2.03838300365524,1.92617531136102,2.02263234244894,1.9245936222785,1.92312810900143,2.02118606451711,2.00897042917296,2.01645696557947,1.91845155386677,1.99465231589875,1.91835008034042,1.91789893101528,1.91681524686161,1.99307249111594,1.91647115669865,1.91669685832075,2.00466737796625,1.98487439084935,2.00564024849474,1.99857099381159,2.00026402513343,1.99649225524373,1.99523172874872,1.9132458700538,1.91187332057313,2.00713682510274,1.9991156166948,1.91132954251302,1.99473980642784,2.0026329854218,2.00316748597514,1.91018097523232,1.98917296402805,1.90810851034169,1.99624403373782,1.98586284332112,1.90531028311507,1.99279643441711,1.99326704111827,1.98059257379618,1.90408899630511,1.90406986125062,1.98588096133852,2.00187584003095,1.9833470822342,1.98189530930045,1.98313973187388,1.98169998389627,1.89920901881523,1.98019837629876,1.89968105234643,1.99331216976189,1.98633291870107,1.98672086719659,1.8935190309519,1.89396352881417,1.89359898311456,1.99294856869522,1.98001404165883,1.98965314264593,1.88929828807364,1.88948660130608,1.97501035038208,1.96872647962335,1.97640942289451,1.88338829703072,1.95528708494747,1.95430651549191,1.95099131431207,1.88204257286725,1.87356181949375,1.88014570973786,1.87598901786061,1.87286514896481,1.87507283202717,1.87694715955478,1.9640200994539,1.87347107159919,1.89304905812546,1.85558719165942,1.80447767583214,1.80474855101988,1.99338655278916,1.79859106938263,1.79807511564946,1.79735727811476,1.79586326144403,1.79136780248878,1.79064841448498,1.78967381445559,1.78712006955997,1.8937169998502,1.83306562844511,1.8311853921037,1.78244451908003,1.78167539017487,1.7812657988186,1.7780003311795,1.77693562054146,1.77603097565006,1.86268144286261,1.86162188186378,1.77307080654435,1.7723982707587,1.86082721616244,1.86015468162337,1.77176551305245,1.77103174998909,1.7700958776258,1.77132286543185,1.77003507678094,1.76986203219392,1.7711406645579,1.88850903771718,1.97440962321492,1.76606140382497,1.974164794803,1.97370486279481,1.98213461500118,1.76944158625756,1.81491564346498,1.81416063086035,1.76958939602427,1.88793801734157,1.76619807234478,1.68349912600784,1.89689987363194,1.89627809526407,1.68008459506892,1.67737933871509,1.67625813289423,1.67594182631838,1.79818304100528,1.67121462685623,1.66779566120098,1.6680818050729,1.80119200365256,1.79956142150881,1.85238244618343,1.80425543334254,1.66332672307148,1.66205852797402,1.6563322533043,1.66090847009248,1.80214687747721,1.80163295871957,1.76931788468135,1.75241295491674,1.74939434498323,1.65659045080094,1.79639656398789,1.79489450218177,1.65676770917867,1.65611819510147,1.65686190458585,1.65764996951839,1.65605577522838
1.91172200245417,1.91166063780446,1.91088753101609,1.90994788592996,1.90936296692814,2.03791666987934,1.91319063587176,2.04518766997699,1.91069272700424,1.91628286778498,1.91576834973908,1.91629138902806,1.84707194904983,1.92247815492259,1.92261625393964,1.85188755905751,1.92941831080921,1.92992250852694,1.95089063748926,1.94818214969804,2.01516149431989,1.92619641869885,2.00992004100872,2.00476505899911,2.00026994851708,2.00103692107055,1.92082882176813,1.99455715558719,1.91918021368976,1.91751252698514,1.9184079311212,1.91724948263212,1.91717799292256,1.91700519181453,1.91627574869087,2.0036592761123,2.00869222512234,1.99831175338011,2.00627140809347,1.99508517875931,2.00915735917071,1.99087942240258,1.91427672405065,2.01821653753507,1.99912115204792,1.99844744748811,1.91220268924486,1.91188256734973,2.00378076733493,1.99081649422654,1.90987067915668,1.99289346216492,1.99282380418952,1.90853892701666,1.90448548034917,1.99321020635625,1.99369364872052,1.90495443935598,1.98692382974035,1.97896816251134,1.97782140336173,1.9856157389635,1.9843344263441,1.98443984404223,1.98499215502641,1.98249612605239,1.98368365108566,1.89777399602705,1.98821779839286,1.98645264395539,1.98630419240429,1.97963216965896,1.89672222065903,1.98710887458811,1.97944574391522,1.9790941756174,1.89360060870976,1.98556304920314,1.97518173104807,1.96817176184884,1.97071929367939,1.88715761974524,1.97488320812428,1.94996998182563,1.94905630157891,1.88152163786679,1.95141651530519,1.88142456561863,1.87457023794065,1.88309325813668,1.87563342811248,1.87658987842306,1.88072878224534,1.87923031212105,1.87391034428613,1.96437539922043,1.9467910994087,1.80962202791796,1.80919543558612,1.90358992162467,1.80422123835951,1.80225213168298,1.90278891683438,1.99676509341045,1.79519166715445,1.88412169341742,1.99395791755807,1.79098410229358,1.78934292695901,1.89370177262486,1.89292608327337,1.89185927834857,1.78423109415069,1.86047190964286,1.78179108060417,1.78131800728143,1.78032776935021,1.77795101425288,1.77586641965663,1.90157590103258,1.77450470331085,1.90280200961871,1.90134907853462,1.77236538214847,1.8825812943197,1.88079753424555,1.81991038758728,1.77042828665809,1.77148735984288,1.8184787594768,1.81766736127468,1.77054259590594,1.76981690852926,1.77143768501415,1.77118443778226,1.76951042848176,1.97295423038884,1.8910024947169,1.97425735096157,1.76809024116543,1.88549214427208,1.76862987987346,1.76868338121823,1.68594039262576,1.6825425226457,1.68144616736872,1.68028433376214,1.72839078271277,1.72864357740496,1.77297246605937,1.71998172074326,1.67305011116983,1.66936325716767,1.67116362575576,1.66626800283436,1.66717323580526,1.66445614103631,1.65970234409962,1.80057566068497,1.79804422862711,1.66175316549031,1.80179950644796,1.90614694963601,1.90155398542362,1.65723451525214,1.65669251860672,1.65594212970713,1.65507367790223,1.65537860988805,1.79775722054482,1.65432304488057,1.75228247248596,1.79537869338544,1.79493456597982,1.65797588562654,1.79050280922674
1.83854990730146,1.91133246589711,1.91238386199457,1.90991339835271,1.91086655334693,1.90984116817414,1.91086937741122,1.91437020559462,1.91311011903671,2.05155582898837,2.04346717390394,2.0380655817727,1.95599718946865,1.9208919414571,1.92211571473405,1.92729927726366,1.92800815205476,1.95322169349942,1.93339066665378,1.95265801545241,2.03961067815308,2.01542797155689,1.92386395714122,1.92317555971122,1.92269970891949,1.92194151994262,1.99555926091035,2.01566582117793,1.91836682163649,1.91871431494382,1.91671416135121,1.91771516790107,1.91648693622158,1.91498813920718,1.91561978172567,2.00273676319204,2.00123869141883,1.91283587776351,1.91269945487118,2.01422919241926,1.99986259247496,2.00649463541378,1.91415843628188,1.99532855368258,2.00434351458316,2.00815192368196,2.00045849865004,1.91166214304585,1.9116945360973,1.91064664741644,1.99602735644143,1.99297213294165,1.99962292708704,1.90719699176594,1.98591521652984,1.99433462449637,1.99510819621468,1.98518205525526,2.00906100674917,1.97705218599215,2.01246812658528,1.99607677293479,1.9810660812685,1.98142066135837,1.90084467497197,1.90012772644576,1.98143643334631,1.89811249374797,1.98216148458798,1.99942840275704,1.97776377027215,1.98171582804492,1.98868628496157,1.89481881749211,1.97932257345745,1.89315770608257,1.8926325752623,1.89168197831841,1.97306828886096,1.98221894582845,1.97059722940834,1.99011306941152,1.97376387514299,1.99194011257351,1.88299106511166,1.88180209062935,1.88139774216898,1.87621894570147,1.88259450251231,1.87404098970096,1.87777371688827,1.87685555014814,1.87773189535411,1.87208367462487,1.87713158058428,1.97564657800918,1.95539038238362,1.81035237127851,1.80903884524246,1.89471771880681,1.80457428354663,1.80258380942267,1.9087378580163,1.79620644617505,1.79508790713567,1.79391846785467,1.98700029077082,1.79210390580204,1.78939624228189,1.78783583955731,1.78566012966153,1.99610841931786,1.87465226266197,1.78261184327932,1.8726727250546,1.78103629595273,1.78059422373888,1.86654376517088,1.97663660492023,1.77617018108191,1.86684830967758,1.77511312497551,1.8413427072408,1.77250492614617,1.77198470151509,1.87976425233204,1.77087872027786,1.85781664631194,1.77192487492038,1.8188170166278,1.77174037684252,1.77152973142197,1.77142424064357,1.89137366005787,1.81907288961332,1.7706273445059,1.7711015885616,1.77211496031816,1.89048776126121,1.88899984381951,1.76650435484729,1.76816765416305,1.81962487711212,1.87680310881507,1.68266250168269,1.67910817806404,1.80156158162657,1.67635572388829,1.72520916705612,1.6723048985795,1.77247758123597,1.67257916040464,1.66925668335481,1.6666443457524,1.66805579874293,1.66515277411152,1.66435029910567,1.80378971329622,1.80285608725464,1.65973275386491,1.65822190641869,1.65891880157357,1.65773527098171,1.6584216612629,1.65694077921754,1.79975419019623,1.7989961849374,1.79890216069525,1.79715447828692,1.65595235799145,1.65426161544261,1.79448092184561,1.65545713401126,1.65410176691175,1.79126417049351,1.65532843681562
1.91158206618556,1.9649782605269,1.90980410359239,1.91070715634775,1.90976828039615,1.91160624055499,1.91081522991427,2.03972490288792,1.91311203694664,1.91329991461535,1.91309083158206,1.95741332142484,1.95699891857125,1.8477953150161,1.9534084071282,1.95372472785023,2.0413427955798,1.95246418156472,2.02397424168162,1.95323649628798,1.9256062108326,1.92409036909615,1.99582848502441,1.99432355656749,1.99286348525211,1.9932242322665,1.99455726665718,1.99250940208778,1.99001122211873,1.91758425630255,1.91852124867258,1.91686859181982,1.9165440928422,1.91636209523576,1.9157433922288,1.99322246261999,2.00227190958108,1.91311495783898,2.00699221929569,1.9863721587586,1.98682200769586,1.98504877757443,2.00553988070975,1.98201588106667,1.99844126750119,2.00283543703138,1.91115591652674,1.9112931525282,1.91161621845365,1.99724094420218,1.91012308060528,1.99978088969021,1.99990394404197,2.01227818911084,1.97882585486211,1.90640504057083,1.90650328017391,1.9930237730325,1.90424014745729,1.90437819676546,1.97548506725029,1.99758679795245,1.97940000007015,1.90031868913052,1.98323704435583,1.99238853295116,1.97918952289536,1.99393398546345,1.98647012254445,2.00090671294799,1.97811014844637,1.99831663510609,1.97549069494356,1.97518050089364,1.99587045265217,1.89299270465174,1.89221651228332,1.97147268043139,1.97429811322689,1.88907929488042,1.97166452700495,1.9761095735191,1.97718568368301,1.96402977789441,1.97169428904106,1.95229129605848,1.87951044473252,1.88121254549926,1.87543451498146,1.87939204421861,1.8782695421123,1.87646197122427,1.87436279635866,1.87888436365969,1.87333580622744,1.97035597270277,1.96017644078373,1.80983142570988,1.80957668068568,1.80818946673377,1.85094645877284,1.84859057984619,1.84758884528658,1.89894920437499,1.89773102634816,1.79511382626768,1.89257983821917,1.8933982885673,1.79062713232958,1.78945187964709,1.90547787699902,1.90445003919145,1.78409649775329,1.78245412794095,1.90113811661796,1.77999369552994,1.77880783225097,1.77779118166475,1.77843044347666,1.99165815870667,1.98526483490834,1.77484297880527,1.77446150046959,1.7732720858129,1.89708386955864,1.77247852335823,1.90029110389491,1.82082364929105,1.77250161265978,1.77229773295864,1.98819977915929,1.8936006411887,1.7719772338316,1.84698311328872,1.84567610995228,1.87822113780511,1.77151921218832,1.77204967510572,1.77171938019427,1.88970355916715,1.77134541223103,1.7718618736175,1.77148035025205,1.81705528283085,1.68032428211224,1.67927065022529,1.67803415126759,1.79790704754607,1.67328705461363,1.67263008412958,1.6712239440012,1.67081538413697,1.79913474258874,1.75911143671229,1.66545481233513,1.66515351574485,1.6638934836059,1.79469965754056,1.66068929820141,1.66079431268087,1.65714133312117,1.65679308395268,1.79883019808203,1.65442433153986,1.65567074281945,1.6550164597753,1.65330693003246,1.65382737293596,1.79711699229116,1.70256555599185,1.65357517441237,1.65348935959628,1.65328125529667,1.79460464305146,1.65242167143608,1.7448020991889
1.91418050326234,1.93483501757775,1.91060744891668,1.91067553308067,1.91123814506065,1.91165963586288,1.91214516517998,1.91394036600183,1.913414366701,1.91304823376654,1.91162947248668,1.91520519282245,1.91098902864241,1.91219525494985,1.9528152554047,1.95177525018352,1.94942691934196,1.95056464082299,1.97362158766389,1.95534629314607,1.96127813392651,1.96913849428951,1.97519611737483,1.99242331911541,1.99126304059155,1.99159423499819,1.99187954858469,1.99082452255562,1.98919591102946,1.9409383177186,1.91799541859492,1.91780506041181,1.91713597901547,1.91688006290665,1.91686593035542,1.9386869967963,2.00904156083591,2.00974127075331,1.9974265553318,1.99686212571962,1.98205587461338,1.98289654306202,1.98025784900471,1.98417968151561,2.00142347850939,2.00611438909062,1.92435583857316,1.93335988061415,1.94338759763755,1.98622038283167,1.98605113254808,1.9857929054519,1.94178409697576,1.93613284209679,1.92881488385484,1.92195780002715,1.91580733386544,1.9355480259761,1.92861951498928,1.91920595877552,1.92942349445212,1.97448243296973,1.97588974554285,1.97551542569579,1.97934958628061,1.97668064745292,1.97736473575793,1.98904515447338,1.98482957619493,1.98612064862383,1.98925331846663,1.98732521555644,1.9728403718629,1.97167848650125,1.97000317540441,1.91749094244952,1.90847872345087,1.91716706024454,1.97924096199353,1.97448670615005,1.9720680850203,1.97034062871482,1.96890321871466,1.97044952717213,1.97082716859639,1.95745734153041,1.88049238660017,1.87866839270032,1.87907059134887,1.87823704933118,1.87799801512167,1.87763849969583,1.87738965303814,1.87466180464717,1.87536436165632,1.87462314186269,1.87457606573309,1.84061402446742,1.81330956142428,1.81708523535416,1.82276040016339,1.82939729885817,1.83567338779863,1.84046022235581,1.84324154481705,1.84465793233942,1.89287147574475,1.89283229905987,1.84658724771461,1.83498815082561,1.83452085659966,1.83378426316297,1.83351308392383,1.8333102023702,1.83401157676792,1.78071366280482,1.77971571693559,1.77895370377605,1.7788094770596,1.808880810878,1.82868198710063,1.81290527197632,1.80119240787734,1.77457145600199,1.7748883626685,1.77417880312635,1.84118072572023,1.83475527016375,1.77241951725922,1.7723037867667,1.79843756653835,1.80574691072936,1.79842985376589,1.83923536912828,1.83148109237228,1.82769901704106,1.77258397690772,1.77293758511559,1.77277050902118,1.81942245613926,1.80400867704183,1.79169145988908,1.77179303398128,1.7247672163691,1.70596678629143,1.71926741365253,1.73463883186521,1.7593322954699,1.75999833694586,1.76091925806677,1.76143265887597,1.76183610811211,1.76272005619185,1.76273823882603,1.66520642199288,1.66471866225293,1.66444335938925,1.663250611973,1.66179686733363,1.66235381289319,1.6562652917733,1.65629262086399,1.65606825655186,1.65595135448892,1.65519229893288,1.65496382700513,1.68361442945714,1.70049618048245,1.71857126996069,1.68232590957085,1.64875803996863,1.64932289109285,1.64999640917899,1.6493785674674,1.64967904008682,1.6496247345292
1.91188905384018,1.96485453874249,1.91030681104611,1.83791663081426,1.91165230678404,1.91213093089605,1.91215221918803,1.91496409260167,1.91368326537157,1.91324852082784,1.84134276418716,1.91077025329733,1.84370299084351,1.92052387094079,1.95507269630483,1.95354534339434,1.92702106661674,1.85472371300728,2.0353756266515,1.95325781470776,1.99516941678591,1.99525824485565,1.92361045817337,1.99550969458601,2.0060988911822,1.99168819695324,1.92014452908085,1.99146594837396,1.98787635305305,1.98867036489033,1.91691310363151,1.91648139754882,1.91673699975243,1.91512575554038,1.91662180593695,1.91658330409899,2.00005604246371,1.99979042011406,2.00332350518333,2.0016426300951,1.98550624208675,1.98481511719445,1.98409483012986,2.00246572398938,1.91304136072684,1.99576381246643,1.91154311477044,2.00063385073414,1.99548554679171,2.00457133323826,1.99351475341248,1.99306875542574,1.908308504155,1.90761542784794,1.90642185828783,1.98544937726773,1.90641027086726,1.99635212298486,1.99512809149021,1.90352048097682,1.90399864615582,1.97638741089039,1.97848703549738,1.9698265373765,1.98621564261017,1.98122123210211,1.98154867484707,1.99364526007738,2.00266979879078,1.98526111081307,1.9950056885842,1.96528072697713,1.96616759554995,1.99329148189186,1.97733169400386,1.9806423877681,1.89107905984747,1.89033235367291,1.97572810827413,1.969469835074,1.97006603553748,1.96257298509065,1.97019932586228,1.97336924044851,1.97357654728662,1.96214246218891,1.88072243054104,1.87816087010554,1.87706267482882,1.94724806003094,1.8752105992296,1.8799953004316,1.87637055376696,1.875285623854,1.87466518012599,1.87410579571669,1.874007048521,1.85756923658865,1.81048508209475,1.85465696638051,1.80605460953277,1.80351310831924,1.79977707802009,1.79912236256379,1.79866885155447,1.89957735082388,1.89356856984677,1.89300882695558,1.8902658406573,1.83550904497414,1.83497846094105,1.78621063703238,1.98277508013356,1.8580926550548,1.83024427132411,1.78197032198783,1.82777140589617,1.77896509580222,1.77875423610394,1.77602108300513,1.90008737459858,1.98905616809138,1.90489733898439,1.77448714241079,1.774450408788,1.77390755568153,1.97620833920767,1.89915231796416,1.77266188683109,1.77240479402542,1.77386515646212,1.82139131702682,1.77241742982995,1.84535238837669,1.82437020602757,1.81981398109129,1.77219614122552,1.88902295714672,1.77245326619692,1.9885935443391,1.99461067213834,1.88730037613171,1.77207825823345,1.68045280532279,1.67959627666984,1.79952518508331,1.78460201600042,1.8025909849264,1.80160756311402,1.76594285027707,1.8030747859084,1.80238956096553,1.66602975682768,1.78799983406223,1.66400059248797,1.66463885811329,1.77131650530415,1.66134114829193,1.66095908808554,1.80216999844906,1.6558104508116,1.65521426042815,1.65656230916027,1.65532372389981,1.65547509807345,1.65432868046651,1.79815878917998,1.79725510703607,1.79579712032649,1.65154553827068,1.65099262786442,1.79472886761048,1.79792250114011,1.65147740394771,1.79580378704662,1.65035353074902
1.83793561384843,2.05073609020857,1.83848758148883,1.9658252749321,1.91156215885581,1.83819415973062,1.91128940790342,1.91461099631523,2.02865661347225,1.84201841364164,1.95517573363869,2.04174251024486,1.91747764169368,1.91789779844245,1.92388377911892,1.9243113575438,2.0419817979507,2.03703974153811,1.95450002436548,2.04423257377265,1.94662945227025,2.00742968200772,2.01299698223317,2.0132377989016,1.99643587397888,1.99583327355227,1.91884079231663,1.99234482562262,1.91718380470347,1.99243593073425,1.99008623922511,1.98943781357566,1.91547139356355,1.91618845719231,1.91397441903902,1.99982958786465,2.00905979130106,1.99418464353721,2.00302919167604,1.91441435308955,2.0084614129127,1.98678917384157,1.91386395263373,1.98338680800134,1.9828100320537,1.91307721265806,2.00853250791338,1.99909409391875,2.00160636951304,2.00247325557778,1.98952595598556,1.99050966045079,1.99598547220169,1.98602945662993,1.99788293885689,1.99647513710008,1.98627159294608,1.90376481236904,1.98567915849747,1.98325622846872,1.98426638199619,1.99718189322793,1.97996453044577,1.90163300080943,1.9731908101626,1.98601996682263,1.97906363188977,1.98509782800717,1.99082609993298,1.97076380306328,1.98939828012144,1.97719850093944,1.96249321237571,1.97935846290002,1.89326365110189,1.97644298814243,1.97811782314644,1.98083027662661,1.88998575990467,1.96929114079884,1.88698384069276,1.97287162158432,1.96609510174838,1.95614155331723,1.95235384671014,1.9697595042826,1.96883989860621,1.87751734397922,1.87719112173181,1.87662352845874,1.87722876082418,1.87639787269814,1.87655732668269,1.87611375270346,1.87539434085998,1.87378845634499,1.94895162392634,1.89026016863075,1.8563129730547,1.80728691385115,1.80419706177227,1.80477658284799,1.90124433958905,1.79970881079833,1.79794670342072,1.7964454625874,1.84110527134966,1.8392800234025,1.83778547867388,1.88710051996785,1.83594530499426,1.83338198062944,1.78356126396185,1.78353856688297,1.83071705671771,1.82986139467551,1.77970499784772,1.77981657798942,1.77875583980988,1.77720713289984,1.90454908021337,2.00105740947041,1.77781538676202,1.98035775811156,1.77382930022614,1.77472868732229,1.86782861525793,1.89817560426811,1.8971880059066,1.77202519915292,1.77228370447446,1.82118787530264,1.77427445352172,1.77416094439767,1.77413647261536,1.77294324197977,1.77304289793281,1.77164237179303,1.77204987431952,1.8872432740367,1.97085024478576,1.95958213349107,1.88712907042116,1.80516694079443,1.80409468964302,1.7720298906494,1.67157697989728,1.67251121392793,1.67109336621622,1.77606204395327,1.66699934679165,1.6668176615625,1.80166626880075,1.66407867454757,1.80453086814728,1.74183278909955,1.66108070788833,1.66133949230115,1.65986449217922,1.80100411644321,1.80118179922726,1.80117691368006,1.6536224025309,1.65554644785284,1.65377783477492,1.79882845580682,1.7980673896776,1.6529111169965,1.65388981610301,1.65264293948536,1.65091565242824,1.65183098015678,1.79579016906107,1.65085857434228,1.65200811696191,1.65174875920771
1.91039908912968,1.83832008201014,1.8380689116282,1.83781758357407,1.96238011519997,1.8378578918378,1.9089592354766,2.04139038065898,1.91173606144934,1.95680313072251,1.91260375843619,1.8423309161864,1.956089346891,1.91862729560317,1.84791896345911,1.92580608780963,1.92572496686589,1.92987482099402,1.86044335629747,2.05068235229422,1.92694826352426,2.01295347954569,1.92248478252335,2.00495008852521,2.00502250001085,2.00786367196008,1.99210252626302,1.99228362253962,1.98891554944671,1.91649643103829,1.99128030784124,1.91553751717294,1.91626646199786,1.91385231181178,1.91539231630579,1.91433128422458,1.98563955731208,1.99475068227343,2.00764767306167,1.98393354323832,1.98405558707256,2.00221879933682,1.91329927636087,1.98457889013371,2.0028559438516,1.91313431475307,2.00202347234263,1.90874804120966,1.90941093229416,1.99890672400959,1.91184475881706,1.99283006850357,2.00032433979831,1.90638199173117,1.98830080339701,1.99122746726918,1.99722568564594,1.9864118941645,1.98614188511425,1.97627684751401,1.9026037364322,1.98263154144406,1.99058812014265,1.98926565704238,1.98470758439979,1.98478622594583,1.89869689401045,1.90016922570259,1.98988704111534,1.98841059605722,1.9817788346661,1.89598501990153,1.89455861932026,1.89260950181525,1.89201549228089,1.97232195085599,1.97605291330455,1.97624403846769,1.888317109795,1.97027895278611,1.88640550130956,1.88670669444049,1.88289444211333,1.88276415525896,1.8818429730136,1.88123520444245,1.97310765424246,1.94940237688343,1.95113210249112,1.87500170657053,1.947789816238,1.87662618218741,1.87470406840571,1.87545213627986,1.8760774167473,1.94968346951164,1.96096426815209,1.81009259118762,1.80912078738645,1.80886182952889,1.80513306164884,1.90321839842447,1.90248604835703,1.79958063247404,1.79770839116115,1.86056547611004,1.86006424227025,1.83903538113322,1.8380125596201,1.83704319858702,1.83604861486389,1.83396559817784,1.83327268631342,1.78355291346625,1.78346079432003,1.99287263393409,1.89992945671872,1.77941878125238,1.7793612354964,1.77746328033891,1.77615394807786,1.77633400321587,1.77707629754389,1.90057185523884,1.89982952810117,1.77447947008798,1.89806406339142,1.86990329113079,1.77565542791933,1.82383782287263,1.82279798980773,1.82223969431475,1.82343833128736,1.9759418627643,1.77435027419931,1.77462698083931,1.77444743378439,1.77294896617434,1.77186008316354,1.77422816711021,1.8209678574996,1.82127676280019,1.77152296579477,1.77074810430727,1.67425194269052,1.78613492469389,1.6713789562419,1.67225289624459,1.7770792574791,1.77611763797204,1.66767798751634,1.66311032846713,1.6629347470615,1.66420192496528,1.78147932466124,1.77848419305264,1.66059547977453,1.80074388753068,1.79914809632133,1.79864317830464,1.65665439706088,1.7979844926644,1.65536481204438,1.65378261012999,1.65353684525235,1.80151977239867,1.79696942344988,1.65189755877182,1.65055636316796,1.79765586228931,1.79161052533415,1.65030015005123,1.79459278477608,1.64795713007109,1.6485162429044,1.6485206687908
1.91024579987078,1.91085985333829,1.91122325845976,1.9106833513514,1.91069435889313,1.91194792566143,1.91255916340161,1.91261740255479,1.91283987211744,1.9133821714912,1.91347206674155,1.84354275585137,1.91942926404867,1.95471989960049,1.95344570222385,1.95334384864512,1.92594219100589,2.03534707560399,1.95279272196934,2.03724099104636,1.87302467913177,2.02168316274592,2.00173710101096,1.99216278199997,2.01714081997828,1.99194952672802,1.9194522164308,1.91814615605007,1.91757749871162,1.91684063415944,1.91545753338554,1.91569511366287,1.91369232609014,1.91478312038192,1.91401446939532,2.01201135277751,1.91285445951009,1.91270248830412,1.99543165426775,1.99297126626538,1.91227579135859,1.9854848636951,1.98547483289684,1.98547687939897,1.98186153771914,1.99484635252842,1.91117460310103,1.91290943016293,2.00070348933823,1.99693866878828,2.00558310548482,1.98975912796486,1.90766216311657,1.99685098965379,1.98250543752521,1.90723683048058,1.99032167409555,1.98247633684542,1.90348869633584,2.00081812983838,1.99135815560428,1.99594977476249,1.99228556530148,1.9862243477,2.00957492877909,1.8995201560448,1.89872924787981,1.98022899378918,1.97963095206467,1.98264243927215,1.98933227289821,1.96661818469732,1.97660829266427,1.89757958917075,1.89257886026465,1.89316532503948,1.97479017760311,1.97619383695172,1.97811527429133,1.88763271706564,1.97464538351136,1.9821367410418,1.97404378102114,1.96682320418912,1.96773248063208,1.96707805383605,1.95253612533892,1.96833738217715,1.94419114632835,1.94672664995795,1.94754871918079,1.87527188379679,1.87659058271223,1.8742265928969,1.87446333761876,1.95646602058568,1.95646570845629,1.81097501424663,1.80811868997232,1.80857630523906,1.80328897406816,1.89846783975833,1.89926515884123,1.79922554221914,1.7963755261557,1.79552417595158,1.99640344680873,1.79530751899906,1.7912106577904,1.78992961567111,1.78862087779308,1.9031556925209,1.87765015522127,1.99666040623626,1.78409944071703,1.90132845804641,1.78023321608067,1.77970784566092,1.89252363251732,1.89404001037363,1.77895458828767,1.82536985109121,1.82464115179397,1.77569437098522,1.82383153747331,1.77814289536247,1.77649039233592,1.7752968084925,1.77531958143225,1.82445561634845,1.82345096214538,1.82189981448868,1.77529866538317,1.77390658104081,1.97092639541945,1.7752045172722,1.77348565721458,1.82239196872242,1.82212097750797,1.8215710705367,1.77481401799715,1.82145513147338,1.77245352897862,1.82210881881351,1.67447983139505,1.72108569508771,1.67050181434415,1.66893018042119,1.66934318058516,1.66535097460288,1.91249191819489,1.80589340937744,1.80475771225193,1.66304130618019,1.65898351050764,1.65786474560417,1.65977341705689,1.77499958985767,1.65629385266534,1.75262508563048,1.65336376347491,1.65514911853142,1.653594390733,1.65337466257394,1.88872792965585,1.64929042989482,1.64910500034538,1.65033808495255,1.64969268027219,1.64904665973394,1.65053151286962,1.79548972494961,1.97177340982873,1.64749142620392,1.64893926749704,1.74839001415855
1.90836085922307,1.90983131204577,1.91018742121758,1.91037698438876,1.91063471219433,1.91120378691461,1.91116288378866,1.91170994727318,1.91520944815335,1.91574417798011,1.91588462429713,1.91592979666599,1.92008199703582,1.9531378438973,1.95157085223808,1.95145849539809,1.93949472388911,1.946990435385,1.95103355767286,2.01624794486361,2.01430190272791,2.00627191303815,2.00581353859327,2.01092852295667,2.01473437413387,1.94162689823088,1.91925314225981,1.91879048747599,1.91759134448407,1.91709479687044,1.91554421817258,1.91612469139076,1.91528773404589,1.91481799519229,1.91490800022685,1.9837193372147,1.98270669285649,1.98190532390823,1.99216529009909,1.99256749779524,1.98803961508872,1.98479758293627,1.98404458714212,1.98558776602407,1.98744904316128,1.98929182299232,2.00182862335446,2.00260484879564,2.0044392839848,2.00455391863783,2.00079380064516,1.9941002000591,2.00075560407342,2.00166441482601,1.93558135644288,1.92392531311159,1.99471746442513,1.99081262888267,2.00036607853138,2.00593028065683,2.00452709125522,1.99904826307926,2.00028191584207,1.93254517291287,1.92471596846757,1.91576616474719,1.90904150047958,1.92203258962791,1.98828583729829,1.98569948043438,1.97530489523559,1.97128484135846,1.97151574846685,1.92394504017878,1.91663229637424,1.90635002205989,1.97620449414252,1.977599897409,1.9843833639829,1.98195259086291,1.97448550146372,1.97419145056822,1.97655433827363,1.97394985247626,1.97554697610685,1.97450869420511,1.91125013154906,1.90618635656977,1.89868658829337,1.89086911745473,1.88344085482697,1.87542841158862,1.87503561516061,1.8751055764363,1.87468920688661,1.95499427583031,1.95140093509069,1.84392284871883,1.83068923046975,1.80694213938452,1.80564656247401,1.83039890557137,1.8448843679927,1.79939172348187,1.79821399408182,1.79828243701527,1.79876317262068,1.79950621550936,1.79143072502243,1.79082030261727,1.7901222285147,1.7897735971877,1.78804125459215,1.78698776063685,1.78611054822519,1.82125244634272,1.78068476732353,1.78040307359867,1.8076075137651,1.82566749669402,1.82567259057816,1.82568745437993,1.80908327097673,1.79571654824792,1.80915167294359,1.80203147132477,1.77609497226092,1.77585278646028,1.77622043330121,1.79202330425903,1.80283496975134,1.81031655904109,1.77670310102328,1.77607517102184,1.77628827415247,1.77655088008033,1.77632253745603,1.82241745505905,1.82225161107411,1.79970320461226,1.774974659683,1.77535377178044,1.77542596905071,1.74221540169578,1.67426071558339,1.67145821115097,1.66892235875283,1.66920265678321,1.66768793976609,1.66600759747584,1.70348631897254,1.72898909800302,1.71557874917377,1.71123193973604,1.71137598701175,1.71920068676148,1.72073395661473,1.73077615377661,1.694296972641,1.71332752074235,1.69239266907154,1.65340321815105,1.65290653350753,1.69220731495667,1.71247098899961,1.6857295345145,1.67727086478679,1.66684115663907,1.64944092109374,1.64955388221141,1.64986236139314,1.70019197204469,1.68138732780667,1.64723353492187,1.64809347288083,1.68093489977802
1.91002444453694,1.91041443097009,1.90938943007272,1.95909833062377,1.95944728787103,1.91169334349483,1.91103218439914,1.95850668975528,1.84476546011929,1.84115095196186,1.84130007225262,1.91994648141219,1.91932631056037,1.9554966318268,1.9178109116528,1.95220964495474,1.92651815968584,1.9268122899591,1.93590306644204,2.04467881821361,2.00275617853808,2.00725147522473,1.99326901818082,2.01132427397716,2.01007443106819,1.91772379929329,1.91831983936343,1.91667308057951,1.91778511431528,1.91381174665847,1.91786296415048,1.9117325743501,1.91727299840844,1.91297191857757,1.91310067868134,1.98693030524501,1.99566194243209,1.98529447038436,1.98348892838128,1.99613971025947,1.98572307822911,2.01250511002039,2.00180383871986,1.99898648106056,1.99914998458309,1.9770439999442,2.01601797760774,1.995637656807,1.995110808037,1.99521578872942,1.909453792576,1.98261504670753,1.9903917009676,1.99137107473336,1.90725810870557,1.90702191852675,1.98989725792517,1.983620721955,1.99095269102368,2.00487353813254,1.90280327633137,1.9888464884588,1.99180449403413,1.90070197690908,1.8997831751727,1.98462993999386,1.89739905101713,1.89819452360803,1.98067391819393,1.89712097530234,1.97532577244711,2.00507342120574,1.96309768939055,1.98974166548579,1.97755963403729,1.8910795329693,1.97516397922404,1.97217694253773,1.88644313058773,1.97079201956415,1.96828824320329,1.97299786565624,1.88565327743009,1.97222483825344,1.88296002487113,1.96939525138126,1.88018841265784,1.87727606149995,1.87775354479039,1.87697456906715,1.87551307797566,1.87437475990447,1.87309525429742,1.87543415237299,1.87402047192728,1.95364746736969,1.94434195931186,1.95190423810438,1.85866367595682,1.80827047856103,1.80576109850652,1.80220654497805,1.89293445008027,1.79942193236917,1.79808604206969,1.98874224906186,1.7953380682064,1.98851384068183,1.79180523668188,1.88374101335851,1.78960987279678,1.78914876389104,1.7849175773285,1.78403992961271,1.7851015036852,1.8743096506664,1.78168278626063,1.78104055080283,1.77920064609284,1.82762140018277,1.82718434109385,1.82690079075602,1.77814023185356,1.77859705037351,1.97144031427452,1.88168533736375,1.77597568823956,1.7757043632776,1.77734650445027,1.77859640273223,1.77362880367739,1.88880406578252,1.77827406175215,1.77561630991663,1.77490144609877,1.8210809438832,1.775468631392,1.82258098312141,1.82218932755259,1.77436828838293,1.77340186716501,1.77332825368915,1.96658663619887,1.72323654236301,1.67374990870058,1.66805187955817,1.67087707001433,1.6672634242399,1.66788433276995,1.6652670676718,1.66430488514162,1.808179079683,1.66164241660226,1.7070027715008,1.71429940350196,1.79043619657897,1.80458798562443,1.74879924469049,1.65281062183194,1.75545655262727,1.75528524585475,1.65223454040931,1.65192335413983,1.80223094478637,1.80030216291055,1.69727724753376,1.69641389238602,1.69588395270795,1.64967655075129,1.64974730463175,1.64958422467299,1.79452850692478,1.64712543497672,1.64672975672824,1.64822457428965,1.6471863062587
1.90978714198759,1.90924586147087,1.90876384068938,1.90929410435551,1.91018193673601,1.91224901390882,1.91202765972313,1.83981046596801,1.91148888743419,1.91075003631391,1.91445158928416,1.91526578320464,1.84481859331963,1.84626905746895,1.91938214318122,1.85020304725941,1.92615313076656,1.95131180593437,2.03160679066123,2.04001732303627,1.99977532721586,1.92195020012872,1.92278116677578,1.9227800839095,1.99899202184182,1.91889884678884,1.91638790406781,1.91783864883652,1.91495712829562,1.91836356825188,1.91023492666033,1.91830047605345,1.91048412134581,1.91343531944236,1.91345562284833,1.99707868189891,1.91279646040371,1.99863078919959,1.91267745902513,1.91264849000311,2.00808351391258,1.98596268383172,2.00844237667054,2.00910317569739,2.00920404574465,1.9992299314256,1.91035618005521,1.91105459754602,1.98549403700878,1.90973198130496,1.99425856010343,1.99505583931069,1.97674318392682,1.98320803352176,1.99788243593145,2.00212931103613,1.9825564339729,1.98408183101408,1.90276552571402,1.99006512842257,1.97549457984193,1.90185723784567,1.9785305901873,1.90016832194435,1.98194233472351,1.98117434639977,1.98175836069632,1.97937992600489,1.98058687664449,1.98471245270195,1.89566583190072,1.98256563670249,1.97356991898485,1.97146327152735,1.89104056219831,1.97752946947157,1.97694723038031,1.97210773299027,1.9702300465969,1.88739727172528,1.88590688444472,1.97075118297527,1.97394964942582,1.97683163470962,1.97051492557586,1.87986758561592,1.96341698935258,1.95235451881963,1.87718644405698,1.87785294777162,1.87404336184285,1.94621070530736,1.87351485148161,1.87225972126752,1.87438451639946,1.87373690312247,1.94951538105079,1.89085211118012,1.81087947636239,1.9889992084894,1.90385046724258,1.80277381429555,1.98459283015797,1.79883158456391,1.79786707199479,1.79799107449021,1.79495100184963,1.79433775797605,1.79204075047163,1.79024419937234,1.98250569485952,1.97710586530314,2.00322712823685,1.78454995111464,1.78408901150162,1.7823189857222,1.78158218151096,1.86318425915573,1.77951252676387,1.7808961745898,1.8503838215685,1.84908950570439,1.82612301244379,1.82609203256801,1.77767387226329,1.8278745436168,1.82813467548037,1.77808552251199,1.82385043163474,1.77370476599189,1.77334992518166,1.77781477041002,1.77717406068454,1.89337510743662,1.77285163851084,1.77663043186984,1.77497481084497,1.77599863633624,1.82269779939729,1.82365740707858,1.8233550205418,1.77443174307173,1.77378107997839,1.67386860582421,1.79854468760699,1.67134281684414,1.66610834274008,1.66827296462372,1.66495970036115,1.81127845479371,1.66314259900659,1.8078491564674,1.75244426232962,1.65891777635044,1.65586391520276,1.65486174000814,1.65605996347356,1.85442860458788,1.74680210381051,1.74562833803674,1.69932027879305,1.7998729939149,1.79983057042308,1.75449042015959,1.64955681282019,1.64826655869956,1.69610473988605,1.64746355038693,1.7991754868002,1.79869122914237,1.80013480199633,1.64553099196987,1.64700077280646,1.79307977411766,1.79432743618405,1.64722405381344
1.91073999662794,1.96366491234792,1.91004403925283,1.9102220536184,1.95934894536938,1.83848760076198,1.91098854756211,1.91080496529325,1.95689831355298,1.91021133590412,1.9164862315502,1.95374816196563,1.91669843861932,1.84559749329418,1.84676551382361,1.92120087933785,1.8505837278928,1.92725853084845,1.92730182627489,2.03656308306178,1.87166866474308,1.99233020610432,2.00546895754734,2.01096599076701,1.91930009519729,1.91799923690366,1.9176124621407,1.91628890783869,1.91724273672046,1.91256870105749,1.91817503094654,1.90876892691075,1.91630223678272,1.91238707456291,1.91422941747924,1.91338692037463,1.99159328208685,1.91205938209439,1.91260378535338,2.01911131563143,2.00597788847196,1.99698867836559,1.99561008453148,2.00630141600285,1.90982339554457,1.91011291204611,1.90983241359011,1.90984860587737,1.99206305645854,2.00558781784734,1.99168921234518,2.00284636087243,2.00141165890972,2.01129253941189,1.98602019077565,1.90614406633531,1.99571701299777,1.90385046551916,1.98611141774823,1.90359230918529,1.90319625876061,1.90231833118284,1.99167507571858,1.99072971886122,1.89991993797947,1.98112301103402,1.98017323576399,1.9889093223339,1.98847355117802,1.98371162317026,1.97563790567751,1.89365774162094,1.96612073998636,1.97645178629538,1.9772986628019,1.97183053131902,1.96535289351402,1.9759870468101,1.88738343448315,1.88627232847714,1.88672065761449,1.88513651957107,1.97631044625815,1.9669748401447,1.96060592135585,1.96836798875814,1.95311839645567,1.95250744668895,1.87687593683309,1.9493322864907,1.87481025596437,1.87471943382065,1.87308507473327,1.87505218443139,1.87219273682818,1.94423067516843,1.94982648572951,1.89658709544419,1.80842505877172,1.80832841768607,1.80735685954009,1.80236008577377,1.80163113422721,1.9033720401267,1.90303085184922,1.90630458647155,1.90975544255166,1.98330291095215,1.9018573356091,1.79057335841797,1.78994393564944,1.7889008543399,1.7880353847212,1.88441672148276,1.8337481280303,1.97264897528552,1.7819546424276,1.7812004152643,1.87203508388192,1.7818838593339,1.82910946113086,1.82806614230902,1.82728762423437,1.82756652169617,1.82823292336946,1.77878196331026,1.78039921645309,1.8839408865665,1.89647474997719,1.77887408552564,1.77851423740242,1.84283687872684,1.88793547158563,1.89359079530086,1.77660021767621,1.77521250186303,1.88942315821686,1.88868493924235,1.88261467818012,1.82433717656522,1.77642483782332,1.77609067990332,1.77597901999305,1.6724093300629,1.73219205264094,1.66533265988241,1.66797421860635,1.66551640331896,1.66470657833734,1.66027245640522,1.80869934350253,1.65747395987975,1.65621771378958,1.704501929579,1.6549085473993,1.65342374385985,1.65253562527223,1.65293077345832,1.65330029025887,1.65464894692792,1.64976548837922,1.80195476835736,1.6492589172303,1.64894236176393,1.80210405152914,1.64737721933497,1.64751896911904,1.64647977574342,1.64642809906413,1.79738788723619,1.64382738565949,1.64471096095971,1.64560421197013,1.64491411436491,1.794428204587,1.79534594353522
1.83977715678127,1.83475396009955,1.83920925574783,1.91087338816234,1.95913957102102,1.90807101776726,1.90881500852637,1.90958802297521,1.90865249043045,2.04245628643245,1.95616550328694,1.84463256245878,1.8447260708107,1.84457474187475,1.91880063518781,1.92097391259909,2.03941084136538,1.85397186741408,1.93261609983194,2.02871352180901,1.87176384652937,2.01252929123335,2.00442637689075,2.00548351237854,2.0011623319443,2.01310793990804,2.00229473821845,2.00130312887542,1.91472952171382,1.91567003600018,1.91179149587644,1.91657577617493,1.91118322964308,1.91318197026816,1.91317461051593,2.01256330408826,1.99609371087876,1.91264140223568,1.98483544319784,1.99322140366759,2.00030509055712,1.99906583815581,2.00115644495691,1.91046942310011,2.00116041214645,2.00016656809136,1.98655208973119,1.99289261157257,2.00224367323184,1.99404202215816,1.90757684655837,1.9075512224837,1.99713234255664,1.90749906906236,1.90650715069754,1.99086573960045,1.9835994000298,1.99875448886036,1.97607946973202,1.90315744648781,1.98836156842848,1.90237882312303,2.01469512342735,1.90035760092827,1.9909662746172,1.98439111186585,1.98610098426604,1.97806352080184,1.89733928938977,1.9795617978695,1.96781584584551,1.99658043761626,1.99156307773344,1.97538529577201,1.98150221700536,1.97312237548723,1.98323378771667,1.89009278066875,1.97417169781906,1.8868505936906,1.96932730103741,1.97715777275927,1.96972008334194,1.96642384229837,1.95240655388732,1.96084210227813,1.95561401755006,1.95771746649943,1.95206599717533,1.87545422469869,1.87568336901338,1.87366608763998,1.87501761062421,1.87177076231927,1.87334558096419,1.95476322457261,1.95612148491238,1.80860966383389,1.80848729876743,1.80814521649612,1.99303442320327,1.80396597602769,1.80295509281304,1.80184344482166,1.9034582340651,1.98649552854311,1.98587478217638,1.98664765880818,1.90339395592773,1.78977193571577,1.90392051187881,1.89058362238712,1.83494854655103,1.78714623821579,1.78619636285816,1.90070985201716,1.78540625238903,1.99772631200974,1.78377926915305,1.78258105432952,1.78202744319914,1.78111038223053,1.90007221253071,1.77919535451361,1.77900006893321,1.78030264786911,1.77967022127821,1.88515906111255,1.99112150302052,1.77945283341692,1.77865071462161,1.77874781918141,1.77925990747965,1.7779678425894,1.7761691924651,1.86692444723505,1.88981111197145,1.7778465163098,1.97221119255713,1.77770656445401,1.97841608704678,1.98958946273119,1.77644865824256,1.77500110844181,1.66842190909003,1.66682524364281,1.66561307570548,1.81177016699127,1.81072963992668,1.65895914666461,1.65876312833786,1.70558139030062,1.70593495745911,1.70464654670756,1.653814002034,1.80591402991436,1.80554603863542,1.65306200144143,1.70255605083412,1.65094089999862,1.64762051794571,1.64789126145201,1.6476942884945,1.80519708167539,1.64728872009442,1.79904908944623,1.64721458416261,1.7983948047613,1.79855664166082,1.79754809433157,1.64440346326753,1.64538424825412,1.64171516189753,1.79445237079811,1.64373903495825,1.64306723454126
1.90155046451141,1.90170878670091,1.90201961686263,1.91113714848248,1.91090539649491,1.90953575393812,1.90932513609515,1.90874415343722,1.90671277298836,1.90166113120686,1.90363172391388,1.84698990302602,1.84659856091637,1.84596930195133,1.91961774511896,1.92012898490135,1.94621289985245,1.94239458288042,1.95006606145304,1.96275403165272,1.95807605362945,2.00660685558131,2.00612168889733,2.00293037862667,1.99861953423096,1.99692835656048,1.99671141277267,1.93856370106576,1.91559517384567,1.91509246735484,1.91464456040412,1.91336594995903,1.9136614563207,1.9132091060937,1.93614179933259,1.99888359846798,2.00151203266178,1.99660353533648,1.99345435570351,1.99493399363338,1.9945980699385,1.99495327415022,1.99576969066466,1.99659058532645,1.99833552551811,1.99920320255026,1.99192140817737,1.99148488724247,2.00474928209386,2.00099071345831,1.97638523020671,1.97723159080034,1.97827760651122,1.90792391497201,1.90764751788202,1.98540165782664,1.98417383470981,1.98609287312921,1.99063750953641,1.9519868453604,1.95200203788179,1.95210550480176,1.95224509712769,1.95234102717375,1.98933872540356,1.98815770787969,1.98702870580165,1.92437848404636,1.91603045683767,1.98414215798278,1.98581888297124,1.98272323332248,1.97587353457166,1.97336364853629,1.97514080484184,1.96655859265648,1.91757628013112,1.90785190667275,1.9675785019282,1.9667372629904,1.96589801938293,1.97373168143984,1.97048200171456,1.96214372326567,1.96416039103079,1.96393204684435,1.95169553382551,1.94951436693093,1.90244159169991,1.8912985715349,1.87478563951289,1.8744358939875,1.87255838971166,1.8731003691921,1.87246908196917,1.95692437904274,1.95395726138052,1.84198249597507,1.81674322693995,1.82268651807237,1.8302147059946,1.83853794363933,1.84548689900708,1.84922033414282,1.89074453951702,1.89086107050626,1.89049693659263,1.89676285521256,1.90512761043533,1.90881766907929,1.91043215242184,1.85138778478393,1.83478648612156,1.81896988229964,1.78646006351067,1.78662668782534,1.7860914625566,1.82517469276429,1.81885240086619,1.81157098451042,1.8037335397282,1.79671013120106,1.83107257534679,1.82137408494576,1.81325724068386,1.80402927457523,1.79359686294685,1.82917516156252,1.81482593989745,1.80389796793074,1.77843481461679,1.7778582598712,1.77759399650904,1.77658769444769,1.77567090960454,1.77587103030166,1.77705671274585,1.77824612372434,1.77919886411617,1.7797636519829,1.78001889320076,1.7792848863937,1.77801850314422,1.76892075587654,1.69866326809992,1.66569727712566,1.66588858175558,1.69473449341681,1.70695137766279,1.70618757002264,1.70595361488561,1.70588385433207,1.70592674247513,1.70554608552908,1.65414236919478,1.65378977482018,1.65331969551329,1.65395578047086,1.65276473787379,1.65378330307243,1.64678879470674,1.64680876833741,1.64748878760531,1.6468805118798,1.64680231983012,1.69722394987706,1.67842868038445,1.71073956431133,1.69338858892128,1.6750931906851,1.64452571455172,1.64456525415576,1.6425089788011,1.64387401597052,1.64451398121338,1.6446961505696
1.9096099691493,1.90992613451807,1.96220880867646,1.91084905617981,1.90927213589021,1.91045467776143,1.909074597346,1.91018886361886,1.9101452680069,1.84035299298813,1.91239487755624,1.8407920485997,2.03932487009952,1.84541311506091,1.92003142937288,1.92069994202925,1.95100719939982,1.92613136707841,2.02010497937557,2.02755527426492,1.94530462628619,1.99580013959027,1.9215305294214,2.00719563518446,1.99645428364789,1.99211286062833,1.99490443359234,1.91536674311155,1.9146635865878,1.91437432182359,1.91379945660262,1.91173223895696,1.91251562031024,1.91187849415504,1.99303846592463,1.9880264734316,1.9976586578422,2.00591909942529,1.90945844239767,2.0100318134839,1.91304214943884,1.99200820423244,1.91073765597739,1.98941081711006,2.0011248541812,2.00097361953918,1.99558641202889,1.9916389143124,1.90840444353381,1.99115233120915,1.99394600104048,1.99863629656875,1.99043615273059,1.90642125772726,1.90632114948365,1.9880964892677,1.98830624106734,1.98833884660342,2.0027706013359,1.98061472004378,1.9029130474982,1.99258712345905,1.90094607456633,1.98512594049267,1.99073583875736,1.99193717871189,1.98928565792743,1.89691026142676,1.89639274675444,1.98733961106972,1.98505274262434,1.8935521502692,1.97752968383996,1.98563244586949,1.9721321920207,1.96927049187221,1.88927817965619,1.88827279929846,1.96258951827167,1.97992946310119,1.88484585239285,1.97804926325804,1.9859293091671,1.88203969475292,1.96665984003203,1.96560860569744,1.94679293340503,1.94612218876368,1.87443061757831,1.95029350509,1.87611360715471,1.87005707906495,1.87400363021778,1.87050017422381,1.87173670690802,1.96706244538838,1.94619311384644,1.96334150454077,1.81119686589426,1.99169252397059,1.80614438158229,1.98507822646758,2.00009598396884,1.98373155963807,1.89404462877373,1.89502130251757,1.79544213821818,1.89002983138678,1.79159448435483,1.90068563455975,1.99095971375133,1.83722307402568,1.83495605195487,1.90238484737852,1.78572610503794,1.78600851962643,1.78500395080314,1.83245220005306,1.99146411559056,1.89968158027194,1.89684899708867,1.781442883876,1.97897781413704,1.99158641979977,1.99199882662625,1.98308894688439,1.77827759915094,1.98685787992661,1.77891937715837,1.8941198075454,1.78025907652802,1.77650467303201,1.83152764062108,1.82998930550313,1.82996251242025,1.77646327181068,1.77781819101918,1.77834221558193,1.77785081810043,1.97626544130268,1.77877886144983,1.77851557541262,1.77787808420815,1.76157226856379,1.72510186709548,1.66561869594429,1.66491691625807,1.66110206453638,1.70826616199682,1.79391904284839,1.79319423908804,1.7934897641534,1.79206663679811,1.79210227734285,1.65376960888593,1.65047638840788,1.65032934008749,1.64856437524899,1.64930507945917,1.69893959931018,1.64632294644718,1.64635239681498,1.64438383547719,1.64634565237329,1.64583311461251,1.79863985776534,1.64151474289848,1.7964490322058,1.64141124263253,1.64022054413161,1.64398052507267,1.64094476509467,1.64269999856111,1.64140882665192,1.74193747742268,1.63994101306405
1.91023604640215,1.90940556110216,1.90995131701734,1.9068928923985,1.90936063256033,1.90833318117865,1.90904963514801,1.83907131135876,1.83843684363645,1.9128075650886,1.8387635942262,1.91388840996337,2.04427435400573,1.91679973916123,1.91785910521384,1.9495670062424,1.92295845902213,1.92365212769739,2.01949447149899,1.94701014173505,1.9948413141168,1.99396059915548,1.9929531245903,2.00633113288684,1.99461072223401,1.99562067514713,1.91587045651408,1.98893258937855,1.91396658363469,1.91297531461931,1.913066770832,1.91332408504914,1.91076390813146,1.98700519342204,1.98570115747402,2.00508282797179,1.99783571107415,1.9933729841803,1.99615952349611,1.91004287077613,1.99227003053334,1.9902508531694,1.9976281930959,1.99770540908084,1.9095226069566,2.00271918609418,2.00444439119314,1.99112575272508,1.9864799871478,2.00253284152914,1.90585855614751,2.00239735367624,1.90671508728539,1.98798065468738,1.99530680930765,1.99948826742141,1.90426921421589,1.98739931891395,1.97909713271532,1.90264309671431,1.90182391666721,1.90092242025141,1.98052989287514,1.98575950129681,1.98437684185176,1.98352472028214,1.98652219797123,1.89656294644381,1.98979720743245,1.97660010529046,1.97787978139903,1.96904195755641,1.89672222065762,1.96326978831604,1.96351722783186,1.88970817998892,1.97821918532213,1.88815072846975,1.88753707406123,1.88669758085277,1.88500048638768,1.97041612801524,1.88246983463278,1.88092906918328,1.88087728215875,1.97351194827679,1.97916073397824,1.95894446763516,1.87383314958685,1.87580497642832,1.87427440277739,1.87421709738614,1.86916807290963,1.87296439961216,1.95871606410426,1.8714921038362,1.95660685561278,1.81245179220652,1.81064038671939,1.8078905318094,1.80265421593606,1.80276915433408,1.8030594950532,1.98603467340203,1.84710330378263,1.79663176512634,1.84327466116799,1.84148546219109,1.79184992834497,1.79219595975118,1.83748782294496,1.84546105233138,1.83526835080992,1.83459107076008,1.78594126786423,1.78593078497895,1.78594642592117,1.78571348121529,1.89598314652625,1.89497473649159,1.78274482681464,1.78365192630573,1.89699821526718,1.98233712540518,1.89865417602241,1.77866305293406,1.77775749102329,1.78004902521687,1.77887467687759,1.8941787604826,1.89398276251738,1.83340400578481,1.83135140950066,1.83122803597895,1.83089210955602,1.82985222417704,1.82879660592815,1.77762883596793,1.77747393348005,1.7776247766021,1.77846408607775,1.77952748689339,1.77875914613765,1.810392230642,1.66341587774322,1.66013391687774,1.76141880883614,1.66075351550955,1.65984198301382,1.65679381297043,1.70300524634798,1.65598931066471,1.70058252647771,1.69980112375314,1.65092060891099,1.81270124711834,1.80862816215566,1.64772207970544,1.69896497772905,1.74957012354757,1.64575528014646,1.64662968592612,1.79614639961667,1.76616779916314,1.71254893137643,1.64259119249622,1.64087468465817,1.80314331759822,1.64172265628494,1.6439545154464,1.63888337328018,1.64400704663677,1.64139416638633,1.64095273273252,1.63965358884413,1.64240725711148
1.91030043156872,1.90986195896566,1.90895241582656,1.90852009940309,1.90684856194638,1.91048944928248,2.04859476164578,1.95686024486694,2.05154503655451,1.91197641224524,1.95493779532367,1.91382244383143,1.91417333626619,1.91465945311697,1.91986110122906,1.95027761363059,1.85056469386113,1.92284427891146,2.03907798225419,2.02543401828147,1.92086407487229,1.9898948562508,1.91992470526384,2.01949228272205,2.00788261427462,1.98915520569195,2.00987458530406,1.91351506687396,1.91278873683998,1.9154986403078,1.90915390834136,1.91191292456851,1.91137667921831,1.91120241491056,1.9106980262762,1.91118203571897,2.01287795457147,1.9997403553716,2.00612578806575,1.91079154268845,2.00130239690339,1.99644195152666,1.99700555692283,1.9098081174302,1.9951951787279,1.90864704149981,2.00570249755424,1.98472555108994,1.97846992427516,1.99001813643631,1.907038666111,1.97619892516793,1.99635585443118,1.90624875379673,1.90560159671997,1.9890060087093,2.01039336477844,1.98737911771284,1.98951276634671,1.98514386574965,1.99930180483535,1.98746695739699,1.98666172958216,1.98438268928049,1.89971745762779,1.89809561733367,2.00146669627402,1.98283803448806,1.89560872980638,1.98476568417391,1.97579251069115,1.98915977791027,1.98492085366555,1.97589439513275,1.88997465643229,1.99361528935374,1.98242461379604,1.96953635825276,1.9898082637813,1.97656727193622,1.9729095238841,1.96573131320288,1.96630304588563,1.97260198097546,1.88043528843258,1.96643856378553,1.9624991069681,1.87660529392819,1.87518974271613,1.87340059717921,1.87514060377752,1.87043093359897,1.87260500849554,1.87176192660673,1.87199899351641,1.87141469699298,1.94267017751797,1.81345129266043,1.80940653608634,1.80907833344312,1.80656440981831,1.85142122727271,1.80243396685141,1.84792363099978,1.84709634054595,1.84403179701811,1.8745282390912,1.79263119472268,1.79216062727152,1.89989456128123,1.899831114509,1.79018874540631,1.8753184774458,1.90366865953702,1.89986971075662,1.78572001183435,1.78508443989563,1.90134749265255,1.78403123616131,1.98176625590037,1.89741696453838,1.83112143223442,1.7814165826401,1.78233337228578,1.78184972511575,1.78060263966314,1.77966414454271,1.77921123277914,1.99051243399257,1.89328231014124,1.78020387798685,1.77974140194045,1.7783366755187,1.83093661227682,1.77772021830184,1.78003475818819,1.7795815892183,1.77776954664157,1.77831523073746,1.77844421749707,1.77765182292467,1.88433106834025,1.7777862591169,1.80974728874279,1.8139717915819,1.65986493897494,1.66020682153086,1.80683400839895,1.70494402911548,1.70366964206548,1.70297496540663,1.70144135167238,1.70081684085658,1.6478037081892,1.80884433473924,1.80746999598748,1.80725428165638,1.64648991552832,1.69800058679114,1.79306288648625,1.64470121534162,1.79497580666901,1.64260979250655,1.64172608107609,1.76282010363151,1.64263606486781,1.64199704917851,1.641391960966,1.64288867298675,1.63862107305862,1.6408679600656,1.63593642944644,1.79404313911722,1.63854893783589,1.7951661469857,1.63846764975988
2.05160237745544,1.9113759139818,2.03751695521429,1.95719903321864,1.95635228715432,1.95688094791874,1.83704070722605,1.90818873406088,1.90747023170322,1.83866213506162,1.83837028135129,1.9597439012393,2.02216600867304,1.91397763100577,1.91896382615594,1.91886401069765,1.92287167741116,2.03090262920923,1.85739799921734,2.03538120614703,1.92133195121876,2.01108174428986,2.00315318381057,2.00701569313966,2.00672326572718,2.01081523100681,2.00848863081733,1.91365235760126,1.91409298007935,1.91237993864959,1.91322801648977,1.91212375560908,1.91107493238239,1.91260121359315,2.00084693424427,2.00452797609387,1.9940143807355,1.99360484444187,1.9952305503569,2.0011933828615,1.91105913655137,1.98907842391308,2.00600728204619,1.99936271115745,1.98008292302602,1.97776574169983,1.90777414322048,1.98015718210041,1.98630448917236,1.90695167070513,1.99318812774071,1.99595469858012,2.011392675628,1.99090163747168,1.98526943831498,1.99627468692377,1.98239022023958,1.98319984925201,1.98467320589704,1.98379442412849,1.90080617221028,1.99177428243671,1.98358124027039,1.98358220143181,1.98233246264153,1.89885712280402,1.97624981775426,1.97585232970711,1.97655867326732,1.98503938360817,1.97379994218786,1.9719092009179,1.97751454455117,1.89166783991342,1.97237336372521,1.88980256471276,1.97752479122384,1.96704893151481,1.88621380948019,1.88485990327539,1.88437110752651,1.88289084721145,1.9630014608837,1.97072000752849,1.9676305423612,1.96779493321575,1.87660264908513,1.9621421898041,1.87445261784813,1.87385049840922,1.94370773013244,1.87350214301442,1.87317546989449,1.87276374714924,1.94676587557579,1.9460172065968,1.96647238066451,1.81458358560811,1.81450535919018,1.8086623277577,1.80486469820951,1.80437873540401,1.80334594387992,1.8478585807069,1.95695541617423,1.84442066208915,1.88435038982857,1.84060036784199,1.90357447435785,1.79195410638747,1.79138271067393,1.89466894541565,1.89650569960044,1.90162409477925,1.78947496940468,1.89223180564589,1.78524793404751,1.78469201532268,1.980614746608,1.99559449079966,1.78354395914721,1.78310554539605,1.78245270940264,1.82948475856166,1.78459539297531,1.82841855178966,1.78066879741843,1.89052664507412,1.9767507885503,1.78092061867021,1.78043131314632,1.78061534990014,1.77968234861908,1.78224750714932,1.78181968975949,1.78049031148185,1.78012699561135,1.87346263625712,1.77948437709813,1.82544943990786,1.78001277477679,1.78015732328422,1.88464512986279,1.66326161876304,1.66249744000162,1.6587661385831,1.65905576002891,1.65780959827459,1.81123086971454,1.70297093878119,1.65044880262,1.64973153280714,1.64836823133913,1.64830215989757,1.64730546107008,1.64632343039066,1.80706134135008,1.80712780448064,1.64370449572427,1.64191242744395,1.64344702741634,1.64197512340487,1.6396744603261,1.63885574631126,1.75896112470866,1.64062700048872,1.63869671475719,1.63968083120063,1.63878225450012,1.64086431216826,1.79942025306378,1.63696954464881,1.64031714027372,1.78821872542643,1.6384724583699,1.63810444506938
1.97072800364283,1.96632975406005,1.96420853723172,1.96111782164841,1.87028322207195,1.86147557866294,1.85228768843828,1.90154462086589,1.90130896259989,1.87044849582162,1.85849561414735,1.90439126520602,1.90730462123684,1.91182735602641,1.91604532546005,1.91574241405483,1.91813478517081,1.93769708088636,1.94382326780203,1.94392162472216,1.93979627407896,2.00960682182196,2.00766671677889,2.01045767799435,2.0091117026603,2.01503630045816,1.9369956485985,1.91439853231036,1.9142329692962,1.91343021478645,1.91256781440396,1.9122907722757,1.9125238019072,1.91239236207074,2.01134030052299,2.00967927298371,2.00384037059201,2.00408705021521,2.000361906674,2.00071924613678,1.92727778718732,1.9385536856558,2.00762213323409,2.00723162456177,1.9751417252614,1.97431270802534,1.93217070093196,1.98319733710246,1.98518110786569,1.91430100860139,1.91699616539857,1.92171481695795,1.9278930332825,1.93382458953849,1.93776619807114,1.94089102226891,1.98124014330979,1.98170810028134,1.98154681043542,1.92848748803583,1.91937346909581,1.9837526560155,1.98054715626315,1.97881704741765,1.92405286545215,1.91549009854034,1.92375328207703,1.97261019582011,1.97141747535709,1.96943861107483,1.96997743045354,1.97230289702788,1.97664282138693,1.98012310415148,1.97656951879606,1.97425295803478,1.9722098391716,1.96994407492094,1.88621026161852,1.88528095450492,1.8847475279064,1.88420603263714,1.90100192086846,1.91255382636721,1.96424546781951,1.96554991768981,1.90267894533977,1.89390263372979,1.87456381880169,1.87451252404138,1.89528128889949,1.87235729643714,1.87295564259716,1.87224955945249,1.88233940049132,1.89194352841608,1.90296861307257,1.81551862495844,1.81585951827799,1.80737228079368,1.80641036558938,1.8029389577496,1.80286759546523,1.82732230979614,1.84509716422403,1.84442221643494,1.8439556530676,1.82783061042986,1.81682144848919,1.79162560908178,1.7913566326247,1.89397106151793,1.89203308150598,1.89024817236916,1.89003398317507,1.8905946042307,1.78497878060959,1.78469879007904,1.9008938379674,1.89357292298802,1.78383269578767,1.78303190348364,1.78247561004666,1.81666682398316,1.80863193687853,1.80050293633402,1.79317902624242,1.81625213359176,1.83593418353956,1.82510887236936,1.81687004918339,1.80820789300955,1.7994302763977,1.78183137432648,1.78143700469317,1.78080966089207,1.78004989414521,1.77972657347618,1.77956793561643,1.80745866379029,1.79800354950668,1.78045329334116,1.78033158154719,1.66181065636172,1.6613099353484,1.65999075958816,1.65962189771436,1.65933022664944,1.68231246548539,1.69210307308536,1.64994849371875,1.64925141790111,1.64853687375706,1.64803136282355,1.64672034878246,1.64565934549245,1.64489511002299,1.64396509418122,1.64309675174593,1.64250787037056,1.64297273460139,1.64175346633941,1.6407362831761,1.63943535514562,1.69061834850331,1.67155415558371,1.6391161058394,1.63905404858053,1.64140374569015,1.64144608815,1.64032937758455,1.6401705668129,1.64035224049629,1.6392490901477,1.63834368504969,1.63751956819543
