1.94096, 1.94072, 1.94134, 1.93757, 1.98646, 1.93592, 2.07197, 1.98583, 2.05907, 1.98095, 1.92803, 1.92852, 2.12646, 1.92491, 2.04193, 1.9259, 1.92312, 1.92056, 1.91985, 1.92093, 1.96512, 1.91495, 1.91113, 1.96234, 1.96143, 2.03527, 2.03536, 1.90829, 2.10699, 1.90672, 1.90684, 1.9068, 1.90432, 1.90392, 1.95548, 1.90381, 1.90476, 1.90616, 2.01305, 1.9924, 1.99358, 1.99792, 1.95688, 1.90788, 2.04525, 2.04478, 2.04281, 2.07551, 2.03921, 2.03865, 1.96139, 2.07399, 2.03225, 2.03269, 2.02885, 2.02782, 2.14992, 2.07106, 2.15592, 1.94529, 2.01695, 2.14749, 2.16726, 1.9375, 2.01272, 2.01049, 1.93444, 2.00751, 2.06423, 2.14843, 2.06385, 2.00578, 2.00583, 1.92686, 2.0061, 2.00351, 1.92927, 2.00359, 2.00628, 1.93147, 2.05493, 2.14452, 2.01352, 2.05177, 1.94169, 2.02083, 2.02168, 2.14163, 2.15171, 2.11724, 2.02014, 2.12591, 2.01759, 2.1106, 2.11795, 2.0153, 2.01342, 2.01304, 2.01323, 2.0122, 2.01079, 2.01088, 2.08895, 2.01169, 2.09661, 2.09917, 2.09045, 2.09378, 2.01008, 2.01098, 2.00852, 2.11109, 2.10306, 2.00661, 2.10802, 2.08975, 2.08925, 2.09563, 2.11053, 2.10374, 2.09661, 2.10088, 2.08879, 2.09277, 2.09411, 2.08423, 2.09053, 1.99593, 2.09019, 2.08033, 2.08703, 2.08252, 1.99251, 1.99224, 1.9893, 2.07605, 2.07935, 2.08209, 2.08668, 2.07741, 2.06107, 2.0596, 1.98192, 2.05624, 1.97976, 1.97927, 1.97892, 1.97733, 1.97796, 2.05779, 2.06212, 1.9058, 2.09105, 2.00924, 2.00985, 1.89569, 2.00315, 1.89017, 1.9535, 1.88629, 1.88493, 1.88179, 1.93015, 1.92865, 1.87831, 1.87641, 1.9241, 1.96751, 1.87281, 1.86873, 1.97685, 1.98978, 1.86908, 1.86815, 1.86666, 2.00077, 1.86477, 1.86577, 1.86547, 1.86461, 1.86582, 1.86332, 1.86226, 1.96411, 1.96194, 1.99533, 1.86234, 1.86392, 1.86167, 1.79414, 1.94747, 1.78788, 1.95182, 1.78547, 1.7855, 1.77929, 1.7796, 1.77889, 1.77562, 1.7755, 1.77274, 1.77284, 1.76994, 1.768, 1.90064, 1.89779, 1.77095, 1.76902, 1.77001, 1.76918, 1.76735, 1.89906, 1.76665, 1.89904, 1.90275, 1.76797, 1.76577, 1.99403, 1.76792, 1.88539, 1.81688, 1.76588, 1.87909, 1.87749, 1.7669, 1.76709, 1.7665, 1.76744, 1.76614, 1.9003, 1.76847, 1.76782, 1.89571, 1.76489, 1.76528, 1.76419, 1.76638, 1.768, 1.76789, 1.76561
2.01073, 1.94236, 1.94052, 2.04215, 2.04216, 1.93814, 2.07021, 2.06214, 2.05477, 1.98334, 1.92893, 1.93007, 1.92546, 2.03104, 1.92648, 1.92331, 2.04601, 2.04011, 2.12915, 1.91792, 1.97933, 1.9805, 1.91496, 1.96283, 1.91157, 1.91142, 2.03595, 2.11368, 1.90672, 1.90666, 1.90617, 2.10051, 2.0251, 1.95593, 1.95597, 1.95533, 1.95498, 1.90377, 1.90631, 1.9054, 2.00363, 1.9628, 1.90742, 1.90925, 1.90995, 2.16645, 2.04204, 1.9685, 2.03982, 1.96369, 2.04168, 2.03541, 2.03213, 2.03251, 2.07179, 2.0722, 2.15583, 2.16953, 2.17082, 2.0212, 2.0184, 1.94093, 2.01377, 2.01374, 2.01359, 2.01102, 2.0095, 2.06535, 2.0655, 2.06539, 2.00676, 2.00689, 2.06408, 2.00683, 2.00462, 1.92757, 2.00397, 1.92848, 2.00679, 2.00676, 2.00928, 2.13587, 2.05418, 1.93892, 2.01708, 2.02144, 2.04999, 2.05137, 2.13695, 2.13075, 2.09587, 2.09636, 2.11104, 2.11457, 2.1038, 2.01638, 2.01342, 2.01276, 2.01452, 2.09332, 2.01133, 2.10824, 2.01103, 2.01041, 2.12153, 2.11086, 2.08596, 2.08346, 2.12812, 2.10182, 2.10284, 2.10254, 2.00818, 2.00761, 2.09853, 2.08927, 2.0925, 2.10113, 2.09705, 2.09074, 2.09735, 2.09357, 2.09009, 2.09721, 2.08182, 2.0949, 2.09994, 2.08553, 2.07251, 2.08324, 2.07364, 2.07583, 2.06342, 2.09343, 2.08758, 2.0808, 2.0809, 2.08568, 1.98147, 1.98308, 1.98227, 2.07685, 1.98033, 2.05884, 1.98081, 1.97896, 1.97929, 1.97985, 1.97789, 1.97617, 2.07921, 1.95458, 1.90306, 1.90029, 1.89485, 1.89318, 1.94196, 2.01355, 1.88791, 1.88563, 1.88338, 1.87992, 1.99263, 1.92957, 1.87614, 1.92782, 1.96044, 1.96995, 1.87288, 1.87208, 1.92019, 1.91885, 1.95805, 1.86892, 1.86605, 2.00172, 2.0943, 1.99646, 1.8653, 1.8646, 1.86511, 1.91406, 1.86322, 1.86249, 1.86325, 1.99722, 1.99585, 1.99199, 1.86218, 1.86081, 1.94732, 1.94871, 1.78964, 1.78546, 1.88094, 1.83131, 1.82952, 1.88587, 1.82525, 1.77499, 1.85487, 1.77151, 1.89671, 1.77236, 1.77133, 1.89702, 1.76845, 1.875, 1.76831, 1.76663, 1.89915, 1.76545, 1.76736, 1.76721, 1.76535, 2.00712, 1.90067, 1.76814, 1.76594, 1.8965, 1.7647, 1.76472, 1.76768, 1.76881, 1.76603, 1.90281, 1.76814, 1.90007, 1.89912, 1.89963, 1.87179, 1.76809, 1.76664, 1.76451, 1.76226, 1.76563, 1.7653, 1.7685, 1.76869, 1.76785
2.01041, 2.06535, 1.93867, 1.98759, 1.98684, 2.04836, 2.0515, 2.06221, 2.06367, 1.98282, 1.97997, 1.97788, 1.97767, 1.92667, 2.02051, 2.132, 1.92145, 2.03981, 2.04896, 1.91844, 1.97849, 1.91445, 1.91241, 1.91277, 1.91079, 1.91017, 2.11469, 1.90897, 1.90774, 1.9066, 1.90556, 1.90679, 1.90673, 1.9566, 1.95535, 1.90734, 2.00457, 1.95585, 2.01379, 1.90522, 1.90659, 1.99627, 1.99421, 1.95726, 2.08024, 2.04686, 2.0493, 2.04245, 2.04231, 2.04347, 2.04477, 2.03531, 2.0345, 2.03767, 2.02934, 2.07294, 2.02757, 2.16106, 2.02377, 2.02218, 2.01883, 2.06922, 2.06915, 1.93951, 2.01166, 2.06531, 2.06591, 2.0091, 2.06563, 1.93244, 2.00505, 2.00634, 2.0071, 2.0052, 2.01003, 2.00518, 2.06217, 1.92818, 2.05835, 2.00864, 2.00869, 1.93703, 1.93552, 2.0171, 1.94157, 1.94486, 2.02409, 2.12453, 2.04818, 2.02363, 2.1256, 2.09517, 2.09386, 2.01706, 2.01632, 2.01491, 2.01586, 2.01326, 2.01461, 2.01343, 2.01167, 2.01311, 2.10456, 2.09389, 2.09795, 2.10636, 2.09294, 2.08282, 2.10133, 2.01067, 2.00918, 2.00839, 2.08073, 2.00793, 2.00671, 2.00602, 2.09596, 2.07857, 2.10015, 2.00296, 2.10025, 2.09675, 2.10637, 2.08728, 1.99856, 2.08459, 1.99826, 2.09761, 2.08151, 2.06644, 1.99357, 1.99264, 2.06437, 1.99271, 2.08727, 1.9896, 1.98929, 2.09111, 2.08564, 2.07336, 1.98359, 1.98242, 1.98097, 2.05771, 1.98016, 1.97967, 1.97991, 1.97978, 1.97785, 2.07557, 2.07963, 1.95457, 1.90012, 1.89966, 1.89684, 1.89325, 1.89213, 2.00469, 1.93772, 1.886, 1.8853, 1.87992, 1.87889, 1.87801, 1.87624, 1.87812, 1.98654, 1.87508, 2.00466, 1.87029, 1.86892, 1.92081, 1.91858, 1.91833, 1.86767, 1.86574, 1.86534, 1.8654, 1.86275, 1.995, 1.86591, 1.86213, 2.08975, 1.86447, 1.86361, 2.09076, 1.85965, 1.96795, 1.96548, 1.8722, 1.79105, 1.84036, 1.87939, 1.78318, 1.83193, 1.78214, 1.83024, 1.82873, 1.77569, 1.77342, 1.77217, 1.77197, 1.7689, 1.89936, 1.8727, 1.87263, 1.76815, 1.87499, 1.76915, 1.89996, 1.89664, 1.76274, 1.7666, 1.90295, 1.76642, 1.90713, 1.76488, 1.89991, 1.76586, 1.76532, 1.90023, 1.86858, 1.76586, 1.76747, 1.76715, 1.76604, 1.89662, 1.86888, 1.76287, 1.89944, 1.76459, 1.8995, 1.76629, 1.76591, 1.8978, 1.87182, 1.76349, 1.76601, 1.76481, 1.76597
2.0629, 1.94032, 2.22223, 1.93915, 1.93811, 2.06167, 1.93278, 2.05646, 2.06268, 1.93277, 1.9795, 1.98066, 1.92745, 1.92703, 1.92628, 1.92422, 1.97233, 2.12786, 2.13527, 1.91979, 1.91852, 1.91458, 1.91225, 2.13455, 2.0402, 1.90932, 2.11325, 1.90801, 1.90872, 1.90696, 1.90715, 1.90772, 2.12743, 1.9077, 1.95566, 1.90552, 1.9555, 1.95622, 1.90591, 2.09052, 1.9595, 1.99565, 1.99618, 2.0274, 1.97309, 2.04801, 2.04653, 1.96402, 2.04204, 2.04258, 1.96248, 1.96215, 2.03242, 2.03342, 2.03078, 2.0305, 2.03129, 2.02549, 2.16605, 2.17212, 2.01832, 1.94424, 2.07465, 2.01431, 2.01428, 2.01091, 2.01083, 2.0076, 2.06833, 2.00595, 2.15824, 2.0065, 1.9303, 2.13876, 2.00587, 2.00461, 2.00423, 2.00688, 2.00495, 2.058, 2.0592, 2.00997, 2.01138, 1.94125, 2.0204, 2.05182, 1.94976, 2.02787, 2.04889, 2.11219, 2.11656, 2.1068, 2.11774, 2.11791, 2.09414, 2.09118, 2.01495, 2.01517, 2.01457, 2.01459, 2.0132, 2.01183, 2.111, 2.01109, 2.10528, 2.01055, 2.09358, 2.0102, 2.01053, 2.09758, 2.01035, 2.10467, 2.09961, 2.00785, 2.10173, 2.00659, 2.09861, 2.08678, 2.10018, 2.07789, 2.07776, 2.09766, 2.07561, 2.08701, 2.08224, 2.07939, 2.08594, 1.99671, 2.08643, 2.08725, 2.08064, 2.08022, 2.07437, 2.07296, 2.07314, 2.08815, 1.98865, 2.07433, 2.07299, 2.07471, 2.0796, 2.07981, 2.08567, 1.97997, 1.97956, 1.97952, 1.97837, 1.97634, 1.97759, 2.06842, 2.04986, 1.90403, 1.90098, 1.89729, 1.94653, 1.95228, 1.94082, 2.00207, 1.88636, 1.88467, 1.88388, 1.8806, 1.97452, 1.87873, 1.8785, 1.87644, 1.87464, 1.97039, 2.00624, 1.86808, 1.86699, 1.92, 1.91978, 1.86875, 1.86658, 1.8665, 1.86571, 1.86678, 1.86464, 1.95898, 1.86284, 1.86303, 1.99791, 2.0874, 1.86122, 1.86186, 1.95139, 1.96743, 1.96564, 1.79262, 1.79058, 1.83925, 1.78614, 1.78185, 1.83214, 1.78053, 1.8898, 1.77424, 1.89624, 1.94864, 1.89954, 1.94956, 1.76997, 1.7692, 1.8973, 1.89882, 1.76665, 1.76575, 1.86997, 1.76405, 1.76421, 1.76772, 1.89907, 1.763, 1.76468, 1.7633, 1.90275, 1.76195, 1.76357, 1.76483, 1.7644, 1.76458, 1.76452, 1.76257, 1.76275, 1.76516, 1.76539, 1.76519, 1.76224, 1.76391, 1.90161, 1.89888, 1.95531, 1.76492, 1.76488, 1.89427, 1.76287, 1.76408, 1.76509, 1.7657
1.94134, 1.93989, 1.9407, 1.93886, 1.93965, 1.93771, 1.98612, 2.05507, 2.02383, 1.93075, 1.98221, 1.98126, 1.92899, 1.92799, 1.92497, 1.9766, 2.0479, 2.12747, 2.12575, 2.00844, 1.91825, 1.91599, 1.91664, 2.02466, 1.91488, 2.03957, 1.91058, 1.90904, 1.90932, 1.90916, 2.03213, 1.90684, 1.90814, 1.90974, 1.95554, 1.9562, 1.90803, 2.0204, 2.09658, 1.90686, 1.90653, 1.90802, 1.90908, 1.99554, 2.04951, 2.04708, 2.05201, 2.08207, 2.04178, 2.04103, 2.04009, 2.03456, 2.07564, 2.07587, 2.07409, 2.15295, 1.95214, 2.14812, 2.07305, 1.94802, 2.01966, 2.0708, 2.15824, 2.01287, 1.93821, 1.93446, 2.06532, 2.06868, 2.06559, 2.00484, 2.00758, 1.928, 2.00466, 1.92957, 2.00471, 2.00702, 1.92715, 2.06221, 2.05891, 2.05781, 2.05624, 2.01096, 2.01369, 1.93938, 2.13785, 2.05239, 1.94823, 2.02464, 2.141, 2.11816, 2.10309, 2.10695, 2.10487, 2.11695, 2.0929, 2.09028, 2.01398, 2.01386, 2.01461, 2.01336, 2.01241, 2.09403, 2.10183, 2.09272, 2.01127, 2.01077, 2.07705, 2.01007, 2.00986, 2.00985, 2.09416, 2.10486, 2.08492, 2.00701, 2.00546, 2.09257, 2.08962, 2.0957, 2.09786, 2.00316, 2.07765, 2.08926, 2.07421, 2.0879, 2.09461, 2.09642, 2.08431, 2.07936, 2.08681, 2.08713, 2.08427, 2.08344, 2.07124, 2.07269, 2.08363, 1.98969, 2.07035, 2.08628, 2.08002, 2.07858, 2.07419, 1.98341, 2.07247, 1.97948, 1.97916, 1.97824, 1.97741, 1.97674, 1.97718, 2.05886, 2.07158, 2.01365, 2.01363, 1.89679, 1.89757, 1.9522, 1.94262, 2.00046, 1.88664, 1.88462, 2.0068, 1.88181, 1.87857, 1.87869, 1.87554, 2.00156, 1.99697, 1.8727, 1.86867, 1.86867, 1.86576, 1.86847, 1.86868, 1.86813, 1.91678, 1.91507, 1.93985, 1.91401, 1.86191, 1.8615, 1.86214, 2.0006, 2.09011, 1.86202, 1.97174, 1.91087, 2.05265, 1.97539, 1.8614, 1.86808, 1.79105, 1.78712, 1.78565, 1.78295, 1.78057, 1.77894, 1.77657, 1.89596, 1.90286, 1.90013, 1.8965, 1.94848, 1.76862, 1.8941, 1.89775, 1.76766, 1.89976, 1.76491, 1.76583, 1.7639, 1.7634, 1.76388, 1.86155, 2.01324, 1.90602, 1.76248, 1.76261, 1.89911, 1.7628, 1.86305, 1.89677, 1.76447, 1.76641, 1.76301, 1.76007, 1.76534, 1.99999, 1.90138, 1.95447, 1.76364, 1.76203, 1.76162, 1.90724, 1.90648, 1.89674, 1.76362, 1.76476, 1.76197, 1.7678, 1.76272
1.94728, 1.94112, 1.94131, 1.94106, 2.06184, 2.03802, 1.93756, 1.93827, 1.98597, 2.03378, 2.04191, 1.93128, 1.98003, 1.92832, 1.97875, 1.92448, 2.04896, 2.05183, 1.92084, 2.12472, 2.0459, 1.92021, 1.96643, 2.02431, 2.02544, 2.0047, 2.03266, 2.03773, 1.90832, 1.90871, 1.90687, 1.90768, 1.90652, 1.90576, 1.95508, 1.95549, 1.90651, 2.09821, 1.90911, 1.90612, 1.90611, 1.9098, 1.90928, 1.90879, 2.05168, 1.97264, 2.04792, 2.08094, 2.07964, 2.04103, 2.04037, 2.08, 2.07652, 2.03158, 2.15995, 2.07559, 2.02832, 2.02508, 2.15182, 2.14926, 2.02067, 2.01848, 2.01809, 2.01761, 1.93921, 2.07023, 1.93514, 1.93402, 2.00703, 2.0065, 2.00737, 2.0044, 1.93039, 2.1454, 2.13836, 2.00627, 2.05918, 2.00637, 2.05814, 2.0082, 2.0076, 2.01346, 2.05712, 2.01711, 2.01761, 2.02132, 1.94926, 2.05105, 2.13261, 2.09964, 2.10018, 2.11458, 2.09584, 2.11482, 2.09388, 2.097, 2.09346, 2.01443, 2.01398, 2.01317, 2.01036, 2.00996, 2.09754, 2.01264, 2.09968, 2.01163, 2.09717, 2.0983, 2.09729, 2.10747, 2.00764, 2.08435, 2.08287, 2.00738, 2.09665, 2.00655, 2.09227, 2.00591, 2.11003, 2.09391, 2.09073, 2.09847, 2.07323, 2.09076, 2.08953, 2.08593, 2.07684, 1.99719, 1.99641, 2.07285, 2.07559, 1.99272, 2.08037, 2.08034, 2.08242, 1.98996, 2.07279, 1.98709, 2.06885, 2.0872, 2.08644, 2.07183, 2.06887, 1.98107, 1.97864, 1.97728, 1.97655, 1.97737, 1.97732, 2.06162, 1.97697, 1.90322, 1.90177, 1.89907, 1.89686, 2.01028, 1.98582, 1.88864, 1.88651, 1.8838, 2.00657, 1.8796, 2.007, 2.01035, 2.00717, 2.001, 2.004, 1.87292, 1.87239, 1.8692, 1.87062, 1.86889, 1.8666, 1.86808, 1.86666, 1.86334, 1.86229, 1.91494, 1.91347, 2.09293, 1.86208, 1.86081, 1.8608, 1.95599, 1.97197, 1.96969, 1.91109, 1.91253, 1.86119, 1.78946, 1.78705, 1.83652, 1.78389, 1.78286, 1.89505, 1.77845, 1.89537, 1.89542, 1.7744, 1.77152, 1.7702, 1.77009, 1.76816, 1.88686, 1.76631, 1.76634, 1.7645, 1.89079, 1.89226, 1.76462, 1.8992, 1.89622, 1.76429, 1.76164, 1.9065, 1.76308, 1.8998, 1.76403, 1.89609, 1.76523, 1.7644, 1.76074, 1.8981, 1.76532, 1.76272, 1.76214, 1.7627, 1.76423, 1.76204, 1.89568, 1.7629, 1.76187, 1.76091, 1.90615, 1.764, 1.76323, 1.76403, 1.76297, 1.76341, 1.76359
1.944, 1.94142, 1.94383, 2.03543, 1.94106, 2.13789, 1.98789, 1.93518, 1.93447, 2.0589, 2.05512, 2.00634, 1.97978, 2.03853, 1.9245, 1.92492, 1.92471, 2.12572, 1.92246, 2.04533, 1.92064, 2.02886, 1.91692, 1.96574, 2.02538, 1.90973, 1.91158, 1.91159, 1.90879, 2.03389, 1.90694, 1.9074, 1.90593, 1.90632, 1.95844, 1.9576, 2.01378, 1.90732, 2.01296, 2.01386, 2.01588, 1.90927, 1.90996, 1.90731, 2.08717, 2.04678, 2.04727, 2.04665, 2.04759, 2.07943, 2.03979, 2.07837, 2.03594, 1.95867, 2.03236, 2.03155, 2.02947, 2.02528, 2.07534, 2.07359, 2.02064, 2.02388, 1.94079, 2.07166, 1.93737, 1.93799, 2.07282, 2.01357, 1.93412, 1.93177, 1.93099, 2.00617, 2.00623, 2.00626, 1.92943, 2.14883, 2.00443, 2.00582, 2.00658, 2.00977, 2.01086, 2.1469, 2.01236, 2.01619, 1.94223, 2.02136, 2.14282, 1.95372, 1.95557, 2.10675, 2.10813, 2.10018, 2.02011, 2.09403, 2.0175, 2.09045, 2.09644, 2.09337, 2.01339, 2.01407, 2.01385, 2.09684, 2.11, 2.09606, 2.10982, 2.09634, 2.11281, 2.11062, 2.01162, 2.1085, 2.08406, 2.0828, 2.11104, 2.10686, 2.09269, 2.09317, 2.09165, 2.09475, 2.00356, 2.00313, 2.10814, 2.00066, 2.07517, 1.99972, 2.09944, 1.99749, 2.0903, 2.08199, 2.08347, 2.09708, 2.07706, 1.9933, 1.99238, 2.0757, 2.075, 2.0778, 2.08915, 2.07545, 2.08645, 2.07729, 2.07978, 2.07023, 2.06662, 1.97986, 1.97891, 1.97744, 1.97741, 1.97637, 1.97773, 2.06219, 2.07306, 1.90623, 1.90113, 1.89886, 1.8972, 2.00724, 1.98603, 1.88984, 1.88837, 1.88352, 2.00544, 1.8826, 1.87978, 2.09033, 2.08946, 1.87519, 1.8739, 1.87335, 1.96233, 1.92227, 1.86939, 1.86809, 1.86598, 1.99622, 1.99568, 1.86588, 1.86471, 1.91429, 1.91292, 1.91296, 1.86204, 1.86017, 1.86135, 1.95788, 1.85905, 1.99002, 1.99385, 1.91296, 1.91008, 1.79214, 1.789, 1.83738, 1.83435, 1.78184, 1.77847, 1.77738, 1.871, 1.8932, 1.77458, 1.82108, 1.77095, 1.77138, 1.76854, 1.88143, 1.81628, 1.81423, 1.76503, 1.76415, 1.76326, 1.76265, 1.76221, 1.76234, 1.76181, 1.82875, 1.76419, 1.76234, 1.87503, 1.89514, 1.76279, 1.90305, 1.89731, 1.89783, 1.75991, 1.81353, 1.76289, 1.81407, 1.76182, 1.81379, 1.7615, 1.86655, 1.76275, 1.9492, 1.76193, 1.76362, 1.76245, 1.76171, 1.76384, 1.76476, 1.8932, 1.76802
1.9442, 2.06891, 1.94241, 1.94028, 1.93992, 1.94016, 1.93902, 2.05987, 2.13827, 1.93428, 2.04153, 1.93093, 1.98042, 1.92808, 1.93071, 1.92606, 1.92725, 1.92364, 1.92146, 1.92073, 1.97077, 2.03097, 1.96745, 1.96551, 1.91307, 2.11074, 2.0311, 1.90803, 1.96082, 2.1134, 1.90711, 1.90747, 1.90918, 1.90734, 1.90667, 1.95892, 2.01391, 2.01516, 1.90854, 1.90743, 1.90838, 1.9085, 1.90779, 2.08728, 2.05153, 1.97389, 2.04869, 2.04805, 2.0817, 1.96627, 2.04221, 2.07789, 2.03551, 2.03413, 2.03691, 2.07648, 2.07631, 2.15238, 1.95093, 2.02088, 2.02324, 2.07278, 1.94185, 2.07091, 2.01463, 2.01314, 2.07183, 2.16054, 1.93253, 2.00777, 2.00822, 1.93071, 2.00505, 2.00417, 2.06734, 2.06325, 2.00684, 2.00616, 1.93166, 1.93338, 2.05673, 2.0084, 1.9382, 2.05594, 2.01808, 2.02319, 2.02752, 2.05096, 2.12573, 2.122, 2.12144, 2.09738, 2.11786, 2.11502, 2.11876, 2.01656, 2.09078, 2.01462, 2.08733, 2.01479, 2.01169, 2.01306, 2.10128, 2.09557, 2.01073, 2.10011, 2.01053, 2.01137, 2.0108, 2.10785, 2.10783, 2.10713, 2.09982, 2.11006, 2.10047, 2.09265, 2.09093, 2.00489, 2.00402, 2.09684, 2.09729, 2.00195, 2.00157, 2.00318, 2.08077, 2.08421, 1.99752, 2.07299, 2.08291, 2.07822, 2.09253, 2.07583, 2.07432, 2.08706, 2.07394, 2.09478, 1.9893, 2.07411, 2.07032, 1.98418, 1.98607, 2.07705, 2.06516, 2.05585, 1.97806, 1.97942, 1.97834, 1.97715, 1.97708, 2.05898, 2.06622, 1.90357, 1.90301, 1.89774, 1.89623, 1.89284, 1.89159, 1.88901, 1.88708, 1.88312, 2.00625, 1.87992, 1.87926, 1.87935, 2.00932, 1.87402, 1.87224, 1.87226, 1.87262, 1.91993, 1.86992, 1.86692, 1.86763, 1.86744, 1.8659, 1.86524, 1.86502, 2.0719, 1.86513, 1.91331, 1.864, 1.86187, 1.86246, 1.86116, 1.91069, 1.85804, 2.07279, 1.86112, 1.99091, 1.79079, 1.88728, 1.78539, 1.90613, 1.77959, 1.77857, 1.77905, 1.89532, 1.89441, 1.77299, 1.77102, 1.82001, 1.87828, 1.86622, 1.81643, 1.81725, 1.81415, 1.76182, 1.76314, 1.7613, 1.89743, 1.76196, 1.89639, 1.81402, 1.81175, 1.80977, 1.7615, 1.75931, 1.89803, 1.89192, 1.89969, 1.76045, 1.76267, 1.76005, 1.7611, 1.81519, 1.81387, 1.88227, 1.88339, 2.07162, 1.76083, 1.76225, 1.89969, 1.89427, 1.76162, 1.83099, 1.7623, 1.7609, 1.76277, 1.76351, 1.76441
2.14542, 1.94434, 1.94398, 2.14518, 2.14392, 1.9363, 1.93598, 2.04433, 2.14173, 1.93262, 1.93245, 1.98235, 1.92999, 1.97956, 2.05048, 1.92793, 1.92643, 1.92407, 1.92387, 1.92067, 1.92324, 1.9176, 1.96822, 1.91467, 1.98195, 1.98305, 2.00156, 1.91044, 1.96117, 1.91121, 1.95969, 1.90993, 1.91084, 1.90983, 1.90728, 1.95915, 1.90718, 1.90832, 1.90837, 1.95777, 1.90887, 1.99804, 1.96181, 2.09018, 2.08431, 2.05143, 1.96998, 1.96917, 2.04326, 2.04281, 2.04196, 1.96201, 2.03748, 2.03544, 2.03322, 2.0317, 2.0764, 2.07636, 1.9497, 2.02187, 1.94598, 1.94508, 1.94495, 2.01643, 2.01494, 2.01398, 2.01299, 2.07022, 2.06994, 2.00693, 2.00793, 2.06573, 2.06364, 1.93081, 2.00344, 2.06251, 2.00717, 2.06151, 2.00789, 2.00656, 1.93463, 2.01238, 2.05934, 2.01437, 2.05565, 1.94754, 2.02361, 2.05203, 2.14881, 2.11477, 2.02288, 2.11102, 2.09859, 2.10582, 2.01902, 2.01523, 2.01569, 2.09188, 2.01415, 2.01495, 2.01454, 2.01349, 2.1045, 2.01236, 2.09665, 2.1047, 2.01085, 2.01035, 2.09292, 2.09401, 2.11365, 2.10718, 2.09811, 2.08042, 2.09322, 2.00738, 2.09844, 2.08203, 2.09874, 2.09214, 2.09552, 2.08936, 2.00038, 2.00056, 2.00021, 2.10149, 2.09383, 1.99443, 2.09319, 1.9956, 1.99285, 2.07348, 2.0795, 2.08612, 2.07358, 2.0768, 2.06945, 2.07451, 2.07459, 2.06525, 1.98347, 2.07942, 2.07036, 1.97953, 1.97811, 1.97606, 2.05801, 1.97643, 2.05554, 2.05212, 1.97565, 1.95352, 1.90237, 2.08995, 1.89656, 1.89572, 1.9408, 1.88657, 2.01218, 2.01039, 2.01048, 1.87993, 1.87677, 1.87838, 1.97517, 1.87264, 2.00739, 1.87404, 1.98157, 1.8685, 1.91873, 1.8667, 1.86568, 2.08769, 1.86572, 1.86578, 1.86277, 1.97159, 1.86288, 1.86261, 1.9128, 1.91052, 1.85773, 1.86169, 1.86057, 1.85813, 1.85899, 1.90982, 1.90895, 1.78857, 1.88632, 1.89267, 1.87854, 1.78135, 1.77911, 1.77549, 1.77484, 1.77354, 2.01351, 1.77176, 1.76882, 1.81845, 1.8767, 1.76565, 1.76458, 1.87235, 1.76273, 1.76104, 1.89959, 1.89919, 1.7615, 1.81079, 1.81111, 1.81151, 1.81011, 1.81059, 1.76139, 1.83081, 1.89713, 1.76104, 1.76074, 1.76239, 1.89742, 1.7604, 1.82505, 1.75797, 1.87985, 1.81135, 1.97672, 1.76383, 1.76279, 1.89896, 1.8959, 1.89364, 1.76406, 1.76006, 1.7625, 1.7655, 1.76223, 1.88207
1.9475, 1.94681, 1.99332, 1.99258, 1.99283, 1.94013, 1.93813, 1.93729, 1.93445, 1.93444, 1.93328, 2.05553, 2.13839, 2.13522, 1.9279, 2.05185, 1.97505, 1.97596, 1.97554, 1.92117, 1.92362, 1.91794, 1.91703, 2.11927, 1.9661, 1.91332, 2.00109, 1.96243, 1.91052, 2.01896, 1.95954, 1.90753, 2.02785, 1.90894, 1.95805, 1.90709, 2.10318, 1.90787, 2.12878, 1.90929, 1.99764, 1.90834, 1.96198, 1.99853, 2.08572, 1.97273, 1.97001, 1.97082, 1.96962, 2.04135, 2.04215, 1.96201, 1.96109, 2.03809, 2.07996, 2.0316, 2.07657, 1.95105, 2.15255, 2.02684, 2.02734, 2.07175, 2.16225, 2.01719, 2.16231, 2.01236, 2.06995, 1.93624, 2.06947, 2.01078, 1.93227, 2.00454, 2.00434, 2.00598, 2.0058, 2.00629, 2.00665, 2.00696, 2.00801, 2.00774, 1.93452, 1.9347, 1.93749, 2.01539, 2.02388, 2.02481, 2.05194, 2.05211, 2.05024, 2.12138, 2.13073, 2.02158, 2.10448, 2.09721, 2.01808, 2.01725, 2.09261, 2.0141, 2.01299, 2.0129, 2.01177, 2.10019, 2.09759, 2.09926, 2.09977, 2.0998, 2.09248, 2.10264, 2.01102, 2.09622, 2.0107, 2.01025, 2.00829, 2.08226, 2.07943, 2.00817, 2.09729, 2.08406, 2.10315, 2.10076, 2.10324, 2.08349, 2.08944, 2.07974, 2.08752, 2.09446, 1.99607, 2.09208, 1.99636, 1.99625, 1.99227, 2.09326, 2.08893, 2.08332, 2.07713, 2.07874, 2.07983, 2.07242, 2.07275, 2.07078, 2.08027, 2.05846, 1.98074, 2.05461, 2.05885, 2.05822, 2.05785, 2.05588, 1.97849, 2.06251, 1.97558, 1.95284, 1.95089, 1.89679, 1.89549, 2.10336, 2.00658, 1.88898, 1.88467, 1.8833, 1.88297, 1.93032, 2.00449, 1.99333, 1.9269, 1.92452, 1.92367, 1.92239, 2.00021, 1.86816, 1.86614, 1.86656, 1.99784, 2.0001, 1.8645, 1.86482, 1.8627, 1.9711, 1.85917, 1.86259, 1.91017, 1.85923, 1.85788, 1.86153, 1.85795, 1.85785, 1.85837, 1.90811, 1.85601, 1.83885, 1.8358, 1.83421, 1.89203, 1.87921, 1.77822, 1.89445, 1.90334, 1.77335, 1.94574, 1.8921, 1.7683, 1.76763, 1.76589, 1.90079, 1.90087, 1.89746, 1.76205, 1.8979, 1.7609, 1.89485, 1.75968, 1.75878, 1.81018, 1.75838, 1.75597, 1.81254, 1.80803, 1.88939, 1.76095, 1.75855, 1.75932, 1.89777, 1.89721, 1.76236, 1.82497, 1.81263, 1.87954, 1.81039, 1.81166, 1.81138, 1.75853, 1.76138, 1.89639, 1.89346, 1.76268, 1.76185, 1.89368, 1.76204, 1.76242, 1.90754
1.99542, 1.94547, 1.99309, 2.12604, 2.12411, 2.03052, 2.03132, 2.02825, 1.98714, 1.93431, 2.05936, 1.93376, 1.93171, 1.92881, 2.05133, 1.92712, 1.92787, 1.97575, 1.97371, 1.92461, 1.92328, 2.04291, 2.13866, 1.91797, 1.9166, 1.91394, 1.91478, 1.9623, 1.96163, 1.95913, 1.95907, 1.96008, 1.90916, 2.01635, 1.91045, 2.10439, 2.01027, 1.91062, 1.9075, 1.961, 1.90939, 2.08985, 1.91025, 2.08276, 2.05441, 2.16574, 2.04958, 2.04118, 2.04176, 2.04091, 2.08388, 2.04052, 1.96028, 2.03512, 2.03395, 2.03161, 1.95537, 2.02453, 2.02466, 2.02455, 2.0249, 2.07254, 1.94448, 1.94138, 2.0175, 1.93787, 2.06944, 2.01109, 1.9356, 2.06732, 2.00776, 1.93154, 2.00581, 2.00998, 2.00607, 1.93013, 2.05943, 2.15153, 2.05954, 2.15829, 1.93419, 2.01198, 2.01377, 1.94043, 2.05498, 2.02372, 2.02603, 2.05089, 2.04947, 2.11597, 2.1183, 2.02091, 2.02002, 2.01873, 2.10746, 2.0168, 2.01515, 2.01508, 2.01647, 2.01122, 2.01055, 2.09111, 2.11182, 2.08711, 2.01222, 2.08712, 2.08504, 2.09641, 2.1014, 2.10523, 2.00982, 2.01004, 2.0081, 2.08158, 2.08921, 2.10025, 2.10027, 2.10623, 2.09957, 2.00367, 2.09631, 2.08791, 2.0835, 2.10023, 2.08048, 1.99923, 2.08416, 1.99774, 2.09735, 1.99719, 2.07761, 2.0711, 2.07081, 1.99284, 1.98996, 1.98937, 2.07942, 2.07696, 2.06232, 2.0616, 2.08608, 2.05663, 2.06318, 1.98089, 2.05875, 1.97862, 1.97938, 1.97873, 1.9763, 1.977, 2.05249, 1.90439, 2.06616, 1.89826, 2.10021, 1.89261, 2.09403, 1.98257, 1.88782, 2.01015, 1.88208, 1.931, 1.93041, 1.97069, 1.98342, 1.87301, 1.92348, 1.9224, 1.87113, 1.86908, 1.86692, 1.93805, 1.92844, 1.86321, 1.99814, 1.99661, 1.86265, 1.96398, 1.99645, 1.85872, 1.85886, 1.85911, 1.86018, 1.86141, 1.85755, 1.85784, 1.85813, 1.90843, 1.8577, 1.83741, 1.83466, 1.78057, 1.89223, 1.77716, 1.89408, 1.89448, 1.77259, 1.89617, 1.7692, 1.76923, 1.89648, 1.89747, 1.89589, 1.76571, 1.9006, 1.89379, 1.76444, 1.76174, 1.76135, 1.76134, 1.75979, 1.75888, 1.7607, 1.75947, 1.8181, 1.75942, 1.89635, 1.89688, 1.89655, 1.75877, 1.75763, 1.7589, 1.76046, 1.86134, 1.7594, 1.81308, 1.81147, 1.7617, 1.82359, 1.7606, 1.86568, 1.89463, 1.76557, 1.76147, 1.89295, 1.89462, 1.76123, 1.76159, 1.76408, 1.90729
1.99758, 1.94648, 1.99483, 1.94302, 1.94462, 1.99286, 1.94191, 2.02791, 1.98683, 2.04795, 2.05858, 1.93417, 1.93166, 1.93227, 2.04994, 2.02168, 2.05172, 1.92785, 1.92722, 1.92744, 2.12397, 1.9217, 1.92115, 1.91885, 1.91678, 1.91569, 1.91332, 2.03836, 1.96173, 1.95986, 1.90821, 1.96128, 1.90912, 1.908, 2.02573, 2.1045, 2.00885, 1.96158, 2.00585, 1.908, 2.09159, 2.08953, 1.96055, 1.91162, 2.08738, 2.0502, 1.97478, 2.04784, 2.04258, 1.96882, 2.04204, 2.04152, 2.15903, 2.03456, 2.03551, 2.03435, 2.03087, 2.17951, 2.0238, 2.02143, 2.02393, 2.02136, 2.02045, 1.9422, 1.94052, 2.0758, 2.0104, 2.00994, 2.16275, 2.00999, 2.00639, 2.00716, 2.01038, 1.93067, 1.93095, 2.0067, 2.00746, 2.00895, 2.00725, 2.01116, 2.01357, 2.01416, 2.14178, 1.94318, 2.05532, 2.0527, 2.0537, 2.05324, 2.05243, 2.02408, 2.12224, 2.02071, 2.11124, 2.11109, 2.11098, 2.01706, 2.01659, 2.01549, 2.01506, 2.01379, 2.10411, 2.09595, 2.10345, 2.09654, 2.09637, 2.10662, 2.10017, 2.09653, 2.01025, 2.09952, 2.10405, 2.01352, 2.0909, 2.09716, 2.096, 2.00729, 2.08983, 2.00632, 2.09718, 2.00333, 2.1, 2.08209, 2.09465, 2.09609, 2.00016, 2.09137, 2.07754, 2.07384, 1.9964, 1.99601, 2.07892, 2.08215, 1.99323, 1.99318, 1.99096, 2.07792, 2.09124, 2.07714, 2.06581, 2.07673, 2.06222, 2.08033, 2.07643, 2.05961, 2.05903, 1.9777, 1.97824, 2.0487, 2.05255, 2.07323, 2.05045, 1.95151, 1.94919, 1.89577, 1.89427, 2.0064, 1.99442, 1.88736, 1.88685, 1.8833, 2.00532, 1.93086, 1.87714, 1.92774, 1.98292, 2.00041, 1.8723, 1.92158, 1.86978, 1.86922, 1.91736, 1.93815, 1.92838, 1.86572, 1.86303, 1.86313, 1.86225, 1.86217, 1.86439, 1.85923, 1.99693, 2.08076, 1.85932, 1.85773, 1.95928, 1.85801, 1.85644, 1.85819, 2.06691, 1.88687, 1.89259, 1.78228, 1.94496, 1.82855, 1.82501, 1.89392, 1.77309, 1.89667, 1.86144, 1.76775, 1.76515, 1.89627, 1.89639, 1.89287, 1.86116, 1.75801, 1.89643, 1.88844, 1.88049, 1.87746, 1.86361, 1.89794, 1.89694, 1.85903, 1.80958, 1.89932, 1.90005, 1.75636, 1.75844, 1.89414, 1.83118, 1.89688, 1.76116, 1.89396, 1.75833, 1.75891, 1.81124, 1.81041, 1.81037, 1.8094, 1.89462, 1.76004, 1.76383, 1.76102, 1.76072, 1.75886, 1.75944, 1.76142, 1.76164, 1.765
2.12842, 2.05342, 1.94502, 2.05, 2.05176, 1.93858, 1.93897, 2.06343, 1.98636, 1.93452, 2.05511, 2.04483, 1.98447, 2.04166, 1.98217, 1.92838, 2.02068, 1.92741, 1.97454, 1.97432, 1.92397, 1.92368, 1.97133, 1.96827, 1.96875, 1.96486, 1.91349, 2.03948, 1.90897, 1.91282, 1.99719, 2.03525, 2.03626, 1.96043, 1.90982, 1.90823, 1.90862, 1.9094, 2.0112, 1.90989, 1.90957, 2.0896, 1.91218, 1.91317, 2.05502, 2.08867, 2.04637, 1.97019, 2.0467, 2.0421, 2.15946, 2.0398, 2.08029, 2.03777, 2.03524, 2.03383, 2.07893, 2.07876, 1.95089, 2.17629, 2.0226, 2.02141, 2.02139, 2.07208, 2.01746, 2.01712, 2.01335, 2.0109, 2.00891, 2.01038, 2.01041, 2.00875, 2.00817, 2.00651, 2.00629, 2.00814, 2.00963, 2.00804, 2.06073, 2.06107, 2.00929, 2.01116, 1.93751, 1.94184, 2.05493, 2.05309, 2.14503, 2.05406, 2.05002, 2.02417, 2.02255, 2.12188, 2.10856, 2.10409, 2.0905, 2.09004, 2.01696, 2.0144, 2.01461, 2.01228, 2.01365, 2.11343, 2.1027, 2.11462, 2.08793, 2.09911, 2.10169, 2.10708, 2.01085, 2.09088, 2.01013, 2.10021, 2.09815, 2.09529, 2.00676, 2.09274, 2.00576, 2.0975, 2.09824, 2.08077, 2.08762, 2.00279, 2.09284, 2.09704, 2.09451, 2.08945, 2.08657, 2.0906, 2.07949, 2.08364, 2.08946, 2.07992, 1.99268, 2.0762, 1.99128, 2.07329, 2.07768, 2.08595, 1.98364, 2.05818, 2.0836, 2.06223, 2.05681, 1.97989, 1.97866, 2.05212, 1.97822, 2.04877, 1.97747, 2.07225, 2.05227, 1.95132, 2.00619, 1.89665, 2.00463, 1.89119, 1.94071, 1.88657, 1.88551, 1.88299, 1.88442, 1.87774, 1.87894, 1.87661, 1.87499, 1.8753, 1.87267, 1.8724, 1.8713, 1.86664, 1.95833, 1.86559, 1.95784, 1.99865, 1.86214, 1.86246, 1.86144, 1.86146, 1.96836, 1.96675, 1.85829, 1.85876, 1.86041, 1.85902, 1.85767, 1.85831, 1.85823, 2.09302, 1.8581, 1.89263, 1.89149, 1.89293, 1.7797, 1.77683, 1.87539, 1.87577, 1.77267, 1.76899, 1.76699, 1.8963, 1.76444, 1.7625, 1.89119, 1.76352, 1.76147, 1.76198, 1.759, 1.75798, 1.88023, 1.88895, 1.84771, 1.89661, 1.8943, 1.75544, 1.90335, 1.89809, 1.75539, 1.75498, 1.75555, 1.89191, 1.75472, 1.89712, 1.75697, 1.84801, 1.75812, 1.895, 1.75907, 1.75553, 1.81082, 1.76072, 1.76185, 1.76017, 1.75996, 1.8898, 1.75875, 1.98952, 1.76269, 1.76094, 1.75947, 1.7618
1.9974, 1.94823, 2.05235, 1.94406, 1.99259, 1.99313, 1.93894, 1.93726, 1.98739, 1.98576, 1.93564, 1.98614, 1.93482, 1.93106, 1.981, 1.98096, 1.92876, 2.01736, 2.04241, 1.92419, 1.92423, 1.92345, 1.92076, 1.96926, 1.91891, 1.96462, 1.91372, 2.03855, 2.11512, 1.91061, 1.90934, 1.9106, 2.02551, 1.90992, 2.01042, 2.1073, 1.90891, 2.0177, 2.02123, 1.95918, 1.90717, 1.90922, 1.91112, 1.91152, 2.17263, 2.17867, 2.17719, 2.16501, 2.1629, 2.16218, 2.08475, 2.08216, 2.03591, 1.96152, 1.95836, 2.07785, 2.03157, 1.95465, 2.07606, 1.94817, 2.02096, 2.02116, 2.01958, 2.07321, 2.01777, 2.01713, 2.01375, 2.01333, 2.01009, 2.01027, 2.01015, 2.06693, 2.00622, 1.93099, 2.00697, 1.93091, 1.92866, 2.13599, 2.00935, 2.00943, 1.93439, 2.01131, 1.93801, 1.94123, 2.02061, 2.05481, 1.95088, 2.1478, 2.05152, 2.02396, 2.02415, 2.11152, 2.02089, 2.10887, 2.09286, 2.09036, 2.01892, 2.01453, 2.01509, 2.0136, 2.01356, 2.01317, 2.10473, 2.0939, 2.10484, 2.09598, 2.08629, 2.08583, 2.08412, 2.11663, 2.01098, 2.09982, 2.09879, 2.10641, 2.0971, 2.0967, 2.09528, 2.10411, 2.09606, 2.10033, 2.09657, 2.08924, 2.00101, 2.00069, 2.0003, 1.99754, 2.09397, 2.09236, 1.99479, 2.08178, 2.07653, 2.07742, 2.08018, 2.09357, 2.0762, 2.07972, 2.07872, 2.07842, 2.07732, 1.98503, 2.06873, 1.98461, 2.06925, 1.98024, 1.97953, 1.9776, 1.97749, 1.97794, 1.97642, 1.97736, 2.07208, 2.0282, 2.02806, 2.00825, 2.00474, 1.94141, 1.93952, 1.93787, 1.88547, 1.94323, 1.88088, 1.88217, 1.87924, 1.87564, 2.10506, 1.87426, 1.87226, 2.00269, 1.95938, 1.86607, 1.86717, 1.86477, 1.86285, 1.86303, 1.86049, 2.07311, 1.86183, 1.8617, 1.85983, 1.99661, 1.85937, 1.85831, 1.99477, 1.85801, 1.85646, 1.85728, 2.08684, 1.85665, 1.85876, 1.96668, 1.78233, 1.89216, 1.77708, 1.77533, 1.77435, 1.87515, 1.77194, 1.89541, 1.76593, 1.89683, 1.94556, 1.85346, 1.89735, 1.89623, 1.75936, 1.89737, 1.89595, 1.75803, 1.80837, 1.86128, 1.7553, 1.89921, 1.89669, 1.75541, 1.7558, 1.75538, 1.89492, 1.75745, 1.7564, 1.75627, 1.75791, 1.7581, 1.89272, 1.75448, 1.89689, 1.89574, 1.7577, 1.89293, 1.75995, 1.75818, 1.88877, 1.86497, 1.8656, 1.76206, 1.76259, 1.76201, 1.76118, 1.81369, 1.82958, 1.88199
1.94826, 1.94448, 1.99482, 1.9398, 1.94144, 1.94088, 2.03193, 1.93773, 1.93812, 1.98627, 1.93463, 1.93471, 1.93408, 2.04222, 2.0415, 1.92933, 1.97922, 1.97862, 2.00859, 1.92829, 1.92569, 1.92398, 2.0455, 1.92179, 2.12097, 1.96867, 1.91387, 1.91193, 1.91144, 2.03627, 1.91116, 1.91005, 2.01313, 1.95981, 1.91028, 1.90861, 2.02497, 1.90946, 2.02026, 2.01754, 1.91202, 2.00359, 2.00221, 1.91251, 2.08678, 2.05192, 2.05156, 2.04924, 2.04628, 2.04492, 2.04285, 2.08208, 2.161, 2.0805, 1.95856, 2.03309, 2.0314, 2.03083, 2.07693, 2.07881, 2.17525, 2.02442, 2.01834, 1.93953, 2.02062, 1.93896, 1.93791, 2.01311, 2.01005, 2.14565, 2.00887, 1.9327, 2.00704, 2.14872, 2.0091, 2.00841, 2.00729, 1.93403, 2.00753, 2.00772, 2.01375, 1.938, 2.01401, 2.01686, 2.02027, 2.02051, 2.02352, 1.95485, 2.13931, 2.09849, 2.09954, 2.09972, 2.0989, 2.09412, 2.11504, 2.09655, 2.01339, 2.01477, 2.01391, 2.01361, 2.09363, 2.09986, 2.09636, 2.08758, 2.0876, 2.01189, 2.08572, 2.09634, 2.11416, 2.11444, 2.0112, 2.09743, 2.08896, 2.00891, 2.09585, 2.00688, 2.0053, 2.08637, 2.1, 2.10081, 2.09616, 2.09694, 2.08514, 2.08179, 2.07482, 2.10082, 2.09319, 2.09038, 2.08099, 2.07039, 2.06843, 2.06991, 1.9928, 2.07383, 2.07197, 1.98943, 1.98952, 1.9878, 2.08769, 2.07335, 2.06763, 2.05501, 1.98209, 1.98018, 1.97939, 1.97875, 1.9781, 1.9773, 2.05394, 2.05202, 2.06361, 1.9025, 1.94887, 1.8939, 2.01775, 1.94244, 1.93869, 1.93776, 1.88409, 1.94444, 1.93139, 1.87935, 2.11098, 2.00353, 2.00198, 1.87235, 1.96852, 1.87053, 1.86915, 2.00337, 1.96121, 1.86513, 2.00118, 2.08339, 1.9994, 1.86517, 1.91151, 1.9101, 1.86113, 1.86037, 1.99634, 1.85693, 1.99647, 1.85676, 1.85494, 1.85575, 2.08841, 2.08745, 1.78567, 1.78301, 1.78015, 1.77877, 1.77799, 1.77456, 2.00054, 1.891, 1.89231, 1.89479, 1.76341, 1.9997, 1.76367, 1.89079, 1.76003, 1.76212, 1.89046, 1.89764, 1.8954, 1.75634, 1.86999, 1.86651, 1.86288, 1.75802, 1.75754, 1.7557, 1.90167, 1.75472, 1.86382, 1.89924, 1.75673, 1.75659, 1.75511, 1.75538, 1.89193, 1.89252, 1.89696, 1.89386, 1.89284, 1.89199, 1.86979, 1.88917, 1.8901, 1.89003, 1.75941, 1.88379, 1.76225, 1.76171, 1.88651, 1.76414, 1.81271, 1.89567
2.06955, 1.94429, 1.94285, 1.94491, 1.94482, 1.9422, 1.94182, 2.13736, 1.93575, 2.033, 1.93694, 2.05227, 1.93341, 1.93351, 1.98236, 1.93168, 1.92814, 1.98269, 2.00736, 1.92742, 2.04459, 1.92381, 2.12093, 1.92123, 2.04826, 1.91766, 1.96516, 1.96519, 1.96313, 2.03476, 1.91248, 1.95922, 2.02473, 1.91061, 2.02012, 1.91269, 2.01603, 1.96077, 1.96097, 1.91025, 1.9086, 1.91335, 1.91156, 1.9122, 1.97952, 1.97908, 2.16746, 2.04749, 2.04543, 2.04531, 2.04346, 2.04115, 1.9633, 2.08052, 2.03581, 2.03661, 2.03079, 2.16925, 1.95098, 2.02715, 2.02318, 2.07613, 2.01984, 2.0203, 2.01751, 2.01455, 2.01393, 2.01311, 2.07222, 2.01164, 2.07244, 2.00718, 2.00659, 2.00725, 2.00661, 2.00785, 2.00699, 1.93161, 2.0075, 2.00864, 2.01119, 2.01471, 2.01366, 2.01591, 1.94251, 2.02532, 2.05539, 2.05367, 2.14083, 2.02382, 2.13708, 2.1002, 2.09984, 2.11861, 2.09298, 2.09482, 2.01465, 2.01652, 2.01408, 2.01297, 2.09213, 2.0921, 2.08838, 2.11247, 2.08996, 2.10741, 2.11469, 2.08811, 2.1034, 2.10487, 2.09402, 2.09729, 2.09654, 2.00839, 2.00736, 2.10806, 2.10066, 2.00382, 2.08456, 2.00304, 2.09876, 2.09637, 2.00147, 2.09435, 2.08001, 1.99944, 2.09041, 2.07311, 2.0733, 1.99545, 2.07527, 2.07867, 2.07712, 2.07724, 2.06977, 2.07052, 2.07226, 1.98639, 2.07993, 2.07188, 2.07746, 2.07869, 1.98141, 1.97932, 1.97749, 1.97859, 1.97824, 1.97733, 1.9785, 2.05948, 2.05271, 1.95077, 2.00312, 1.89504, 2.01794, 1.98539, 1.93995, 1.93779, 1.99203, 2.07996, 1.93139, 1.87868, 1.87887, 1.8756, 2.10516, 1.8724, 1.8688, 1.87049, 1.86731, 2.07378, 1.8658, 1.86452, 1.9982, 1.99751, 1.9138, 1.91319, 1.91129, 1.86148, 2.08409, 1.86109, 1.8596, 1.85877, 1.85644, 1.8555, 1.98991, 1.85808, 1.99623, 1.85756, 1.85711, 1.8851, 1.77981, 1.77742, 1.88671, 1.77329, 1.7716, 1.9455, 1.76842, 1.76508, 1.81692, 1.81381, 1.8124, 1.89633, 1.89309, 1.75992, 1.75773, 1.89325, 1.75931, 1.8937, 1.86143, 1.88935, 1.89833, 1.89581, 1.75566, 1.7549, 1.75544, 1.7542, 1.86607, 1.89701, 1.75362, 1.75597, 1.75488, 1.89318, 1.85294, 1.75597, 1.75497, 1.75586, 1.85761, 1.75814, 1.89114, 1.75742, 1.75851, 1.75846, 1.89013, 1.76213, 1.75986, 1.86891, 1.88555, 1.7642, 1.76301, 1.8144
2.14608, 1.94588, 1.94664, 1.9442, 1.94451, 1.94216, 2.03115, 1.94037, 1.93974, 2.0447, 1.93441, 2.05698, 1.93227, 2.05645, 2.05345, 1.93147, 1.92904, 1.92786, 1.97743, 2.04993, 1.92611, 1.92534, 2.04085, 1.92141, 1.92018, 1.92002, 2.02511, 1.96563, 2.09793, 1.91107, 1.91144, 1.95943, 2.0171, 1.90982, 1.96126, 1.96085, 1.95995, 1.96149, 2.08294, 1.91099, 1.913, 2.00379, 2.0126, 1.91102, 2.0559, 1.97895, 2.05214, 2.08672, 2.04603, 2.08612, 2.04449, 2.04337, 2.04094, 2.0401, 2.04136, 2.03507, 2.16074, 2.02782, 2.03127, 2.03027, 1.94899, 2.02383, 2.15295, 2.07281, 2.0179, 2.01671, 1.93898, 2.01358, 2.01342, 2.01222, 2.00919, 1.93286, 2.01008, 2.06334, 2.0074, 2.00773, 2.00866, 1.93304, 2.00774, 2.012, 2.01102, 2.01372, 1.93941, 2.056, 2.01905, 2.02195, 2.02664, 2.028, 2.05463, 2.02433, 2.14072, 2.13219, 2.11454, 2.09614, 2.09646, 2.09297, 2.01673, 2.01429, 2.0141, 2.0138, 2.01241, 2.1157, 2.08953, 2.08899, 2.08646, 2.08564, 2.0877, 2.10136, 2.10755, 2.1048, 2.10151, 2.00838, 2.09311, 2.10384, 2.00651, 2.09548, 2.09844, 2.00384, 2.08292, 2.09427, 2.09458, 2.08788, 2.08104, 2.09033, 2.08283, 2.08705, 2.08032, 2.08643, 2.09691, 2.08589, 2.07058, 2.08603, 2.08013, 2.09812, 2.07789, 2.06942, 2.07309, 1.98802, 2.07529, 2.07383, 2.07424, 1.98279, 1.98015, 1.97936, 1.97809, 1.97637, 1.97863, 1.97737, 2.05817, 2.05307, 2.05187, 2.00974, 2.08558, 1.8951, 1.89241, 1.88971, 1.93923, 1.93827, 1.88613, 1.88249, 1.87883, 1.93825, 2.08685, 1.87639, 2.00304, 1.96206, 1.87165, 2.083, 1.8689, 1.95787, 1.95484, 1.86511, 1.86482, 1.91336, 1.91287, 1.98243, 1.85904, 1.91005, 1.85686, 1.85961, 1.98889, 1.90806, 1.90713, 1.90808, 1.85826, 1.98974, 2.08637, 1.85888, 1.8565, 1.78175, 1.77923, 1.77659, 1.77549, 1.7747, 1.8793, 1.8818, 1.76791, 1.85238, 1.87937, 1.87871, 1.81334, 1.88019, 1.75945, 1.89898, 1.94573, 1.8546, 1.75486, 1.95924, 1.75477, 1.86323, 1.75453, 1.89521, 1.7565, 1.75529, 1.89295, 1.89392, 1.75451, 1.75479, 1.75397, 1.88034, 1.75421, 1.89525, 1.89352, 1.75546, 1.99313, 1.75418, 1.8901, 1.75843, 1.89228, 1.75493, 1.75645, 1.89244, 1.8924, 1.88731, 1.88685, 1.87941, 1.76233, 1.88503, 1.75946, 1.76219
1.94729, 2.15165, 1.94552, 2.06629, 2.05591, 1.94327, 1.94065, 1.94141, 1.93918, 1.94081, 2.0345, 2.13807, 1.93491, 2.14182, 1.93428, 1.93013, 1.93128, 1.92986, 1.9306, 2.12678, 1.97798, 2.12364, 1.97496, 1.92028, 2.04531, 1.91825, 1.91772, 1.91661, 2.04169, 1.91279, 2.03779, 1.90822, 1.90972, 1.90991, 1.96112, 1.96194, 2.00687, 1.91146, 1.91143, 1.91153, 2.22396, 1.91167, 1.91099, 1.91177, 2.05908, 2.05307, 2.05108, 2.08614, 2.04942, 2.04849, 2.08448, 2.04269, 2.03764, 2.17336, 2.03838, 2.0791, 2.16274, 2.17269, 2.15692, 2.02737, 2.02674, 2.17414, 2.07399, 2.02066, 2.01789, 2.01525, 1.941, 2.01254, 2.01199, 2.01117, 1.93477, 2.00993, 2.0087, 1.93398, 1.93263, 2.00701, 2.00929, 2.00725, 2.06196, 1.93537, 1.93496, 2.14314, 2.01705, 2.01723, 2.05498, 1.94595, 2.05232, 2.03162, 2.1496, 2.1198, 2.11113, 2.11069, 2.11389, 2.12235, 2.09518, 2.09041, 2.01591, 2.01602, 2.01384, 2.0135, 2.01286, 2.0889, 2.08837, 2.01222, 2.10677, 2.1073, 2.10022, 2.09989, 2.01132, 2.0925, 2.10261, 2.10785, 2.08778, 2.09389, 2.00824, 2.10051, 2.1056, 2.10415, 2.09041, 2.00479, 2.00589, 2.09115, 2.09355, 1.9996, 2.09291, 2.09047, 2.08059, 1.99663, 2.08628, 2.08688, 2.09074, 2.07765, 2.09515, 2.06991, 2.09026, 2.07513, 1.98904, 2.08867, 1.98657, 1.98394, 2.07563, 1.98255, 2.08285, 1.98002, 1.97692, 1.97769, 1.97712, 2.05816, 2.059, 2.05356, 2.05195, 2.00406, 1.89875, 1.89514, 1.8948, 1.89221, 1.89047, 1.88579, 1.88502, 1.88202, 1.8794, 1.87885, 1.87798, 1.87563, 1.87509, 2.00012, 1.87076, 1.86947, 2.00289, 2.00193, 1.86709, 1.86449, 1.86351, 1.86412, 1.91153, 1.85931, 1.8597, 1.85762, 1.91075, 1.85788, 1.8546, 1.85491, 1.94081, 1.90742, 1.85622, 1.85479, 1.85519, 1.85508, 1.78303, 1.78129, 1.7791, 1.99093, 1.77247, 1.77308, 1.88955, 1.76794, 1.76514, 1.89259, 1.81456, 1.81296, 1.8122, 1.76163, 1.75668, 1.89716, 1.99404, 1.89633, 1.94817, 1.75534, 1.85478, 1.86195, 1.75432, 1.8935, 1.75439, 1.75336, 1.75185, 1.89146, 1.75097, 1.75404, 1.89782, 1.75216, 1.75293, 2.00514, 2.00325, 1.89138, 1.75446, 1.85546, 1.85328, 1.88855, 1.88716, 1.88724, 1.75731, 1.75872, 1.75933, 1.8856, 1.76094, 1.75972, 1.76154, 1.88562, 1.76446, 1.88021
1.94434, 1.94529, 2.06644, 1.94281, 1.94374, 2.07258, 1.93816, 1.94028, 1.94095, 1.93683, 1.93588, 1.98557, 1.93577, 2.135, 1.93261, 1.93153, 1.93102, 2.05308, 2.12877, 2.12787, 1.97717, 1.92721, 1.97651, 1.92367, 2.1228, 1.91844, 1.91802, 1.9146, 1.91456, 1.91353, 2.04106, 2.01532, 1.90949, 1.95998, 1.91041, 2.08674, 1.90779, 2.02768, 2.09736, 1.91004, 1.91142, 1.91292, 1.91407, 1.91155, 2.05853, 2.05469, 2.05302, 2.05311, 2.08877, 2.04897, 2.08342, 2.04501, 2.03579, 1.96201, 2.17419, 2.03433, 2.03407, 2.17642, 2.03069, 1.95159, 2.15349, 1.94781, 2.02196, 1.94254, 2.15087, 2.16509, 2.01676, 2.01756, 1.93534, 2.01066, 2.01273, 2.06872, 2.00687, 2.00805, 2.14179, 2.00676, 2.00704, 2.00826, 2.15277, 1.9348, 2.01204, 2.01308, 1.93836, 1.94178, 2.05554, 2.02473, 2.02971, 2.05493, 2.05352, 2.12192, 2.10825, 2.02111, 2.01975, 2.1129, 2.11198, 2.01788, 2.02044, 2.01352, 2.01473, 2.01521, 2.11762, 2.09073, 2.1086, 2.01212, 2.09568, 2.0974, 2.10465, 2.01011, 2.10145, 2.01029, 2.09281, 2.01011, 2.00859, 2.09084, 2.00668, 2.00711, 2.08967, 2.00454, 2.09584, 2.09084, 2.0863, 2.08991, 2.08942, 2.08314, 2.08257, 2.08615, 2.08714, 1.99625, 2.08212, 2.08177, 2.09839, 2.08367, 2.08371, 2.08304, 2.07986, 2.07648, 1.98739, 1.98697, 2.07885, 2.08626, 1.98281, 2.06999, 2.05304, 1.97893, 1.97862, 1.97731, 1.97619, 1.97603, 1.97617, 2.07008, 2.05285, 1.90067, 1.89943, 2.10518, 1.89203, 1.88943, 1.99443, 1.88734, 2.09341, 2.00676, 2.07933, 1.87906, 1.92699, 1.87808, 2.00877, 2.00073, 1.92163, 1.92044, 2.00388, 2.00412, 2.00388, 1.86474, 1.91351, 1.86194, 1.91075, 1.98174, 1.90988, 1.85844, 1.8581, 1.85797, 1.8585, 1.85682, 1.85571, 1.85526, 1.85541, 1.85543, 1.85452, 1.99342, 1.78185, 1.78198, 1.77861, 1.7786, 1.89272, 1.89202, 1.76898, 1.76702, 1.89327, 1.76152, 1.76247, 1.81348, 1.81239, 1.75772, 1.75675, 1.89501, 1.75786, 1.75617, 1.75574, 1.89432, 1.75437, 1.89405, 1.89502, 1.75114, 1.75091, 1.75402, 1.75392, 1.75274, 1.75309, 1.75296, 1.75303, 1.75413, 1.8848, 1.75357, 2.00186, 1.88897, 1.75474, 1.75432, 1.75427, 1.88602, 1.75572, 1.89024, 1.88939, 1.75773, 1.88398, 1.88447, 1.93195, 1.75894, 1.76075, 1.75667, 1.87169, 1.87986
1.94766, 1.94444, 2.06634, 1.94798, 1.9447, 1.94352, 2.06243, 1.98908, 1.93984, 1.98987, 1.93894, 1.98393, 1.93796, 2.1328, 1.93438, 2.12603, 1.93396, 1.93066, 1.93087, 1.98091, 1.97938, 1.92742, 1.97663, 1.92127, 1.92252, 1.92337, 1.91916, 2.041, 1.9161, 1.91373, 1.90968, 2.01455, 1.96088, 1.96057, 2.03438, 1.91208, 1.96025, 2.02416, 2.02441, 1.90902, 1.91108, 1.91361, 1.91242, 1.91379, 1.98051, 1.97909, 1.9754, 2.16439, 2.04774, 1.96968, 2.04616, 1.96598, 2.08326, 2.17377, 2.03643, 1.95594, 2.0826, 2.03119, 2.02917, 2.02704, 2.02449, 2.02454, 2.02385, 1.94231, 2.02085, 2.01569, 2.01738, 2.01378, 2.0723, 2.0118, 2.00816, 2.00858, 2.00747, 2.00862, 2.00826, 1.9308, 2.00766, 2.00712, 1.93475, 2.05999, 2.0588, 2.05822, 1.9407, 2.05499, 2.02246, 1.94685, 2.14278, 2.03135, 2.14086, 2.12073, 2.11513, 2.02109, 2.02079, 2.10661, 2.1063, 2.09135, 2.01729, 2.01429, 2.01336, 2.01626, 2.01483, 2.09007, 2.08768, 2.08786, 2.09756, 2.09665, 2.01165, 2.09719, 2.10053, 2.09627, 2.01009, 2.10103, 2.0996, 2.09878, 2.0071, 2.00709, 2.0075, 2.00392, 2.08961, 2.08403, 2.09341, 2.08911, 2.08631, 2.08594, 2.09741, 2.08918, 1.99749, 2.08249, 1.99668, 2.09021, 2.0846, 2.08408, 2.08177, 2.08621, 2.07616, 2.07494, 1.98659, 2.08003, 1.98472, 2.06631, 2.05717, 1.98066, 2.06219, 1.97965, 1.97978, 1.97728, 1.97816, 2.05336, 1.97477, 1.97566, 2.07028, 1.90083, 1.89507, 1.89385, 2.09502, 1.94084, 1.96239, 1.88796, 1.88292, 1.88055, 1.87955, 2.00393, 1.87681, 1.87366, 1.87219, 1.87049, 1.8693, 1.868, 1.86786, 1.86646, 2.10353, 1.86505, 1.86392, 1.91155, 1.91077, 1.90997, 1.86037, 1.91057, 2.09437, 1.85807, 2.06898, 1.99331, 1.85575, 1.9934, 1.99206, 1.85564, 1.85579, 1.85656, 1.85574, 1.8897, 1.7788, 1.77206, 1.77167, 1.77192, 1.76951, 1.89691, 1.89615, 1.89217, 1.83149, 1.8832, 1.75936, 1.75834, 1.89394, 1.75878, 1.7575, 1.8931, 1.89319, 1.89442, 1.75162, 1.98253, 1.97982, 1.7539, 1.75362, 1.75297, 1.89301, 1.89288, 2.00684, 1.94381, 1.75101, 1.75507, 1.75152, 1.75314, 1.75219, 1.75162, 1.75504, 1.75398, 1.88889, 1.75444, 1.88878, 1.75408, 1.75664, 1.75786, 1.88822, 1.88412, 1.8827, 1.75716, 1.75998, 1.87511, 1.88285, 1.88018
1.94559, 1.9466, 1.94567, 1.94455, 1.99823, 1.94081, 1.94086, 1.94103, 1.93835, 1.93724, 2.0581, 2.06005, 1.9367, 1.93404, 1.93445, 2.05336, 2.05166, 2.13186, 1.92949, 1.98246, 1.93009, 1.97836, 1.97708, 2.0217, 1.92314, 2.04546, 2.04605, 1.91788, 1.91493, 2.12129, 1.91033, 1.91176, 1.96217, 1.90935, 2.1052, 1.90973, 1.96112, 1.91264, 2.10348, 1.91211, 1.96175, 1.91247, 1.96168, 1.96219, 2.05244, 2.05472, 2.05364, 2.04536, 2.08232, 2.0466, 2.08617, 2.08536, 2.03893, 2.03705, 2.08092, 2.03461, 2.03531, 1.95222, 2.02646, 2.02637, 2.02344, 1.94725, 2.07556, 2.02192, 2.0176, 1.9397, 1.94033, 2.0125, 2.07107, 2.01138, 2.01036, 1.93386, 2.00837, 2.00943, 2.0071, 2.00682, 2.00985, 2.01109, 1.93446, 2.01321, 2.05881, 2.01325, 2.01759, 2.02014, 2.0208, 1.94504, 2.02386, 2.0306, 2.13938, 2.10718, 2.10085, 2.11828, 2.11065, 2.11326, 2.11801, 2.10115, 2.01464, 2.01467, 2.01524, 2.01374, 2.01101, 2.12491, 2.11292, 2.09324, 2.11178, 2.01234, 2.01176, 2.01044, 2.0952, 2.0959, 2.01, 2.10401, 2.09632, 2.09331, 2.09424, 2.08429, 2.09688, 2.09612, 2.09262, 2.094, 2.0976, 2.0899, 2.08618, 2.00067, 2.1041, 2.08591, 2.08382, 2.08352, 2.08729, 2.08154, 2.07965, 2.09012, 2.0758, 2.08164, 2.07521, 2.0906, 2.08321, 2.07657, 2.08624, 1.98613, 1.98246, 2.0863, 2.08376, 1.97747, 1.98184, 1.97952, 1.9758, 1.97691, 2.05903, 2.07032, 2.07496, 1.90018, 1.89631, 1.98995, 1.89139, 1.94045, 1.9617, 1.88603, 1.88537, 1.87929, 1.87901, 1.87969, 1.87632, 1.87569, 1.98195, 1.92075, 1.92084, 1.96626, 1.8688, 1.86841, 1.86515, 1.86455, 1.86399, 1.86191, 1.99977, 1.86024, 1.86136, 1.9095, 1.9995, 2.07544, 1.85819, 1.85687, 1.95474, 1.85486, 1.8545, 1.85442, 1.99077, 1.85577, 1.93343, 1.89016, 1.88616, 1.7754, 1.82348, 1.76985, 1.76796, 1.7681, 1.76625, 1.76494, 1.76516, 1.82967, 1.89078, 1.86152, 1.86098, 1.7578, 1.75516, 1.89071, 1.88994, 1.86065, 1.89092, 1.89208, 1.75241, 1.75191, 1.84846, 1.75392, 1.89356, 1.75308, 2.00472, 1.75173, 1.85132, 1.8931, 1.75253, 1.75099, 1.75309, 1.75254, 1.75529, 1.75393, 1.8489, 1.75437, 1.88578, 1.88416, 1.88322, 1.75607, 1.98738, 1.98601, 1.75768, 1.7596, 1.75884, 1.7586, 1.87854, 1.88185
2.06294, 2.13229, 2.074, 1.94475, 1.99919, 1.94465, 1.94174, 1.94228, 1.93863, 1.93815, 1.93853, 1.93654, 1.93922, 1.93416, 1.93454, 1.98476, 1.93453, 1.93078, 2.0479, 1.98003, 1.98035, 1.92862, 1.93031, 1.92496, 1.92224, 1.92029, 1.92015, 1.91778, 2.03978, 1.96328, 1.96279, 1.91055, 1.96204, 1.90983, 2.11391, 2.02162, 1.91068, 1.96125, 1.9119, 1.96236, 1.9628, 1.96225, 1.96286, 1.91311, 2.1799, 2.05453, 2.05456, 2.05134, 2.04568, 1.97007, 1.9678, 1.96632, 2.03858, 2.0372, 2.03836, 1.96172, 1.955, 2.02716, 2.02897, 2.07934, 2.02502, 1.9468, 1.94466, 2.14853, 1.94278, 2.17655, 1.93916, 2.01469, 2.01371, 2.00903, 2.00937, 2.01104, 2.01256, 2.06699, 2.00797, 2.00522, 2.00772, 2.00865, 2.01035, 2.01057, 2.06171, 1.93685, 2.01516, 2.01602, 2.05552, 1.94817, 2.0248, 2.0305, 2.05182, 2.10199, 2.10798, 2.02219, 2.10259, 2.12094, 2.10111, 2.10322, 2.01431, 2.01524, 2.01588, 2.01107, 2.00934, 2.11944, 2.10109, 2.10654, 2.10706, 2.10303, 2.01359, 2.01026, 2.10881, 2.0942, 2.01009, 2.104, 2.09708, 2.08607, 2.08363, 2.08401, 2.08258, 2.08301, 2.09401, 2.0843, 2.0847, 2.09016, 2.0902, 2.10136, 2.0924, 2.08731, 1.99707, 1.99595, 2.07698, 2.0806, 1.99501, 1.99321, 2.08635, 1.99352, 2.0696, 2.0718, 1.98909, 1.98719, 2.07922, 2.07797, 2.07613, 2.07951, 2.08686, 1.9819, 1.97669, 2.05214, 1.97378, 1.97772, 1.97628, 2.068, 2.06641, 1.98454, 1.89829, 1.89573, 1.99421, 1.88964, 2.09043, 2.10074, 1.93412, 1.93383, 1.93102, 1.8784, 1.92695, 1.97562, 1.874, 1.92063, 1.92006, 1.86701, 1.91639, 1.86804, 1.95449, 1.86249, 2.00334, 1.86085, 2.07267, 1.86103, 1.85954, 1.85871, 1.85853, 1.85703, 1.85771, 1.85688, 1.85794, 1.85815, 1.85534, 1.85586, 1.99273, 1.90844, 1.9076, 1.82756, 1.7763, 1.77335, 1.888, 1.88412, 1.88176, 1.8902, 1.76476, 1.88411, 1.85892, 1.76131, 1.76074, 1.75632, 1.89397, 1.89401, 1.89324, 1.75225, 1.75069, 1.89294, 1.75157, 1.89541, 1.75164, 1.80258, 1.88921, 1.75114, 1.75052, 1.75105, 1.88719, 1.75132, 1.88967, 1.75239, 1.75189, 1.75323, 1.8871, 1.75182, 1.93756, 1.75092, 1.88627, 1.75421, 1.882, 1.75422, 1.88404, 1.75634, 1.7549, 1.75808, 1.88005, 1.76086, 1.75706, 1.87619, 1.75864, 1.8722
1.94735, 1.99847, 2.0702, 1.94496, 2.01966, 2.03039, 1.93908, 1.94112, 1.94444, 1.94043, 1.93745, 1.93795, 1.93838, 1.93356, 1.98406, 1.98592, 1.93643, 1.9338, 2.05141, 1.9326, 1.93174, 2.04834, 2.05471, 2.04157, 1.92419, 1.92254, 1.97305, 1.91643, 2.03919, 1.91363, 1.91057, 1.9113, 1.91155, 2.02655, 1.91081, 1.91193, 1.91054, 1.96011, 1.96138, 1.91293, 1.91217, 1.96177, 1.96408, 2.07703, 1.98103, 2.05338, 2.05376, 2.08671, 2.04546, 2.05242, 1.96668, 2.04756, 2.04399, 2.03711, 2.03936, 2.03679, 2.03112, 2.02968, 2.02918, 1.95143, 2.02748, 2.07787, 2.02245, 1.94499, 2.01883, 1.94249, 2.01511, 2.01497, 2.01716, 2.01171, 2.01038, 2.01054, 2.01016, 1.9316, 1.93258, 2.0057, 2.00848, 2.06142, 2.01024, 2.01124, 2.0115, 1.93702, 1.93989, 2.01899, 2.1458, 2.02436, 2.02566, 2.03458, 2.05075, 2.02352, 2.09955, 2.09976, 2.0974, 2.10504, 2.01849, 2.09896, 2.01583, 2.08614, 2.01654, 2.01428, 2.01088, 2.00659, 2.09454, 2.08756, 2.086, 2.10187, 2.09342, 2.10578, 2.01047, 2.08658, 2.08787, 2.1014, 2.08389, 2.08299, 2.11468, 2.08246, 2.08145, 2.09045, 2.09716, 2.09353, 2.0841, 2.08026, 2.09231, 2.10734, 2.00007, 1.99808, 2.0891, 2.09363, 2.09342, 2.09029, 1.99439, 2.08047, 2.08737, 2.08713, 1.98991, 2.07606, 1.98783, 2.08359, 1.98595, 2.08947, 1.98297, 1.97953, 2.07299, 1.97861, 1.97849, 1.97616, 1.9735, 1.9766, 1.97596, 2.05876, 2.06004, 1.98341, 1.8982, 1.89385, 1.89026, 1.89083, 2.00874, 1.88589, 1.97801, 1.93258, 1.9514, 1.92795, 1.92682, 1.97563, 1.92238, 1.99243, 1.87028, 1.86667, 1.86632, 2.00191, 1.86271, 1.86251, 1.86142, 2.00326, 1.8586, 1.85843, 2.07682, 1.85842, 1.85718, 2.08586, 1.95107, 1.99397, 1.85775, 1.85459, 1.94802, 1.85458, 1.85511, 1.85666, 1.91709, 1.89438, 1.89384, 1.77369, 1.88844, 1.76915, 1.88314, 1.76465, 1.88395, 1.86889, 1.86848, 1.86612, 1.75619, 1.8962, 1.89395, 1.75403, 1.7518, 1.75257, 1.75404, 1.74986, 1.75062, 2.00432, 1.75109, 1.88858, 1.74931, 1.74878, 1.75057, 1.89066, 1.85467, 1.88991, 1.88912, 1.75143, 1.74755, 1.75096, 1.74897, 1.7526, 1.75126, 1.85355, 1.84961, 1.75409, 1.75139, 1.75439, 1.75688, 1.75613, 1.75535, 1.75672, 1.87842, 1.75761, 1.75511, 1.7592, 1.75867, 1.75863
1.99743, 2, 1.94041, 1.99436, 2.12791, 2.13569, 2.1416, 1.94102, 1.94108, 1.94117, 1.93901, 1.98834, 1.98851, 1.93469, 2.05248, 1.98576, 2.12762, 2.13259, 1.93176, 1.93209, 1.93435, 2.02284, 1.92792, 1.92648, 1.97518, 2.03814, 1.97169, 1.91763, 2.03805, 1.91366, 1.91432, 1.9108, 1.96182, 2.0248, 1.96139, 1.96166, 1.91193, 2.10168, 1.91348, 1.91321, 1.91284, 1.99843, 1.9629, 1.96402, 2.0893, 2.05426, 2.05442, 2.04907, 2.04884, 2.04743, 2.04472, 2.08469, 2.04258, 2.16193, 2.03864, 2.0354, 2.03435, 2.02851, 2.02858, 1.95283, 2.02706, 1.9484, 2.07832, 2.1654, 1.94444, 2.1625, 2.01467, 2.01775, 2.01438, 2.0136, 2.0108, 2.14889, 2.00895, 2.00731, 2.01043, 2.0112, 2.01121, 2.05913, 2.00992, 2.00994, 1.93666, 2.01404, 2.01795, 2.01915, 2.05609, 2.05544, 2.053, 2.03073, 2.14131, 2.11342, 2.02477, 2.12562, 2.10437, 2.01946, 2.11358, 2.01849, 2.0147, 2.01519, 2.01569, 2.0141, 2.00759, 2.11404, 2.1143, 2.08801, 2.01346, 2.11016, 2.11494, 2.01023, 2.10879, 2.1113, 2.00943, 2.08227, 2.10145, 2.0814, 2.08048, 2.08169, 2.10243, 2.00429, 2.00375, 2.00383, 2.08829, 2.07638, 2.08685, 2.10777, 1.99888, 2.09008, 1.99724, 2.07612, 2.07886, 1.99671, 1.99342, 2.08946, 2.07612, 2.08434, 2.08219, 2.08187, 2.07457, 2.08356, 2.08271, 2.07207, 2.07462, 1.98024, 1.97918, 1.97915, 1.97696, 1.97403, 1.97375, 1.97637, 1.97426, 2.06735, 2.04936, 2.01755, 1.89869, 1.94449, 1.89223, 1.88902, 1.88745, 1.93476, 1.88506, 1.88255, 1.88153, 1.87729, 1.92559, 1.9241, 1.92268, 1.99212, 1.86951, 2.00191, 1.86695, 2.0031, 1.86213, 1.91311, 1.86099, 2.00009, 1.85934, 1.8589, 1.85596, 1.85659, 1.99606, 1.858, 1.85518, 1.85505, 1.85541, 1.85661, 1.85838, 1.85501, 1.85447, 1.85536, 1.82886, 1.77881, 1.82509, 1.89403, 1.77093, 1.76769, 1.76589, 1.762, 1.76221, 1.87667, 1.86813, 1.75818, 1.75445, 1.75594, 1.75378, 1.89331, 1.7515, 1.75106, 1.89579, 1.85792, 1.75021, 2.00335, 1.74979, 1.74879, 1.75266, 1.75084, 1.74829, 1.88913, 1.75121, 1.74938, 1.88937, 1.85161, 1.85936, 1.74984, 1.75078, 1.75121, 1.74819, 1.74942, 1.74864, 1.7532, 1.7523, 1.75179, 1.88149, 1.7553, 1.75317, 1.75746, 1.75515, 1.75694, 1.75899, 1.86893, 1.75767, 1.75883
1.94779, 2.06487, 2.06548, 1.93968, 1.99598, 1.93859, 1.94066, 1.94122, 2.05957, 1.94077, 1.93741, 2.12425, 1.98785, 1.98639, 1.98758, 1.93576, 2.04961, 2.12908, 1.98457, 1.98411, 1.93162, 1.9299, 1.9272, 1.92729, 1.92523, 1.92126, 1.91878, 1.91907, 2.03852, 1.96494, 1.96408, 1.96165, 2.00363, 1.96142, 1.98681, 1.96015, 1.91328, 1.911, 2.02411, 1.91135, 2.01997, 2.09701, 2.09641, 1.91216, 2.08932, 1.97982, 2.05319, 2.05073, 2.04605, 2.04772, 2.04353, 2.08402, 2.04005, 2.08086, 1.96176, 2.03488, 2.03214, 2.0321, 1.95205, 2.07622, 2.02473, 2.02447, 1.94561, 2.02156, 2.01852, 2.01739, 2.01499, 2.0165, 2.01438, 1.93723, 1.93488, 1.93306, 2.15552, 2.00849, 2.00692, 2.00751, 2.01025, 2.00995, 2.01063, 2.01066, 2.06205, 2.01334, 2.01191, 2.05519, 1.9448, 2.05251, 2.12758, 2.12514, 2.05135, 2.0243, 2.0241, 2.10129, 2.09853, 2.10877, 2.01798, 2.01915, 2.0174, 2.01482, 2.01446, 2.01535, 2.01337, 2.01181, 2.10685, 2.11433, 2.08633, 2.10004, 2.1033, 2.10128, 2.10785, 2.1014, 2.09836, 2.00843, 2.09709, 2.09912, 2.00707, 2.10003, 2.00373, 2.09897, 2.00411, 2.09834, 2.09304, 2.08342, 1.99966, 2.08255, 2.08363, 2.09347, 1.99684, 2.09988, 1.99559, 2.09719, 1.99369, 2.08351, 2.07556, 2.07966, 2.07839, 2.08734, 2.07932, 1.98702, 2.06576, 2.08631, 2.05598, 2.07194, 2.06156, 1.97762, 1.9756, 1.97485, 1.97485, 1.97526, 1.97535, 2.06997, 2.07006, 1.90287, 2.08308, 2.09165, 1.9931, 1.89023, 1.88803, 1.88492, 2.00621, 2.07901, 1.87942, 1.87834, 1.87394, 1.92531, 1.87083, 1.87181, 1.8686, 1.86806, 1.86553, 1.86151, 1.86296, 1.86265, 1.91149, 1.95792, 2.00302, 1.85697, 2.09132, 1.99774, 1.85659, 1.85907, 1.85686, 1.85461, 1.85799, 1.85719, 1.85786, 1.85626, 1.85664, 1.85589, 1.98529, 1.8272, 1.7732, 1.77091, 1.89001, 1.76868, 1.7667, 1.76433, 1.7584, 1.76102, 1.75843, 1.75833, 1.75523, 1.75497, 1.75339, 1.75221, 1.89034, 1.74994, 1.74726, 1.75076, 1.74937, 1.89169, 1.75064, 1.75071, 1.75104, 1.74918, 1.888, 1.88504, 1.88574, 1.74898, 1.88892, 1.74904, 1.74974, 1.75099, 1.74824, 1.74836, 1.75137, 1.75271, 1.75097, 1.80287, 1.80277, 1.75109, 1.88257, 1.75652, 1.75409, 1.75462, 1.75268, 1.75386, 1.75658, 1.75698, 1.75779, 1.87332
1.94786, 1.94814, 2.14059, 1.9969, 2.05525, 1.94202, 2.13194, 2.06243, 2.13484, 1.94144, 1.98917, 2.12491, 2.12763, 1.987, 1.93689, 1.93735, 1.9374, 1.93568, 1.9353, 1.98375, 1.92932, 2.04506, 2.04751, 1.92667, 1.92409, 1.91981, 1.96956, 1.91796, 1.9682, 1.91513, 2.03222, 1.91169, 1.91324, 1.95946, 1.96014, 1.90937, 1.90967, 2.02544, 2.02679, 1.91431, 1.91333, 1.9114, 1.91407, 2.0971, 2.09067, 2.16673, 2.05293, 2.05192, 1.97427, 2.04593, 2.04521, 2.08394, 2.04124, 2.04211, 2.03441, 2.08215, 2.03528, 2.03246, 2.03079, 2.02833, 2.07612, 2.07612, 1.94576, 2.02202, 2.02146, 2.0178, 2.01586, 1.9378, 1.93769, 2.01161, 2.01181, 2.01031, 1.93383, 1.93195, 2.00771, 2.15306, 2.01016, 2.1463, 2.01018, 2.0089, 2.01202, 2.01334, 1.93867, 2.0207, 2.02084, 2.05382, 2.02949, 2.05506, 2.1569, 2.02405, 2.11883, 2.09787, 2.1116, 2.10469, 2.1148, 2.01677, 2.01597, 2.01539, 2.01549, 2.01372, 2.01373, 2.01345, 2.11486, 2.08679, 2.01339, 2.11289, 2.01133, 2.11226, 2.00958, 2.11052, 2.09456, 2.10339, 2.10128, 2.09239, 2.08762, 2.09463, 2.11046, 2.09813, 2.00429, 2.00315, 2.08754, 2.09598, 2.10111, 2.08087, 1.99896, 2.09333, 1.99831, 2.08577, 2.0789, 2.0872, 2.08109, 2.08064, 2.10427, 1.99098, 2.08325, 1.98722, 2.07518, 1.98632, 1.98338, 2.0763, 2.07153, 2.0741, 2.05444, 1.97778, 1.97772, 1.97721, 1.97586, 1.97371, 1.97557, 2.0587, 2.06269, 1.9761, 1.94815, 1.89447, 1.89288, 1.89042, 2.00725, 2.00809, 1.88238, 1.88102, 1.88034, 1.95918, 2.01198, 1.87438, 1.87323, 1.87136, 1.99716, 1.86808, 1.98944, 1.8639, 1.91297, 1.91319, 1.91211, 1.91125, 1.85908, 1.85937, 1.85847, 1.85906, 1.90756, 1.85473, 1.95839, 1.95659, 1.85599, 1.85615, 1.85601, 1.90636, 1.85612, 1.85661, 1.88286, 1.88369, 1.77183, 1.87285, 1.76801, 1.88929, 1.76619, 1.76199, 1.76056, 1.89273, 1.75625, 1.88973, 1.80491, 1.80485, 1.75159, 1.75179, 1.89001, 1.75079, 1.74775, 1.88592, 1.88876, 1.89267, 1.74963, 1.74852, 1.74701, 1.74882, 1.7482, 1.74781, 1.88548, 1.74711, 1.89037, 1.74869, 1.74953, 1.88904, 1.88285, 1.74864, 1.74727, 1.88353, 1.99321, 1.80313, 1.79971, 1.75306, 1.75431, 1.75449, 1.858, 1.87171, 1.80609, 1.7528, 1.87653, 1.87881, 1.87592, 1.76018
1.94851, 1.9965, 1.94806, 1.94299, 1.99704, 1.99595, 1.99333, 2.00959, 2.14235, 1.93829, 1.9356, 1.9379, 2.04405, 2.12119, 1.98711, 1.98615, 1.98576, 1.98368, 1.93504, 1.98314, 1.98129, 1.93108, 2.04713, 2.04861, 2.04803, 2.04916, 1.91745, 1.91668, 1.917, 1.99358, 1.96439, 1.91288, 2.034, 1.90998, 1.91061, 2.01939, 1.9099, 1.91148, 1.91279, 1.91183, 1.91396, 2.02095, 1.91446, 1.91434, 2.05512, 2.08758, 2.08667, 1.97959, 1.97406, 2.04684, 2.0453, 2.04616, 2.04337, 2.04206, 2.04046, 2.03509, 2.17251, 2.03189, 2.0804, 2.16604, 2.02576, 2.02427, 2.02411, 2.02374, 1.9449, 1.94092, 2.01711, 2.01537, 2.01662, 2.15176, 2.01022, 2.01044, 2.00858, 1.93414, 1.93229, 2.14884, 1.93351, 2.06287, 2.06135, 2.01278, 1.93691, 2.05628, 1.93874, 2.01569, 2.02042, 2.02172, 2.02674, 2.05246, 2.05221, 2.02543, 2.02353, 2.09791, 2.13528, 2.11504, 2.01886, 2.01711, 2.0931, 2.01533, 2.01492, 2.01357, 2.10797, 2.11719, 2.10385, 2.1131, 2.09831, 2.10344, 2.10652, 2.10102, 2.09943, 2.11439, 2.1115, 2.08369, 2.09937, 2.08041, 2.09133, 2.07819, 2.00539, 2.00342, 2.00348, 2.0896, 2.09729, 2.08494, 2.09347, 2.07419, 2.08143, 1.99933, 2.09071, 2.08409, 2.08423, 1.99336, 2.07578, 2.06568, 2.10788, 1.99074, 2.07386, 2.08796, 1.98611, 2.0769, 2.0764, 2.07367, 2.0998, 2.0685, 2.07181, 1.97795, 1.97689, 1.97695, 1.9748, 1.97257, 1.97337, 2.0727, 2.05517, 1.94992, 1.94757, 1.94622, 2.01044, 1.89287, 1.88843, 1.88424, 1.88333, 1.93174, 1.93066, 1.87922, 1.87785, 2.09129, 1.96903, 1.96778, 2.08731, 1.87171, 1.86553, 1.86633, 1.91358, 1.91183, 1.85957, 1.86151, 1.85956, 1.85947, 1.99949, 1.85926, 1.85956, 1.95486, 1.95803, 1.95656, 1.85529, 1.90736, 1.90617, 1.85502, 1.85612, 1.90893, 1.85694, 1.88883, 1.87533, 1.87925, 1.76606, 1.76466, 1.89076, 1.8965, 1.76076, 1.75733, 1.75515, 1.89405, 1.7536, 1.75261, 1.74904, 1.7491, 1.74947, 1.74872, 1.74935, 1.74881, 1.74794, 1.89254, 1.74356, 1.74601, 1.7979, 1.79824, 1.79929, 1.74706, 1.74525, 1.8858, 1.88697, 1.88237, 1.74989, 1.75026, 1.74833, 1.74863, 1.87796, 1.88332, 1.74849, 1.74729, 1.75185, 1.75151, 1.75455, 1.80355, 1.80379, 1.8031, 1.75604, 1.75448, 1.75511, 1.75573, 1.75793, 1.80942
1.95063, 1.99831, 2.05534, 1.94436, 2.07034, 1.94287, 1.99452, 1.99068, 1.9422, 2.14147, 1.9378, 2.06013, 1.93669, 1.93458, 1.98672, 1.93417, 1.93598, 1.93603, 1.93445, 1.98314, 1.98032, 1.93039, 1.92888, 1.92589, 2.04723, 2.13394, 2.0423, 1.92002, 1.92057, 1.91435, 1.91699, 2.03502, 2.04111, 2.0408, 2.02777, 1.91138, 1.91192, 1.96093, 1.91385, 1.91317, 1.91514, 2.09621, 1.91452, 1.91738, 2.05517, 1.97946, 2.05308, 2.05218, 2.08557, 2.08396, 2.04642, 2.04252, 2.04218, 2.04173, 2.0363, 2.03624, 1.95842, 1.95848, 2.0307, 2.07669, 2.15871, 2.02706, 2.02387, 2.02382, 2.01925, 2.02041, 2.01611, 2.01688, 2.01479, 1.93819, 2.01115, 2.0087, 1.93364, 1.93191, 1.93217, 2.00962, 2.00952, 2.0093, 2.14515, 1.93452, 2.01009, 2.01165, 1.939, 2.05828, 2.01921, 2.1345, 2.02468, 2.0531, 2.15162, 2.11539, 2.1241, 2.10788, 2.09661, 2.11178, 2.02008, 2.09714, 2.01726, 2.01468, 2.01404, 2.09129, 2.01346, 2.09292, 2.09261, 2.1058, 2.08611, 2.0977, 2.1093, 2.08788, 2.0865, 2.08318, 2.10719, 2.1098, 2.10894, 2.00811, 2.00794, 2.07789, 2.09181, 2.09706, 2.0975, 2.09012, 2.00284, 2.09123, 2.08218, 2.07494, 2.07941, 2.0869, 2.08688, 1.99704, 2.09069, 1.99689, 2.06985, 2.06945, 2.06742, 2.07668, 2.08561, 1.98686, 2.0625, 2.09993, 2.06081, 2.06574, 1.98045, 2.06935, 2.05294, 1.97789, 1.97604, 1.97573, 1.97305, 1.97542, 1.9752, 2.05914, 2.04614, 1.95194, 1.89834, 1.94513, 1.99301, 2.09957, 1.88768, 1.88578, 1.93533, 1.88338, 1.93027, 1.99721, 1.87617, 1.92388, 1.96845, 1.87194, 1.99311, 1.8676, 1.86601, 1.86384, 1.86163, 1.91321, 1.8614, 1.86118, 1.85942, 1.85898, 2.08261, 1.99419, 1.91404, 1.95467, 1.85836, 2.08087, 1.85571, 1.9174, 1.85679, 1.85709, 1.85469, 1.85577, 1.87932, 1.77438, 1.77242, 1.88713, 1.7664, 1.88353, 1.89243, 2.00359, 1.75808, 1.7573, 1.75409, 1.75289, 1.75118, 1.89306, 1.89371, 1.74724, 1.74931, 1.74855, 1.74816, 1.74763, 2.01104, 1.74424, 1.88941, 1.88846, 1.7977, 1.74774, 1.74734, 1.92274, 1.74569, 1.74494, 1.74737, 1.88288, 1.88383, 1.88132, 1.87616, 1.7464, 1.74597, 1.74889, 1.87728, 1.87697, 1.75141, 1.75062, 1.88078, 1.75197, 1.74871, 1.96872, 1.75444, 1.75454, 1.75086, 1.87458, 1.75515, 1.75598
2.05781, 1.99759, 1.99736, 1.94658, 1.94416, 1.99262, 1.99352, 2.05973, 1.93943, 1.93902, 1.94022, 1.94041, 1.98826, 2.05895, 2.05522, 1.93429, 1.93568, 2.13034, 2.13156, 1.93388, 1.93212, 1.92753, 2.04915, 1.92694, 1.92432, 2.04483, 2.0476, 1.91975, 2.02893, 1.91351, 2.03876, 2.04135, 1.99254, 1.9109, 1.91091, 1.91054, 1.91063, 1.91168, 2.01931, 1.91463, 1.91341, 2.01735, 1.91631, 1.91623, 2.0573, 2.05549, 2.16302, 2.08698, 2.08471, 2.08662, 2.04485, 2.08183, 2.08264, 2.04142, 1.95947, 2.03876, 2.03432, 2.15217, 2.15587, 2.03095, 2.0286, 2.15514, 2.02238, 2.02387, 2.02029, 2.02074, 2.01907, 2.01438, 2.01156, 2.14721, 2.01043, 2.07245, 2.15953, 2.01052, 2.13743, 1.93297, 2.0093, 2.00961, 2.01053, 2.01384, 2.05639, 2.14082, 1.93821, 2.0166, 2.01932, 1.9431, 2.02521, 2.02934, 2.14275, 2.11109, 2.02387, 2.09742, 2.11343, 2.12101, 2.09673, 2.09637, 2.09658, 2.09321, 2.08889, 2.01381, 2.09096, 2.10315, 2.13161, 2.10985, 2.10754, 2.08747, 2.11499, 2.08636, 2.08702, 2.08502, 2.09704, 2.10386, 2.10461, 2.08654, 2.08179, 2.09671, 2.09551, 2.11179, 2.08992, 2.00352, 2.10546, 2.09041, 2.08293, 2.07551, 2.07349, 2.0935, 2.08293, 2.10147, 2.08396, 2.07705, 2.09401, 1.99308, 2.0674, 2.09015, 2.0697, 2.06489, 2.06159, 2.08631, 2.05877, 2.05617, 2.07174, 2.06232, 2.0624, 1.97687, 1.97514, 1.97343, 1.97282, 1.97271, 1.97329, 1.97418, 2.04682, 1.89681, 1.9905, 1.98894, 1.94404, 1.88946, 1.883, 1.98395, 1.98222, 1.93126, 1.88054, 1.99815, 2.003, 1.92448, 1.87181, 1.8711, 1.91726, 1.86883, 2.09927, 2.00291, 1.86312, 2.00267, 2.00394, 1.99663, 2.09246, 1.85863, 1.99546, 1.85807, 1.91354, 1.85818, 1.85743, 1.99023, 1.90646, 1.85769, 1.85447, 1.98742, 2.07295, 1.98557, 1.77276, 1.77138, 1.76873, 1.87335, 1.76694, 1.88755, 1.76187, 1.76064, 1.75687, 1.88306, 1.85865, 1.75156, 1.8685, 1.89397, 1.89517, 1.89429, 1.89419, 1.74773, 1.74815, 1.7452, 2.01053, 1.7478, 1.74725, 1.74525, 1.74468, 1.87178, 1.79678, 1.79665, 1.80932, 1.74378, 1.79546, 1.74347, 1.88192, 1.74787, 1.74621, 1.74568, 1.74682, 1.74715, 1.74776, 1.87806, 1.7479, 1.75109, 1.7496, 1.87307, 1.75043, 1.75533, 1.75235, 1.84658, 1.75572, 1.87626, 1.75616, 1.86566
2.05734, 2.05907, 2.06041, 1.99468, 1.99608, 1.94429, 2.0159, 2.05149, 2.05337, 1.98946, 1.93811, 1.98799, 2.12183, 1.93519, 2.05558, 2.05534, 2.13766, 2.13706, 1.93206, 1.98164, 2.0504, 2.05178, 1.92525, 1.92323, 1.97246, 1.97948, 1.92078, 1.9207, 1.96816, 1.96671, 1.91384, 1.96192, 2.03392, 1.91088, 1.90908, 1.9107, 1.91361, 1.91066, 2.01815, 2.00915, 2.01092, 1.97522, 2.0109, 2.01517, 2.0555, 1.98001, 2.05166, 2.05296, 2.0871, 2.04845, 2.04892, 2.0463, 2.04225, 2.08304, 1.963, 2.03787, 2.15873, 1.95621, 2.0282, 2.0788, 2.02754, 2.02311, 1.94658, 2.07455, 2.07358, 2.07278, 1.94034, 2.01375, 2.01269, 1.93609, 2.06589, 2.01015, 2.00922, 2.01059, 2.01089, 2.00952, 2.00764, 2.16328, 2.00986, 1.93457, 1.93548, 1.94147, 2.01703, 2.01732, 2.02034, 2.14426, 2.02764, 2.0279, 2.0491, 2.11108, 2.11497, 2.11073, 2.09998, 2.11644, 2.09534, 2.09705, 2.09629, 2.08792, 2.09008, 2.09338, 2.09014, 2.1149, 2.01391, 2.10471, 2.10346, 2.01177, 2.11027, 2.08752, 2.01099, 2.0102, 2.1044, 2.01, 2.08584, 2.00975, 2.00649, 2.09997, 2.00416, 2.00461, 2.0035, 2.09633, 2.10603, 2.00017, 2.07663, 2.07515, 2.07633, 2.0927, 1.99672, 2.07428, 2.08857, 2.07964, 2.07005, 2.08715, 2.06692, 2.08766, 2.08798, 1.98718, 2.0872, 2.07402, 2.06008, 2.05759, 1.97924, 2.07499, 2.05145, 1.97747, 1.97516, 1.97372, 1.97282, 1.97345, 1.97199, 2.05836, 1.971, 1.95112, 1.89566, 2.08675, 1.94432, 1.89071, 2.00435, 1.98581, 1.88478, 1.9319, 2.00697, 1.87649, 1.98028, 1.97881, 1.98628, 1.86749, 1.86954, 2.00421, 1.86639, 1.86629, 1.86341, 1.98624, 2.08642, 1.86138, 2.08411, 1.85884, 1.99356, 1.91537, 1.91661, 1.91499, 1.85645, 1.85507, 1.85695, 1.85784, 1.99214, 1.85676, 1.85627, 1.85494, 1.82751, 1.76997, 1.76786, 1.7667, 1.89331, 1.89033, 1.89251, 1.89004, 1.75557, 1.80758, 1.75323, 1.80314, 1.75224, 1.86119, 1.74801, 1.89572, 1.74616, 1.74706, 1.89382, 1.8921, 1.74469, 1.74573, 1.89288, 1.74494, 1.74415, 1.7952, 1.74412, 1.74421, 1.74582, 1.74569, 1.7457, 1.88232, 1.7424, 1.74426, 1.74559, 1.87936, 1.7457, 1.97337, 1.74477, 1.74709, 1.74704, 1.7507, 1.75031, 1.84587, 1.74925, 1.75255, 1.87174, 1.84546, 1.84114, 1.80116, 1.75431, 1.75453
1.95006, 1.99834, 1.94759, 1.99689, 1.99383, 1.94404, 1.94376, 1.94213, 1.94224, 1.94469, 1.93829, 1.98919, 1.98801, 1.93808, 2.13905, 1.93173, 2.13862, 2.12826, 2.12639, 2.0503, 2.04936, 2.04753, 2.04076, 2.04192, 1.92265, 1.92205, 2.04294, 1.96607, 1.91657, 1.91783, 1.96478, 1.9128, 2.0353, 1.90957, 1.90771, 1.90936, 2.10626, 1.9106, 1.99439, 1.96251, 1.91331, 1.9754, 2.0108, 2.01516, 2.09039, 2.05548, 2.09258, 2.1661, 2.05116, 1.97237, 2.0485, 1.9689, 1.96533, 2.04124, 2.08045, 2.15703, 2.03698, 2.0334, 1.95361, 1.95276, 2.02921, 1.94835, 2.15138, 1.94501, 2.02323, 1.94191, 1.94076, 2.01503, 2.01057, 2.01023, 2.0101, 2.14148, 2.06753, 2.06539, 2.06269, 2.00988, 2.00932, 2.15224, 2.0092, 2.05907, 1.93598, 2.1484, 2.01486, 1.94096, 2.02028, 2.02167, 2.02519, 2.15253, 2.14497, 2.11383, 2.12083, 2.11695, 2.1148, 2.10887, 2.01925, 2.09716, 2.09748, 2.09963, 2.09574, 2.09669, 2.09026, 2.09053, 2.09048, 2.08852, 2.09823, 2.10709, 2.09477, 2.11962, 2.08588, 2.00978, 2.09253, 2.08389, 2.00705, 2.11017, 2.09084, 2.09176, 2.09288, 2.00407, 2.00299, 2.0927, 2.0847, 2.09164, 2.09775, 2.09045, 2.08981, 2.09057, 2.0834, 2.07351, 2.08996, 2.07319, 2.06574, 1.99311, 2.09385, 2.08288, 2.0916, 2.08688, 2.08993, 1.98493, 2.07586, 2.07203, 1.97938, 2.05579, 2.05568, 2.05486, 1.97605, 1.97425, 1.97461, 1.97344, 1.97242, 1.97019, 2.0748, 1.95207, 1.8942, 1.94602, 1.89487, 1.88966, 1.8886, 1.88462, 1.88542, 1.93172, 2.00637, 1.87532, 1.9798, 1.97826, 1.92319, 1.92115, 1.92026, 1.86773, 1.8667, 1.9179, 1.86349, 1.86353, 1.86319, 1.86281, 1.85649, 1.86189, 1.86124, 1.86011, 1.91459, 1.91164, 1.85741, 1.85789, 1.85666, 1.85661, 2.08659, 1.85575, 1.85529, 1.85612, 1.99956, 1.77232, 1.76662, 1.8935, 1.76287, 1.76343, 1.89298, 1.8083, 1.75485, 1.75598, 1.75224, 1.80106, 1.75017, 1.86185, 1.85908, 1.74466, 1.89447, 1.89591, 1.74428, 1.74213, 1.74443, 1.74443, 1.89251, 1.74263, 1.74456, 1.79336, 1.74463, 1.79511, 1.74474, 1.74285, 1.88365, 1.74259, 1.74501, 1.745, 1.79677, 1.74628, 1.7452, 1.74331, 1.74754, 1.7477, 1.74753, 1.87239, 1.927, 1.92485, 1.80025, 1.86416, 1.75051, 1.87832, 1.8697, 1.80262, 1.75472, 1.87692
1.99979, 2.06864, 1.94799, 1.94994, 1.99507, 1.99478, 1.9441, 1.94235, 1.94435, 1.94384, 1.94029, 1.93604, 1.93536, 1.93565, 1.93551, 2.13796, 2.12951, 2.02117, 2.05068, 2.05208, 2.0498, 1.92803, 1.97711, 1.92327, 1.92143, 1.9236, 1.91913, 1.96392, 1.96546, 1.96505, 1.96298, 1.96489, 1.91111, 1.90761, 2.03761, 2.13609, 2.10524, 1.91298, 1.91154, 1.96667, 1.91377, 1.91345, 1.96505, 2.00366, 2.08807, 2.05655, 2.08643, 2.05173, 1.97318, 2.04762, 2.04848, 2.04488, 1.96642, 2.03939, 2.03916, 2.03543, 2.03766, 2.03124, 2.03007, 2.02926, 2.02818, 2.07571, 2.15138, 2.02235, 2.02065, 1.94362, 1.94084, 2.01584, 2.07017, 2.07019, 2.01384, 2.06635, 2.06613, 2.01086, 2.01035, 2.01014, 2.00863, 2.06173, 2.01157, 1.9342, 1.93519, 1.9348, 2.05841, 2.02049, 1.94507, 2.02381, 2.02681, 2.02986, 2.15181, 2.02306, 2.02378, 2.12385, 2.12089, 2.10911, 2.01834, 2.01824, 2.09633, 2.0958, 2.09513, 2.09108, 2.0921, 2.09089, 2.11842, 2.11411, 2.1141, 2.12407, 2.1012, 2.09875, 2.09701, 2.0107, 2.01058, 2.0971, 2.09698, 2.09095, 2.09235, 2.10001, 2.08725, 2.08705, 2.00382, 2.0937, 2.00172, 2.09446, 1.99981, 2.07467, 2.08733, 2.10101, 2.07315, 2.07359, 2.07222, 2.0902, 2.08078, 2.07751, 1.98963, 2.08144, 2.08294, 1.98634, 2.0826, 2.08414, 1.98212, 2.05866, 2.0853, 2.05495, 1.97746, 1.97692, 1.97404, 1.9745, 2.04831, 1.97213, 1.97096, 2.04683, 2.04861, 1.95068, 1.89807, 1.94582, 1.89315, 2.00614, 1.88923, 2.09428, 1.88276, 1.8807, 2.00415, 1.87644, 1.9262, 1.87596, 1.92187, 1.96493, 1.87119, 1.86572, 1.91978, 1.91901, 1.96828, 1.96622, 1.99939, 1.86207, 1.86165, 1.96885, 1.85953, 1.85901, 1.86008, 1.8585, 1.99472, 1.85864, 1.85722, 1.85694, 1.85669, 1.90775, 1.99298, 1.85849, 1.89317, 1.76925, 1.7688, 1.89344, 1.76306, 1.76143, 1.89043, 1.89303, 1.7539, 1.75402, 1.7506, 1.75174, 1.75008, 1.74766, 1.74588, 1.74332, 1.74382, 1.84494, 1.89086, 1.88873, 1.74348, 1.88915, 1.96836, 1.96555, 1.74078, 1.79321, 1.92371, 1.79496, 1.79332, 1.74436, 1.88118, 1.74404, 1.74379, 1.74711, 1.79629, 1.74419, 1.74387, 1.87846, 1.74475, 1.74531, 1.87182, 1.87481, 1.87487, 1.87216, 1.74553, 1.75153, 1.74886, 1.87281, 1.75103, 1.8534, 1.80231, 1.87616
1.95052, 1.94781, 1.94788, 1.94866, 1.94745, 2.04379, 1.94745, 2.1394, 1.94234, 2.04827, 1.99128, 2.01732, 2.05974, 1.98483, 1.98664, 1.9362, 1.98195, 2.05312, 1.9315, 2.12755, 2.05423, 1.92835, 2.11796, 1.92307, 1.92351, 1.92024, 1.91989, 1.91684, 1.96485, 1.96566, 1.96489, 1.91232, 1.91356, 2.03806, 2.03879, 1.91001, 2.10568, 2.01633, 2.03537, 1.91082, 1.96489, 1.96589, 1.91668, 1.91823, 2.08698, 2.05539, 2.05519, 1.97767, 2.05235, 2.0828, 1.97123, 2.04395, 2.08298, 2.04472, 2.03728, 2.03554, 2.16249, 2.07905, 2.08268, 2.15324, 2.02828, 2.02414, 2.07528, 2.02327, 2.02157, 2.07332, 1.94116, 2.01761, 2.06889, 2.06943, 2.01197, 1.93527, 2.01008, 1.93426, 2.00849, 2.06369, 2.00896, 2.01026, 2.00998, 2.01031, 2.01361, 2.01425, 2.05704, 2.15126, 2.02097, 1.94573, 2.15323, 2.0322, 2.13683, 2.11941, 2.10896, 2.02175, 2.12454, 2.12483, 2.01715, 2.09812, 2.01712, 2.01624, 2.09392, 2.01461, 2.0159, 2.10761, 2.0877, 2.01276, 2.01229, 2.10501, 2.01233, 2.0937, 2.00999, 2.09738, 2.09557, 2.09427, 2.07655, 2.08862, 2.09584, 2.1043, 2.00463, 2.00365, 2.00246, 2.00013, 2.00071, 2.08563, 2.08722, 2.09306, 1.99876, 1.99841, 2.0824, 2.07278, 1.99599, 2.08638, 2.10726, 2.09088, 1.99046, 1.98999, 2.08101, 2.09099, 1.98625, 2.08619, 2.07562, 2.06942, 2.07721, 2.05517, 2.0554, 1.97597, 1.97289, 1.97322, 1.97235, 1.97007, 1.97191, 2.06355, 1.96968, 1.98932, 1.89695, 2.09803, 2.00747, 1.88953, 1.88955, 2.10397, 1.8832, 1.8824, 1.87934, 1.98976, 1.92649, 1.87504, 1.87416, 1.8705, 1.86855, 1.96515, 1.95858, 1.92032, 1.86253, 2.08702, 1.95527, 1.86301, 1.86066, 1.86228, 1.86105, 1.86013, 1.98721, 2.07434, 1.8583, 2.07484, 2.08367, 1.85628, 1.90827, 1.8568, 1.85808, 1.85672, 1.76939, 1.99481, 1.89267, 1.8903, 1.76151, 1.75957, 1.88944, 1.75461, 1.75294, 1.89391, 1.89123, 1.89744, 1.89434, 1.74773, 1.74585, 1.74461, 1.89404, 2.00363, 1.84167, 1.74309, 1.88928, 1.88717, 1.7411, 1.89129, 1.74415, 1.74128, 1.79046, 1.79217, 1.74101, 1.73988, 1.88389, 1.93205, 1.83787, 1.85294, 1.7448, 1.74517, 1.74343, 1.8736, 1.8781, 1.87496, 1.87152, 1.876, 1.87285, 1.74494, 1.7455, 1.87156, 1.86978, 1.74728, 1.79972, 1.86332, 1.79982, 1.7518
1.94921, 2.00023, 1.94653, 1.94572, 1.9451, 2.0658, 1.94392, 1.94289, 1.99134, 1.9896, 1.99006, 2.01692, 1.93908, 1.98704, 1.98696, 1.98278, 1.93489, 1.93124, 2.04962, 2.1271, 2.13142, 1.92423, 1.92428, 1.92132, 2.04566, 1.92147, 1.91822, 1.91714, 2.00019, 2.00778, 1.91127, 1.91198, 2.01967, 1.90658, 1.90871, 2.01473, 2.01742, 1.91046, 1.91045, 2.02452, 1.91503, 1.96546, 1.9657, 1.96554, 2.06125, 2.05629, 2.08762, 2.0871, 2.05245, 2.04658, 2.04745, 2.08269, 1.96664, 2.04393, 1.9613, 2.03536, 2.03586, 2.03223, 2.0309, 2.03141, 2.02617, 1.94841, 1.94619, 2.07576, 2.02053, 2.02071, 2.06966, 2.06792, 2.0143, 2.01384, 2.14573, 2.01043, 2.01037, 1.93383, 2.01012, 2.00979, 2.00774, 1.93409, 2.00923, 2.00959, 2.01039, 2.05601, 2.01409, 1.94167, 2.02113, 1.94639, 1.94803, 1.95099, 2.04775, 2.02309, 2.12871, 2.10539, 2.12223, 2.13426, 2.10585, 2.09752, 2.0169, 2.01426, 2.01479, 2.01448, 2.01487, 2.11075, 2.10796, 2.10587, 2.11375, 2.111, 2.09751, 2.10501, 2.01009, 2.01009, 2.10444, 2.00911, 2.00842, 2.1005, 2.10032, 2.08708, 2.08675, 2.00078, 2.00354, 2.00043, 2.08678, 2.00117, 2.00003, 2.09346, 1.99951, 2.08532, 1.99688, 2.09375, 2.08785, 2.08121, 2.0866, 2.08551, 2.08445, 1.99166, 2.07793, 2.07338, 1.98506, 1.98488, 1.98296, 2.07076, 2.07246, 1.97791, 1.97633, 1.97477, 1.97256, 1.97285, 1.97237, 1.96971, 1.97004, 2.07346, 2.05141, 1.9019, 2.00116, 1.90026, 2.00061, 1.89031, 1.88682, 1.9807, 1.88255, 1.88074, 1.99107, 1.98967, 1.98762, 2.08583, 1.8731, 1.86936, 1.86937, 1.8664, 1.86784, 1.86625, 2.00001, 1.86449, 1.97938, 1.9771, 1.91323, 1.86166, 1.9107, 1.91117, 1.91038, 1.85995, 1.86053, 2.07058, 2.07484, 2.08392, 1.85876, 1.85839, 1.85979, 1.98301, 1.77057, 1.81757, 1.76604, 1.76327, 1.86353, 1.87573, 1.88726, 1.75458, 2.00918, 1.89521, 1.75054, 1.74512, 1.89115, 1.74579, 1.74567, 1.99871, 1.74387, 1.89488, 1.74071, 1.74025, 1.88904, 1.88863, 1.84069, 1.88786, 1.88543, 1.88507, 1.88241, 1.74207, 1.74094, 1.88312, 1.74189, 1.98216, 1.83769, 1.74086, 1.74522, 1.74414, 1.8721, 1.87391, 1.7411, 1.74416, 1.74563, 1.74267, 1.74442, 1.74524, 1.74526, 1.87187, 1.74714, 1.74756, 1.88317, 1.86341, 1.74872, 1.97393
2.0032, 1.94922, 1.94659, 1.99577, 1.94536, 1.94455, 2.14528, 1.94235, 2.05932, 1.93988, 1.94108, 1.93711, 1.98681, 1.98676, 1.93479, 2.13917, 2.05497, 1.93122, 2.12752, 1.97928, 1.97566, 1.97763, 1.97318, 1.9725, 1.97247, 2.04623, 1.91761, 1.91648, 1.91459, 2.04173, 2.04042, 2.1178, 1.95999, 1.91147, 2.03123, 2.01418, 2.01477, 1.91066, 1.90929, 2.0244, 1.91402, 1.96512, 2.01366, 2.05913, 2.06071, 2.05584, 2.16275, 2.05278, 2.05107, 1.97282, 2.04654, 2.04582, 2.04447, 1.96554, 2.15653, 2.03591, 2.039, 2.07594, 2.0307, 2.02835, 2.07623, 2.02471, 2.02464, 2.02302, 2.07603, 2.07043, 2.01983, 2.01516, 2.01657, 2.01249, 2.01088, 2.01114, 2.01011, 2.01059, 2.0094, 2.01026, 1.9346, 2.00979, 2.01045, 2.15235, 2.01334, 2.0134, 1.94029, 2.05652, 2.0209, 1.94563, 1.94754, 2.03486, 2.14424, 2.10669, 2.10731, 2.02202, 2.10764, 2.11274, 2.09418, 2.09369, 2.02043, 2.01649, 2.01542, 2.0154, 2.01421, 2.11021, 2.10146, 2.10423, 2.10392, 2.10033, 2.09845, 2.09787, 2.09867, 2.09848, 2.01053, 2.01055, 2.00878, 2.09347, 2.1029, 2.09619, 2.00559, 2.10064, 2.09437, 2.08545, 2.00256, 2.08643, 2.08769, 2.08352, 1.99817, 1.99718, 1.9953, 2.09441, 2.09222, 2.09381, 2.07638, 2.09038, 2.07728, 1.99064, 2.07845, 2.08299, 2.07003, 1.98369, 2.09223, 2.08245, 1.97998, 2.05961, 2.05873, 1.9751, 1.97303, 1.9724, 1.97318, 1.97154, 1.97022, 1.97205, 1.97016, 1.90285, 1.90017, 1.897, 2.08591, 1.88955, 1.88676, 1.8853, 2.10082, 1.88074, 1.87885, 1.98893, 1.87386, 1.87567, 1.87432, 1.87297, 1.87109, 2.0873, 1.86585, 1.86587, 1.86535, 1.86295, 1.97853, 1.97579, 1.86333, 1.86085, 1.91314, 1.86215, 1.86107, 1.86098, 1.86199, 1.86155, 1.85774, 1.9899, 1.96201, 1.85923, 1.8579, 1.85759, 1.77027, 1.7668, 1.88331, 1.83245, 1.75984, 1.75943, 1.7572, 1.75233, 1.89662, 1.75088, 1.74754, 1.89442, 1.84744, 1.7451, 1.89169, 1.74356, 1.74168, 1.74038, 1.88997, 1.73961, 1.73844, 1.74124, 1.73903, 1.74008, 1.741, 1.74041, 1.74033, 1.74064, 1.8831, 1.88269, 1.88324, 1.88148, 1.74095, 1.74015, 1.74045, 1.92767, 1.74181, 1.83463, 1.87539, 1.74203, 1.7432, 1.74458, 1.74572, 1.7452, 1.86354, 1.74797, 1.74655, 1.74749, 1.88231, 1.86831, 1.86607, 1.7474
1.95031, 1.94836, 1.95012, 1.94837, 2.04964, 1.94294, 1.94423, 2.06526, 2.06297, 1.93906, 1.93847, 1.93798, 1.93786, 2.01317, 1.98581, 1.93084, 1.92544, 2.05504, 1.92945, 1.97771, 1.97715, 1.92403, 1.97214, 1.97179, 1.91992, 1.91881, 1.91919, 1.91622, 1.91446, 2.1142, 1.91216, 2.11676, 1.91126, 1.9607, 1.96214, 2.02592, 1.95952, 1.96186, 1.90869, 2.02184, 2.02098, 2.09588, 2.0198, 1.9175, 2.0564, 2.05631, 2.05461, 2.05172, 1.97216, 1.97267, 2.0462, 2.08064, 2.04107, 2.04166, 2.07936, 2.07883, 1.95897, 2.02929, 2.17359, 2.02748, 2.02556, 2.0253, 2.07612, 2.02125, 2.02054, 1.94331, 2.02041, 2.07161, 2.01652, 2.0149, 1.93523, 1.93422, 2.01096, 2.06445, 2.00862, 2.00792, 2.00693, 2.05854, 2.01037, 2.01194, 2.15665, 2.14799, 2.01659, 2.05629, 2.15217, 2.02451, 1.95113, 2.03193, 2.13784, 2.02165, 2.11558, 2.02198, 2.11707, 2.12074, 2.01727, 2.09532, 2.01648, 2.01576, 2.01358, 2.01344, 2.01319, 2.10391, 2.12127, 2.10749, 2.11762, 2.08856, 2.08827, 2.10374, 2.10742, 2.10773, 2.01107, 2.00958, 2.09088, 2.09731, 2.10006, 2.09053, 2.08089, 2.10071, 2.00325, 2.00353, 2.00265, 2.08636, 2.09327, 2.0881, 1.99825, 1.99722, 2.0943, 2.09709, 1.99652, 1.99487, 2.08552, 2.09125, 2.07588, 1.98963, 2.08717, 1.98735, 1.98632, 1.98403, 2.07642, 1.98154, 2.0741, 1.97741, 2.05824, 1.97436, 1.97274, 1.97379, 1.97333, 1.97245, 1.96976, 1.97053, 2.0563, 1.99881, 1.99122, 1.89656, 1.94409, 1.8908, 1.99989, 1.88626, 1.88556, 1.88553, 1.87934, 1.87572, 2.09348, 1.99959, 1.87325, 1.87264, 1.86859, 1.86921, 2.09461, 1.86828, 1.86593, 1.98903, 1.8639, 1.86492, 1.86358, 1.91327, 1.9113, 1.86282, 1.86251, 1.98924, 1.861, 1.86188, 1.86322, 1.86225, 1.98694, 1.9865, 1.97713, 1.91197, 1.76809, 1.76412, 1.89312, 1.89017, 1.76091, 1.86255, 1.75494, 1.80321, 1.89338, 1.74917, 1.74885, 1.89587, 1.74421, 1.74551, 1.74433, 1.744, 1.74171, 1.89216, 1.74047, 1.88997, 1.79004, 1.78852, 1.88381, 1.74046, 1.88558, 1.73767, 1.83723, 1.73579, 1.88551, 1.73875, 1.73819, 1.87883, 1.74069, 1.73904, 1.74058, 1.87485, 1.8757, 1.83681, 1.74195, 1.7415, 1.74166, 1.86809, 1.74381, 1.74346, 1.86329, 1.74606, 1.74628, 1.74503, 1.74712, 1.74729, 1.86618, 1.74885
2.07905, 1.94871, 1.94789, 1.949, 1.94597, 1.94442, 1.99588, 1.94435, 2.1376, 2.13543, 1.93803, 1.93721, 1.98506, 1.98355, 1.9843, 1.93179, 1.93093, 2.13609, 2.0465, 2.04862, 2.11054, 1.97376, 1.92174, 1.9203, 2.04599, 1.91746, 1.9164, 1.91653, 1.91653, 1.91621, 1.91093, 1.91018, 1.91045, 1.9097, 1.90953, 1.95866, 1.91223, 1.91108, 1.91152, 1.912, 1.91357, 2.01985, 2.01055, 2.05966, 2.0615, 2.058, 2.05324, 2.0529, 2.05132, 2.04535, 2.04595, 2.04669, 2.04357, 2.04191, 2.0397, 2.03844, 2.1665, 1.95588, 2.03139, 2.07975, 2.02557, 2.02765, 2.16419, 2.01942, 2.07277, 2.01858, 2.01606, 2.01437, 2.01407, 2.012, 2.01137, 1.93417, 2.06399, 2.06505, 1.93186, 2.00732, 2.0072, 2.00977, 2.0081, 2.01042, 2.06148, 2.0116, 2.14574, 2.14189, 2.05391, 2.05569, 2.05495, 2.05143, 2.05327, 2.02438, 2.10716, 2.0973, 2.09501, 2.0961, 2.09784, 2.09196, 2.01531, 2.01534, 2.01407, 2.01464, 2.01182, 2.09545, 2.10971, 2.11817, 2.08729, 2.08842, 2.01083, 2.10638, 2.10043, 2.10462, 2.00903, 2.00955, 2.09991, 2.09952, 2.10347, 2.09319, 2.07958, 2.00317, 2.11042, 2.08974, 2.00141, 2.08384, 2.08972, 2.08216, 2.08535, 2.0809, 2.08997, 2.08323, 2.09292, 2.08035, 2.07749, 2.07796, 2.07837, 1.98984, 1.98817, 2.07675, 1.98538, 2.07323, 2.07595, 1.98082, 2.07287, 2.05165, 1.97559, 1.97489, 1.97319, 1.97512, 1.97148, 1.97221, 1.97157, 2.07226, 2.06008, 1.90321, 1.89996, 1.89686, 1.9424, 1.94116, 1.99489, 1.88684, 1.99096, 1.98932, 1.8821, 2.00293, 1.87719, 1.87399, 1.8743, 1.8703, 1.86911, 1.86863, 1.86952, 2.08913, 1.86506, 1.86393, 1.99462, 2.09343, 1.8633, 1.86361, 1.86343, 2.08937, 1.86319, 1.94207, 1.94039, 1.90988, 1.86292, 1.8623, 1.86149, 1.86152, 1.86218, 1.86182, 1.7662, 1.76516, 1.76333, 1.89029, 1.75818, 1.75651, 1.7542, 1.89527, 1.89409, 1.74864, 1.74803, 1.74368, 1.74533, 1.74161, 1.89249, 1.74099, 1.73968, 1.74055, 1.7375, 1.73803, 1.78994, 1.73844, 1.73814, 1.88648, 1.7373, 1.88285, 1.73624, 1.73853, 1.93547, 1.73784, 1.7377, 1.739, 1.739, 1.7386, 1.73861, 1.87612, 1.73988, 1.96468, 1.74192, 1.74158, 1.87047, 1.74128, 1.741, 1.85213, 1.79534, 1.74479, 1.74476, 1.86869, 1.86828, 1.87123, 1.97614, 1.86976
1.94873, 1.94962, 1.94451, 1.94844, 1.9444, 1.94644, 1.99476, 1.93958, 1.94469, 1.93915, 1.94056, 1.93982, 1.93674, 2.02078, 1.98287, 1.93221, 1.93076, 1.93067, 2.04612, 1.92453, 1.92474, 1.92494, 1.92096, 1.91888, 2.04569, 2.03185, 1.91639, 1.91404, 2.12012, 1.91282, 1.91104, 1.91276, 1.91203, 1.90978, 1.90831, 1.91025, 1.9103, 1.91158, 1.9104, 1.9112, 1.91294, 2.01556, 2.01703, 2.01816, 2.05974, 2.05689, 2.08391, 2.05504, 2.05131, 2.04584, 2.08055, 2.04882, 2.04336, 1.9652, 2.03937, 2.03791, 2.03713, 1.95507, 1.95626, 2.02785, 2.16646, 1.94927, 2.0736, 2.0215, 2.07157, 1.94254, 2.07056, 2.01708, 1.93905, 2.06819, 2.01368, 2.0102, 2.01143, 2.01092, 2.00765, 2.00818, 2.00956, 2.01043, 2.01007, 2.01033, 2.15042, 2.01315, 2.01351, 2.14296, 2.02089, 1.94432, 2.02686, 1.9515, 2.05282, 2.09711, 2.09647, 2.09681, 2.02081, 2.09393, 2.01697, 2.09373, 2.01635, 2.01578, 2.01452, 2.01423, 2.01395, 2.01646, 2.10144, 2.10735, 2.08596, 2.08683, 2.08706, 2.0869, 2.10727, 2.09409, 2.01111, 2.10401, 2.10775, 2.09316, 2.10991, 2.09487, 2.10849, 2.08646, 2.00399, 2.09023, 2.09571, 2.09652, 2.07869, 2.07209, 1.9975, 2.08285, 2.08995, 2.09219, 1.99379, 2.08718, 2.06626, 2.08665, 2.07915, 1.98871, 1.98719, 2.07691, 2.07695, 1.98291, 2.06492, 2.07887, 2.0752, 2.08935, 2.07184, 1.97444, 1.97332, 1.9715, 1.96983, 1.96832, 1.97128, 1.96959, 1.90394, 1.9036, 1.98657, 1.94748, 1.89581, 1.99393, 1.99409, 1.99667, 1.99013, 1.98864, 1.93015, 1.87769, 2.08522, 1.87205, 1.87186, 1.87052, 1.87172, 1.86996, 1.86683, 2.08237, 1.86664, 1.86818, 1.99341, 1.8637, 1.99752, 1.99565, 2.07588, 1.86511, 1.86343, 1.86272, 1.9391, 1.91393, 1.86295, 1.9863, 1.86171, 2.08339, 1.98523, 1.86155, 1.76521, 1.76197, 1.87528, 1.7586, 1.75493, 1.89549, 1.89349, 1.80213, 1.7997, 1.75057, 1.86146, 1.74699, 1.89542, 1.74041, 1.74217, 1.74042, 1.74075, 1.89289, 1.89022, 1.88884, 1.88627, 1.73585, 1.88632, 1.89083, 1.83712, 1.735, 1.73623, 1.83183, 1.7378, 1.73749, 1.73633, 1.83796, 1.73703, 1.73891, 1.73699, 1.73816, 1.74064, 1.74023, 1.74131, 1.7415, 1.95872, 1.87186, 1.87101, 1.85169, 1.74461, 1.74521, 1.74309, 1.74185, 1.86692, 1.85852, 1.74486, 1.74449
2.06911, 2.06609, 2.14273, 2.0631, 1.99683, 2.04361, 1.9421, 1.9931, 1.93957, 1.93848, 1.93846, 1.9377, 2.05557, 1.98245, 1.98974, 1.98034, 1.92915, 1.93096, 1.92687, 2.05185, 2.1324, 1.92431, 1.92036, 1.91816, 2.02992, 2.03105, 2.0324, 2.01125, 1.91378, 1.91412, 1.91212, 1.91013, 1.91073, 1.9099, 1.90972, 1.90804, 2.10721, 1.96221, 1.96205, 1.91169, 1.91412, 1.91411, 2.02066, 1.92024, 2.08468, 2.08258, 2.08281, 2.08281, 2.05323, 2.04914, 2.04672, 2.04693, 2.04358, 2.07709, 2.04165, 2.03635, 2.03768, 2.03263, 2.07395, 2.02815, 2.16403, 2.02407, 2.02435, 2.02089, 2.02064, 2.02063, 2.0712, 2.01553, 2.06926, 2.0132, 2.01264, 1.93395, 2.0689, 2.06335, 2.15556, 1.93228, 2.00807, 1.93456, 2.06165, 2.01028, 2.00966, 1.93552, 2.0154, 2.01659, 1.94163, 2.14755, 2.05201, 1.95074, 2.14857, 2.14025, 2.02151, 2.11511, 2.09767, 2.09511, 2.09478, 2.09618, 2.09671, 2.01586, 2.01463, 2.01689, 2.01184, 2.10764, 2.11788, 2.01102, 2.11449, 2.01132, 2.09435, 2.09415, 2.09504, 2.00907, 2.10731, 2.09704, 2.00739, 2.09707, 2.09389, 2.11652, 2.0933, 2.08437, 2.08619, 2.09073, 2.09013, 2.08399, 2.07277, 2.07576, 2.09081, 1.99684, 1.99652, 1.99573, 2.08777, 2.08815, 2.0647, 2.06282, 1.98968, 2.07565, 2.07839, 2.10009, 2.07027, 2.06974, 1.98224, 2.06939, 2.06932, 2.07071, 1.97567, 1.9749, 1.97276, 1.97334, 1.97387, 1.97081, 1.96908, 1.96922, 2.05699, 1.99328, 1.90024, 1.8974, 1.89544, 1.89337, 1.88957, 1.99669, 1.98888, 1.93205, 1.92966, 1.92824, 1.87637, 1.875, 1.92496, 1.92318, 1.87207, 1.87033, 1.86857, 2.0002, 2.0915, 1.86822, 1.86579, 1.86526, 2.07901, 1.9959, 1.86378, 1.86214, 1.91356, 1.98868, 1.86523, 1.91285, 1.86266, 1.86309, 1.86193, 1.86202, 1.9831, 1.7657, 1.76452, 1.86334, 1.75972, 1.75732, 1.89311, 1.89272, 1.75153, 1.80087, 1.74896, 1.7461, 1.74603, 1.74523, 1.74143, 1.89279, 1.8924, 1.74114, 1.73991, 1.89221, 1.73871, 1.73792, 1.73465, 1.73147, 1.73488, 1.73703, 1.73585, 1.88578, 1.88335, 1.73716, 1.73438, 1.93356, 1.73649, 1.88169, 1.73627, 1.73777, 1.73732, 1.7893, 1.73747, 1.74084, 1.78937, 1.87328, 1.87389, 1.87215, 1.87012, 1.8529, 1.74277, 1.86246, 1.74283, 1.74377, 1.74145, 1.74435, 1.86153, 1.79241
1.94787, 1.94838, 1.94626, 1.94836, 1.99451, 1.99595, 2.06036, 1.99223, 1.99248, 1.99254, 1.93863, 1.93534, 1.93799, 1.98234, 1.98233, 1.97951, 1.92837, 1.92818, 1.92527, 1.92608, 2.05038, 2.05184, 1.92139, 1.9179, 1.96725, 2.03051, 2.01397, 1.91363, 1.91153, 1.91144, 1.91344, 2.1212, 1.91294, 1.90993, 1.90904, 1.91048, 2.03092, 1.91158, 2.02789, 1.96483, 1.96556, 1.96689, 1.91822, 1.9197, 2.15936, 2.05896, 2.05242, 2.08173, 2.04846, 2.05141, 2.0466, 2.04543, 2.04556, 1.96497, 2.15157, 2.03817, 2.0361, 2.0331, 2.03056, 1.95092, 2.02568, 2.14998, 2.02496, 1.94553, 2.15225, 2.01746, 2.01648, 2.01615, 2.06731, 2.06709, 2.01118, 1.9347, 2.06638, 2.00987, 2.00835, 2.0649, 2.00889, 2.00785, 2.00768, 1.93378, 1.93512, 1.93558, 2.05613, 2.01661, 1.94232, 2.0243, 2.12866, 1.95141, 2.15577, 2.10884, 2.02072, 2.09747, 2.09757, 2.0951, 2.09424, 2.1006, 2.01454, 2.01468, 2.01416, 2.01438, 2.01309, 2.10545, 2.09703, 2.09599, 2.09826, 2.10665, 2.08614, 2.08816, 2.10382, 2.09794, 2.00696, 2.00652, 2.1032, 2.09531, 2.09105, 2.10382, 2.09558, 2.10423, 2.09432, 2.09424, 2.00107, 2.00019, 2.08412, 2.0865, 2.08909, 1.99696, 1.99675, 1.99507, 2.08309, 2.07853, 2.08293, 2.08023, 1.99021, 2.07662, 2.07216, 1.98602, 2.07453, 2.07583, 1.98178, 1.97942, 2.05311, 2.07215, 2.06793, 1.97575, 1.9742, 1.97149, 1.97083, 1.96958, 1.96953, 1.97024, 2.06929, 1.90314, 1.89982, 1.89738, 1.99919, 1.8925, 1.88981, 1.88875, 1.95516, 1.88268, 1.98348, 1.92989, 1.9275, 1.96161, 1.92345, 1.87425, 1.87281, 1.86996, 1.86844, 1.86765, 1.86729, 1.86595, 1.86641, 1.8655, 1.99577, 1.99479, 1.91646, 1.91483, 1.91457, 1.86312, 1.86499, 1.86288, 1.86194, 1.86144, 1.9866, 2.06216, 1.86331, 1.97073, 1.76227, 1.75926, 1.75682, 1.75558, 1.86755, 1.84558, 1.85489, 1.74914, 1.8969, 1.87006, 1.74736, 1.74429, 1.74202, 2.00308, 1.89157, 1.73545, 1.73775, 1.88909, 1.73742, 1.73669, 1.73688, 1.88381, 1.7352, 1.88609, 1.78973, 1.73372, 1.88181, 1.83023, 1.73472, 1.8829, 1.73703, 1.73601, 1.73661, 1.87814, 1.87663, 1.73586, 1.73572, 1.73876, 1.73589, 1.73999, 1.73816, 1.73711, 1.78946, 1.74047, 1.83957, 1.74219, 1.74219, 1.79265, 1.79277, 1.7429, 1.74364, 1.79269
1.99824, 1.9986, 1.94555, 2.14321, 1.94639, 1.94475, 1.9432, 2.03893, 2.06364, 2.03734, 2.13792, 2.13918, 1.93472, 1.93369, 2.13847, 1.93197, 2.04338, 2.05249, 1.92474, 1.92575, 1.92351, 1.92356, 1.92185, 2.0485, 2.02751, 1.91752, 2.01226, 1.91388, 2.04182, 2.12252, 1.91292, 1.91035, 2.12394, 1.91253, 1.91391, 1.9121, 1.9108, 2.01143, 2.02693, 1.91232, 1.96497, 1.96587, 1.91715, 1.9691, 2.08408, 1.98089, 2.05582, 2.0553, 2.05114, 2.04656, 2.07942, 2.07949, 2.04785, 2.04217, 2.03862, 2.15299, 2.03486, 2.03307, 2.03085, 2.02847, 2.02539, 2.02699, 1.94773, 2.02257, 2.01976, 2.0179, 2.15481, 2.01441, 2.01538, 2.01311, 2.01101, 2.01174, 2.01098, 2.00945, 2.00976, 2.06237, 2.06201, 2.06059, 2.00962, 1.93479, 2.0567, 2.01079, 1.93828, 2.01662, 2.02147, 2.024, 2.02568, 1.95471, 2.15533, 2.12952, 2.12485, 2.10828, 2.12094, 2.09386, 2.0937, 2.09133, 2.01526, 2.01365, 2.01473, 2.01307, 2.01324, 2.09253, 2.01222, 2.01023, 2.09051, 2.0105, 2.08709, 2.09293, 2.01025, 2.11373, 2.10403, 2.00707, 2.10106, 2.09264, 2.09794, 2.10453, 2.00405, 2.09403, 2.09736, 2.08761, 2.09426, 1.99978, 2.07326, 2.09902, 1.99802, 2.09471, 2.09251, 1.99677, 1.99353, 2.10005, 1.99283, 2.0871, 1.98814, 2.07897, 2.07746, 2.07299, 2.07619, 2.07665, 2.08075, 2.09046, 2.0657, 2.05582, 2.07453, 2.05613, 1.96933, 1.97273, 1.97017, 1.96977, 1.97233, 1.96901, 2.04564, 1.90114, 1.90003, 1.8991, 1.99984, 1.89238, 1.88977, 1.88662, 1.9541, 1.93259, 1.93122, 1.9305, 1.87652, 1.87494, 2.08299, 2.09503, 1.92201, 1.87056, 1.87047, 1.91937, 1.86829, 1.9976, 1.99666, 1.86886, 1.8676, 1.86785, 1.86583, 1.9161, 1.91534, 1.8653, 1.86531, 1.86632, 1.86535, 2.06761, 1.86355, 1.91329, 1.86319, 1.86157, 1.76007, 1.75845, 1.75713, 1.75282, 1.75474, 1.75193, 1.74906, 1.74766, 1.74481, 1.86903, 1.89138, 1.89188, 1.74129, 1.74097, 1.73868, 1.73781, 1.73719, 1.73606, 1.88929, 1.7344, 1.88933, 1.88923, 1.73402, 1.78877, 1.78772, 1.88361, 1.8839, 1.73212, 1.88636, 1.73576, 1.83023, 1.73458, 1.73229, 1.87932, 1.87523, 1.83118, 1.83149, 1.87021, 1.73717, 1.78906, 1.73755, 1.7353, 1.8635, 1.79069, 1.74259, 1.74025, 1.86527, 1.74188, 1.7412, 1.7449, 1.86785, 1.79239
2.00058, 1.99835, 1.94459, 1.94653, 2.14082, 1.94507, 1.94526, 1.94234, 1.9416, 1.93814, 1.93816, 1.93606, 1.93616, 1.93415, 1.93117, 2.2384, 2.04257, 2.04454, 1.92518, 1.92391, 1.92211, 1.92405, 1.92008, 2.04634, 1.91747, 1.98289, 2.03439, 2.03536, 1.91347, 2.11828, 1.91083, 1.91092, 1.91047, 1.91194, 1.91297, 1.96268, 2.02764, 1.91299, 1.91348, 1.9128, 1.9146, 1.91666, 1.91653, 1.96931, 2.05503, 2.08324, 2.08125, 2.05136, 2.04982, 2.04782, 2.04654, 2.07565, 2.04202, 2.04322, 2.04417, 2.07636, 2.03326, 2.072, 2.02976, 2.03127, 2.02453, 2.02771, 2.02428, 2.07323, 2.01992, 2.07026, 1.9412, 2.01643, 2.01497, 2.01377, 2.01384, 2.01051, 2.00745, 1.93363, 2.01003, 2.06131, 2.05922, 2.00989, 2.01035, 2.01081, 2.01111, 2.0118, 1.93884, 1.93938, 2.05505, 2.02364, 1.94811, 2.05099, 2.14016, 2.02456, 2.12498, 2.09486, 2.12033, 2.09379, 2.01695, 2.01522, 2.01693, 2.01408, 2.01289, 2.01119, 2.01222, 2.09936, 2.01011, 2.09747, 2.09674, 2.00967, 2.0895, 2.08819, 2.08279, 2.09651, 2.00858, 2.10051, 2.00685, 2.09076, 2.0897, 2.09866, 2.09936, 2.00392, 2.09143, 2.09377, 2.10081, 2.09164, 2.09371, 2.08735, 2.11336, 1.99638, 1.99602, 2.08068, 2.08212, 1.99349, 1.99298, 1.99248, 1.99009, 1.9897, 2.07501, 2.07583, 2.07487, 2.08091, 2.08352, 2.06578, 2.06544, 2.06435, 2.07231, 2.04854, 2.04759, 2.0468, 1.97185, 1.97155, 1.97047, 2.05839, 2.05618, 1.90069, 1.90044, 1.89597, 1.99639, 1.89166, 1.89216, 1.88613, 1.88578, 1.88416, 1.8819, 1.87925, 1.99981, 1.99595, 1.87575, 1.87265, 1.87144, 1.99002, 1.99365, 1.91955, 1.91812, 1.91779, 1.91728, 2.05294, 1.86659, 1.86546, 1.91862, 1.91639, 1.9148, 2.08149, 2.07229, 1.86578, 1.91508, 1.91674, 1.91464, 1.86556, 1.91456, 1.86134, 1.76106, 1.80847, 1.75529, 1.8622, 1.74962, 1.75145, 1.89838, 1.74743, 1.74468, 1.74204, 1.7427, 1.74133, 1.73936, 1.88973, 1.73892, 1.7372, 1.98534, 1.73337, 1.73556, 1.73405, 1.73327, 1.73452, 1.88664, 1.73304, 1.73031, 1.83757, 1.88279, 1.98365, 1.8855, 1.73452, 1.73313, 1.78207, 1.73457, 1.73357, 1.87486, 1.73259, 1.87736, 1.73767, 1.86977, 1.74046, 1.86803, 1.74046, 1.74115, 1.86132, 1.73785, 1.73693, 1.7371, 1.74376, 1.74075, 1.7404, 1.86429, 1.74351
1.9473, 1.99659, 1.94671, 2.14274, 2.14382, 2.13621, 1.94113, 1.94144, 1.9415, 1.93811, 1.93851, 2.03965, 1.93349, 1.93201, 1.93061, 1.93067, 1.92579, 1.92756, 1.92769, 1.92485, 1.97184, 1.92104, 1.91826, 1.96836, 1.96845, 1.91711, 2.03242, 2.03533, 1.91681, 1.96369, 1.91199, 1.91273, 1.91247, 1.97354, 1.9096, 1.96441, 1.96359, 1.96316, 1.91396, 1.977, 1.91359, 2.02461, 1.96817, 1.9685, 2.17775, 1.98064, 1.97998, 2.05057, 2.05235, 2.07813, 2.04559, 2.04457, 2.0439, 2.15532, 1.96236, 2.03646, 2.03319, 2.1691, 2.17705, 2.0293, 1.9522, 2.02397, 2.02347, 2.07117, 2.01901, 2.01759, 2.01899, 2.01354, 2.01491, 2.01623, 2.06786, 1.93344, 1.93476, 2.00807, 1.93175, 2.13803, 2.05913, 2.00973, 2.00965, 2.00971, 2.01078, 1.93613, 2.01517, 2.01627, 2.14264, 2.05261, 2.02512, 2.13946, 2.04913, 2.12573, 2.10352, 2.11407, 2.11436, 2.01693, 2.11091, 2.01516, 2.01577, 2.01189, 2.01131, 2.01062, 2.10984, 2.08802, 2.10431, 2.08656, 2.08299, 2.09414, 2.08803, 2.08318, 2.09984, 2.07908, 2.10384, 2.09691, 2.09683, 2.11161, 2.09085, 2.07893, 2.00516, 2.09725, 2.00192, 2.08469, 2.00006, 2.00001, 2.09367, 1.99997, 2.08658, 2.08454, 1.99571, 2.08243, 2.08758, 2.0736, 2.07705, 2.0832, 2.07243, 1.98893, 2.07634, 2.07278, 2.06841, 2.0694, 2.07918, 2.07224, 1.97908, 2.07741, 1.97584, 1.9732, 1.97206, 1.97171, 1.9697, 1.97101, 1.96991, 2.05321, 2.04216, 1.95462, 1.90065, 1.8966, 1.89259, 1.94504, 1.89018, 2.08955, 1.88567, 1.88391, 2.09089, 1.88209, 1.87875, 1.87785, 1.87652, 1.87261, 1.87286, 1.87051, 1.92271, 1.98254, 1.92025, 1.87007, 2.07438, 1.86664, 1.86641, 1.91689, 1.86822, 1.86517, 1.86532, 1.8631, 1.86521, 1.86507, 1.86564, 1.91519, 1.91601, 1.86347, 1.86355, 1.91395, 1.75954, 1.80828, 1.75455, 1.94891, 1.75131, 1.75075, 1.74725, 1.74557, 1.80325, 1.74112, 1.74147, 1.8374, 1.7387, 1.73769, 1.73824, 1.94486, 1.83803, 1.78445, 1.73405, 1.73403, 1.73265, 1.73338, 1.88562, 1.73019, 1.73409, 1.732, 1.87799, 1.7318, 1.88286, 1.7324, 1.72852, 1.73168, 1.87878, 1.73115, 1.73373, 1.73364, 1.73265, 1.73647, 1.73806, 1.73611, 1.73681, 1.74057, 1.73728, 1.85982, 1.73634, 1.73633, 1.94919, 1.74024, 1.74012, 1.74155, 1.7433, 1.74159
1.94591, 1.94519, 1.94508, 2.14035, 1.94459, 1.94369, 2.03482, 2.06163, 1.93755, 1.98967, 1.93455, 1.93474, 1.98254, 1.93082, 1.93003, 1.93148, 2.13207, 1.92662, 1.92767, 1.97217, 1.92233, 2.12945, 1.91903, 1.91714, 1.91693, 1.91645, 2.0345, 1.91407, 1.96282, 1.96284, 1.9635, 1.9102, 1.91358, 1.91527, 1.91141, 2.02942, 1.96259, 2.08737, 2.00781, 1.9655, 1.91117, 1.96679, 1.91699, 1.91764, 2.15958, 2.16884, 1.97979, 1.97668, 2.05154, 2.05154, 2.04556, 2.04614, 2.04468, 2.03904, 2.17046, 2.07858, 2.03432, 2.17379, 2.03122, 2.07292, 2.02393, 2.02349, 2.02375, 2.0731, 2.01897, 2.01778, 2.01733, 2.01459, 2.01328, 2.01259, 2.01121, 2.01054, 1.93386, 2.00855, 2.00886, 2.00516, 2.00843, 2.00752, 2.00981, 2.01023, 2.0098, 2.01394, 2.0559, 2.01483, 2.05259, 2.14375, 1.94774, 2.14136, 2.12508, 2.12477, 2.10793, 2.02175, 2.11724, 2.11499, 2.11493, 2.01513, 2.01302, 2.01315, 2.01235, 2.01081, 2.01107, 2.01019, 2.09973, 2.01052, 2.10292, 2.09387, 2.10123, 2.08325, 2.08211, 2.00747, 2.01032, 2.08634, 2.09764, 2.09512, 2.0941, 2.10629, 2.00325, 2.08766, 2.0801, 2.09439, 2.10608, 2.09639, 2.08491, 1.99772, 2.08458, 2.09006, 2.07794, 2.08228, 2.09039, 2.07737, 2.08377, 2.08344, 2.08509, 1.98821, 1.98737, 2.06787, 2.07165, 2.07319, 2.09132, 2.07908, 1.97825, 1.97614, 2.07057, 2.05296, 1.97394, 1.9699, 1.97028, 1.96852, 1.96915, 2.05806, 1.96921, 1.90422, 1.90331, 1.89687, 1.89409, 1.98883, 1.88944, 1.88693, 2.09325, 1.88544, 1.88267, 2.08443, 1.87941, 2.00314, 1.87509, 1.87285, 1.87384, 1.92401, 1.97654, 1.94512, 1.9199, 1.97994, 1.97874, 2.06434, 1.86638, 1.91759, 1.86619, 1.86447, 1.86876, 1.8676, 1.86642, 1.86813, 1.86571, 1.9147, 1.91504, 2.04088, 1.91637, 1.86484, 1.75788, 1.7561, 1.75335, 1.75189, 1.74917, 1.7469, 1.89929, 1.79246, 1.80176, 1.8864, 1.74035, 1.94923, 1.83534, 1.78567, 1.73456, 1.89189, 1.89182, 1.73321, 1.78203, 1.89263, 1.8905, 1.89138, 1.73313, 1.88465, 1.73289, 1.72897, 1.85157, 1.84934, 1.883, 1.73131, 1.73058, 1.72805, 1.94173, 1.93293, 1.73251, 1.72924, 1.73331, 1.83309, 1.87039, 1.86856, 1.73448, 1.86843, 1.91629, 1.83586, 1.73894, 1.91609, 1.73933, 1.83782, 1.91308, 1.86467, 1.73897, 1.74217
