1.77744097476602,1.84920796775264,1.85070969908896,1.85120666712456,1.85288689016267,1.853667751528,1.84749807380376,1.77467891847529,1.84580521401712,1.87959345137582,1.84705107328782,1.77206644305768,1.88020958441105,1.85863225992041,1.77359592984904,1.84678187167679,1.84540282046391,1.84559864064726,1.84515734749978,1.95377043925719,1.84732488362408,1.84801632257128,1.85009002241655,1.86395536202558,1.88153457157056,1.85454679248536,1.78431183033626,1.86187497541135,1.86625527588505,1.96683281789484,1.86120266722059,1.88143767912982,1.88380196873454,1.95593940003741,1.95351716125727,1.94319525971991,1.92932409891132,1.9288672902306,1.93278834596957,1.93287880240826,1.93682897635049,1.94944210627103,1.93039146290423,1.85679450491188,1.85185489670079,1.85976924970837,1.84835412369132,1.85822652145723,1.85492102363171,1.85497277470444,1.93453754053119,1.93817679137036,1.94568898522799,1.93464796687636,1.92968234994066,1.92945829574891,1.93008558673591,1.93011827070494,1.94588758290938,1.94526230251446,1.95303834766229,1.94293403513559,1.94243267775449,1.93937696313289,1.93873076007254,1.94453061998479,1.86199260855008,1.94165248344677,1.94477103586054,1.95279467533278,1.86394473833955,1.94370589648298,1.97282545779042,1.94820581443102,1.86572757051855,1.94260290338347,1.86675200485627,1.94704187727174,1.94022592213886,1.86668229649632,1.9400753340729,1.94081626496182,1.93963201864258,1.93816851350578,1.94167698944422,1.95038527952456,1.95699443093001,1.95433080970364,1.94895451943224,1.95784778254886,1.94109679349665,1.95232263361341,1.95189470639718,1.94603505425497,1.86988703544744,1.95378850641682,1.94173806664545,1.94122350368032,1.94444576605503,1.94505757745403,1.96903373857537,1.94340482172917,1.9621783206905,1.94662121426529,1.94317516245333,1.95342594427294,1.94075959986712,1.95135378682194,1.9462362069839,1.94880086967862,1.94520135627573,1.94478550903619,1.95920558839008,1.94094371319735,1.94264329371572,1.99015499399051,1.81009529554209,1.80858037081081,1.80803440416525,1.80619734597679,1.8035900198385,1.90301281954168,1.80556424543509,1.82724932894557,1.80493086356454,1.80631271506849,1.80034503919124,1.80644134726478,1.80275640391089,1.80562767456799,1.80175602637294,1.80739603725608,1.80569873801851,1.83377116455839,1.85243721744973,1.88756224374821,1.80627388558945,1.80767337846833,1.83164332978386,1.85499200457667,1.80800208459723,1.80865195550735,1.80925327993104,1.8114713629434,1.81172548725006,1.97275138833063,1.81204957164859,1.85975518423135,1.84702355862581,1.8111900654518,1.80940449999369,1.80909987469046,1.80957238237605,1.80850700274404,1.80642027027693,1.80422295933259,1.99539822450048,1.8035714794552,1.80498232841801,1.79981276185188,1.97035728514908,1.80121062487576,1.7983814372217,1.79906131763378,1.79928020155914,1.79490879816482,1.73780089590748,1.83076558275675,1.79498954225353,1.80818762022076,1.72716543629714,1.72896534264482,1.77296713011262,1.72817782880324,1.72657442678425,1.81530457781459
1.77686402569252,1.77690137977939,1.85158425633634,1.85070355484983,1.77628440374934,1.85058021657711,1.85043624293908,1.96877079988908,1.84659441946718,1.84768850098764,1.88134144696099,1.84963562693438,1.85032383099652,1.85029486072251,1.84703609948917,1.84717991641473,1.84560699211396,1.88231937567366,1.84662092491139,1.84852442483876,1.77607540680541,1.84764271526492,1.95533616092527,1.90639829544955,1.95528736057015,1.95561669084368,1.85640567747234,1.88082339691723,1.86873178241961,1.86329159271781,1.86355347983829,1.95602483157713,1.95604863648955,1.95970909989536,1.96112369991133,1.85768914853345,1.93155313906312,1.8578806344676,1.92811255088401,1.94417562989496,1.93581843592125,1.94457767252231,1.85701148814793,1.85613163947447,1.86130018775284,1.84943814932578,1.86219080108731,1.85328701705803,1.87865381195439,1.93205812737995,1.85604566380304,1.92768642360615,1.9548140568278,1.93816202170951,1.93155895947164,1.95193020588034,1.93129897570576,1.94575128728724,1.94626890289049,1.95954922018356,1.95839531355651,1.86026362120849,1.92636059259549,1.93839831038256,1.86022562156422,1.92320104818076,1.94520957761523,1.94978956219213,1.94511638336272,1.94397300019581,1.86487572968973,1.95064318966625,1.95120789679511,1.95304478011576,1.86634186018403,1.94310504891573,1.86670710188708,1.86720211547621,1.94132015993632,1.94901740153778,1.96697687770019,1.95162646027938,1.94160226900784,1.94100455776272,1.96253061212357,1.95071383611328,1.9436540091545,1.94470411639309,1.94833573963817,1.94212113081859,1.94286876158245,1.95055173699235,1.95051047614532,1.946264731774,1.94247884028753,1.94036538918097,1.95002064317308,1.95281007124214,1.94505964366145,1.94625492388656,1.94926710491439,1.94280886547275,1.94570248343047,1.94501535259085,1.95125833391425,1.94198855455589,1.95698007146259,1.9426258387503,1.95079513894549,1.9493861898644,1.94569913118733,1.94293648081416,1.97161601249721,1.94034873416481,1.94321417904898,1.80979059355815,1.97501224189995,1.80905838934634,1.80827810935409,1.80753462069361,1.80569417190685,1.80507213461113,1.85202989537903,1.83840810032057,1.85072697439063,1.80322291937254,1.80569446892127,1.79895361156689,1.80462127926154,1.80002099384205,1.80651779128791,1.8012888686202,1.8511450513725,1.84005303733401,1.88714386993638,1.88815785377972,1.85489576619345,1.97615223130832,1.8541945884091,1.85514123986676,1.80848136410887,1.80805318449378,1.98310616669942,1.8124488847065,1.81171120262811,1.97394120203828,1.86119091556214,1.86042815692282,1.87922695128657,1.98874839613505,1.89332501585415,1.89330139436788,1.8108038437038,1.8081070078826,1.80722000203003,1.80274551453134,1.96879203652349,1.99303228596456,1.98428834656143,1.98978317298112,1.80046168023293,1.96841930315483,1.79821230208972,1.79919732178035,1.79789157386105,1.7956372115105,1.73961571013062,1.78228806327602,1.79075286908754,1.81032528120696,1.72816290474115,1.72723089286868,1.72721746489774,1.72732429604258,1.72612085322528,1.77173333708963
1.77810914432193,1.85247288041117,1.77761439278061,1.84995427206,1.95957488532818,1.85022137602219,1.84952469626261,1.77532550495207,1.80949459030735,1.77520050179102,1.77456802554983,1.8496657116584,1.85045786458152,1.84913603215062,1.84753894822772,1.84763537708138,1.8473030846235,1.77577140781445,1.84723721554395,1.84834780232835,1.84887743716081,1.88421181258814,1.96537179940061,1.88812734926732,1.85572391251985,1.85540280265548,1.85594573567013,1.86048136406253,1.87418907359268,1.88180454983766,1.88276247982221,1.87101497835233,1.8825272467776,1.96523322158508,1.96681798140039,1.93917336893115,1.95658470889309,1.85807695090247,1.92664273949553,1.92976492079032,1.85684365510793,1.92799929084892,1.85698722849817,1.85854493353698,1.8537638192726,1.86171215608373,1.85078250811563,1.85830006844128,1.89022293002248,1.93024788487282,1.93168555760517,1.93544090464657,1.94524543211272,1.94233494145315,1.94754891043442,1.9503351937279,1.85815464460183,1.93261717789718,1.93411489060237,1.93291249092051,1.95027312524947,1.92392588705047,1.94592265346137,1.945309759583,1.94668749338875,1.86153661278672,1.94868985479025,1.86368382195866,1.90229085743566,1.86393084386874,1.94088402339775,1.9413014908382,1.95757669167761,1.95680477152795,1.955448787895,1.95352224208845,1.95368659192757,1.86733636262265,1.94096497329246,1.96166925451387,1.95637374138225,1.9586920868506,1.94149627371292,1.94135209174685,1.95931527711037,1.94676985970595,1.94201403542303,1.95140432050985,1.95155949277884,1.9427983198227,1.94336250577524,1.94310409042486,1.95684430851801,1.9463593009054,1.94708575423631,1.94118497142919,1.94415651249807,1.94518580117005,1.94423309271807,1.94392098920156,1.94372251655755,1.94483999806795,1.94364269053921,1.94617239294981,1.94020373222016,1.9449724438781,1.94528471827423,1.95216846802995,1.9478134059501,1.94989856968218,1.94400848533242,1.94348179284569,1.97048248084101,1.94006182283602,1.94280122421212,1.89951664747493,1.80759783385455,1.80798588415967,1.80791142874417,1.80666822271346,1.85363830858825,1.85277790931841,1.89588747704686,1.8291897548039,1.80339025138666,1.80715342430358,1.79842049323177,1.80682196224327,1.80205051117439,1.80789580028153,1.79940646181965,1.80705572938902,1.80366425489485,1.83639301435826,1.85199352827906,1.88955441514837,1.80332075678125,1.80785293653386,1.8537430948789,1.85448337005727,1.97197312046686,1.99181628601196,1.80919298808597,1.81150947311281,1.97375854345934,1.99344985017509,1.98273824824348,1.99201515689359,1.897510996845,1.96844872517062,1.80893708274812,1.80852541990621,2.00188749220243,1.80729748839281,1.80603734280622,1.80336017872152,1.80324646243291,1.97129144101096,1.97826077014091,1.97083602087726,1.96961179059326,1.80108749777869,1.97870770756544,1.80045687557577,1.79932796400156,1.79503844029354,1.73533175986619,1.73549436296019,1.73457283221234,1.73314673399767,1.73002995625349,1.72821107544213,1.72656483162089,1.72661327185935,1.72436269781531,1.72332311938574
1.77802317169754,1.77825163894184,1.85074747822718,1.85034387953802,1.85007960519014,1.84900920358453,1.84988806888587,1.85059865647234,1.82671678046649,1.77531281343218,1.84769690038738,1.84835598073889,1.84818020898547,1.84833872123819,1.88188433984524,1.97510724101731,1.84993173608741,1.84911008479915,1.84770412145006,1.88452266684662,1.85067097107795,1.8517049576657,1.85268561421888,1.86007946051693,1.85672299860647,1.78269684528573,1.88365635636154,1.88389720678249,1.87690942080637,1.86487645772766,1.88328336211463,1.88339519008151,1.88697937966846,1.96750345970452,1.9713766187654,1.93219836368013,1.85893340256671,1.93215220130452,1.93959304709199,1.94612204521413,1.93418284362673,1.94705371406131,1.85831328139249,1.8579451464605,1.86154395755559,1.85340323436923,1.86017401873936,1.85628608510574,1.90232790260555,1.92963090311069,1.85732815189028,1.93009678716899,1.93126744337918,1.93116719124632,1.93184664833523,1.94648781855446,1.93260797516392,1.93318509697574,1.93435897028495,1.93391982973327,1.95255704032143,1.93263867729099,1.93647345097995,1.93493997720867,1.86193348319014,1.95355972638437,1.86332259619318,1.94445962990869,1.94894203725479,1.95088635586499,1.94651535572472,1.86497927248869,1.86740837477199,1.86821740126524,1.86744469353953,1.94573042926165,1.94066612636998,1.95957444027707,1.93731463680813,1.93945420591184,1.95021017476904,1.95931217768793,1.96552840382374,1.94441100477507,1.94930162040819,1.94880956034059,1.9500359973359,1.95241861023095,1.95279622485254,1.94148720901008,1.96627458867542,1.973106850686,1.94368758880243,1.94485433951277,1.94311790199325,1.94862730189361,1.94497790592522,1.94533066004645,1.94498141532289,1.94646416863721,1.94522018614541,1.95322542747471,1.94616209721557,1.94415889285761,1.94730028630946,1.94198687815103,1.95245159960428,1.94309742701092,1.94934303684754,1.94834460626262,1.86877224556786,1.86993763005481,1.94341285258324,1.94048295907485,1.8711123215493,1.81114903164683,1.86087100653095,1.90199592029341,1.80794581964109,1.80626457292528,1.85482240856862,1.90203391994036,1.80543137634462,1.82110706974341,1.80474552675233,1.80123065855204,1.806715160656,1.80013046544272,1.80517153018902,1.80035179051369,1.80917894627131,1.80042839260922,1.80582948388538,1.83201122558418,1.85199236064265,1.80623815427025,1.85274535969636,1.85332689544522,1.85308553843517,1.85207317949516,1.80737011584774,1.97204912715488,1.80929070943099,1.81070717923749,1.81061469773057,1.99509484098909,1.80803654921627,1.9864136369596,1.89995486225214,1.80866010345575,2.00256198593572,1.9698784712639,1.80602241493209,1.80690078784711,1.80558934598091,1.80449255040956,1.80299375575732,1.80258236802342,1.8375032838986,1.97158017230506,1.80046263751541,1.79990252881584,1.79959989027564,1.80112815138001,1.88976330268645,1.7949443782737,1.78433971507123,1.73497237521211,1.73429811416655,1.7332010448705,1.72381180964366,1.77542535526793,1.7739143651051,1.77190816112381,1.79796168418216,1.72412417371956
1.85403808531196,1.88233697855062,1.85278275871426,1.85151709967513,1.85152942451153,1.77807038792089,1.84907664996635,1.88434392281915,1.84849448739872,1.85005576516222,1.84884798607211,1.84801294265883,1.84832443599513,1.84778389381266,1.88354539805198,1.84955349870065,1.84968147008961,1.8849389656216,1.84768824558738,1.84811440879458,1.95533792469371,1.88648855700688,1.85419144601165,1.86529999579898,1.88686742756158,1.95938182252857,1.95841916480594,1.88971983971261,1.89060405264351,1.89146953139065,1.95872182263301,1.95850029751559,1.98585121896924,1.96420595327522,1.96312994532477,1.93107615928417,1.86003565768705,1.93290766792642,1.93863833344817,1.95107586830901,1.95929508113564,1.93139797253293,1.9564660801079,1.86006133009534,1.85705375715344,1.86166110211634,1.85640139174684,1.92932166012657,1.92824764683553,1.92969458765103,1.93029068811463,1.93018063138674,1.93161448259358,1.93085710600613,1.93245853611772,1.93378707293009,1.93265300763537,1.93335232402637,1.9333081316163,1.93459070735334,1.9310391273097,1.94310677252201,1.94839367195403,1.93396790436258,1.86291601696294,1.93604397351351,1.94599432532863,1.97253223417938,1.95163283307271,1.865431826932,1.86546911603387,1.9516131411591,1.86794156406126,1.86891640879545,1.86802491827457,1.95348125786035,1.94207871287319,1.94173962709467,1.93718618269264,1.87001052309879,1.944402382752,1.94372991313462,1.94219344395378,1.9444227813048,1.94918159675186,1.94224836685745,1.94224501981414,1.95401830206148,1.9521267176851,1.95552338644121,1.87041038511667,1.94999756633193,1.96184862292283,1.95799863871176,1.96212790665318,1.95332991928397,1.95417219431219,1.94715809039069,1.94387540975268,1.94491226652985,1.87017629026659,1.87070699564179,1.87098154107933,1.94383261106673,1.9429130480249,1.94524785585588,1.94695859270996,1.95074065902527,1.9483429304691,1.94699161983696,1.9427213914028,1.94130337502319,1.94425747607292,1.94158891244632,1.94268577493089,1.8112523133711,1.80994084725481,1.80797035620945,1.8080993616543,1.80659949595566,1.80690048107982,1.80602839734665,1.99458206007708,1.90107125076649,1.90316399340143,1.80401080043779,1.80045880103005,1.80434569988168,1.80265331098752,1.80518842766763,1.80110146610569,1.80716720512028,1.80297821219377,1.8254801348435,1.9805485797467,1.99301688948091,1.80660711755741,1.80697088950499,1.8087627753867,1.80967722246427,1.80893952229407,1.81025689288734,1.80934845617694,1.81012679879699,1.80929174635837,1.8086721663231,1.80872513906719,1.80884970663446,1.90203348487233,1.96838130350789,1.80717954175286,1.97055150997164,1.8062257454037,1.80691197634975,1.80607486655975,1.85149543498527,1.85153975404223,1.80361034165833,1.80266799153376,1.79998560654145,1.79964283158005,1.79996617880044,1.79996398466023,1.80088339938023,1.89068796076213,1.79481682507589,1.73658618316097,1.73344280574133,1.73425040537189,1.73298548121742,1.73058829221308,1.72739172998812,1.77382049818207,1.77179699884748,1.77118472338602,1.72344538755359
1.85552588786469,1.85521656868072,1.85370181982706,1.85228807593617,1.85173408074314,1.85160977241581,1.85125041359887,1.84967507462521,1.84863601651749,1.84849766943107,1.84799848981771,1.8478449884268,1.84759048882059,1.8474305192031,1.84820304549441,1.84922453445298,1.85003949008361,1.84991689165856,1.84872597301825,1.84849628501538,1.88673716009022,1.88665756816163,1.87796069958719,1.87130540987477,1.87814094484163,1.89334429984791,1.91047652028587,1.88936474040664,1.8919599569803,1.89423338370288,1.89616558449005,1.89603098385654,1.96252509424972,1.96250011510144,1.9618463855245,1.94046047509022,1.93860621802765,1.93889693728821,1.93860791927872,1.94921338230089,1.94804308860551,1.93153475481491,1.8977268111341,1.8608032494021,1.86012953398568,1.85902202112908,1.8918913164858,1.92709499728598,1.92798005970173,1.92825843618474,1.92784121885498,1.92774907339876,1.92848770004834,1.92964791626612,1.9317227271651,1.9336719340561,1.93288735564576,1.92977587734148,1.9284207025637,1.92866764301653,1.92980420399401,1.94164907547933,1.93805023971027,1.93560838583545,1.93647243031126,1.93657740298739,1.94741741540052,1.95071689359747,1.95362047089358,1.95613533799118,1.95601322576948,1.95612342885789,1.86977384077755,1.87048553992096,1.86995652042334,1.95047908835793,1.94697508279965,1.94510014363208,1.94507460886631,1.93935725194113,1.94194992656425,1.94307554172436,1.94182928692353,1.94210241124025,1.94350924012559,1.94058972900328,1.93888607247584,1.95124537567338,1.94926741343713,1.9475497746838,1.9081674995229,1.95058309337676,1.95360586159489,1.95463218418788,1.95689953448963,1.95203443320575,1.94904263802167,1.94427489923235,1.94073949938859,1.94204431836053,1.90505780416443,1.87235418237248,1.87250074604754,1.9434622470312,1.94539835540612,1.94679006873422,1.94911137221573,1.94946067898504,1.94848116469646,1.94545385664225,1.94309666478857,1.9411933116715,1.9423383142979,1.94120586383854,1.94167250331117,1.80998795274588,1.809998160807,1.80939972602808,1.80920421878123,1.80787666048347,1.80616249740885,1.80566108856642,1.90139144108969,1.90075312879702,1.84911363489614,1.82988712964336,1.803688883715,1.80308732278614,1.8045181952945,1.80366163571741,1.80480565303047,1.80399933016675,1.80441747542263,1.81881206558476,1.84062191542733,1.85775414270916,1.80669332490652,1.80742531752409,1.80849879172913,1.80810010400528,1.80795067162754,1.80792974650737,1.80903709295023,1.80992042461282,1.81016734376695,1.81013302606799,1.80968942764686,1.84277011046068,1.9030019526298,1.90313014468147,1.80817888738668,1.80735348469314,1.80640513553782,1.80627244668746,1.80720329071551,1.80925661601454,1.81148610273571,1.80299346647669,1.80228933653126,1.80064966253011,1.79976497117105,1.79963749611838,1.79930853629874,1.79909541682705,1.79772105284351,1.79543985685938,1.73606168315352,1.73503947801015,1.73470168872895,1.73339358962129,1.73028474897013,1.72773837957585,1.72625094504228,1.72561491005678,1.72497892212313,1.72391232774448
1.85484959034279,1.85463201263352,1.85452527830642,1.85295391360821,1.85195480178475,1.8851124711002,1.85485786075544,1.84940515277838,1.84859056029676,1.77760489144254,1.88612080191112,1.84806475994556,1.77555291029231,1.84686130607671,1.84823522784862,1.84871808097643,1.88696467118634,1.85031632538595,1.84985599620228,1.85021130902655,1.88696283118751,1.88720677894977,1.88735637136764,1.86475893276279,1.85466665885579,1.85450819959629,1.96936929432848,1.88709452292989,1.8758979328749,1.79492869866751,1.79596664913681,1.79924141036831,1.95962328669185,1.96225923458688,1.97870943227419,1.861393911526,1.94558135949429,1.94128019375314,1.9400231948764,1.95987787756644,1.8592471343101,1.93500375173849,1.85941730099563,1.8608086166428,1.85997685783944,1.85882350854682,1.93397156691563,1.93486311883233,1.93145730820993,1.92981331539456,1.95038813461855,1.85987412808122,1.95195334528739,1.93048309600186,1.93240713253676,1.935128017013,1.9349546296111,1.95600325050806,1.94448527496766,1.95008362371993,1.93273346698454,1.95981090318553,1.93928687701245,1.9369500267305,1.93822417749421,1.93681767245977,1.95262549619252,1.95106949365034,1.95274718554003,1.95258716123264,1.94968521336614,1.95157449208587,1.86890141471285,1.87027951153559,1.86938979787004,1.96334879317342,1.96301704843626,1.96279387481878,1.9571849738387,1.94167934344272,1.94239723863895,1.94728759026884,1.96211360279472,1.94250175274174,1.94417108781669,1.96202209179243,1.87035654676348,1.96825780465531,1.94739897770055,1.94273873771789,1.87049589263153,1.94701441792246,1.9535712167193,1.95178987907279,1.97243489842694,1.95262318616117,1.86981412066151,1.96038328862439,1.93880547249241,1.9430639453694,1.95519882057726,1.87078831891646,1.87113514417153,1.94367576614868,1.9446355660631,1.9457702192834,1.94792854505357,1.94869896589833,1.94947723442557,1.94398747469784,1.9438192818252,1.87084651981594,1.94504503149729,1.94279047068787,1.94368278152265,1.8086954754693,1.8085958365733,1.99240658028943,1.80883505506735,1.80730524958884,1.80414333159761,1.80427564309062,2.01148238351188,1.89922651997873,1.80414764475204,1.90400060581455,1.80319925394901,1.80324124776149,1.80456493501637,1.89963044227103,1.80330801798243,1.80352984357493,1.80299603330767,1.80646943912301,1.80600745413714,1.9854431449866,1.80561761909314,1.80678232090484,1.80783513022341,1.80672879167183,1.80512566197812,1.80646500966933,1.80776081063334,1.80955357013406,1.8097591622633,1.85729834671677,1.80874752579592,1.98770460914181,1.90326885008759,1.99235908073075,1.80755045532937,1.80618932817935,1.85460451068007,1.85344680425635,1.85415712465407,1.80419296919733,1.80252390875943,1.80138904679619,1.80166625356518,1.79978309770672,1.79906558644919,1.96906529715292,1.79824780449968,1.79802762387059,1.79655393344054,1.79521321976507,1.73561259140392,1.73488543396935,1.73474200593669,1.73356749821713,1.72946766137737,1.72728488190326,1.72497371108115,1.72536718705759,1.72524462283301,1.72360118564594
1.85515525779493,1.85453172309334,1.88295476553843,1.85340529702922,1.8525883882657,1.85160404054413,1.85373936545124,1.88354913059377,1.86256809165268,1.8502549843601,1.85041295089187,1.85024330986109,1.84918671110107,1.84661025077781,1.95985988268027,1.84975902271206,1.85066840405452,1.85092518914762,1.85103556364463,1.85229309092139,1.85237173707683,1.85227165280576,1.85521700330168,1.85605269885394,1.85526973499616,1.88691793959992,1.88672323769431,1.79164576208762,1.87322687972412,1.86867138251896,1.79567349773728,1.88374679399238,1.96125852670694,1.96158659796303,1.97808890602708,1.82129498667102,1.86223940211048,1.9423161912796,1.94080503450399,1.94975760170156,1.93528742181796,1.93421500007166,1.93924451469047,1.88166015964839,1.8604332449739,1.85934556324955,1.93463899359574,1.93483315700043,1.93430615313348,1.93609598899733,1.93690957680956,1.93320572638158,1.93429977965186,1.93291756364706,1.93421382988722,1.95584527012542,1.9553715839505,1.9534845179603,1.93995644006054,1.9356010570332,1.95491882814485,1.94684062971685,1.95108236562742,1.9371677438824,1.93682747306929,1.93711670351301,1.95387149677988,1.86687556458537,1.93295567368984,1.93400463481026,1.97653036322225,1.95427434605365,1.95519597911167,1.95483644107513,1.95729643167237,1.86828155011962,1.95338926015816,1.96281603941797,1.95628515027228,1.95859465029725,1.87117872100784,1.87167891523565,1.87203751361234,1.94463728434869,1.95109971668226,1.95062788603033,1.87126135227336,1.87231811050906,1.90630660825854,1.8708852558715,1.96034278657479,1.95333528776966,1.96554196776571,1.95035152048724,1.94241613543003,1.95625194380202,1.87039770825632,1.870194148541,1.93866013112187,1.94385328224263,1.95311190889877,1.95657833052384,1.94703285867782,1.94552067023663,1.94480548671975,1.94423369206495,1.9507163780214,1.9518265615688,1.94938445295497,1.94895707041097,1.94765496235029,1.98214517097249,1.94441183113764,1.94359557542867,1.94474202859721,1.8996401463275,1.8081269717755,1.80775931152842,1.80757214960694,1.80596291145573,1.98973710509148,1.80400908781711,1.98256489541957,1.89650872906673,1.8922072702141,1.97316223064975,1.97204682877257,1.80421319424733,1.80483156530928,1.80447435961372,1.80338047875227,1.97552662231779,1.80457584986297,1.80623710969038,1.80654788160811,1.80377118928933,1.8051080125621,1.99580421966199,1.80891203825009,1.80651437245465,1.80872566413758,1.80647338754301,1.80762586937423,1.80902108926315,1.81087638802765,1.81058762066702,1.80942581467556,1.99511375498812,1.85551769952414,1.80877054621596,1.85576316641276,1.8552962587966,1.85483945748713,1.85354927572242,1.80473618805527,1.80434572149246,1.9897941045619,1.80173250238321,1.80185563328272,1.80067465946151,1.84806482736284,1.7984640812174,1.79787477156582,1.79773732977953,1.79689280409939,1.79552977211748,1.82265365955226,1.82370578703277,1.77170157549234,1.81973513411513,1.81888370176571,1.72645222845958,1.72591224683446,1.72541222897566,1.72375905421416,1.72246257563167
1.85465235804742,1.85458637259017,1.85403622327195,1.85405771155982,1.85321662670116,1.77870688235641,1.88788966037709,1.88755212600505,1.86883949553327,1.97222876776116,1.85060019282033,1.77629855378541,1.77582355601149,1.84564107219717,1.88572677382807,1.88644023529836,1.8511304155605,1.85101036906538,1.8516412414605,1.77920960817097,1.77947127118392,1.78181881883859,1.8571316049271,1.85683792951523,1.9590333903592,1.8875850176179,1.7887577889736,1.88825904792247,1.87418924821961,1.7934982449188,1.87086470953299,1.79913169258983,1.96211507242745,1.96095576602669,1.96097638840013,1.93470373821709,1.94827176687139,1.93295958861179,1.93055175138458,1.86177410959653,1.93589826590235,1.93506765519573,1.86172444709006,1.89253862268505,1.93765782966828,1.93751410585641,1.9389841575539,1.934251131761,1.93573177315534,1.93834375689821,1.93933438768802,1.93374111364059,1.93488119799517,1.93402681029585,1.93442378079203,1.93609054628264,1.86188325749274,1.93555550247143,1.9361119008321,1.9349337993699,1.96620823950877,1.94779229086797,1.93705242965715,1.93901450188155,1.95674658679759,1.86591607140404,1.94016660525831,1.93373183006709,1.93374338588494,1.95780742498879,1.93878747767012,1.93703229123997,1.96388019634495,1.95293953522361,1.86875654773696,1.95670856370978,1.87061050974131,1.9556038245369,1.95436005924275,1.86818487895246,1.95603564132515,1.95570296981313,1.95164832904537,1.94654482818534,1.87023853399544,1.96768612932301,1.94835220090861,1.9664777390736,1.96205192224615,1.96968414685321,1.94374294103959,1.95781411103657,1.95242827216306,1.95323582065598,1.94881331923898,1.95598834905784,1.87071853707711,1.95981271328766,1.95026990536213,1.95465071368042,1.87042853017206,1.9442803822623,1.96269300501995,1.94702062422194,1.94990771484802,1.94720788296359,1.95455132468016,1.94409157315036,1.94967095032772,1.94824017022883,1.94875816472575,1.95974544331211,1.95753404548203,1.95594964188374,1.95603653371479,1.81052165895404,1.80679392815208,1.80750859425794,1.80724651046301,1.80648276262755,1.80744185304768,1.99851987556422,1.80786496426856,1.84126779537578,1.90033783247735,1.99509395205884,1.80543457762567,1.80451015489661,1.80476765750307,1.80438964026512,1.80410634858055,1.99011592052161,1.80451378657834,1.80648468131227,1.99813502706652,1.80429413010045,1.97767435570316,1.99948661798655,1.80916301155459,1.80833789837749,1.80669186914232,1.8080136166071,1.80673802961091,1.80894781095882,1.81097396658757,1.90039993503311,1.80897225650096,1.9698540131008,1.83860469661921,1.80868829428517,1.87355289068684,1.80767211324092,1.966498831833,1.85757664898039,1.80215510042085,1.80444200059102,1.80435134953434,1.80325078710638,1.80138003844324,1.80166144765735,1.80120086726831,1.97959679642587,1.79745347390531,1.79769038041202,1.7958659977437,1.74014935478524,1.73576921627145,1.73329951472749,1.73353993209844,1.73202116840704,1.81981113330314,1.72822845253424,1.72798759888574,1.72672457526306,1.72391965345579,2.00816693386024
1.85481076271439,1.88648069161133,1.8544789549891,1.8549722084008,1.78157585580533,1.96877079988908,1.85234521818076,1.85172089915986,1.8530613320594,1.85291820998078,1.85214815734315,1.85296464836554,1.88616271751553,1.84687677145207,1.7780513886072,1.85211753753755,1.89005361446573,1.85257042446184,1.85298587676076,1.85408178894195,1.88971344965133,1.85680964223057,1.85787123465927,1.85736194945251,1.78528082169306,1.88938023620198,1.88989079912547,1.79105676725172,1.87470704947212,1.88966503485947,1.79657621633272,1.8901867320116,1.97638062387422,1.9692688128823,1.98487200350933,1.96688967458905,1.94449424919409,1.95359965729444,1.93228608060776,1.93442358233136,1.86345559495749,1.94609806129145,1.8617500839058,1.90394618394079,1.93782919213134,1.93610558076825,1.93711486049254,1.86198932892649,1.93764334013462,1.93978002784431,1.94094937619802,1.93889667439223,1.93612922905546,1.94176671650426,1.95310996195107,1.95334206108494,1.86327024460626,1.93648253350998,1.93763807474598,1.93822960673308,1.95279520653528,1.86483308215928,1.93968196584309,1.94031724076507,1.94193809504529,1.94244316324102,1.86678056406526,1.94347276009173,1.93814440637945,1.9397146572879,1.94124326931632,1.94566432650915,1.95490952870166,1.95358987950735,1.96808375223863,1.95713586907287,1.86890685890324,1.95944928345933,1.9540604179352,1.86973650261079,1.95540950169391,1.95738848572263,1.94968198613573,1.95208465499663,1.96939192760045,1.95662479523773,1.94678620836157,1.95573487381123,1.95882740325853,1.96345394755328,1.9589497578318,1.95601280309275,1.95553032696261,1.95655490257583,1.95823359019806,1.87115052346404,1.94402430382066,1.94295659559311,1.9490935579805,1.97172979808518,1.95617711012276,1.87056143838655,1.87067541409347,1.94749570364377,1.94244217192515,1.95498445892013,1.93971078702844,1.95405634449135,1.94762606965086,1.94838516742179,1.94534567306108,1.94489738483895,1.95243931564518,1.95472906732311,1.95768982566289,1.80894940555557,1.80787730175682,1.80628788215016,1.83841769029084,1.9827589594675,1.80562682151,1.99827287785907,1.80462229236443,1.80530039891026,1.80461570792124,1.97550206347636,1.97807800046987,1.80376204896088,1.80471298801531,1.80487322968524,1.89697996689655,1.80521039226886,1.80552578041245,1.80699366992278,1.90471309919478,1.80240325252644,2.00476516495145,1.80776582945921,1.80870822794835,1.80692479359371,1.80695241389056,1.9932505565364,1.80801887393763,1.80793535934598,1.80702477160777,1.80716275474834,1.80718773673265,1.80661548388206,1.80767330547509,1.80744103377013,1.8932469098736,1.98934522854661,1.96860500528771,1.87123983539434,1.99898051921107,1.80505662534883,1.80402449869857,1.97622823060222,1.79910450790666,1.80123793480685,1.80087788392705,1.98866260806072,1.80093299392221,1.79886932700988,1.79741140738431,1.84693423425986,1.73615767819771,1.78298997663541,1.73340023194522,1.73166022561956,1.72910414825466,1.72750698157642,1.77369846255238,1.74352910154704,1.72380565827019,1.7215892420659
1.78491032472033,1.857562581634,1.85595151933879,1.85570699451543,1.85491750306948,1.88704346778285,1.97214487316443,1.85197527366653,1.85294162058417,1.85154094580867,1.85151534194647,1.97193427049733,1.88969111849591,1.84948856545294,1.85131815240112,1.85226869364653,1.85338044352054,1.85337056427499,1.85353197911861,1.85385265582793,1.89010374701579,1.96372634675702,1.78347583823159,1.85781869925251,1.85875483876804,1.86044332040897,1.78988827847675,1.89054591783532,1.87379002541495,1.79585422221856,1.87133822944731,1.87359527379766,1.80709884868986,1.91697550691782,1.9712564636948,1.86663806538921,1.95634582128914,1.94234003288032,1.93637270607367,1.93907418201439,1.94880935864397,1.94675531376699,1.86309202597986,1.91288084831673,1.93829919731383,1.94121713565691,1.93712612770217,1.86319267042429,1.9390033589259,1.9421920116855,1.93594229064515,1.86252460395139,1.93616188511051,1.94642968349697,1.9530240815819,1.93674196688337,1.96947019085035,1.96416437396374,1.94444354312383,1.86307559446522,1.94062218188597,1.94786931047753,1.94576039676423,1.94180260694909,1.86589698259645,1.93957365713024,1.93922227803727,1.86819605046921,1.93758330113138,1.95892842191555,1.94320374837687,1.96836483124503,1.94274875808628,1.94834061075612,1.94374488109288,1.94321515101247,1.95759906358946,1.95217724091,1.95436804775225,1.94944952944726,1.87091134027963,1.95388882788012,1.95967592517934,1.95619087298609,1.96996918985192,1.95634532134358,1.96361203165077,1.94565487799168,1.95235298212507,1.95188424466646,1.87192001650184,1.96721920217679,1.94819246733691,1.95052394615888,1.94478619652088,1.96163514238912,1.96265864466347,1.94349675638399,1.94700658920133,1.95196555549723,1.95668306427452,1.97261551490433,1.94564531745766,1.94474732710285,1.95053250938596,1.94151672572717,1.95318237415093,1.93929020620631,1.94987391360961,1.94849533443995,1.94354759154686,1.94347595486115,1.96320457558308,1.95258261423427,1.94409607964342,1.80965877425121,1.98462942128687,1.98346409878053,1.85979136776317,1.99206999802107,1.90484609795909,1.80533250692369,1.8063400132614,1.80607553837112,1.80557273290607,1.99372509970209,1.8049050032865,1.80475383457456,1.80498790941686,1.80516084057428,1.80373970577122,1.80555516744729,1.80581796135834,1.80663879039411,1.80510327026179,1.80416199369249,1.80572193628521,1.80694366801083,1.80835140211077,1.9888821130352,1.80555037042309,1.97240280996227,1.99035226487444,1.83729215163408,1.80639830271309,1.80695716774886,1.80571213059421,1.80634330162989,1.80711736116008,1.99467673926344,1.9694648175216,1.8084958580143,1.99610064368788,1.8514428632469,1.80364738835971,1.80384691656241,1.80273198004834,1.80152636069195,1.7986693848337,1.97770071692137,1.80073137447787,1.97952051819984,1.84778855929476,1.83693726503763,1.84664257092035,1.84653173671593,1.7361286279704,1.73189523617291,1.73271164785298,1.73014216645632,1.72776263073556,1.72700081115175,1.72549686001709,1.75706594368435,1.80503032119922,1.72230640185905
1.85916606561767,1.8579719186153,1.85732725248768,1.85677095998435,1.85637880080185,1.85427183891968,1.96417713526695,1.85348800572391,1.85349254311752,1.8522113679944,1.89050876536346,1.85131697025326,1.88938845719798,1.85212448772952,1.85392452883578,1.77844410972419,1.77934221830752,1.85359328643303,1.8537112083745,1.96520833298791,1.89026869805813,1.85675198391292,1.85770617870239,1.85785536211381,1.85873244994541,1.89315735903707,1.8642326400668,1.86639767378188,1.86916751182551,1.86882532017669,1.89035750441615,1.87582164803471,1.80526219930661,1.91908139612308,1.9700597680168,1.95020479173105,1.94913107655302,1.86407308690284,1.93705452839985,1.93681752432611,1.95570456263276,1.95441064074603,1.93774050091104,1.93816398878643,1.9408879286746,1.86370498988443,1.93654933196751,1.94184977423964,1.9399090396387,1.93914026586694,1.93662155040097,1.9361221299314,1.9571192788215,1.94930111550065,1.93756281015868,1.94864356646633,1.95308698801045,1.96534865400798,1.94769774024358,1.94808729393111,1.9508753521764,1.94611638921242,1.9517122985822,1.94452112438711,1.86654294468877,1.95033897905271,1.95244319648764,1.93724045561014,1.93882987127811,1.9509317246093,1.86909077047724,1.96264426210924,1.95728355222109,1.95107761920322,1.94320399484607,1.9433241334093,1.94228261568426,1.95051901785793,1.95700090458694,1.95908255080507,1.87082900771125,1.95477854688629,1.96286865181902,1.95556250785812,1.94709077319515,1.94642979317542,1.9575944195344,1.97003566230411,1.95591341576097,1.95939964987785,1.94998591501257,1.96543127010103,1.94967814082601,1.95233034625128,1.95300368599059,1.97256047236846,1.94425954001544,1.94348431533549,1.94663020821527,1.94430502307812,1.94406035961353,1.94432426006155,1.94433698084503,1.94660283870437,1.94125240256625,1.95565981941264,1.94143989726647,1.95322784529657,1.94725298805091,1.94883959611639,1.95543465366992,1.95907167744966,1.96518101375318,1.95146240405863,1.94505983116201,1.81080867734624,1.80947671629932,1.80914654318291,1.80779254527931,1.80666624619616,1.80522978290909,1.80456758817163,1.8965239711332,1.8059740208852,1.80495492889367,1.99293922775612,1.80520565043898,1.80511196832922,1.8052173830973,1.80557524795295,1.80502077462911,1.9929195755232,1.89460105532373,1.82380613558748,1.80547034026042,1.85224508667424,1.80514277566492,1.80609987544151,1.80704938076394,1.80446923786092,1.80551002911352,1.80609446539678,1.99175250540148,1.85648196487436,1.99552255133899,1.80643899322437,1.80519324717528,1.80531687571815,1.80639984011141,1.80558611122099,1.80403935809773,1.80374663199817,1.97681810948074,1.83480074598157,1.80425389672788,1.80355716503251,1.80313264981248,1.89313270676817,1.79904338130986,1.80152974972241,1.80142909497882,1.79859763033243,1.7987127435641,1.82452176508579,1.84784742022472,1.96513233369401,1.73593751478607,1.73271141481461,1.73351138279532,1.78869997496865,1.72756581263805,1.81654114965895,1.81645248381608,1.76609973328015,1.72318271257727,1.72268654428618
1.88617897616188,1.98320918448227,1.98225286003413,1.85759310681548,1.85780665730696,1.96309989258581,1.96305793970376,1.89116455047063,1.87413457167354,1.96305185302373,1.84877456462482,1.85060415109696,1.85183412138876,1.85259612651014,1.85364132636249,1.85353218492852,1.77972089786157,1.85387393159439,1.85371433370798,1.89353715767537,1.8924460293618,1.85707981892997,1.89155242949023,1.87654319631638,1.96679175368302,1.8610182896895,1.89251078195425,1.87000492351039,1.86948045777048,1.87002338507712,1.97904020447621,1.87478253813625,1.89227854318747,1.92022402279423,1.96378861834471,1.9381587717624,1.93902799350282,1.93921219984703,1.93788001651933,1.94521795055515,1.95290724803912,1.95137688169557,1.9576171305475,1.93683614391208,1.86457136005909,1.86492317217246,1.93836571193842,1.94171091542978,1.94049450702771,1.94007287011396,1.93825995080747,1.86459558459184,1.9622640584026,1.95241179285934,1.95726448315785,1.93739917783134,1.95514893240289,1.94059169474796,1.95062745491335,1.95269153802078,1.86432008692551,1.9517281957958,1.94954556671896,1.94680247398727,1.94853324560645,1.95088335994214,1.86745812963353,1.86750878150741,1.94043426949568,1.93978129730037,1.87149622458794,1.87008636106062,1.95446761623293,1.9534808174782,1.953956818312,1.95935095155847,1.95346683211639,1.96853038515012,1.96323664980737,1.97150775360846,1.9518942006962,1.87334162257966,1.87322027006118,1.95458902066513,1.95433478569869,1.96705531519184,1.95398690105236,1.87126452427513,1.95046029492935,1.95299057123952,1.96258307955787,1.96345830654694,1.95607842316441,1.95510594945646,1.95406892245157,1.8735635010451,1.9661446746486,1.95600636664964,1.94897013645672,1.87189170101268,1.94500291622378,1.94495637386846,1.94479188157298,1.94613963393618,1.9479100797365,1.94850462008207,1.95597136751473,1.94344424371933,1.94984493618798,1.94695024808626,1.94753564661057,1.94396231907756,1.87262301138477,1.95185027265751,1.95426159780313,1.81073195062462,1.81032193879184,1.80776034691825,1.80781390964245,1.80538375606492,1.8041778736495,1.80444570744932,1.80587359290376,1.80564251305558,1.80500993170152,1.85340359316717,1.85317677506769,1.90408499515975,1.8781636578551,1.90319308085955,1.8057073236157,1.80551775925215,1.88870988570226,1.83362693275888,1.80468713509893,1.96217786114397,1.85276688693895,1.85333532863909,1.83843097660533,1.98826354094276,1.97240104814672,1.80743413463285,1.80678481174536,1.80789286754866,1.80619870472624,1.80687664213141,1.804302824392,1.80569435758418,1.80617159472265,1.80579517174339,1.80561135237174,1.80473217237066,1.80474221238836,1.80555178052986,1.80435888199145,1.8031990084119,1.97701892009324,1.98992511065405,1.79785053095085,1.79938655054776,1.98647863536587,1.79850611520259,1.84853908092786,1.81620823352566,1.79737664373046,1.79635917348708,1.73583326782113,1.73324612745768,1.73408771012395,1.72804275791121,1.82023967988932,1.72623702274522,1.77327347232145,1.77503038015296,1.81077668387392,1.81779722082404
1.85827697766821,1.85820746893006,1.85815386177788,1.85832765011476,1.85946112078264,1.96986108227882,1.78294384299088,1.85438516921012,1.8535793655282,1.7825004290653,1.85349457908502,1.85267337622032,1.85244761957316,1.85321775607308,1.85388228479849,1.89142197577536,1.85307659652833,1.85355160927702,1.85317543740028,1.85374060935131,1.96834330386094,1.85868481578486,1.85901101022918,1.86798613553601,1.96837507230577,1.89327367787552,1.8649257114988,1.86503857521418,1.86931092173074,1.87049772014519,1.89430066691007,1.89465682835232,1.88074765104827,1.92014723735515,1.988903116344,1.96185334965346,1.86675206276172,1.94061846301223,1.93801260571648,1.94085033741667,1.93925779604194,1.95529323978979,1.9430737584657,1.93819598589385,1.93501787706241,1.86479943092258,1.86431754674106,1.86508593675792,1.90503104875288,1.94017420306505,1.93908662678071,1.93925588133828,1.93905970068226,1.93942545353908,1.93830774252885,1.93774616038385,1.95330160356374,1.95241066843784,1.95140184466288,1.95461957552392,1.95406602562524,1.94805254562531,1.94878487462778,1.9469944543399,1.86684706390936,1.94902317430763,1.94657176504368,1.95634602538007,1.9438124591972,1.94085037722547,1.87022315978963,1.96412741667027,1.96028207084944,1.95503795220533,1.9585706075521,1.95139846785,1.95496992420905,1.95553089975625,1.95637438712645,1.95617437359601,1.9622270513715,1.95610245955134,1.87346320961506,1.95333945495051,1.94870795623666,1.96562462311033,1.95525132336066,1.95800022042251,1.94852294790225,1.94939511896409,1.95206133708743,1.95813318044102,1.95098184136244,1.95494878589835,1.95344726254511,1.96022742594003,1.9463423531495,1.9460673094696,1.9489419014032,1.87197452035474,1.94538849142773,1.94570865364274,1.95166545387777,1.94764019779557,1.94588762615888,1.95250178500955,1.94340488682424,1.95236976354003,1.94687547877508,1.94794840297606,1.94716757694159,1.96227392622136,1.95070153071707,1.95065760408371,1.95290609975725,1.8092293242602,1.80760211852953,1.80897946058244,1.80851423676084,1.98431265548996,1.80312003481402,1.85313807873598,1.90367117346864,1.80513171712047,1.8049437657457,1.80464732264678,1.80407775689399,1.85273038715813,1.86819070775439,1.99849015734639,1.99413726336623,1.80558504689466,1.85364600554891,1.84244136367616,1.8518977101732,1.88583677470025,1.85306369963648,1.85332210302009,1.82935455047864,1.80320210933101,1.80524441542818,1.80511884438672,1.80646047814584,1.80885529526553,1.99169007389657,1.98576951319155,1.80741918026157,1.89652882316144,1.80622953960702,1.80468036569312,1.80528481906501,1.8057042783535,1.80536477292601,1.80628838802161,1.98746913095684,1.80279158217338,1.80339868637817,1.80052764567095,1.79823106869174,1.80025462765025,1.84809382939014,1.97273226308319,1.79888350740861,1.80004336184318,1.79785418647395,1.79715222050783,1.73570140201001,1.81453973284743,1.73431553129469,1.73212549064856,1.72698403637077,1.72603627833401,1.77253371157828,1.77485694566759,1.82134457821345,1.81823028327993
1.78690369884445,1.78448423001063,1.85826338638006,1.85840652103765,1.8585962088882,1.85188236531878,1.85265446935305,1.97831821118424,1.85333574794209,1.78194306439632,1.8558188648847,1.85425880239652,1.85385845627648,1.85349987306467,1.85410079876236,1.78137635691431,1.97823271197861,1.78156635432847,1.85161764102986,1.89330176514896,1.85369467912657,1.89655074942399,1.85788332124198,1.86204480384387,1.8625138153322,1.86393100631607,1.86518890386477,1.89739167680813,1.87780736117369,1.79629399201917,1.79819194704391,1.80656208576063,1.80968999866854,1.9193198677457,1.98146025852367,1.94255006367179,1.94069233759003,1.93850115903696,1.93647816004452,1.97931379599982,1.96308078116402,1.94111795013063,1.94228818451417,1.94051825272952,1.93581069388456,1.86548564091201,1.86468918666536,1.86529702697151,1.86405477072805,1.86517555736972,1.95000937253051,1.93926447816066,1.93905947423189,1.93916066506605,1.93875592516434,1.95268301807334,1.93951588688904,1.95219260502006,1.95018822207127,1.94878053431748,1.86703705726237,1.94949801323232,1.94932483890865,1.94743473732804,1.95378127662445,1.954082516863,1.96299504342071,1.953613198288,1.95085021940182,1.8696971145888,1.95983333491279,1.94692121458935,1.95254202679952,1.95351317625074,1.95294453712166,1.94373600051617,1.94517102872804,1.95611894634609,1.95572734296109,1.9564655648942,1.87323369200148,1.9621284174141,1.9726860341917,1.96063172283298,1.96469415241934,1.96446724641433,1.87390598175633,1.94643422068094,1.94830483610836,1.94666473283593,1.94585262310608,1.8724398654909,1.87370218038867,1.95811226153438,1.96553788907729,1.87198743529108,1.95790447813231,1.9460747701319,1.94928367669169,1.87119991944594,1.9493402708531,1.94673159027237,1.94553050167768,1.94777928045611,1.95217815530907,1.94793466054871,1.95627177510805,1.94948357478388,1.94752340868704,1.94548148339429,1.9492023470969,1.95348223834431,1.95134045208026,1.94843478345532,1.9733197742981,1.8095347689442,1.80937434400332,1.80752001230971,1.80851681369183,1.80689588347066,1.90382940325855,1.80482228577446,1.90296184672565,1.80482361019187,1.80430615371016,1.80438799839153,1.80373595553407,1.80338004598191,1.86195577401976,1.99530862888389,1.80582758340507,1.80560665706595,1.80480646949069,1.83480739681225,1.85314084460825,1.85331051003087,1.80467600702206,1.80523150944285,1.80092165950038,1.80411874833348,1.80374483395897,1.8052561952433,1.80591327516582,1.80862217620721,1.80766332787576,1.97260031441507,1.80579343387109,1.8971178176891,1.80686998376401,1.8059113649255,1.97070878188333,1.80507341394238,1.80520923500805,1.80589465798594,1.99954821328963,1.80243739377666,1.80304021218534,1.97167777288045,1.86200663508334,1.96888479882992,1.80027778884184,1.8467443961283,1.80011565629903,1.80103232035601,1.87680215436828,1.7978366129546,1.7829815037591,1.73407426602937,1.7346601029672,1.7297379766593,1.72781894299008,1.82054367706488,1.72357031519143,1.76550375648841,1.82150826121912,1.7694720861892
1.85501683240265,1.857870636426,1.85912238020023,1.85888604572365,1.85912330809121,1.8584926994756,1.85603278213476,1.85504818559279,1.85427596532238,1.85448207372727,1.8549616315506,1.85416419459162,1.85383721977757,1.85367600650557,1.85340124414844,1.85324234848884,1.85294310849614,1.85211555043139,1.85069663072281,1.84952629478095,1.85134113312601,1.85378833991544,1.85720183445908,1.86121999590089,1.8625655358738,1.86374468301208,1.87291331957369,1.88349169666564,1.88502648477686,1.88778967268723,1.8888674934559,1.88731240231461,1.89024660884902,1.9183695499761,1.97489727242685,1.96163280126261,1.94057981037677,1.93976557150313,1.93723184106415,1.94234261816062,1.94365722882864,1.94120363855682,1.94302757964399,1.94207619577114,1.93722102825222,1.90193925383493,1.8636925324165,1.86361150448843,1.86306126176355,1.86434568569279,1.93313117945678,1.93606549884393,1.93818915526563,1.93816952479232,1.9377742533725,1.93667830317593,1.93760229156232,1.93819067093667,1.9434735727486,1.94654010637313,1.94768957392385,1.94886697950434,1.94823999467165,1.94783912012333,1.9503585251884,1.95369488387794,1.95875788662092,1.95868640210818,1.95603614504696,1.95587290897632,1.95032411339373,1.94831383649957,1.9506446608018,1.95173286067759,1.94845898197842,1.94391820227527,1.94539881491959,1.94822080739516,1.95187211926317,1.95274617258568,1.88655427772664,1.89495711397601,1.90097017095798,1.90545941868153,1.91224859661032,1.91875973997971,1.92363262234462,1.9464043719032,1.94779769997082,1.911937474673,1.90060465236786,1.88939040088621,1.90539564883287,1.96085671124651,1.96580583723246,1.90913802531933,1.95904386329488,1.95686253585003,1.95262228474271,1.94792789487062,1.94897726672254,1.94794551452869,1.94799609387133,1.94872416972513,1.94945547693202,1.95125434494308,1.94989061570918,1.95159889108842,1.94761827421586,1.94627617565949,1.94579716239171,1.94341324086896,1.94339086566046,1.9411901453856,1.93920521561177,1.80923401725865,1.80875487562057,1.80865160056593,1.80875662208884,1.80798111650383,1.84946412235454,1.80603466865654,1.80569587633646,1.80503575032963,1.80485647676176,1.80464040968826,1.80416389084122,1.83067007726387,1.85867889568809,1.86146475642443,1.84018908957005,1.80584274918403,1.80570165031894,1.82317044468514,1.83375814134499,1.84101511128111,1.80547205416188,1.80416171486632,1.80077224923717,1.80076424058516,1.80124780212757,1.80138791856091,1.8287012809,1.83476268031605,1.84158723608523,1.8478667951778,1.80682845980707,1.80744498083086,1.80730797696228,1.80625378001594,1.80554849151317,1.80545116582171,1.80500489694599,1.80492140775695,1.8035774187333,1.8028237042483,1.80259070005061,1.82847953714499,1.84601778604015,1.86200272723249,1.80146561420314,1.80165887737146,1.80087696635187,1.80073712699028,1.79954217754585,1.79826159947684,1.79096089879418,1.78305928726421,1.77365353553016,1.76382450716918,1.75473849195833,1.77566016957626,1.75022861899586,1.75860219498276,1.76812498047895,1.76904636234527
1.89183797855516,1.85955674033427,1.86124572700447,1.85962866433021,1.86054386056373,1.89451831483837,1.85535420823587,1.85569932959342,1.85553188003522,1.85533751345137,1.85517887230817,1.78168985349987,1.8546503494777,1.85451299724669,1.78207934963703,1.85438913418631,1.85489702393755,1.85444596895635,1.85156683799422,1.78184185172221,1.89558468050079,1.78507182203902,1.8574498985749,1.86126934149285,1.86240102609428,1.86363881642786,1.9686141534178,1.96851915430044,1.88539137834121,1.89479055542523,1.8950831998034,1.88081825204819,1.99253099010431,1.98960048342177,1.98872156065976,1.96324216222699,1.94338087599692,1.94173801199751,1.94165044966554,1.94413726010128,1.95073681502172,1.96230906611759,1.94555758714909,1.94294686822206,1.94056595232259,1.94178373131687,1.86582378586065,1.94298772167622,1.91026174208436,1.86603116971116,1.93629092436061,1.96643134982319,1.94003259971971,1.93792516415903,1.93938051771732,1.93880998931577,1.9387389278948,1.93937777225936,1.94439417911503,1.9458785971696,1.94723441289473,1.95077903455741,1.94216409422258,1.94686038617251,1.94906266476405,1.9625879874366,1.87033831428222,1.87100340281769,1.95391514972816,1.95655994573885,1.9494410452642,1.96003733422988,1.95903897809068,1.95111083742775,1.94649585792169,1.87380100314234,1.96142985102484,1.87406751188381,1.95085529013818,1.95119694815519,1.87406166325064,1.87340951856072,1.87339459815606,1.89508830681908,1.87416010358212,1.87456490225473,1.95541471268484,1.96001829720288,1.95017311764999,1.87325589624274,1.87326698389751,1.87299284184326,1.95637206549916,1.95781450095299,1.96948617961413,1.87162640356168,1.96925727925845,1.9787544864007,1.95713027073509,1.95954083340108,1.94980885840702,1.94746258250248,1.94729275307182,1.94691344713271,1.94959868404271,1.94534495750416,1.95387537123564,1.94654316422549,1.94902194207791,1.94653916753233,1.87120751687985,1.94396619272792,1.94504949908387,1.94417165739636,1.94548577879431,1.8090628253794,1.8082024590257,1.80751497013256,1.80795381504709,1.80635166433221,1.9050928915195,1.80712476628481,1.80557942008236,1.80494936634238,1.80540744533542,1.90290811596485,1.80325197059269,1.85166310994512,1.85833770898541,1.87895816577627,1.90131551494467,1.80464846088407,1.80342154067948,1.8048947957114,1.80281522258841,1.98908161118167,1.80504776346103,1.80418361166201,1.83162454826533,1.97617064458916,1.98520559462035,1.80402689469207,1.90344940678909,1.86333687576694,1.97103177888237,1.85411258966944,1.80650319572871,1.80682250913311,1.80673019416673,1.80548039626261,1.80422300360124,1.96955512945976,1.80438731050732,1.80388777423607,1.80319784008887,1.800997923055,1.80218175090081,1.80116707110393,1.83362912152027,1.97006330810988,1.80132415116263,1.801151385389,1.79935487460385,1.80013810683804,1.79950396647384,1.79817539173632,1.81372946321279,1.82430312495373,1.79389253166409,1.83824825359277,1.72888095609875,1.82454313990594,1.72549664673796,1.75106870676824,1.76900282734547,1.76869767709615
1.86012222568283,1.78822579206904,1.85932449096786,1.85873410053704,1.78458732769625,1.85743246000891,1.7851635536276,1.85785018687022,1.85713697653977,1.85686349457838,1.85614006721295,1.89603496603904,1.97917320324052,1.85554250313502,1.85543510738195,1.89647611631998,1.85492965162245,1.97822321206688,1.8958901483686,1.89698926515051,1.89714845216312,1.86080195389991,1.89375070631798,1.89361677672639,1.9788027066828,1.8968922801586,1.79291548372402,1.79408080166795,1.83720859154338,1.79894182580651,1.89716477708433,1.89618773618094,1.98479917328609,1.98487970105814,1.97770070894003,1.96931095292315,1.94329186180886,1.94290883669535,1.9431846566373,1.94164901207588,1.86761655505919,1.94202750842665,1.94661967151845,1.94484780169935,1.94460696636426,1.86734105893803,1.94304909411207,1.94427665866036,1.9449314307996,1.94585014551498,1.94459129543853,1.9417499888076,1.93956011557717,1.93626432723269,1.9639704233753,1.94038101529413,1.95580614560986,1.94721674042496,1.94546048950972,1.95390091506884,1.94660015495639,1.94282297132573,1.94279924118921,1.94403187041022,1.94965649480185,1.95044143592929,1.94992423925351,1.94446807483504,1.94886340755398,1.95609968490621,1.87205479008787,1.87200808217784,1.95574744023233,1.9531182459701,1.94645508693231,1.95303176543827,1.96007586414408,1.94696546280334,1.95017741663909,1.87435614600493,1.87448709517792,1.96213967138502,1.95583712982582,1.924427666176,1.95028446442123,1.96569164820299,1.9453031861437,1.96952366892747,1.95377553869912,1.95526773319123,1.96512642214805,1.97023144222957,1.95688887060682,1.95608588781028,1.96464849372188,1.95211144354177,1.95903982780889,1.87325950410342,1.95137457291411,1.95233277489261,1.94668346462595,1.94601793404221,1.96586873693082,1.94675970803925,1.94520153730521,1.95440035202541,1.94336877517268,1.95502038420449,1.95000301055478,1.95266717339358,1.94622836684199,1.94472995036064,1.94420966971025,1.94505194912142,1.9466218077413,1.80906830774701,1.90354461005119,1.80767652812922,1.80763755861696,1.80637524105939,1.80627716788275,1.80591765847337,1.90122642744276,1.84607914988428,1.89980164482702,1.97264676387757,1.80456012291307,1.80408623244038,1.83250347781069,1.8027188530641,1.90261919972914,1.8633686275118,1.8036500108907,1.80543851655635,1.98291616846469,1.80443379542215,1.80544949077293,1.80468786936977,1.84182508628577,1.97523851245974,1.98829856360474,1.80554205811436,1.80723551800191,1.84301152284198,1.80482236183558,1.85372033814272,1.80509207037661,1.80592113573839,1.80630747259964,1.80545645133743,1.98320654145385,1.96957748814255,1.80447562468879,1.80367076196184,1.80197478430277,1.80114179936135,1.80057776061754,1.80147114557278,1.82252763354972,1.99532273711263,1.8009864030671,1.8011539359731,1.79762160563682,1.7998630438892,1.80085664157466,1.73715436641037,1.73581385093032,1.73328355720431,1.77877520443958,1.82234388690453,1.81816319747987,1.7263145549083,1.72457853758448,1.72081264084575,1.72125200153469,1.76862889708561
1.8618024738805,1.86072428087557,1.86055901992634,1.85942609114008,1.86043254772965,1.85775288966066,1.78549288390113,1.85742241367235,1.85777966762026,1.85757814548029,1.85720881953403,1.89697650279029,1.89715975558863,1.85637087344176,1.78241184770435,1.85636348051296,1.8558921623339,1.89815475118891,1.89677694621096,1.89767109835408,1.8593215352745,1.86124670598729,1.89646960094313,1.89493147727571,1.89609640264106,1.89762794631749,1.87020596230093,1.87031520531165,1.87112736733355,1.87183901678348,1.80182966752299,1.89630077798883,1.89707400243348,1.92723887422543,1.98937788316023,1.87094152540583,1.96829798343768,1.94436130354475,1.94454679913106,1.9436568693321,1.95953991646618,1.94211361416012,1.9480282486978,1.9454528168437,1.94402324348408,1.9436071995139,1.9428110189861,1.94447555230768,1.94518398846071,1.94298745938171,1.94511679388138,1.94150106801885,1.94106561697198,1.93554463787842,1.8675405568131,1.94107923428426,1.95608913615414,1.94060253110167,1.94679030920548,1.95018043981406,1.97135455794575,1.96477097820181,1.86830055180423,1.94114225604821,1.95207073814469,1.94413702912184,1.94861006932863,1.94962349443728,1.94866451018252,1.94914905116572,1.87226141315748,1.87307444728092,1.95473225414924,1.95339553087499,1.9708410973582,1.96916469621694,1.95249213095474,1.95397277945401,1.95540749827224,1.95671423157467,1.87463830902413,1.95276735085715,1.87439046643199,1.91047852137358,1.87405793714333,1.95319833135434,1.96543491920643,1.94599412456075,1.95294538468816,1.95038715396985,1.9487810226731,1.87346850192774,1.95662760117502,1.95543264868251,1.95624402192957,1.87396249733803,1.95325088381309,1.9527922124845,1.95130233989625,1.94562216126536,1.94822081794216,1.96672599329438,1.97520798018879,1.94621778297768,1.95414017185257,1.94088283369789,1.95364356475461,1.94464366532969,1.95149922528322,1.87367595486876,1.87336534444264,1.951871050204,1.94972395270965,1.94660705990513,1.94648077411467,1.80855780492911,1.99821025661969,1.97854718295138,1.88408762673618,1.9770553625131,1.80566473047805,1.80480746130827,1.80359151980093,1.80345013454955,1.80294218978943,1.80475630359283,1.80479753725393,1.98561414339785,1.85034765114594,1.80323681416765,1.80264934543364,1.86409233241547,1.80445210139967,1.80505852861394,1.85901872788708,1.98245067278961,1.80492145707258,1.80571593842216,1.85231232355841,1.98623907963631,1.89951838317925,1.89866779352601,1.89820227993869,1.91062898894572,1.9948819159361,1.80578187410157,1.97118377747015,1.80499972848473,1.80605961840073,1.89973494130013,1.80401770980856,1.80394353990862,1.80306943139378,1.80271848341671,1.80242838308957,1.80023439756179,1.80242595897198,1.80129088913875,1.80218400213899,1.80034534761938,1.80018261637018,1.80068301900092,1.80075617594498,1.80054623032029,1.79923758720768,1.79799678420495,1.82413493554148,1.73216796454476,1.76429872564624,1.82115193677078,1.81915530198853,1.82506001841598,1.82439404788621,1.7192991678383,1.72092883676954,1.82689911801659
1.86219824081065,1.86179341451313,1.7869148059285,1.82568125035744,1.78659180889784,1.85869526021163,1.85771915647972,1.89512531599783,1.87204614859878,1.89599007622969,1.78303444977032,1.78204022758343,1.78238845621926,1.8562067779558,1.85535459223977,1.85728370185502,1.85708922321541,1.85715973784253,1.85735700259223,1.85732237402359,1.8975879673355,1.7870383049493,1.8612631519018,1.86311929264402,1.86335982520261,1.89782726340059,1.89718274279985,1.8697660393641,1.87149342196671,1.87320862817549,1.87505705769845,1.88118422964198,1.80970509289291,1.92554458237761,1.98767539245847,1.96311852781322,1.94591830256586,1.96558366044369,1.95764724755955,1.9666590496239,1.95943921576413,1.96398992642529,1.94908425303666,1.9458284884124,1.94576505382185,1.94443823766967,1.93896290770443,1.94283039925013,1.94439178787754,1.94753392020129,1.94287586846479,1.95381745976721,1.95623793004929,1.94687906931014,1.94929737554554,1.86773055430492,1.94261135225134,1.94852923601667,1.94604494928513,1.96388212737847,1.96975537863937,1.94311375547892,1.94207019380117,1.94109673273123,1.95233186938121,1.96104226485471,1.96610137954292,1.94933516796591,1.91326787990496,1.87177214681154,1.95161458329665,1.95522330254408,1.95446222975195,1.95263496488346,1.87502222910901,1.87492486643865,1.96225939240039,1.96017336477668,1.95581693930971,1.95556095656002,1.87630848853147,1.95799559196649,1.9573546585829,1.95403343530381,1.95232629398927,1.87411172138666,1.87474914085054,1.95785993042363,1.95904059586856,1.95864648968999,1.9486042711798,1.94827213590511,1.87628047737559,1.94881734216659,1.95144201878835,1.95891757271547,1.96528171340784,1.95634742110209,1.94913124439122,1.9471993831156,1.97311721803729,1.96648928937231,1.95881349920651,1.94826494327982,1.94532919845539,1.95862395799465,1.9442075085987,1.95540840207787,1.95002350235659,1.95222707789988,1.94626441355105,1.87324515192956,1.96078819579843,1.96190251462236,1.96234932365571,1.85693473101146,1.85462900695187,1.85357332020368,1.86916971571374,1.99889363707164,1.98231882565877,1.8028566425215,1.80282409728183,1.80321554761133,1.80278541673504,1.80355794862123,1.90308303805585,1.9030356591417,1.87443446161366,1.8606012474802,1.85405349201042,1.80432604556113,1.80368673395143,1.80394179496021,1.80313249516022,1.80197958856815,1.90319080248555,1.90302442573709,1.86218348834964,1.80582578495759,1.80414957605789,1.80476505041874,1.98279266961212,1.91632212555199,1.98837920961517,1.99928847409067,1.80482745601467,1.80465790667609,1.8056869276434,1.85694216558131,1.85120301692227,1.80389180394988,1.80367195376793,1.80309492725288,1.80122162053336,1.80230884764027,1.80182467099739,1.80359760891098,1.80261097052985,1.80126691899295,1.97530673916378,1.8010691165852,1.96560743135321,1.80102725502687,1.79990723743869,1.81845877724671,1.82742151945812,1.73107146311823,1.7309496552088,1.7296570420902,1.77351897036712,1.7233318968445,1.87522516902003,1.71932539264687,1.72150714188876,1.71916976464045
1.86273347640043,1.86369817935348,1.86210763033082,1.86149291115759,1.8606491128808,1.85947109187137,1.89734998124589,1.85840570464561,1.85727221125879,1.85611113235711,1.85474680535059,1.85662834693504,1.85726345585381,1.85674355697606,1.85596431956865,1.85680565359589,1.85800447095191,1.85805030889869,1.85820241645884,1.78529032139552,1.97957885864262,1.86149986677846,1.86291294307786,1.8633442436084,1.86357153952479,1.86561719320099,1.86859575747953,1.97674122583599,1.87163908225533,1.8739637914598,1.87637102874398,1.8973836544971,1.88722196301576,1.92906793251612,1.98864006132788,1.87249951093062,1.95699039745,1.94731957311092,1.94698304047328,1.94441518425303,1.94296538674525,1.94276075387704,1.94098234541893,1.94018263015428,1.94047974803115,1.869885630808,1.86909220096025,1.94548520390014,1.94614994661517,1.94253896823467,1.94572674677755,1.94179884742422,1.95684124461203,1.9447373368321,1.94183025750252,1.96320711626206,1.94220699618685,1.9563743827213,1.94369679586918,1.86960025571613,1.8694421144787,1.96307696696589,1.9423969841679,1.94299286257281,1.94265163100847,1.87391520756599,1.8736464673207,1.87271617731845,1.8951681084773,1.87366506735322,1.95158496380525,1.95890048552227,1.9660092592807,1.95225462413082,1.87421046701117,1.95019604200062,1.95495899356017,1.9621104290351,1.95523678178501,1.95533242764187,1.95685553421823,1.95739949120714,1.95965344232606,1.95468613770851,1.95272869358289,1.96145529524095,1.87625279480887,1.87475418313351,1.95887209886026,1.95759588049755,1.96355483516534,1.94868442765979,1.94836310777687,1.9480086145887,1.87457999270189,1.94823409800813,1.94727886245774,1.96900613993913,1.94747120085034,1.94793417666489,1.96594083100253,1.96641974378559,1.94750637938299,1.94743366957422,1.95210820678682,1.94842624241871,1.95526277859535,1.94655357651207,1.9517112437208,1.95157870515338,1.95245315081608,1.87212416234466,1.9614452841478,1.96164337652982,1.87465356214051,1.87898998355807,1.87772489721148,1.80791060632055,1.80672545097974,1.80503373939536,1.80505362292525,1.80343992939637,1.9916180876153,1.84230421867235,1.98335316440457,1.80186361299114,1.90349925483444,1.99351194765325,1.89071735650958,1.97817571250819,1.8538946415654,1.85494837984393,1.80179177630442,1.80330780136188,1.8038574673228,1.91008984509289,1.80539643249356,1.97907820412316,1.87190688755622,1.99142977477157,1.80343349299357,1.90078478361938,1.8057039434868,1.88805823467008,1.88966287380762,1.88881014452172,1.80314918277985,1.80402417961649,1.80494954686228,1.80460349379389,1.85176100059312,1.85143985258242,1.80272480321815,1.80310335242899,1.80233904430619,1.80204697617144,1.89936444474241,1.80229247974113,1.80257133603006,1.80128230314481,1.80072743180085,1.80106023612277,1.96621542570434,1.80152823876518,1.80025658262605,1.78418889774596,1.7802315770942,1.84393245976008,1.73169152935631,1.73065107884608,1.78415802238493,1.77219153998165,1.72205106858772,1.72018449296298,1.72155021660004,1.82971434368387
1.86421013701827,1.89769098213351,1.86141132625987,1.86157861439693,1.86160140044198,1.86105721206514,1.86127006574759,1.78691945368183,1.85709692354182,1.9005708542538,1.85801915242905,1.85809119996499,1.85728070734423,1.85712373945473,1.85646618238661,1.98517714745797,1.85848099122518,1.85894228863899,1.85930126565861,1.86084171081689,1.97537250926851,1.78865160455351,1.86451696417837,1.8640181083274,1.79135126514568,1.90037897256174,1.8703309633527,1.87111503959721,1.87082125864196,1.87641717278574,1.87711461663472,1.88284352970483,1.90001123707918,1.92997131402388,1.98150722914667,1.96250579570572,1.97213605950786,1.94639321883906,1.94666488556235,1.94438019345791,1.96004629602961,1.94585983209821,1.94833450950359,1.91014797616731,1.8704854252724,1.87221001445299,1.86970232363848,1.94743669725178,1.94635948602236,1.94880780299277,1.94324578345694,1.94395820606274,1.94848913324214,1.94518377986799,1.96469107028662,1.96417318662886,1.95668785111524,1.94403854104263,1.94484986290027,1.94349684504125,1.94306682675565,1.96732576966582,1.87213851601236,1.94611575535438,1.95045538114716,1.96264759164545,1.87342208157277,1.87407092091177,1.90538541187085,1.97632142513904,1.95315965385616,1.95214544361494,1.96234932281213,1.95593393799818,1.95500971435875,1.95521086888188,1.95392890365026,1.87623594464783,1.95412079319809,1.9556236670767,1.95636380182714,1.96995866521307,1.96067322190393,1.96269713234422,1.96238467194195,1.962107687801,1.96148603124129,1.96243098263549,1.96088038355582,1.9581254769849,1.96706174837057,1.87613797723997,1.94931443519144,1.94937635664096,1.9520116747804,1.95957088223987,1.96421893412221,1.87490299056667,1.94760687665767,1.96764810724284,1.95592679654642,1.94864176512505,1.94651062972715,1.94790632695831,1.94550371262026,1.94701819624663,1.94566851266164,1.94903056009553,1.94880664442308,1.95295398007068,1.87152102004593,1.94373518172533,1.96436486819044,1.96175027501822,1.87406614806078,1.88040440216339,1.87940148223839,1.80685541859933,1.80655792750573,1.80545984208493,1.80466870587977,2.00149799582124,1.80400188437393,1.80377793366427,1.80347477830685,1.90311711402305,1.97718097025955,1.97848349179889,1.87330338068327,1.80297746974754,1.80449112529683,1.90337266229792,1.89608792453534,1.84594054278082,1.99186508532045,1.80501643441105,1.80491184488749,1.80549746988353,1.84607651954999,1.98999212146211,1.80493711091048,1.90057578556118,1.80421562760152,1.88808255895522,1.89139639664894,1.89049768246366,1.80438913410162,1.80482775463831,1.80505387811417,1.80548982039585,1.80533094153457,1.88323195825053,1.88232456589977,1.80396716297488,1.80242627564308,1.96754531127508,1.80438517438221,1.85111387765816,1.83140884211816,1.85012337923944,1.80229523394688,1.98925144376273,1.8009174046404,1.80172083318353,1.8009340546173,1.7847348734075,1.73630653640263,1.73260961394629,1.73176802082309,1.77635778604292,1.72707538088028,1.7910647470837,1.77042046733978,1.75747252922197,1.8276073287191,1.82958474828065
1.89798488755363,1.86215192373281,1.79119926661266,1.86241818340264,1.8636190530432,1.86329984093351,1.86311790041013,1.78716645210651,1.8578097078233,1.85810458990853,1.8590759151792,1.85933684799787,1.78454932861283,1.85877027136554,1.85901447877644,1.85937367341505,1.85993616869569,1.85996608148381,1.85971924505909,1.85992736776672,1.98268264904076,1.78967126174655,1.86315836313052,1.86449180892151,1.86613753142244,1.86703202050283,1.87031739731462,1.80078467685131,1.84009388291049,1.80134519898444,1.87716604735873,1.88183924360428,1.89986523099869,1.92972874601378,1.98318627669711,1.9793159934706,1.87482496565029,1.87495652835612,1.91550880654451,1.95934941767729,1.96672881923677,1.95766006904258,1.870781494517,1.88419148459518,1.87212492728844,1.87002181959076,1.87269905211233,1.87031315187621,1.94240682558948,1.94599364596757,1.94899961034942,1.94259741788742,1.96502355788623,1.94350988249742,1.94496373852645,1.94407842129944,1.95835805477837,1.95198117273458,1.94811320121659,1.94408258178665,1.94399524756219,1.96479311379781,1.95341676181011,1.94595666504899,1.87332161571656,1.96391655503862,1.95728469661445,1.87412253690851,1.92080906134507,1.95760414587105,1.95780989328029,1.87442799329985,1.96028633569502,1.96001445446819,1.87492198962793,1.96522753135021,1.96948257202914,1.87583081000777,1.95342395268608,1.95390156876646,1.96515257095988,1.96305967345607,1.95990355783043,1.96626812041629,1.97992062031188,1.95553116396824,1.87594145464886,1.87694229123279,1.96072677224969,1.97564029445946,1.96449120411171,1.96428742500962,1.87503727460069,1.94996136241998,1.94986133019982,1.95558109498732,1.95328691944745,1.95377011642968,1.94964793865216,1.94872751873828,1.94753460106267,1.94627221498429,1.94646860107044,1.94683115282651,1.94804308729122,1.95205925343179,1.95293083791624,1.95615721964252,1.94729949009349,1.94611935303584,1.94629647895257,1.94588043768997,1.97086058122713,1.96200181905014,1.96257529097883,1.80763735070967,1.80811806752403,1.80753290194998,1.80705158481431,1.80577030804839,1.80470844669433,1.80302822109018,1.8046006267623,1.80384280270084,1.80303090425069,1.80247679484037,1.90128363105791,1.80410014612668,1.8652855400105,1.90305917478566,1.99262507825937,1.80493625928246,1.80504325725313,1.8056917241973,1.80499713671352,1.89987743993324,1.80543442868833,1.80543964687948,1.80533634752539,1.80511096667818,1.80481936883937,1.80516342076556,1.88743720301285,1.88689756700403,1.88481592778944,1.85139138837186,1.80446047591271,1.8042838969534,1.80408395806838,1.80320959241185,1.80718840685779,1.80523819672451,1.89397728077279,1.80453954520987,1.80293023086266,1.80261028495495,1.98296891910725,1.9785981615972,1.81749553650731,1.8015347203605,1.80166176358992,1.96767709456301,1.80102160376574,1.80188288197144,1.80138727627602,1.8278635238903,1.82738630210947,1.73094409675136,1.73056366042624,1.72914940649835,1.81474128260857,1.81444439046784,1.77026489050708,1.74911087428302,1.72163664239532,1.82825397569348
1.86570073488492,1.8641430602582,1.86360363344635,1.87513369501472,1.97579790671003,1.86380201822403,1.78876014537181,1.85938298080882,1.85900007596507,1.86031573369103,1.85884080880456,1.86093417570963,1.86051368710694,1.86037461740403,1.90290745550362,1.85965136370329,1.78607248906676,1.78730631065578,1.82773404177244,1.78767479899937,1.9031171167927,1.86405495176406,1.90159517256968,1.86493372153643,1.86581025951283,1.86660248394194,1.87067111782995,1.8707724452046,1.87875924342044,1.9768077252144,1.90141968217669,1.88459315571959,1.88806617039883,1.92924389569907,1.98474188813609,1.83106089593612,1.96199736282098,1.87477759872246,1.89517800225539,1.87525719289816,1.97280675261081,1.95721513038697,1.95292008677912,1.89389596902428,1.87167429189428,1.87518756055529,1.87012529297767,1.87219317568396,1.94145842984671,1.94733012451361,1.94614278313552,1.94635737072285,1.96022064488899,1.94227680415325,1.94325341502863,1.9529193016008,1.95574812910794,1.95324737095616,1.95119047903312,1.95894365475241,1.96875312961487,1.97623162321317,1.96018629130502,1.94498150319545,1.87406168092756,1.96118466680995,1.97265913825606,1.95603562814813,1.95454845046842,1.95603194734269,1.96230817819684,1.95963466857546,1.96575584880075,1.96271949521917,1.94852606836574,1.96272306554621,1.95675418928803,1.95807839572668,1.95585405374548,1.95950753643207,1.9584525939082,1.94900273562096,1.97425529203015,1.96832875788742,1.97587364511146,1.87582448003838,1.96285650243008,1.96697580477576,1.96221254333961,1.87661297016947,1.96408222604507,1.87725566434952,1.87661338499388,1.95136832363757,1.94896475769293,1.95911000868103,1.95590964914217,1.95334557301301,1.95082207763449,1.96277785864587,1.9546185467115,1.94626400842861,1.9462559714396,1.9472672485677,1.87262300333784,1.94906911442277,1.95134355510902,1.94605676951567,1.94695380294043,1.9478055707056,1.94718433933369,1.94640597212779,1.87306950589619,1.95040492481372,1.95494748759093,1.80744247111319,1.80649144646582,1.80619595939124,1.80754282347445,1.98023719335501,1.85216929324157,1.80363516566556,1.80393036339267,1.80400656829486,1.80247902721984,1.85217413676925,1.85104597916752,1.85108376036558,1.85895751391047,1.89413113728733,1.80285969683493,2.00309139630739,1.9982231841372,1.8060164776071,1.80527009662202,1.80510193856972,1.8047812134259,1.80515167227184,1.80467959183547,1.80512350743641,1.97677141096219,1.97757573682254,1.80391976081705,1.80488001429578,1.80537708048656,1.89382559047454,1.80470963425533,1.80418477418768,1.80416902412393,1.99539774654176,1.97671265902815,1.97324925914228,1.97930289827304,1.80437633621824,1.80313022224541,1.80289586814162,1.80251696176731,1.80142513304991,1.80121750297859,1.80103498179086,1.80046736403591,1.98665242337318,1.8009863938669,1.82933266700574,1.88330932863064,1.73610917605769,1.73599517711685,1.82739311342688,1.72994211460697,1.72929721761531,1.72661011954053,1.82818145059091,1.72179654786222,1.72211308612352,1.72042428184451,1.82880742228605
1.8659192911281,1.86476325714491,1.89943047000258,1.88173102377009,1.98432518741048,1.86117364322731,1.78923737058843,1.78857013803741,1.86004407982607,1.86055354704,1.86119915613951,1.85990897787132,1.86060339152987,1.86047880162825,1.85963492371263,1.98315366625811,1.78741270895272,1.86179702557428,1.86224073020915,1.98295416811164,1.8623809510295,1.90326707285248,1.86550379711152,1.86495172427083,1.86535859871669,1.79533172693333,1.87115000844484,1.80092717485026,1.88309214512143,1.90235755057951,1.8831659640862,1.90098382954111,1.81430305068636,1.92756691115718,1.99115607615742,1.87496378417815,1.87530496255114,1.87598708395103,1.90916004714873,1.94743506980893,1.87390548716842,1.94821025902448,1.94968439776495,1.9027166434938,1.87389932488203,1.8721234941221,1.87396169926878,1.87223947035387,1.94083862793393,1.94913475434246,1.94916466191029,1.94570412866094,1.94412109785523,1.94242625490749,1.94419303231053,1.96072658981581,1.94637656013839,1.94722219331313,1.94916254768355,1.94751110123766,1.96229603294801,1.87295312978257,1.87360473721768,1.94573196722396,1.95614874913662,1.94895744995052,1.87433330664966,1.96504731530046,1.95911747653363,1.96129850140853,1.96014418811583,1.96093414829828,1.96339757824867,1.96277534804023,1.96278439665464,1.96270569956467,1.95738696485815,1.87719427007257,1.90575380066082,1.87683371954681,1.97204073907637,1.96580770467192,1.96384624487079,1.96077893365431,1.96061126542163,1.96333849688047,1.96893060684846,1.96262520842919,1.96121033358496,1.96928940189092,1.87596330704875,1.87712300091833,1.96621532363197,1.95887923883608,1.97539878188264,1.96881020606368,1.94899814467279,1.94723133915812,1.94834025132841,1.97926470644023,1.95570047191241,1.95618403577845,1.95024554778497,1.94963341926063,1.95013342588075,1.95328545151059,1.95336305058623,1.87409393773235,1.87498086435937,1.87421055995972,1.94952874762108,1.87309859301582,1.95883639816693,1.9488446783392,1.94419831333623,1.91776797564133,1.89020673397319,1.807187862198,1.80776442138983,1.80636983230055,1.90096042991413,1.80441176127214,1.80469584559276,1.80520024674922,1.85072444771469,1.85279692539403,1.85183120865704,1.80300868155725,1.8279350743538,1.80428366375258,1.80338218059903,1.97943953587915,1.80433980779293,1.80543962117392,1.80382397061595,1.80378327937605,1.80356321151157,1.80271514684547,1.80311736721045,1.80397962010211,1.90112213255839,1.80467014099304,1.86658900718395,1.80546944759769,1.80460032689708,1.80451781879364,1.80582354441191,1.80441940077663,1.80443576164,1.80357227428441,1.80402639471889,1.9731707515258,1.80188388919236,1.80362294795231,1.80313207601103,1.80350149122989,1.801607738387,1.80124262206219,1.79983223719327,1.79886864972018,1.80040145340928,1.79913445516361,1.87825547371416,1.83850313517467,1.85407197406349,1.8276073164542,1.81953789141299,1.73165405133392,1.73045991561465,1.72966632701335,1.80780478648863,1.82827537789262,1.72206299986594,1.7209606547924,1.71908386463915,1.71854461796401
1.86545961602285,1.86476095545303,1.86363234290321,1.86125685154233,1.85964919083498,1.8367134199132,1.81884200872887,1.83473936660577,1.86054919157396,1.86119588902563,1.86114368518803,1.86135741452965,1.86132842740152,1.86133474766786,1.86107173010074,1.86140726509133,1.83084724948303,1.86266694360005,1.8627939764656,1.86334221596356,1.86388258613185,1.86500266083722,1.86499144510428,1.86437531350054,1.86457965293149,1.86801283988677,1.8711124644551,1.88228230636783,1.88624406957632,1.89778120645417,1.89369754367124,1.90125324544322,1.91341439240447,1.92496463358657,1.94062291174711,1.93986881444867,1.93952567356728,1.94080027565691,1.94260889291641,1.94661627756986,1.94641208350354,1.94625508656478,1.94493162581465,1.91116072434741,1.87355771017397,1.87427931196671,1.87349448611811,1.87378650313194,1.94141462666176,1.94940979255005,1.94861825425181,1.9467875885121,1.94423178211826,1.94247343731303,1.94460774278663,1.9448906205153,1.94613995534854,1.94788908177683,1.94893408309592,1.94528337422472,1.94397647409789,1.9441163227567,1.9456387369817,1.94696271932877,1.95738803007157,1.95608331978144,1.95929649449394,1.95850011214724,1.95741450314782,1.95973518698103,1.96277119496029,1.96262722248629,1.96297998043851,1.9620498975382,1.96274611903077,1.96246906924819,1.96151250008699,1.94480429660762,1.94349808576203,1.94338471057979,1.94495346572025,1.94657348812079,1.96021664309305,1.95977471547133,1.96110164852109,1.96261528602137,1.96449713922702,1.96304833845795,1.96084194466839,1.9584433182041,1.89191936022557,1.90547647576779,1.91757349356247,1.95841650090635,1.95290173459859,1.9479977913971,1.94401807646007,1.94484189202366,1.94832635193044,1.95361598626013,1.95658730528315,1.95490997430928,1.95328317837263,1.95327663719132,1.95277875393509,1.90708112091462,1.89625847684138,1.8749710564363,1.87544692370592,1.87507023348917,1.89901513968753,1.91286124387886,1.94450782596457,1.94796325605435,1.9480905079344,1.91790855621864,1.84513159269564,1.80768005394046,1.8081232423729,1.80707539437463,1.80591712495273,1.8052613151758,1.80525289178029,1.80573346733986,1.82730302644405,1.83698590503046,1.84307676714681,1.83866820862384,1.8353196026721,1.83158783995994,1.82113583321765,1.83288056757575,1.80536149310416,1.8053085926915,1.80379758255496,1.800642018848,1.80025818155358,1.80077857642922,1.80183051568075,1.80244880389265,1.8662107925686,1.85007267738111,1.83562748672978,1.80555486976981,1.80495444276878,1.80452233526304,1.80537350295169,1.80560985314285,1.80560397806642,1.80493216356226,1.80379838628565,1.8030798396977,1.80281962287213,1.80348824799988,1.80313380730285,1.802070329697,1.80013046084759,1.79847142133306,1.79731622636133,1.79794982711148,1.80039891874758,1.80255942304921,1.80839492028325,1.81178778131054,1.81723174167031,1.8228475151721,1.77138756722154,1.73157830926195,1.73093932359131,1.76477496316773,1.77738380179509,1.79139479285191,1.76488792013823,1.71648041531838,1.71651843092862,1.7389332084317
1.86555298991674,1.86544121525518,1.86500125853773,1.86282715072104,1.86216713928489,1.79172987266757,1.79130570123263,1.8600392848156,1.86111819857778,1.86193377435391,1.90312732442988,1.98936660853376,1.86168622250728,1.8615443554541,1.86146371543514,1.86132820369643,1.78848229138361,1.86336426732688,1.86295137589806,1.8633264449975,1.86455278956888,1.8655605896356,1.79183575839894,1.86404591569597,1.8643174451861,1.87257580792183,1.87254380739018,1.98666292615982,1.91559162751759,1.90475573359674,1.88134985987326,1.90168286080063,1.98919603511857,1.98360836181434,1.98551558052097,1.96886900273085,1.96195752529405,1.97007190395194,1.95100309197283,1.94784738508055,1.94791526214637,1.94626251440651,1.94482921366208,1.91919536461856,1.87254307351015,1.87371729743119,1.873739965571,1.87327139052742,1.9424044993705,1.94767851924357,1.94918560604072,1.94654995932611,1.8736302092839,1.94032516748069,1.95975107517608,1.87135588069996,1.87311367987926,1.95135370391542,1.94959738152159,1.87393484612129,1.87349708673066,1.96153125200642,1.95985150552565,1.9621467883138,1.96215794492433,1.87451384621941,1.96000651551554,1.95852667772011,1.95480853856825,1.96941486332596,1.95324713127894,1.87716665306641,1.87794701404418,1.95990225825812,1.96290368754632,1.96009406271291,1.96308687242024,1.95647371925939,1.95788139877804,1.95716146407087,1.87868669375041,1.87962583623394,1.96132000183477,1.95995016672515,1.9607726052851,1.96059999568905,1.96302293500267,1.96775763924174,1.96241286767538,1.9595239974917,1.87642687323417,1.96120017298575,1.87682212718824,1.96080866062482,1.95427492602867,1.95171929595232,1.87457998153549,1.97536857757216,1.95161340892099,1.95528571843531,1.96029092886483,1.87402717964196,1.87411677981772,1.91400880031988,1.95048936573934,1.8751707714982,1.87336143680433,1.87507460182886,1.87423549947752,1.87421757139398,1.87318528735924,1.96575766623113,1.94595037034107,1.95187518755732,1.95515488632638,1.91579199303162,1.80798264169594,1.80635459363655,1.80748168634932,1.8067436100855,1.80524124067628,1.80521234919331,1.80473813430159,1.80495179142212,1.80315713070691,1.80133213745964,1.8929712082885,1.96267151486488,1.85354310344065,1.85202844451473,1.80466878214547,1.85029135881442,1.80437377698399,1.80496564572687,1.8033283976109,1.90959584968259,1.85227365170354,1.97719722159934,1.80243007709238,1.80402672644409,1.99495740866304,1.99307642613922,1.80474334865098,1.80521334420975,1.80517256769789,1.80382948623544,1.89837981509953,1.89147656511289,1.82641061561437,1.80622274413876,1.80304307294569,1.80229637161579,1.80209970183343,1.80329581519084,1.80267978820344,1.8022986647395,1.96883975389761,1.96862287994105,1.84995749753907,1.96843830297831,1.80143812903386,1.80300366573232,1.80298056715048,1.80888650283528,1.80160816402137,1.82791221971219,1.7332710968362,1.7317289455224,1.73124144844833,1.82749761245598,1.72422129568119,1.81048794822276,1.83258495546474,1.71601965365171,1.71800280060783,1.82850173279663
1.90270359932454,1.90334962069619,1.86602190530628,1.88354555853396,1.90363403091926,1.90408458418699,1.86275318989434,1.8629204649202,1.86276572791799,1.86344045312239,1.90411245071439,1.90472532044243,1.90349143001164,1.86153196270302,1.78930866730941,1.90366810901976,1.86246848951366,1.86226680198781,1.86246243504185,1.78974540584758,1.8639369615548,1.86674107088559,1.86720545532902,1.87796833211187,1.90389091676584,1.90424323171023,1.80083682467416,1.99292548710872,1.92180428900253,1.99960751338568,1.88205007354509,1.88689417368326,1.97744197509251,1.98081760443297,1.98929386525732,1.87684403515906,1.87731269747139,1.95016938631152,1.95251299978147,1.87688846710023,1.95636421747853,1.94885152480447,1.94993295019169,1.95184613160176,1.9509266566861,1.87412392706941,1.94443250176766,1.94880136929218,1.95058426838276,1.95120562855374,1.95027482404564,1.95757749330665,1.94585285618632,1.94397768070747,1.96554539453805,1.87326643581779,1.87315421926156,1.96039510070789,1.96092529701604,1.96179933763528,1.96161047875255,1.87471543545556,1.96535168198658,1.9631540072739,1.96293533757404,1.94759753179933,1.9609938305858,1.87681330533576,1.91280017097515,1.87547368734433,1.95677028307053,1.87741387575007,1.97251376511326,1.95934327598019,1.96173582222549,1.87821845779597,1.96280373093454,1.96330480489111,1.96198955270326,1.97163177749296,1.87941417766283,1.97823987463705,1.9494028322843,1.9544043393856,1.95890509325108,1.96196051355946,1.96987524937326,1.87839895412562,1.96422108083708,1.9656200018503,1.87755081557564,1.97929582539812,1.87683189964015,1.96628207739064,1.96794174518946,1.96910553345483,1.9714861172039,1.96647101095815,1.95358519107317,1.95633090326968,1.96197320166099,1.94702536416156,1.94727643593167,1.90206458333167,1.87480649894321,1.87229101763126,1.87656083915019,1.87126730910289,1.87428029462607,1.8741462324357,1.87404413419996,1.87733067053656,1.95374089692094,1.95344738487139,1.97154224639446,1.80880643331873,1.90618558551393,2.00899196796225,1.85487355048649,1.80556413180788,1.80518068547703,1.8051202782218,1.9909684631125,1.83655019992138,1.80218174905089,1.80245718169706,1.80247500141614,1.97579178049647,1.85393691196611,1.80302670169126,1.96138936846984,1.85101305888673,1.80324103128213,1.80444575077427,1.850752721846,1.80479203451805,1.80314987999871,1.80393340267168,1.80331701362608,2.0024004874362,1.90287982037438,1.8052073878658,1.88354709163052,1.80505772741325,1.80509119544773,1.80372639828321,1.95866289380148,1.85124696264048,1.83693866088985,1.85205693813372,1.80235419750812,1.98240317323092,1.80289467697242,1.80390445760284,1.96970179123926,1.80142229978098,1.9783405859428,1.80246516714471,1.80294425209447,1.80215540144435,1.80130906152776,1.80147334420529,1.88968423882768,1.82317101295041,1.80205025165303,1.73324797979158,1.73381680445943,1.73019594092702,1.73096381514419,1.72596382451278,1.72541100172391,1.8116591938183,1.83380816130533,1.71496830545704,1.71677720095527,1.83287423945878
1.86858882997538,1.98003689510577,1.90604214900875,1.89254884398665,1.90603012135921,1.98901511179951,1.86421357326536,1.86469901769045,1.86383215398677,1.8644077973369,1.90657019517331,1.86263805141021,1.86292677083144,1.86214138283068,1.79010668844299,1.9927492765392,1.78889078773791,1.86300845916935,1.86247693282633,1.79242130103356,1.79258967245818,1.90478433553694,1.90501878605552,1.88864905089848,1.90424281807932,1.90494410698331,1.79963983579536,1.87771543888537,1.87916416245986,1.80660812170412,1.9823176740253,1.88580609662596,1.90440991860774,1.93156237235507,2.01120603282437,1.9487593580878,1.94927067635483,1.87806645790492,1.95448948156228,1.96845877712354,1.95838693887231,1.94978776577067,1.95016607000034,1.95217226652927,1.87437068191385,1.87369660389039,1.94779474341277,1.95080433461987,1.9515570986637,1.95146615155665,1.94849912787401,1.94735499968066,1.94712478487685,1.94869395900806,1.94931227914065,1.94907672578137,1.96285232783476,1.96857828808035,1.96084489224592,1.96261480703638,1.96595587956344,1.87533530733613,1.94737425885372,1.95570031955665,1.94871667288649,1.87714290887657,1.95967493700212,1.95932228122522,1.9229122962543,1.95419706980425,1.87709591875682,1.96678684574213,1.87854145533291,1.95819668538425,1.96884806613816,1.96151582494111,1.96077060457193,1.95990627701225,1.96116595621486,1.96044903112449,1.88009690265647,1.95639746011616,1.96942851150452,1.92290566388867,1.8786744837439,1.87804358287033,1.87844710819622,1.96799190125339,1.96516146460216,1.96371224976539,1.96423452421154,1.9593288277084,1.97259536649482,1.97120371768404,1.97255704060251,1.87678397006723,1.95067313726929,1.95798791026342,1.95577375529933,1.95753799898916,1.96445072390419,1.96322747498995,1.87453485378199,1.88946400944595,1.87336645383986,1.87611221733905,1.86930147401802,1.8759306352843,1.87268840503576,1.87407138066613,1.96239205757395,1.94970543170742,1.95374278068551,1.95367305504594,1.9510649536759,1.80829616897816,1.80694286997507,1.99491729773591,1.99301881227051,1.99339900987719,1.80498114205347,1.98492325400074,1.99273454117911,1.85386766392611,1.80365448030262,1.80162734875101,1.80216048684479,1.85044163879841,1.85203708245906,1.85082952199722,1.80383210545974,1.80399914183244,1.80291423368672,1.80358792778533,1.80294757180932,1.80465986108813,1.80319851339103,1.80494730926409,1.80449221317393,1.80578897135748,1.80486730628884,1.80582947873233,1.80498097062246,1.80503028890373,1.80489705295942,1.80478390191747,1.80548881881862,1.80519010650526,1.82321689936679,1.85260975215563,1.80379962662557,1.80313317398896,1.80339996258479,1.80446620883319,1.80349993135356,1.96919683372528,1.80176607030893,1.80200235641309,1.80308137551036,1.96888163908343,1.96579119149507,1.80143642314214,1.96429115911008,1.83261405787429,1.80325990375221,1.78234781689201,1.73234671101448,1.73046840181176,1.73111435327353,1.723828300524,1.83767222207049,1.91989375400493,1.71792786735953,1.71502153789468,1.71775547067391,1.83066826941934
1.86971688974491,1.98210968021461,1.79552172666084,1.88446765859067,2.00119399864567,1.79174076125885,1.8660247797799,1.8647679655968,1.8640929237004,1.86398854686158,1.86356238425786,1.90517766232082,1.86203374442822,1.86254491641966,1.8631758142344,1.98041719639549,1.86065238169899,1.97891670562364,1.86948195166281,1.86314516116829,1.86394739583817,1.86431585986308,1.86851353708713,1.87289346222618,1.87092487653485,1.79874219620863,1.97960069926866,1.90619357608325,1.87935610774885,1.87968014246112,1.80884060238451,1.88602502253767,1.90377136529018,1.92456660646962,1.97977761790728,1.88000444120243,1.95353033549272,1.96874486838916,1.95477008789532,1.8781044602357,1.96576997919544,1.87668406856431,1.87696917063841,1.95181099581925,1.95032756391234,1.87377429258983,1.95267424090822,1.95054007008711,1.95131132531392,1.95150330099983,1.95041563646642,1.94773652499134,1.87532098621648,1.95415418521688,1.95132609737836,1.95090504793873,1.96663980799161,1.87532098660655,1.96088578575564,1.96260373886233,1.94012502450397,1.87597544453886,1.94672310522959,1.96077456343112,1.96577187198424,1.87789328140875,1.87786769316119,1.8780600439166,1.9093672609037,1.87853302017877,1.87794334039033,1.95768423855417,1.95808984912001,1.95566254304827,1.95431360832622,1.96113351761101,1.95883019682333,1.9614859281315,1.95973825134937,1.95730710207207,1.95555221128052,1.95588657262456,1.87978703290769,1.90909233096129,1.878453693532,1.95887982879785,1.8785275194622,1.966636039835,1.96507349872652,1.97356184429763,1.96601183389025,1.95582267990939,1.96373263494542,1.96884782127458,1.96896962713881,1.97391890254802,1.95073886416033,1.96335208303328,1.95622034632356,1.95692847041914,1.95747804534141,1.95690516575149,1.94842478530175,1.94693944926734,1.94747569282258,1.87162317955118,1.87831910574973,1.87006029200573,1.87409518648493,1.87327343396849,1.94894994853751,1.96722351219144,1.97247912803816,1.95519788983107,1.95573629878265,1.80988150933889,1.80821352874116,1.99457108142711,1.99483579635964,1.98137849688879,2.0131145582174,1.98218969683212,1.98860866809861,1.8727598436271,1.99511405513433,1.80036841602238,1.80227972420536,1.85059597366165,1.85171231450897,1.89614397466374,1.79931930425755,1.9785937086246,1.80368264493773,1.80340829696353,1.8027064098134,1.80347012967476,1.97926820235789,1.8518937967032,1.80447077177928,1.8049314052728,1.805402111569,1.80455033711055,1.80436324252387,1.80479177469497,1.80480941048694,1.85706134661534,1.80455197484101,1.80515895857675,1.80539473395368,1.80415366249775,1.80342726277991,1.80282240277423,1.80382881198199,1.80537725376513,1.9827990197359,1.96985881009642,1.80062644138021,1.80210135848319,1.80278932783779,1.80200195492464,1.80206047401353,1.80158148383871,1.97296378654004,1.84207858237088,1.80172675877693,1.78323804330481,1.77885292236301,1.81821098091598,1.80741312780847,1.80113076688614,1.79977309509647,1.82780061411981,1.71934292592584,1.75126058230943,1.82571311449239,1.83085704780533
1.87057678602938,1.79726970988948,1.86933257406407,1.86945933299136,1.86787583050732,1.90755173435232,1.79197657500555,1.79166624197493,1.86449747498344,1.86551274523681,1.79308024881369,1.86246077221969,1.86337947898028,1.86311644968208,1.86362761703682,1.86451102219004,1.86578905513434,1.86413045163992,1.87448731596899,1.90614956623566,1.86401847225718,1.86595893710416,1.87083131128255,1.87334824427538,1.87399434943123,1.90962210562617,1.8727835887244,1.87341294560515,1.87886627088767,1.87974261871071,1.88304283230046,1.88614432085403,1.88652921668054,1.92345750010252,1.98038146732982,1.95358713884551,1.954018313861,1.95292735663681,1.95463620480525,1.96761194066273,1.96562758150056,1.94947871628994,1.94695819934572,1.95077040971269,1.95184019196666,1.87463833891987,1.87519532299956,1.87581717927333,1.8760213634044,1.87544479802695,1.952207172421,1.9499219081452,1.95881768016429,1.95896517734322,1.87615697894051,1.95198434454199,1.94600842131604,1.96207258243859,1.96102684882006,1.96502212751488,1.947777431064,1.87531413733585,1.95062834852474,1.9638815412344,1.96625108630687,1.87888329292901,1.961520892999,1.96337705878288,1.96165510237547,1.9622923935791,1.9612511156075,1.95890701699958,1.87693256450319,1.95405106276251,1.95567343803546,1.95295758792292,1.95332297940086,1.95809584510812,1.95922249572555,1.96614155763031,1.95920421594367,1.9722157525126,1.95320048357882,1.96620977537173,1.97588874362495,1.95704270022196,1.98926828094004,1.97234727195746,1.96520793458221,1.96511034310556,1.96594155797724,1.95386730004372,1.96547718473998,1.96497741151145,1.96451042532747,1.87662235518255,1.87650710473605,1.87541552801981,1.9094582686315,1.87556392994163,1.87442261127864,1.96612000395624,1.94775638412161,1.94665093184164,1.94681960309819,1.87744893987121,1.86906581474207,1.87664818774434,1.87257517302655,1.87397496876513,1.95487418984792,1.95026531990868,1.95094499842778,1.95374556615803,1.95231845841678,1.89991726533715,1.90294469818725,2.00183141195158,1.99628035754121,1.99736758368142,1.99366992440727,1.80484558177131,1.80386547284514,1.85289949849154,1.90582479301269,1.80377682869962,1.80256478159556,1.80225013674383,1.80233954972802,1.80099732637062,1.80000977920459,1.80128235270445,1.80277167369962,1.83859804969992,1.8998206446505,1.8049112027815,1.80455288037837,1.91508679866627,1.80373263386529,1.80305928340647,1.80536512452164,1.80502659312329,1.80455745491058,1.80500936266157,1.97629472998437,1.80302572805788,1.80441570966125,1.80573920302695,1.80533075353767,1.80391959174108,1.80243958295459,1.8039330072487,1.80450201483069,1.80568050490986,1.80462180330356,1.7994873573301,1.80184212388452,1.80272101554936,1.80305727218183,1.80244192617273,1.80272771448052,1.80228639734232,1.96539111566208,1.85061964929622,1.80094477130403,1.81963614015448,1.79007212201339,1.81827619563974,1.80948377854936,1.81175199141738,1.72443388660594,1.827812404692,1.76613700581315,1.76558367902284,1.76480896910789,1.76374522248983
1.87275498076048,1.870507104169,1.86979400773856,1.87003614557051,1.86986698650396,1.90728489295772,1.90904924475962,1.86425245760369,1.86484483840467,1.86575932914444,1.86388535020939,1.86332361498704,1.86339257562519,1.86273488040288,1.7913590834307,1.79170571652047,1.86639770566348,1.86502438995972,1.87982530352138,1.90812360609527,1.90850431143444,1.86903937694737,1.90805825245397,1.90552688577373,1.90660519204988,1.87412135465701,1.87408046994251,1.98004656288657,1.90742473498,1.90509543068874,1.99560805054462,1.88671874406766,1.82098148844334,1.92232355862619,1.99227484390074,1.87962444476231,1.95329672079791,1.95181454878891,1.95353627024664,1.95158190450979,1.95103109295539,1.97282355152893,1.96451472912639,1.9125511287335,1.87638337998248,1.87679137969092,1.8765610258868,1.87558061380491,1.87675608248991,1.87582623359013,1.94936187583099,1.94923979599394,1.87729696788594,1.95827948918315,1.97529461503239,1.97368312346408,1.94691969474954,1.87667646161035,1.92262700059001,1.9642817852078,1.96349421258983,1.94990023445709,1.96927590219558,1.96531947682157,1.97222672144058,1.9666116174329,1.96201712773547,1.9614833108928,1.96102482046848,1.87855095600556,1.96366224253426,1.97348322134532,1.88305711584696,1.95550441705778,1.95752151650358,1.95423378098434,1.95194055694029,1.9610571984444,1.95950479273276,1.96629009620665,1.9533887758344,1.95514572036075,1.97288784530552,1.96941984281154,1.96968005590373,1.96953973169428,1.96136595261029,1.95974410168241,1.96091463004311,1.96128266828005,1.96637375347441,1.96402373089614,1.95267564580777,1.96064934232607,1.96840071790068,1.87684247258576,1.97161317073373,1.96203226161281,1.94516434925893,1.948060978824,1.94909414413547,1.94873645921558,1.94896815318254,1.91962706236833,1.87749824692671,1.87268028165104,1.88051086956514,1.873031249896,1.87511117775024,1.87339016808257,1.95288675363124,1.95636308796649,1.95911827017155,1.95553874189974,1.9456735256714,1.80944301900393,1.80857726331981,1.80709766183967,1.87522612131058,1.98131122803386,1.89690437589214,1.80295537014625,1.80326862825095,1.83334532989837,1.98931910897508,1.80312708088387,1.98865512066467,1.99845722269916,1.8029327921006,1.80232364396254,2.00554495822097,1.80433211262914,1.90060884255916,1.86528894735078,1.97462828823054,1.80326732838657,1.80356994438284,1.8036106035492,1.80373231992656,1.85102806043544,1.8043036471879,1.98988910367927,1.80534685189185,1.80441761235962,1.80272127950067,1.89982994041749,1.80492427129099,1.80515162001139,1.80504615916736,1.80338096674964,1.97303626025876,1.80282431204505,1.84999964596344,1.83727629311627,1.8502774889397,1.98845461700706,1.84956611294012,1.80337198153765,1.8029481130255,1.80149307154938,1.8018662584135,1.80155141088023,1.96576881263935,1.86316976170917,1.97060428285422,1.82061543079754,1.72987812838014,1.72773969782296,1.76792717881664,1.83323570776866,1.83128245814786,1.76904628764392,1.76722925706578,1.76629118386107,1.79171969130701,1.79005384765282
