1.91511429042318,1.91401826705308,1.90805580364115,1.9150460646256,1.91169228912625,1.92347325118417,1.92889242971305,1.93039785454605,1.93004967060914,1.9271479608185,1.9191658868775,1.89577632123654,1.88610212227216,1.88869111278745,1.89284827867369,1.90163853076499,1.9197211936269,1.92737180650218,1.92955441434279,1.92792706646946,1.92222107701912,1.91397474372301,1.92216567374252,1.92752203185426,1.92775394261605,1.92268481001691,1.91395752967849,1.92271779293359,1.92793420373438,1.92812226849637,1.92312835376234,1.913540837159,1.92099172583621,1.92053298785038,1.91051091699502,1.91215211370704,1.90095154900794,1.91317426647993,1.91128786663054,1.92246332013326,1.92333239751034,1.91479405299029,1.92501594392535,1.92911664902611,1.9286834953658,1.92297253521665,1.90895218038611,1.90881280132462,1.92130367903486,1.92132736523369,1.90830691457815,1.90542672349518,1.90859703193666,1.92124727169884,1.91983425389441,1.9035671832896,1.89343157161822,1.89285387529921,1.90132454529159,1.91153476996487,1.90131439765798,1.89391630935943,1.89800139310472,1.9032266048091,1.9142002477346,1.91157411539089,1.92300028501922,1.92867972406512,1.93044360847256,1.93079518440028,1.93083928819972,1.93084222974651,1.93084062053406,1.93082675412326,1.93074305153098,1.93036555452959,1.92910011702902,1.92605150761465,1.92120356499166,1.91707628334138,1.91617310974732,1.81152665101153,1.81247288262353,1.81194441399337,1.81061304382233,1.84674995361996,1.83680401360854,1.82694262642727,1.83590753937732,1.84427994814037,1.88626324470985,1.88607719320165,1.82913798923784,1.83847407587884,1.84747556251348,1.83537604011929,1.80820373322575,1.80964218858084,1.81057409704962,1.81376865106826,1.81491115828136,1.81321092562134,1.81108846027671,1.81038982695122,1.80890217805589,1.83668078209448,1.8506916246183,1.85158694816949,1.85173008382497,1.85166443568641,1.85156849386611,1.85048126316475,1.80752457077571,1.80875761332187,1.80812776617831,1.84529456644504,1.83494049623972,1.80851944367896,1.80801327496967,1.80765341452376,1.80579446163275,1.80642310648256,1.80576668756722,1.803683055283,1.83025754081911,1.84150370898709,1.8024660795903,1.80293839284688,1.80376631358165,1.80422985839567,1.80533782561668,1.81443121995337,1.81584763382924,1.76703057649392,1.75769594619215,1.73369505579094,1.73187171980691,1.73137771194021,1.73142956216365,1.77405491723161,1.77443900499635,1.77335501653218,1.77251281264018,1.75651720843288,1.74436155498108,1.72245724169391,1.72178846477646,1.72148000821668,1.72105816257103,1.7205389583932,1.72042535543533,1.72671833493898,1.73122405616315,1.73867762996283,1.74702474992841,1.75461337696078,1.76013790430571,1.7629197803147,1.78309290739888,1.777969619952,1.7621025370339,1.73290716456088,1.74333038114172,1.75321871616323,1.78380715616254,1.82169632903664,1.82045137475764,1.74259678575812,1.7720813592539,1.7789200895297,1.78687072219117,1.79608223096606,1.75039514430258,1.73780128158125,1.71376482661769,1.71389117729143
1.99535405104901,1.95287472069423,1.88223101281181,1.95066507994296,1.88517387391557,1.97630039691679,1.96142787223192,1.96916958676344,1.95533369547549,1.94908500329722,1.94806758968474,1.95017045193665,1.8768366343943,1.94959002617186,1.950970941762,1.87771338606913,1.94502798627688,1.9761476622715,1.9487936610672,1.94914945334844,1.94854261850388,1.94797688840835,1.9663867292455,1.94791084472205,1.95973305877117,1.95473900958527,1.96094419507382,1.9598495964154,1.94994031046789,1.96628672224283,1.95930834166005,1.88241338921132,1.95223514467229,1.96264901112718,1.96459818763485,1.95757290415629,1.88463984958678,1.96843541078611,1.96812347714862,1.95492868347629,1.95408227898375,1.88874395187149,1.96975493434511,1.96530041640683,1.95940889518846,1.95938980351389,1.96843917927548,1.88686950318023,1.96524268046077,1.96070591776834,1.88685837017739,1.88756795362783,1.96198151102064,1.96716494923633,1.96200579987405,1.88530253907289,1.88463804192727,1.88380466976136,1.88468298363951,1.96315567150585,1.88419089712678,1.88300403490332,1.88400954682209,1.88398224980273,1.96814818176294,1.96240313668304,1.95762755067963,1.95500530296453,1.95542277611163,1.95473814576822,1.95530722784844,1.95445307476253,1.95292210674354,1.95512170082773,1.95452055860344,1.95375232221916,1.95247609812109,1.96650628778706,1.95503758174454,1.95620499752362,1.9555034224127,1.815020384398,1.81453149817547,1.813711204536,1.81274626167443,1.91124498393522,1.81327646989971,1.81428560555644,1.81199036953642,1.81182235582449,2.01119071745203,2.00112932269304,1.81197112749818,1.8597638625545,1.88676925702624,1.90951526407722,1.81133691745002,1.81075224925739,1.80992550867191,1.80938514897883,1.81153899833822,1.81213210389397,1.81154820205951,1.81082529826566,1.8106879264401,1.98428078213361,1.90907806115506,1.81125601642598,1.91192274392373,1.98042423233984,1.86263718306916,1.86187350984268,1.81054080713633,1.81255004345425,1.81196456154131,1.98033831910186,1.8106124229006,1.81035165392812,1.81081612215598,1.80927936844517,1.80880112751567,1.80802058199329,1.80801725496182,1.80684889402775,1.807806046274,1.97702588648196,1.80773277958214,1.8081161296454,1.80474662337762,1.80654182736858,1.80510992028357,1.82018908148795,1.8204345122644,1.83195661119495,1.84685778502683,1.73604492473884,1.8322254878101,1.83139181120454,1.73235607239495,1.77635137293163,1.77538891372417,1.77568404253289,1.77461900539441,1.77420239793226,1.72154348634824,1.72134931698592,1.71962211881685,1.71907322705524,1.72034247382818,1.76728303482662,1.71960542217276,1.76370301760706,1.76395177786979,1.76254970808183,1.71482829612757,1.81350966481588,1.8102741205079,1.71391189478847,1.82989469348343,1.71582108050176,1.76151609485209,1.71295619111185,1.71349966435002,1.82525537255819,1.8186467218416,1.81711992329638,1.81467779840865,1.71401688708452,1.82934069671571,1.82922634143554,1.82775715963217,1.88176640189979,1.87991290333966,1.83253413907249,1.71206011553195,1.71201015622653
1.98117836755279,1.97253085132273,1.95152803068889,1.95099059565576,1.94961884762267,1.87624965833134,1.95052846512043,1.95008451841917,1.95439400887268,1.95260629049437,1.95304829934412,1.95219631208353,1.87440306137438,1.95250901642506,1.95279028894337,1.95432473776234,1.94915090774003,1.94977840097529,1.94925506910351,1.96347068671177,1.97340798457146,1.94878572913385,1.96196742905075,1.9556939486581,1.962779751563,1.95477079186772,1.96523667327971,1.95132255979302,1.95110873085006,1.87671171992452,1.95906292632819,1.96440438378029,1.95590945162562,1.96811134231194,1.96335082408804,1.9592211656383,1.88118917098251,1.96437586987029,1.96273847467524,1.95494141136348,1.95363680293466,1.96204834862876,1.96801106968182,1.97286737593865,1.9532279284517,1.88214903400597,1.96619880741852,1.97050317007702,1.9711848440596,1.97627830360412,1.97599108905243,1.97299888223148,1.95300837640836,1.97901143687083,1.96317203337896,1.96211270478968,1.9717183590401,1.97818774919824,1.96614632722979,1.9677874291738,1.96144395754709,1.95975186947737,1.96667989157591,1.96610792173042,1.97527898258565,1.96206584764617,1.95555291418364,1.8810226159969,1.97404756089749,1.9543889733832,1.95539131880115,1.95770772056728,1.9574754269749,1.95901551176112,1.95787662429339,1.95344963261537,1.9540511743485,1.95238686760367,1.88097488642025,1.95558091399241,1.8171452816502,1.81617767492714,1.81599121396176,2.0159350373716,1.81303989225632,1.81426247439375,1.81325883707901,1.81317122202662,1.90860492779984,1.90838615948238,1.90749043842683,1.91208435103209,1.81212046335764,1.81117741969492,1.81103557583417,1.91084405549132,1.91056913312978,1.87059732204671,1.81039425525403,1.99165022876923,1.81145595453212,1.81137040712069,1.81206344171087,1.81176412387336,1.98329755285451,1.99793780500068,1.99666501628983,1.81226678782923,1.81144994696679,1.81236985495014,1.86252263208519,1.86175895885871,1.81183943177855,1.81307780147462,1.81301730494706,1.9990833148404,1.99937605624389,1.97804729942239,1.81253433960556,1.81122798413214,1.80782066221598,1.96600035427452,1.80887093293026,1.8079042489986,1.80936229559305,1.99835146133168,1.80841528075154,1.80935345379182,1.80394415312675,1.80895055595887,1.80556795754465,1.7437831753865,1.74237878379221,1.74075062283189,1.83066790630767,1.82642952944355,1.73418734637364,1.81607220808397,1.73133703132901,1.73011740421395,1.77627038797026,1.77540382863131,1.77537787832255,1.72482937668873,1.72367837134803,1.7217853748378,1.83625227309396,1.83480129396363,1.7203455076449,1.83232890189287,1.71538087466756,1.76443717150898,1.76351089796138,1.76318366510489,1.76241546614408,1.81375844015302,1.81224636147113,1.76223324561646,1.71206531290639,1.81843904960521,1.81713862319668,1.71318127663644,1.71208911571067,1.76033360846557,1.78790221194184,1.71206634595673,1.71171185159841,1.82955288125786,1.83091927634905,1.83173530115848,1.83041067378932,1.88109659684072,1.87972993996248,1.83136953740209,1.71358433921457,1.71194168222375
1.99887647948102,1.9741389289454,1.96749497440698,1.96716986799142,1.95169102719317,1.9675613793516,1.96718290784773,1.96675952848174,1.95286845130759,1.95536218042492,1.95140659752015,1.95210059336546,1.95155460449992,1.95422557873813,1.95343635476281,1.9526428830881,1.95046562554998,1.95004736158395,1.95080224942455,1.94944868554744,1.94941095797408,1.94904267355428,1.94972310258077,1.95650853276746,1.96639400718161,1.87683195916654,1.97833526786821,1.97062057729478,1.87607152051469,1.87603580500519,1.95869740308675,1.87962891235856,1.95825950231803,1.96602751129425,1.95803510714266,1.87918177116045,1.88024601775285,1.88118259501385,1.96223334121528,1.88254041653455,1.96549442076197,1.98186566555483,1.96017489203332,1.96017382600261,1.96243417174658,1.96542349749773,1.97623357584221,1.96285481329773,1.98396576692768,1.88214244258757,1.88242154620453,1.97007875169618,1.97233165330878,1.95368574821584,1.95857061853931,1.95686211936126,1.9561899556775,1.97197884405064,1.965700055688,1.96603814018944,1.88212994217531,1.9596416760133,1.96267544914826,1.96211954323245,1.95312291991323,1.9683729712782,1.96966076415273,1.97586127539814,1.98363165989109,1.95674452385928,1.95760947995913,1.95592081467498,1.95682590541,1.95631310302313,1.95804961107534,1.95893590090032,1.95479943501311,1.95950170136248,1.95883468255,1.95462523618775,1.86543572724708,1.81617643689354,1.81638499364064,1.98717637645075,1.98608177815938,1.99531586025638,1.81339230931693,1.81275826783765,1.81093831350523,1.81016495967118,1.90722071525853,1.81327060148321,1.81195695246982,1.99257618255635,1.81063477695609,1.81071554577875,1.86360320531678,1.87170636963704,1.87054017843892,1.86651704178026,1.86576563614084,1.99186978482185,1.81190988678831,1.9887864541699,2.00108159311638,1.81289944797129,1.90675522175782,1.90601700430555,1.81063631672601,2.00048179143641,1.81327366390607,1.81334366728516,1.9790305287015,1.8121539901863,1.90722615358082,1.8129450254393,1.81132555038245,1.8117819375411,1.81253651406876,1.80911549129694,1.80777640602482,1.80883608591757,1.80837317480713,1.80953699424633,1.80761838016688,1.80670631566862,1.8071337528815,1.80833497311571,1.80852749190723,1.80688987268815,1.80587832145218,1.83327839336689,1.83226521482796,1.73921089442116,1.73761807160442,1.82719320253699,1.73479828495483,1.83327872046831,1.83310689399235,1.72811732124497,1.72727343688062,1.83392306975316,1.72459358203065,1.72488121619056,1.72402592066318,1.72135564264898,1.72077965406405,1.72058944398779,1.71955396250325,1.72011177599791,1.71568340948667,1.71850267306835,1.76576139953184,1.763974579437,1.7634205620782,1.71506228943821,1.71442208411732,1.71412344773807,1.71384335339815,1.83574633958141,1.81808012318876,1.71416434550684,1.71418932334965,1.71452120364202,1.71398981460228,1.82686863832347,1.71379849934037,1.71324035878831,1.83167867555844,1.7139846439073,1.71477231829233,1.71392355004918,1.76314081889876,1.76004577469592,1.76041321205476,1.71221142625019
1.99479041112199,1.97252321459046,1.96558906409183,1.97427615835921,1.96875775278782,1.97443124740732,1.96707880613507,1.97291302297662,1.95794392710306,1.95485716396394,1.95315139585452,1.95190588350072,1.94967412423486,1.94881051876742,1.95517182878838,1.95507063945227,1.95129843775434,1.96226162494231,1.96246563372453,1.97620493551228,1.96935097280694,1.87603010227873,1.94997394664324,1.94970583079698,1.97093597414715,1.96509083239315,1.97677610169747,1.95168148127784,1.8786424340364,1.94978621390969,1.96966280821122,1.96911550925651,1.97517396987412,1.95827596177649,1.96880684013429,1.96053054478979,1.88093058284911,1.96347068671177,1.88243077487846,1.97966055911335,1.88310362553909,1.9715457378452,1.97049603230097,1.96562357527654,1.96476884851383,1.96272579299596,1.96614393682143,1.9646669799979,1.96875303270303,1.96117012111697,1.88249245413069,1.88225696145744,1.88268228055801,1.96630601474772,1.96651466720806,1.95774275804057,1.95658813035713,1.97916416220916,1.88321433943944,1.8827407871691,1.97665359578405,1.95322156079858,1.97314452045588,1.9636069307632,1.96496099294848,1.98208681259325,1.98205499287566,1.88256905428054,1.96168147300742,1.95864986986871,1.95762272815152,1.96038555826863,1.95789130605436,1.9589118609063,1.95829732069571,1.96094538030602,1.95543320041078,1.88109739233366,1.96871957745143,1.96868248476428,1.86597666244917,1.81686572479294,1.86179305141346,1.86071954504936,1.81514406054504,2.00812647863074,1.98318300187053,1.81010331674684,1.81056327373057,1.80999829325426,1.80993630723496,1.81356926484121,1.91136589886275,1.81054512310725,2.0018261745122,1.8669710286295,1.86138174582318,1.81194513785744,1.81085168086545,1.81021287537722,1.81031039541468,1.80990534133528,1.91122589210457,1.90996583128085,1.81305981934885,1.81299995483743,1.81200927177037,1.81278956280937,1.99141158088596,1.99834987034578,2.00769691244084,1.99913422638883,1.81142400481505,1.81222877637808,1.8126147768518,1.86259511553053,1.8117275654897,1.81127811393305,1.81147652450287,1.80952094595116,1.80876686227649,1.80846048545547,1.80869851095642,1.81072867307577,1.80950139937003,1.97536489721435,1.80784908425098,1.80844635609651,1.97362435865231,1.8067634466913,1.82697364713886,1.82586632117856,1.8337846978635,1.83371974669596,1.73574925455821,1.73692273620313,1.78010319911632,1.73052171488649,1.88313226328508,1.72997055266009,1.72618379340184,1.72557809051676,1.81340889770659,1.83625227309396,1.80861793917212,1.80740042585675,1.76884886576958,1.77448990007297,1.7200440604648,1.81474532585295,1.71493745056052,1.83555877656504,1.71351261296367,1.83239572330018,1.76337957900639,1.71388797156019,1.71401860269534,1.83360693423907,1.83561990051787,1.71205118823977,1.71233231784279,1.71357220036433,1.71189789745063,1.71326601341753,1.83096383600052,1.71292001503123,1.83055022299341,1.83048251265032,1.82996490971516,1.83384213918569,1.83312649381796,1.76140275098266,1.71335242876044,1.76093250984877,1.71503984666112,1.71287274390433
1.98931192476171,1.88010620812511,1.96348977762606,1.95595875614597,1.95803436230913,1.95195920563304,1.96873544944064,1.95129294915625,1.94957810637102,1.94966188019159,1.95488299911227,1.87753519497621,1.87707996954599,1.95417428588274,1.95643042957167,1.95177414492532,1.95052213092249,1.95013053038785,1.96281146745766,1.95055192432845,1.87874114223276,1.99210843270513,1.94977456011871,1.9644634603662,1.8775746313793,1.8768796887432,1.87771209256007,1.97068739900465,1.95116846244963,1.95075826079237,1.95680763032388,1.88201539119134,1.96393315900612,1.96424300029475,1.88077683891981,1.88192030119421,1.95936594311939,1.88042995102506,1.88248859585132,1.9712261438745,1.9683776064201,1.95981623790581,1.9643703725823,1.97170981190234,1.96357743613853,1.9629886323948,1.96550513207318,1.96513190123549,1.88340113990024,1.88378934045704,1.96073100901174,1.96516032962271,1.9847389860695,1.88265496751852,1.96214476702639,1.97098332456948,1.95724566225774,1.9566952458943,1.95646895332746,1.88249596251708,1.88153875053662,1.95548712456926,1.97300705945947,1.9563805262847,1.95551212073,1.95560921632595,1.97268249243211,1.96829137652817,1.95531286340259,1.95618123304101,1.95902827816715,1.95744494260858,1.95805251436899,1.95752685723352,1.95956104446558,1.95546206256309,1.95733549271752,1.88006006953435,1.9688657663361,1.88124217204952,1.89929349794066,1.88649188000076,1.86262109138332,1.81573012140766,1.81320520370686,1.81260145046239,1.81249600733884,1.81088984901204,1.99965447877438,1.99963538694371,1.80996223859757,1.99264300396367,1.91112406900769,2.00137751649164,1.98592605214987,1.9847642512362,1.86160035801683,1.86214015329163,1.8088733348962,1.80887718383113,1.81062448984908,1.81230354335218,1.81296375077513,1.9911347415212,1.98520674374089,1.81144083210869,1.90647202626966,1.81361262432417,1.8131123119499,1.8127004581711,1.89700220552075,1.81107014845047,1.96632491539578,1.80851964091589,1.81166740121393,1.86025037668047,1.85954622504369,1.8963129591078,1.85822697018619,1.80942728591286,1.81046976466963,1.80856253832383,1.90694932203622,1.80985344686647,1.80806232477121,1.80796565324439,1.80809632199027,1.80803469160116,1.97452803863699,1.80752908674648,1.8067568139002,1.79038502311344,1.78672311653358,1.85192666606765,1.73812312220005,1.79173648793318,1.79195286201401,1.77921542899052,1.72921392448612,1.83404994226854,1.83483457518445,1.83674510817809,1.72605604328837,1.72267749424143,1.7194609397582,1.8088394044078,1.71993312660224,1.71889689432388,1.71858832899477,1.71689859139269,1.7157571253456,1.83650025195101,1.71539917693325,1.71520621391146,1.71504924032691,1.71207913521766,1.83558236469039,1.83401951477721,1.83309509383429,1.71203013168693,1.71607315313699,1.71378362125288,1.71136732631193,1.8314043427232,1.71463064305857,1.71395774970581,1.71138503184599,1.83254341011455,1.76046725128021,1.71229856251938,1.83268525658949,1.71249723709863,1.71289654014843,1.71335659350243,1.71226651265569,1.7127228162946
1.99845337561823,1.96993327139094,1.9623442676073,1.95461363562692,1.95304406182131,1.95191775426411,1.96825719404043,1.95159934452582,1.95470628660004,1.95287707339205,1.87945037344301,1.87884593382806,1.87858450330366,1.95563970160586,1.95654071315391,1.95324875272734,1.95204168414699,1.95078167641858,1.95665490194306,1.95103597377708,1.98552175112665,1.97301660204289,1.96576329737718,1.95241874787881,1.95185311449498,1.95972915031254,1.95151929928619,1.97626062211403,1.87975300925786,1.95849725454231,1.87961936644323,1.97096738911185,1.96511397757098,1.88223730919553,1.88243082846749,1.98450033818622,1.9621399132866,1.96215228724803,1.96677900941416,1.88313544525686,1.96358565217489,1.96191771821193,1.97624311000842,1.88382110728569,1.96608322473768,1.88324681426905,1.96445592442808,1.97815230449103,1.96848638336718,1.96960571012486,1.88382911510425,1.96960050172353,1.96885934850628,1.9692589385035,1.88417276805617,1.97493468875968,1.97566126060817,1.88471688523004,1.95962138154976,1.97975601826666,1.97171835755786,1.96245355817199,1.97191500700071,1.88296043680912,1.97152586185485,1.97571012756264,1.95675616737011,1.88030667234707,1.95481031350211,1.96286757015792,1.95486101679059,1.95743115527537,1.96173694118266,1.95536784051149,1.96172568698268,1.8758391839721,1.96148178045552,1.95201744919019,1.97422893288351,1.95338065420678,1.86564414639847,1.88771157523964,1.88670570850417,1.814324156709,1.81277239129266,1.81275109963745,1.81214995543059,2.00647503527846,1.81100154496209,1.81113026556832,1.81043793817902,1.91200865716171,1.98556197099444,1.98764845403904,1.8105989773729,1.81337187122777,1.81233416413411,1.91229662560756,1.90365598124699,2.00007927200661,1.97813321266037,1.81277919643681,1.81278249955409,1.81331332055499,1.81305108293271,1.90637656711635,1.81282800527408,1.90341733336371,1.81134111982795,1.85950612284056,1.89849027735066,1.89798734398293,1.81127967452652,1.81032601602541,1.90522151136129,1.81274569055959,1.85923158418739,1.89086079305417,1.88984891666153,1.80912149371345,1.80991921685014,1.97525034623037,1.81292204989364,1.80827332459888,1.85780694991162,1.80880178404533,1.99638977573113,1.9979743976761,1.80783689279147,1.8088682143085,1.80654715751706,1.79077960709352,1.7433365143201,1.73998434705372,1.78417135003327,1.7347601012935,1.79946231540791,1.79778223430946,1.77755603070879,1.83476557460858,1.7266737877332,1.83711408466644,1.72466761795207,1.8376459767323,1.77085320716046,1.71953903312547,1.83752187983299,1.7189632616046,1.83660547196121,1.71678468531274,1.71633215230027,1.8399434019784,1.71408835668574,1.8330703013169,1.83204888837649,1.7114101314858,1.83504290968039,1.71070439465909,1.93195962020375,1.83088746867787,1.71556983959991,1.71170821715359,1.83123633461337,1.83030029716454,1.83590688321913,1.70921912569625,1.81974579450056,1.76046725128021,1.71255443629474,2.01399721655938,1.82999216535416,1.71250306486585,1.71136563391989,1.71244865059762,1.71265522347141,1.71192973027422
1.99299533631133,1.88236177154764,1.88301634859892,1.97300704830453,1.96707905052996,1.95599103892287,1.97537726901039,1.96662344084956,1.87897105973908,1.87931404811295,1.87954162225424,1.87973626817064,1.87989830586152,1.95607522031897,1.9547464757812,1.95517167223851,1.95231731610297,1.95161803557437,1.97314620701738,1.9528318972501,1.96898822577316,1.87894160645472,1.9661896815952,1.95939196122279,1.95231295460717,1.95242836970609,1.95193288750777,1.97373413653161,1.96210562081942,1.88125326451573,1.95579577078556,1.96995520703975,1.96569492728264,1.88255767646677,1.96650629139948,1.96955428382095,1.96283063472541,1.88252132470389,1.95876455045353,1.88295725483734,1.9731849940293,1.96908811943888,1.96914068897041,1.88375936349636,1.88353517697785,1.97457302241829,1.88674324108672,1.88271916711936,1.96883440016611,1.88584330323912,1.97564173560201,1.88335795102073,1.88397523031889,1.88508785204198,1.97969873336071,1.97244110531487,1.97396751379007,1.96096965689502,1.88322001017032,1.96575828832044,1.95809660817849,1.96281008398179,1.97843867188446,1.96227080268313,1.96251878200087,1.9657992041347,1.96272029319935,1.95438004889135,1.9541727923359,1.95290230684722,1.95552369371696,1.96021992006972,1.96095397197512,1.962518099645,1.9547127108516,1.95432166147201,1.95467867480735,1.95346972154671,1.98110198968327,1.97204291867912,1.81468277752174,1.81473510332932,1.81588530985776,1.81433238721365,1.81404763370034,1.8124927247973,1.8123269771352,1.81226183973434,1.81243584070732,1.81065492796435,1.81006368424719,1.80968524669659,1.90896351017109,1.8113298715852,1.81228835137595,1.90240546633861,2.00052793002717,1.91272300982563,1.81222195523787,1.98565539394129,1.81120201168644,1.90679658739092,1.81313925776563,1.81289088520681,1.81290344483756,1.81265122321222,1.81094388831324,1.81353750961737,1.89531094206452,1.89312683663676,1.8912482004996,1.81185359424547,1.81132969609235,1.81103502211372,2.00172116944356,1.81200204503782,1.81334408842849,1.8129759155764,1.90250092549192,1.81055233131614,1.80973753602859,1.81000608891535,1.99154953818929,1.98760367374626,1.80920063836574,1.80919278139973,1.97613784361573,1.97518216112087,1.97494651338241,1.80937951270898,1.86555823316049,1.83511002777962,1.83328977481591,1.73843801347797,1.78375769370224,1.82300254261436,1.78110552022609,1.82091198715685,1.77740966000706,1.72838200315574,1.72747613107372,1.83604279879521,1.72432128581761,1.72291590153411,1.72195622341094,1.72000863957313,1.76736258412105,1.76729894468551,1.7172331921063,1.71643775395454,1.71623322182884,1.71492337789946,1.71477970790348,1.83358259877305,1.83288574695383,1.71110442315401,1.83623186564692,1.75982314586921,1.75932341371752,1.7103537658063,1.83300802301376,1.71306544008704,1.7123705732783,1.71104190119441,1.71094915270576,1.70998955781352,1.82023581815423,1.71353193802464,1.71247853531328,1.71321883200178,1.76082045014746,1.71202270396681,1.8328443728727,1.82716457014678,1.71158176674707,1.83161489200786
1.83868648150339,1.88271087930832,1.97023874068154,1.88380638157316,1.8840549330522,1.95574724825098,1.97926635070406,1.96295264186572,1.96205250176625,1.88007881377231,1.8804729043391,1.88175100886234,1.88018153547023,1.88123847771891,1.88025129228842,1.9544598127049,1.95463406631879,1.95502098369676,1.96864861066138,1.95219212876123,1.95274468498607,1.95364376003791,1.97911644193947,1.95350764727884,1.9686350269059,1.98191302499011,1.97713126169199,1.98787004629811,1.96863502690591,1.88328473748118,1.96983672241202,1.87971482559654,1.98460534325487,1.88393439335905,1.88280361098744,1.97108089199005,1.96871852963439,1.96771979256296,1.88359046722097,1.97596068561442,1.97042454326769,1.96316051259791,1.96854263534629,1.88387246598622,1.88418868190295,1.96887323861276,1.96560897174594,1.95701446597615,1.98276298159596,1.95987187663195,1.98173201589714,1.88326158605028,1.88318612454477,1.97510811537604,1.884917349452,1.9797464628006,1.97033129423237,1.88582254568231,1.88482695036604,1.9551943781197,1.96660248213268,1.96782078932478,1.9662691860993,1.96765291090047,1.88173855964674,1.97122826053514,1.95441921310375,1.95466342877511,1.95450734911304,1.88014439178644,1.95623246318963,1.95594906677121,1.96071053057032,1.95650508781842,1.95632171126285,1.95684176122221,1.9553208602289,1.96967495546869,1.88005847854846,1.95255015957297,1.95224469028238,1.81422743997804,1.81352726397534,1.81288849582802,1.9921814991948,1.98762515333248,1.85943930143324,1.81120129209833,1.81045465048389,1.80989264199563,1.85950037773407,1.85934889224066,1.85895419570192,1.85903288062566,1.8584948794877,1.81078846084375,1.98598950097788,2.01183983969455,1.81110342249018,1.8123007770828,1.81156662639538,1.81240979287633,1.81175142461238,1.81255403765181,1.81209162111871,2.00166389395158,1.98487262888414,1.86037480113569,1.81069896754965,1.81331822610304,1.8129638882545,1.89329866311272,1.81172813380086,1.81120674044892,1.810781631337,2.00180708268154,1.98206294780501,1.98159201598201,1.80888946747557,2.0064559434478,1.81010436976592,1.80984549948729,1.99279051104285,1.80863618398793,1.80774547053265,1.80812487934314,1.99515357969575,1.80741949799455,1.8079394567658,1.89234407157961,1.74383008618444,1.74280486658848,1.74234092339279,1.83410444214445,1.73731295482735,1.73558967586215,1.83666547485757,1.83610362955523,1.72856966271027,1.72743815660737,1.836080446618,1.72404042554687,1.72307288695215,1.72208913643219,1.72133216585528,1.72066665434745,1.71815270551169,1.71771010569092,1.83231935597754,1.7159933765176,1.76343603094818,1.71627968462646,1.71503284482507,1.82378371668561,1.71192014982426,1.88251177878856,1.71417042392198,1.76007565971681,1.75921220728802,1.71149093598361,1.83541783463068,1.83590178730081,1.83666261707617,1.80309930914898,1.71164703178504,1.83347664908846,1.76018358294744,1.75871080382014,1.71251718646881,1.76004723100564,1.71289142730831,1.71163957696023,1.71420374767856,1.81635154103146,1.81363548822584,1.8069367771579
1.99966598549985,1.98609450604652,1.88877580239807,1.88834597106762,1.88907055403064,1.95603863789934,1.95596587067259,1.95408947461411,1.95892202723457,1.95838126262316,1.88423835900202,1.8831123897719,1.88349034659479,1.88352298442625,1.88477178959136,1.95638499420061,1.97560354509763,1.95500865894394,1.95192833534281,1.95195393882816,1.96730814467487,1.9548307545178,1.96203879216994,1.95464232810936,1.95507949154219,1.95516417322776,1.96854911366793,1.88627280759624,1.96897867985783,1.88762426839221,1.96510412805899,1.95537575764119,1.96141830778538,1.88925557483844,1.97472343700953,1.96932253108076,1.96844206573401,1.97494487753594,1.98151246213249,1.97034692846148,1.97054947199116,1.96322466083444,1.96428311101127,1.97535535129901,1.88968348536745,1.97904962053216,1.88913504298513,1.95910183946191,1.97309409241437,1.97206762575413,1.97026176318325,1.97137358155704,1.98155065034891,1.97173650193354,1.97902097236552,1.88870858519624,1.88892669849397,1.88987494277351,1.97383595977545,1.97417324878388,1.96192446258372,1.88723142575131,1.95787837131368,1.95696832738534,1.98783186263679,1.96577765201848,1.96335765693346,1.97227201888276,1.95840423522783,1.95845499057537,1.96226717586317,1.96217287286763,1.96163779102111,1.88445398868372,1.88499442513612,1.96012516350297,1.88463219736407,1.97217713770206,1.96435845683757,1.95266471055695,1.92634634060331,1.92476228142983,1.89840572781487,1.81299326588063,1.81266963959765,1.81277373300299,1.90865804088049,1.81072115667101,1.81053759335435,1.80880463586551,1.86011582576566,1.86120591547653,1.86054056403444,1.80863170293697,1.8958092388448,1.81027032628658,1.80961087742887,2.00407901053035,1.81026889649047,1.81029945533177,1.81149014492172,1.81159933253511,1.8110211301536,1.8098470060065,1.8115178184956,1.81086450871249,1.90833347975923,1.8111256493924,1.87568635027887,1.87506831486998,1.91618022216141,1.81141786952753,1.81233752296689,1.81144669590494,1.81039812128355,1.81160557515181,1.80991520600357,1.80873646099564,1.8081670152951,1.97619539184815,1.81041426508251,1.80992635471521,1.80799651478791,1.80842097269472,1.80773654009557,1.80732161162069,1.80679702405931,1.8056467298335,1.88574784408581,1.86233171377857,1.80552727508909,1.74173771176934,1.82690682198479,1.73859686034619,1.73698719178802,1.73497940412781,1.81523216753483,1.83666547485757,1.72874018051571,1.72680466776298,1.72633899498218,1.72201757792255,1.77096775814444,1.72221654260386,1.83597544154935,1.71931977844493,1.71810123055475,1.76474062416734,1.83247209062283,1.71458265797076,1.76385605122275,1.71452588262889,1.71403965145724,1.82373916908077,1.71244314133276,1.71148289867249,1.71040282284888,1.76069440225821,1.81953737534917,1.71212952065665,1.71144359383391,1.75907355231503,1.70856617083236,1.75945538425511,1.8396026360659,1.83627892679338,1.75975818414054,1.71175596264697,1.71142113649731,1.71234371257888,1.71386361703161,1.76055316451819,1.81840141142476,1.75947447608577,1.71106547201998,1.71154347217799
1.91779960672689,1.91772848111462,1.90848646967967,1.90690956739687,1.91070438709344,1.92458413000777,1.92918422694402,1.92848203878809,1.92176063033265,1.90401415803084,1.89372515914889,1.89126002369556,1.89204618997991,1.89858086331469,1.90578463931791,1.9219814039524,1.92728779752729,1.92451379909917,1.91464164534217,1.9245857740314,1.9277597996958,1.92424334939401,1.91410858740484,1.92280343149205,1.92181294507898,1.90840294306863,1.90423446459089,1.90667033710923,1.91704810745784,1.91301856491281,1.92455245380576,1.92820443614871,1.92537473691489,1.91533297529724,1.92436885873312,1.92384675672467,1.91231517727149,1.91265631835596,1.92530224953668,1.92971443330645,1.93068334739372,1.93067106556455,1.92970970098058,1.92565248114412,1.91448403631266,1.91851094377532,1.90794768207328,1.92330037273422,1.92901839204193,1.92939914373473,1.92559432993247,1.91570563249591,1.92532045657514,1.92759497969371,1.92169051633932,1.90385862410362,1.90532592799868,1.90745419108061,1.9109739934317,1.92254942351031,1.9202770131258,1.90600056103325,1.92148219679742,1.92825711867773,1.92899614436901,1.92472691195687,1.91358034965896,1.91897300353732,1.91306725709375,1.92299357840051,1.92204704459844,1.90806668681022,1.90041602117381,1.89408725768616,1.8921869109214,1.89665765893706,1.89703196916482,1.91812703160712,1.9235458601856,1.92132967381806,1.91733092786526,1.91671925735033,1.83807263488837,1.80815741356175,1.80982966214197,1.80993349858239,1.80827015804893,1.80865687490641,1.80752050526508,1.80581096901651,1.86751075504049,1.86936962552444,1.86817334309638,1.87172235035022,1.8676651916843,1.86400200033762,1.86286162234939,1.85958109711486,1.80699990015612,1.80846306232686,1.81875326088938,1.82279619982484,1.82580986910414,1.82616262654117,1.82296187007052,1.81800879214074,1.87851221808807,1.87925307205406,1.88481270433862,1.88549548012997,1.8377666333634,1.81127461176616,1.8125326983544,1.81147855796381,1.8101942656657,1.8095718224457,1.80793752333043,1.8070644482164,1.8062913341043,1.80586749901698,1.8082832762449,1.81106954474083,1.81314727861454,1.81143540878637,1.80699546787933,1.8052805700356,1.80600228369293,1.80624469190936,1.82792530431096,1.84134319255652,1.80278937428612,1.76705396146017,1.75720053796381,1.73792909559574,1.73681519545801,1.73519790404633,1.75624522504959,1.7658168520965,1.75409872144422,1.72520719488545,1.72304066974142,1.72029967787754,1.7197525291623,1.72155520574429,1.72120318272095,1.72036600078308,1.71920534782636,1.76300593831672,1.76288765951695,1.75266802441038,1.74015036894224,1.71497736953883,1.71464420556115,1.71415549914207,1.71295042188736,1.71243392783376,1.71165727804624,1.71192259143028,1.71164579531819,1.71151678554748,1.74312252213428,1.75397298296848,1.73499270224789,1.74599217949461,1.7805283351266,1.77526455463373,1.75937399500079,1.75298585070496,1.74427359154976,1.73614693463445,1.72953854767387,1.74412100408659,1.75838499195589,1.74966775562264,1.73704548705677,1.71245475348462
1.99713913204121,1.97638630161697,1.97066831540924,1.98224750216808,1.96259245514066,1.9559192083349,1.95587905979289,1.95437704214954,1.95312157047093,1.88506523562014,1.88540631741075,1.88421055614785,1.88469592321522,1.95573559066875,1.95634112832336,1.95828943643635,1.95466083715853,1.95388848883763,1.88725083836216,1.95357598918983,1.98201840020014,1.96776634861078,1.88617023238386,1.97504435757177,1.9855981184493,1.88769372956476,1.88562226695829,1.96775953023797,1.96631946072347,1.96535395957418,1.95399288262315,1.9645607084205,1.95875321717722,1.97580829339315,1.96897869190592,1.96082646816505,1.89011905410958,1.89034723144821,1.96570920433104,1.96553737788268,1.97140334137609,1.98084424367712,1.97509347608979,1.96431263818087,1.9649693971286,1.96482429924698,1.89185649699119,1.97543171272151,1.97198493931019,1.96791979303317,1.98189472871651,1.89015353836268,1.97431363969324,1.97813177242828,1.97770429301514,1.88924378105523,1.98560766436464,1.96749906298151,1.88928746974834,1.96215971433963,1.96119239491941,1.88797130652805,1.97560355022625,1.95908912258985,1.96567016553141,1.97199362534566,1.88843103653534,1.96101219104725,1.88706727281286,1.95800635571371,1.96115509671497,1.88805665804595,1.88701600973978,1.88171661347979,1.88563199357854,1.88320801557506,1.88372853723603,1.97284700523407,1.97231689346123,1.96316521742118,1.92305964514337,1.92213050938448,1.81475443395484,1.81073050922986,1.81304457227349,1.81252875835491,1.81144468990995,1.81167143416728,1.81081039777831,1.80914861800622,1.86151645709113,1.80780366335689,1.97172790347319,1.97134606685994,1.86067989814023,1.8603138985742,1.85931123619104,1.85791882952224,1.81007024056763,1.80989136827201,1.919368557882,1.99074336681278,1.85942020960258,1.9854326559169,1.98492354043257,1.81236551487529,2.0019375435244,2.00055020382961,1.90565107755119,1.88886935839908,1.8116551167632,1.81110884505371,1.90696841386688,1.89950350807795,1.81252227625078,1.81212572592905,1.80943327582149,1.808823160407,1.8086627239483,1.80857167769217,1.80945238705014,1.97768700930375,1.97765864429819,1.991211116664,1.80893728496392,1.97608084086418,1.80858261995594,1.80958639472991,1.80935305956582,1.89272313862604,1.80642932369466,1.83485856945561,1.73972295971259,1.73853384794966,1.73743687122695,1.73391579033363,1.73228513235607,1.81705838599053,1.83377033510787,1.72696687718204,1.83672002294518,1.77153096714897,1.72226732723593,1.72090932299738,1.72162961456719,1.72008265054714,1.71893275344336,1.83717822688107,1.76442364016578,1.83550769169813,1.71680287963845,1.7150760105872,1.83445764101171,1.71391485091617,1.71416599039594,1.71299980983014,1.71314490330578,1.71212970253701,1.71144081659491,1.71008543368845,1.82923617831539,1.83309914596923,1.71150313226676,1.711184935849,1.81697907004043,1.70991216731432,1.75930472454552,1.80376752322216,1.83403762073714,1.83361760046257,1.70784432284058,1.71237135341147,1.784360677354,1.71171633605764,1.82311709359834,1.71251837015025
2.00592407343572,1.88491707073923,1.88567962911389,1.88609948680647,1.95658808911869,1.88513690550461,1.96552691937095,1.95672948382992,1.9579422468582,1.95908461963508,1.95834157202973,1.88265621905346,1.95325015730772,1.95668643411211,1.95811689136332,1.95885884604254,1.95953765793523,1.96594306418101,1.88399283124055,1.95642537922717,1.96545623710064,1.8823379237262,1.88212168483191,1.97027780228877,1.96768127817725,1.96950046007275,1.88340322349244,1.9815697327203,1.97584219705377,1.97163244929388,1.9552234032429,1.97572746097824,1.96883890680287,1.96999556906115,1.97428806818215,1.88322629055109,1.96842501676862,1.88654609129339,1.98115926782033,1.88635505743175,1.88625017279097,1.88601631793666,1.97169644803624,1.97085299156175,1.88596740013842,1.98176064969776,1.97451532170682,1.98744048010821,1.95705105865165,1.9558100896585,1.97931648074574,1.97028647921723,1.97539771167284,1.97324862019507,1.97566425672029,1.97267450901115,1.88539464521855,1.98726865363225,1.88475957757765,1.97593295042672,1.97505078765648,1.95858317806224,1.98170337286505,1.97627176617132,1.96664692601605,1.96951322235151,1.96684180789903,1.95512515757051,1.88378799105534,1.88242730014837,1.88140908746906,1.88313116886382,1.88045570084928,1.88132679278363,1.88256742644897,1.88514167848885,1.88198887874104,1.97262236275184,1.972386292844,1.97473862944735,1.81610210353185,1.81638159041962,1.91345963629204,1.99881262145732,2.00923379749012,1.81224585799901,1.81240686892737,1.81131334591401,1.99944782978036,1.99590981904313,1.80936622598064,1.80935802131549,1.80873507037594,1.98892009698453,1.81023965381666,1.97117424038399,1.85924426981742,1.85886247863158,1.80996279493412,1.80877985452788,1.85811241920222,1.81170594320515,1.81056869884325,1.81122555998154,1.81109560548859,1.81172540696093,1.81306725493152,1.81237689189922,1.81098950687673,1.90285412435917,1.81102528470767,1.86097619380155,1.96661129285571,1.85965408452819,1.85902405411634,1.81035637946738,1.80988837788945,2.00049929228118,1.80999306683921,1.98564584802596,1.81311641077722,1.80795773776726,1.97790847453944,1.810019932942,1.80984211814358,1.80912562655981,1.80876469441337,1.80842064896947,1.89723216072199,1.89579233608811,1.8080030065298,1.74019574186733,1.73817120505016,1.7374747764654,1.83588819658295,1.73223225947482,1.81674153640811,1.81942830740212,1.84018678119627,1.83950583923597,1.72408597838995,1.72405512311242,1.72160437969626,1.72161166534978,1.72034028409348,1.72061108831757,1.71895970326925,1.71775559171375,1.71432260511186,1.71478656172485,1.71585093045682,1.71491852405657,1.71360353289341,1.71322936345824,1.71247145223249,1.71209101352887,1.71078122533428,1.71211710139339,1.83669453298126,1.71145426679999,1.82912936490015,1.82751269905712,1.83307976526852,1.83200679879366,1.83338668747388,1.81665450891917,1.71146217068499,1.71164304303598,1.71252385362041,1.71174736693304,1.83696514812508,1.83259279435261,1.71459407901276,1.82957172334805,1.71437957206157,1.8139339230498
1.99958607006366,1.95606305641482,1.88636040849219,1.88586399766854,1.98453852184755,1.97549044471844,1.95830213878395,1.9570727284803,1.95699028128463,1.95804816689711,1.88222540132862,1.96159156783573,1.95626054524448,1.9584459007919,1.95896352855849,1.95949259105535,1.95492936476992,1.954320273624,1.95495753933866,1.95573484268321,1.95651855779665,1.88251262809143,1.96643946637975,1.97601101687892,1.96956751965394,1.97339447679501,1.97458865503193,1.88311317145442,1.95506698204689,1.956763596823,1.95633920554052,1.9790975239285,1.96815767809721,1.96712691157297,1.97166550147318,1.88421333819633,1.88454744523292,1.97598538171087,1.88619275278554,1.88663595943814,1.96976745791947,1.96895712094129,1.96802108944405,1.96912036727877,1.96759887987709,1.88838251671719,1.97085627999987,1.96513439494321,1.97843867367139,1.96971371533832,1.88637955832622,1.8857753550593,1.88635033820344,1.88717422412663,1.97187529947927,1.9719419684137,1.97212003555215,1.96551096362199,1.98154109527966,1.97381748309526,1.959614136918,1.88387684468091,1.95827771859566,1.96477920218808,1.96358939769668,1.95872006921094,1.96916545134737,1.95516378569611,1.95262653529703,1.88125109681938,1.88122709301713,1.88009096084169,1.88438132433992,1.87837338673582,1.8826418456185,1.88059887970936,1.97168264400094,1.95659943528064,1.95520423423346,1.95914427711489,1.9574758536216,1.81554631842749,1.81428159109209,2.00292314399095,2.00214489362957,1.8126986429095,1.99770459541315,1.81006676437754,2.00051643155554,2.00226252384301,1.80989120118484,1.80882065532347,1.80957721631243,1.85716442558117,1.85734355187474,1.85880014624938,1.81092521449669,1.81121151596391,1.99048562709884,1.80918265632517,1.81176258435574,1.81183776453823,1.81066691383181,1.81244049661416,1.81299099937114,1.81247977804735,1.8121682323197,1.81289970123754,1.81261066991899,1.91070086676135,1.81103455826057,1.81286454023459,1.81278303067032,1.81290585613527,1.81136348683684,1.85937248002592,1.81091888287716,1.80975784367804,1.81074631658208,1.81032577721453,1.81061488815163,1.97598538171087,1.80824407596336,1.80930876563078,1.98487262888414,1.97676814676802,1.97168971981187,1.80840090712247,1.97248203078435,1.81166199520099,1.790308709917,1.789090797258,1.73908236665156,1.73793289404719,1.84005287912416,1.73017715213996,1.83785121391192,1.92763532055875,1.72668018117958,1.72624862340985,1.83873341157346,1.8375672242405,1.72179127832785,1.72104635827051,1.76820479283052,1.76659832175511,1.7185961759856,1.71786057303556,1.76196595998719,1.71360833369288,1.71467075593842,1.83612117068588,1.83556956519844,1.71326765984577,1.71361594850128,1.83588953451813,1.84033690449171,1.83889153171115,1.83712806109516,1.71091786786481,1.71060294957822,1.71052177287716,1.83100462962202,1.71380949160748,1.71162995223883,1.76040042987289,1.71125769877967,1.83088122654371,1.83040386094251,1.71189780362031,1.71376485741936,1.83182943016855,1.7112069057886,1.83102906642196,1.82351665834005,1.71110027467791
1.99910241015106,1.88880253699176,1.96181866737589,1.97952691629871,1.88623468576769,1.97366343139397,1.97442373547387,1.97321402467419,1.88568102267849,1.95779071686278,1.88214903400597,1.96246250864191,1.96194080439252,1.95799855781524,1.95894858434397,1.95919586696013,1.95893751933844,1.95527071565442,1.88316090103107,1.95588881811396,1.9596600199872,1.9748841920781,1.97899575440985,1.88344727849101,1.97184411033971,1.97864526786397,1.88349500806766,1.95566756992847,1.95524028747201,1.97268848884682,1.97489593121953,1.88584175904693,1.88584962038897,1.88603548497571,1.992652549879,1.88541039597885,1.95687445921797,1.88585284915445,1.96771485740215,1.96220633249227,1.96176154072093,1.96917675421735,1.97526316178592,1.96725494754057,1.9660172665338,1.96475901216623,1.96494671934465,1.96478238730753,1.97266499844012,1.88609149703773,1.9801378548799,1.96815773113936,1.88614402489278,1.97394255583001,1.95838271384769,1.9728598957159,1.97064430097113,1.96455002345235,1.8890889144517,1.97536209243101,1.97708341652926,1.98266531872622,1.96440618738492,1.97127287722448,1.88269315117985,1.9683418542296,1.96532766476948,1.96388200257722,1.95628607724963,1.95616159857519,1.95729418796015,1.8838893887631,1.8825175175973,1.88177474633477,1.88194350899945,1.88167701113555,1.97524389369961,1.9749320277113,1.97945783471556,1.96510302385119,1.90015263032046,1.81709863592854,1.81406143035629,2.00248854658757,1.99119202483335,1.8115390493947,2.00181437227289,1.98925420402112,1.81168974830479,2.00280387298489,1.91501948818691,1.8081238178862,1.8098217598649,1.9001335384898,1.81020329052399,1.85854016043772,1.80735287502549,1.98660043955907,1.8108170051574,1.91160772871781,1.81151193006346,1.81079684927902,1.98882463783122,1.86020297465973,1.81333557273284,1.99511539603443,1.81235355117076,1.81156248860211,1.811328443996,1.81202323095817,1.81195077363146,1.86327675939635,1.81150023722617,1.81193434943312,1.8116949968588,1.81093893318945,1.80964938837688,1.8106436211659,1.81005598903742,1.99157386144659,1.99061926991347,1.80877459872261,1.80811452143762,1.80943005379473,1.80848055060611,1.85924838312662,1.80942180158275,1.80834868815592,1.80783411963839,1.97917371743146,1.79145255264945,1.78988934198286,1.78595252125393,1.82596973129647,1.8094607564554,1.8079447664413,1.83764120377464,1.72885018157131,1.72667630629237,1.83357941680124,1.83886546872555,1.83776609199582,1.83382761616516,1.72027719631527,1.76765884709644,1.76702331250337,1.8032902274556,1.76865055538292,1.76728576223101,1.76677191924575,1.71532365871332,1.83670167150736,1.83562986549308,1.83614897206188,1.83307278223222,1.71182126675283,1.83685892827374,1.71200564181219,1.7108339589834,1.76742621657402,1.70965211916075,1.70891539031913,1.71239734626924,1.71067308229238,1.71188103107344,1.83329303934131,1.71154818191384,1.80524714009848,1.83420462228068,1.83605009607672,1.71260735881975,1.71130325075938,1.71072823021264,1.7105569963046,1.82408395845116,1.8238984949533
1.98570312802101,1.9619582284895,1.96234425049541,1.96119268619365,1.96024202730484,1.98529264915871,1.88662981179248,1.95736970307239,1.95332423431616,1.95879206554101,1.95959083141587,1.88240763925014,1.96192062186192,1.88356962737582,1.88304072363753,1.88292300793496,1.9686541182712,1.95798398528105,1.96646015110517,1.96639014785109,1.97563217767156,1.95902666732575,1.95472760152664,1.97095468892207,1.97408064682219,1.88401048749554,1.95653756512759,1.9584031473189,1.95807681125848,1.97372882807756,1.97307282720755,1.88628592487204,1.96853957634227,1.97310201695317,1.97163382823789,1.96795567134131,1.96717392402694,1.9671013418965,1.97279287052519,1.97458753798004,1.96189083747074,1.97499051149969,1.96172395354528,1.96624551151986,1.97934165727506,1.96650484532178,1.96603471502822,1.96592538935117,1.97454236169423,1.98492035015736,1.96724132326757,1.98117835155546,1.88687331256749,1.98166519041835,1.97527505525154,1.97172980954258,1.97494113035156,1.96968568602882,1.97370825721057,1.98268660281414,1.96991417956028,1.8836638343988,1.88369001748085,1.8829688917627,1.97464693306714,1.88244813935302,1.96614370591193,1.97317887187431,1.95592102222938,1.95577270491522,1.88364424845817,1.88149274577241,1.88139323834145,1.88056909142996,1.88307193682794,1.88126251176067,1.96295255143693,1.96219752153538,1.96072840660676,1.95900031851462,1.81646326024244,1.90709251076619,1.81450110759626,1.81415270348218,2.00557771923733,1.81341836650499,1.81256240011142,1.81206844248215,1.81130501361734,1.81015476608795,1.9135034981728,1.8096476970782,1.80984232229018,1.8097679926842,1.80884100158041,1.80744604849565,1.80756497723465,1.80920753933835,1.81034586949932,1.81029770736339,1.9076175361094,1.81240204627209,1.81203674263451,1.92272872007856,1.85971613297785,1.81351139215745,1.81401245733736,2.0047567670614,1.81227596506163,1.98427282720417,1.89535103490891,1.81023857974786,1.81107426661879,1.97955555404471,1.81182404482326,1.809861417013,1.80930532309855,1.81021641478317,1.8112355099362,1.81099659841498,1.81023755207061,1.81033857409518,1.80925504305941,1.81007589553063,1.98388939960504,1.81008258950722,1.80937134114499,1.80974116823345,1.97333161724882,1.80842592990375,1.79089206734561,1.8271550157834,1.79710447432104,1.82603973467553,1.73454306069281,1.73440003473703,1.73044969980115,1.82706910254542,1.77356261067187,1.724020946546,1.77123865237641,1.77224696987938,1.77107992556049,1.76840279851048,1.76775566474408,1.76631372250647,1.83670093111452,1.71520307213926,1.71546895107193,1.71454101780239,1.71423987251898,1.83717826733297,1.71385654789357,1.71361773001358,1.712862369502,1.83931651191524,1.822620703397,1.76033360846557,1.71132604329163,1.75894945772513,1.70951735885357,1.83273801254991,1.83315257801572,1.80666948148282,1.83788462461558,1.71138088214649,1.83310212744662,1.83831417888479,1.71106706374823,1.71092690496453,1.71167441657482,1.71101232459266,1.81790502382752,1.83137431035975,1.7105546265494,1.71147450870508
2.00523842488222,1.96191172529591,1.96184793441914,1.96036980243708,1.97756854908897,1.95911742156403,1.88653023479334,1.98161747175623,1.97271043893818,1.88459215260828,1.8847968083936,1.88396214962161,1.88637926529671,1.88336635076983,1.88396359217254,1.95671361101353,1.95698683237235,1.95756298277426,1.95683156667558,1.98319254778586,1.95963322874867,1.88502076353475,1.95531312460255,1.88468983846994,1.97420313356486,1.97376615832462,1.95742540322825,1.97228689558581,1.97670258001141,1.98072842967084,1.88615831844504,1.9749575580335,1.97888167681762,1.97083838836351,1.97013005585079,1.97933872959399,1.98087698472734,1.98216431871774,1.96336210850547,1.96584062722394,1.96779962861724,1.96178941191599,1.96011374955003,1.970006335008,1.9748046071606,1.88713200180882,1.97552716957009,1.95982892949714,1.96164265368402,1.97874414789972,1.88570011450915,1.9759472018198,1.96924597561391,1.8869015896172,1.96939424402854,1.97094919428872,1.97528786634366,1.97045716562946,1.9615042287735,1.97588992309462,1.95837524835257,1.98491080369678,1.97830981664347,1.97809980625591,1.96914298091583,1.88360637707986,1.9657254252567,1.88275997258717,1.95599207227429,1.95615499862823,1.8830974928593,1.88380734428602,1.88235650667069,1.95693173470996,1.88231041098169,1.95985591022351,1.96067142504766,1.96177411130264,1.96882299243138,1.95340930138889,1.81754129540093,1.99324439662953,1.81592845826142,1.81467183528596,1.98881509191589,2.00018427707525,1.80895608038689,1.81096365221255,1.81130110171884,1.99722504332261,1.81078654325831,1.80995717780515,1.9899224180943,2.00742962681157,1.80942621379852,1.80807911502358,2.01439814500329,1.9092117096226,1.81126107313548,1.91065313718469,1.81022487610912,1.8109644079244,1.81224689148052,1.81127885783871,1.81061276880876,1.81079617152989,1.81180628178785,1.99810327099053,1.8134384016509,1.98363006890521,1.81019040719581,1.90717842400417,1.81200642100446,1.81269724313359,1.85680462880185,1.81009793499979,1.85731851724385,1.81012736585356,1.85800253665848,1.85796386524994,1.85673864353306,1.99572633461562,1.85706236851579,1.80951925215971,1.80782206458559,1.80897423747725,1.80933232651168,1.80828307449979,1.80833421066177,1.97865823800358,1.79075966761301,1.78691898266274,1.73745784918878,1.73420903369298,1.83848412848351,1.83966026679291,1.83793485454446,1.77676212875042,1.77435792178917,1.7743186471661,1.79805633844977,1.79644716986538,1.77066825219846,1.76982201396374,1.71770342523316,1.83587998239604,1.71658342858486,1.71520103773157,1.71460486144517,2.01497089992316,1.71459249298481,1.83648392184188,1.7141947963179,1.8395169761372,1.71253444890375,1.71362129042508,1.82081653060766,1.71167647231801,1.71178460048258,1.82046387461716,1.76076317465547,1.80954280199749,1.83334895113111,1.71143257128464,1.71195851507061,1.71175523644607,1.71251875525396,1.83341714174936,1.70632030663687,1.71180075989153,1.83202343260227,1.71062685246468,1.81882143169936,1.71146502141181,1.71225799880879,1.71107240663793
2.00372853700536,1.98894873473053,1.96322734317831,1.88776203222067,1.98174302322239,1.96033798769941,1.88681099700896,1.88676233155825,1.97415864281819,1.88632578910135,1.88495252927832,1.88606998450986,1.88478000607911,1.8847224708283,1.8840989526141,1.96420812814472,1.95923965133468,1.95806962400669,1.95833270424042,1.95909083864956,1.97326479584149,1.88589262380166,1.97974647235133,1.88549805930131,1.98553129704198,1.88391502834223,1.95876414228731,1.96947272335243,1.88634569112597,1.96811955219007,1.9760547432404,1.970583968823,1.97217281381153,1.97220727040906,1.97701371081344,1.98576993508411,1.88679471280045,1.8881184130597,1.97568765493091,1.96047169745148,1.96110572186335,1.96242316062617,1.96935097324041,1.98523537366672,1.96512623724242,1.97395205728318,1.96583495262615,1.97369167234143,1.96730866222878,1.97260561733942,1.98637133759112,1.96009143268456,1.97779909982225,1.88659087943191,1.88697945433833,1.97311798262219,1.88730382828478,1.97483590394678,1.9749692245193,1.96571363219671,1.96507166049854,1.97142242952971,1.95593480132687,1.96171480099474,1.88455460466942,1.9587559504031,1.98491081254546,1.95673570897319,1.95659841063673,1.96172279523237,1.88346003238962,1.88239063671043,1.88412897636924,1.88271350248244,1.88214725061239,1.95837176680688,1.95624313500604,1.96589070789652,1.96623116003702,1.96813235630348,1.81708241875784,1.81649749104799,1.81697348885965,1.81598065103969,1.86088073464824,1.81036482570196,1.80940342608455,1.81065922430312,1.80998666796291,1.81003117112683,1.90757935244807,1.81004718610944,1.90931670903834,1.80997660344843,1.80963209612233,1.80964361291008,1.91536061035651,1.91266598275308,1.81107770493097,1.98886282149255,1.91279142221886,1.81096835034441,1.81156855291684,1.81102234539778,1.81149115392617,1.81198743593336,1.81258388453074,1.81255464252583,1.81072666192376,1.81021938832198,1.81154117670177,1.81234412288086,1.81259017089562,1.85795968455692,1.81219298346809,1.81107402979641,1.85838129581738,1.81024866977182,1.85706710663444,1.85637973105219,1.810536453502,1.80963070537558,1.80783489799,1.80929806420846,1.99496266138913,1.80852126733589,1.80906982047087,1.80866527240363,1.85668053190255,1.80838343013769,1.80658356824484,1.73960889092962,1.73717565879425,1.73343291904767,1.73175482157338,1.73152778510764,1.83919776928873,1.83914567297667,1.72710427189372,1.72315208395565,1.7991200261581,1.72085287046441,1.76783669791583,1.71743597455987,1.71652936036699,1.71656026369677,1.71565452529052,1.83817864336447,1.83906301029138,1.71395311583595,1.7149025050378,1.71339192923225,1.71198246209776,1.71097584210452,1.71401099189047,1.71378432896754,1.71236886056138,1.75894877268279,1.8201736787911,1.82027513823404,1.71188213134978,1.71381656725367,1.71105477595202,1.71099706123461,1.71012159891249,1.83383086706495,1.75910621580828,1.71110170382409,1.7571834564063,1.83277755991343,2.01822605705107,1.70975846294842,1.70958671079175,1.71025351306794,1.83079200952456,1.7118624199389
2.00532243530981,1.88904118487504,1.98117346197496,1.97674440669806,1.96160542304995,1.96132289673196,1.96076538250082,1.97528984574793,1.97448564424033,1.88579088413369,1.88721219173945,1.8857892029525,1.88614678214637,1.88412281822942,1.88483299697662,1.96368910554203,1.95932222818512,1.9687304858668,1.88380047735826,1.95896167598451,1.95926786030237,1.95952216293438,1.95915892762445,1.9600441450472,1.95975271753238,1.9580486068037,1.88543282887988,1.96819293743433,1.88594967200995,1.88601731163858,1.9685204786879,1.9635088858795,1.97006437268,1.97233641087284,1.97158220660646,1.8886593482618,1.96458780695554,1.970835774933,1.97061201313864,1.97228675406929,1.96135004112766,1.97034373466222,1.97678256063327,1.96624542423807,1.96452712381334,1.96341559411401,1.97328531819603,1.97387726307586,1.96913513185482,1.97471206494524,1.88883870038162,1.88881849064369,1.88856460551481,1.97234837773971,1.88729241062134,1.97565639407009,1.98357438196465,1.9749845026433,1.96724473237589,1.96582242177387,1.88672152744958,1.95777177750302,1.9688832056861,1.96081003950912,1.96007489452478,1.95940824099964,1.95956544402318,1.88353722484711,1.88367138133715,1.95662627078318,1.88174056247468,1.8837690131919,1.88205371497562,1.8814482772528,1.96249128286185,1.88143309035614,1.95758971871133,1.95670107183071,1.96739200464435,1.96383262536957,1.81745779251876,1.81700986168016,1.88970144401878,1.88909686938114,1.91081175767001,1.86129120900748,1.81102555723116,1.81005340051577,1.81051050138016,1.80966913770764,1.89442508112179,1.81021835241357,1.85569730262344,1.80990186568393,1.85588822093007,1.80993810137722,1.99282437635496,2.00610115359463,1.81046436440548,1.8099867897238,2.00549180599936,1.80842252978149,1.81305916299589,1.81177498884602,1.81231162410098,1.81172643141221,1.81320726274608,1.81302900533683,1.81047814522304,1.81042979192967,1.81048148138451,1.90564434312019,1.90080831601603,1.89959913820921,1.8116982844477,1.90050105623005,1.80934680577994,1.81092676435531,1.81030638519879,1.81001757989747,1.98955967331172,1.80958060352229,1.98602291168154,1.80772792422579,1.80723456823039,1.85908769355188,1.8577958130104,1.90312140998844,1.80807474733357,1.80855249764927,1.74159497667058,1.82400486372413,1.83733113928119,1.84021365020156,1.73094739345551,1.83820918573684,1.72576465835665,1.83917389413907,1.83805636467287,1.72404613886824,1.72338682777983,1.72172684840492,1.72099796837744,1.82332710373562,1.71795733650742,1.71701763797262,1.71594174008558,1.71497888356003,1.84348574345125,1.71484601420656,1.7146543301852,1.7132940028622,1.71329328454171,1.84388627795447,1.84340734574529,1.71373074448196,1.71316796872824,1.75834918009985,1.71047529269114,1.75956198030964,1.75918650763995,1.82641043494016,1.71099012076879,1.7103290834503,1.83277144857179,1.83531828098601,1.75852899747156,1.70782452604759,1.7080936905201,1.71130264453509,1.8337512432772,1.71079875371812,1.7109611562916,1.71015016671024,1.71145648366289,1.71111152104121
1.84670554874482,1.97490669327845,1.9887928155978,1.9880927816604,1.98290617550367,1.97573718791226,1.89492816935593,1.97606112699139,1.97568441024828,1.95600578092284,1.88910615101286,1.88927810897167,1.88816329291761,1.88918096236427,1.96451980081876,1.96389379090378,1.96246543940087,1.98204472354479,1.98628773875449,1.89252904475428,1.95974456593734,1.9593069781809,1.95929484394919,1.96051478262289,1.98275343568063,1.89314479102748,1.98576994492527,1.89440065299152,1.96888322721808,1.97237702868967,1.97803774401953,1.89194486720634,1.97175417557473,1.97030126488051,1.89532509314658,1.96615208236232,1.95919487505091,1.97808547568517,1.89536644551391,1.89422764899903,1.96816470325302,1.97523201180987,1.97793430738923,1.98226896416243,1.96165696732413,1.89350196483244,1.97673284092353,1.99146885637794,1.95735175498453,1.89333730304141,1.89244244047396,1.9831734559552,1.89335231173757,1.96465439826344,1.9708611301325,1.971670624246,1.97213646539858,1.96655944506256,1.96818466801949,1.97792118202447,1.97241722987564,1.99225162143509,1.89080766384617,1.97648176930808,1.95940797146572,1.96731769545072,1.97290204207672,1.9577431375131,1.88623674501995,1.88660189458336,1.88745352222216,1.88498718738073,1.8872391220863,1.95775410916133,1.95698375903987,1.96898822577315,1.95759202392843,1.9566541719686,1.88698785612871,1.96675320405225,1.81753930229013,1.81771836469553,1.81404596771256,1.90631156799636,1.90573882857716,1.81238794291318,1.81141565325432,1.81087981707926,1.91515880922098,1.8065209201968,1.80646664088088,1.85624141979732,1.80923922563423,1.80897452174568,1.87659331128326,1.80915358621275,1.80853063882508,2.00743121779749,1.99622749517048,1.99513926082279,1.80839067255592,1.90954581100628,1.86058481127298,1.80944350763067,1.8101619696976,1.9096412701596,1.8616388179666,1.90516571683336,1.90311992902438,1.81053592032681,1.81029991624486,1.85873290369874,1.81137761324751,1.80947660911233,1.85907655665066,1.90178020888442,1.80911706712663,1.80808031299267,1.85680981087018,1.85721237575671,1.85672580681526,1.80942741254661,1.98550743225366,1.80835938512428,1.80736987243987,1.80653145843169,1.97521216256905,1.80936577156016,1.80944014863698,1.8088530502041,1.83945015472988,1.73780104742871,1.73489980175609,1.73087298915798,1.84264803636581,1.72860319040858,1.72719983253748,1.83913823507707,1.83987863145665,1.72393973981226,1.72228329244671,1.84173958342346,1.83997677105898,1.71899995564497,1.7185417612176,1.71698201247369,1.8183823195941,1.71554451303018,1.71498841923666,1.71440757948555,1.83079200952456,1.71229347721506,1.83734050744171,1.84561436136984,1.8261431487583,1.76115776794416,1.76033796894016,1.75856724115367,1.75871649269152,1.7097912334422,1.70877300161488,1.83309857302812,1.82856181279106,1.80343341618557,1.71100039422309,1.83452580970106,1.75858264129347,1.83179433063432,1.70803048937097,1.81541035795435,1.81364118164631,1.71112609300027,1.71137806268134,1.81831549818678,1.75797576737878,1.71088923981274
1.89785431188364,1.91658794722993,1.92282671609788,1.92795835985903,1.92959538778623,1.92737966942043,1.91825302587696,1.92307304515934,1.91308110390535,1.90794544677659,1.9008857018871,1.89867478284411,1.89922632412818,1.90351413041153,1.92258641654167,1.929198346521,1.93053427475099,1.92997165672909,1.92665998750741,1.91739064832814,1.92665748922162,1.92991436511709,1.93002137878774,1.92668976671875,1.91534095980921,1.91465582884816,1.92313505887803,1.91796430076347,1.92719706497986,1.9290085910433,1.92457618380614,1.91047603328463,1.92408425781119,1.92644195024189,1.91901359839686,1.92759703555305,1.92968854697329,1.92694473090083,1.91508255380549,1.90974618972359,1.92508743748073,1.92983733764499,1.93067379110524,1.93011726741431,1.92666351473686,1.91534183319341,1.91524486942961,1.92591711163878,1.92590986128108,1.91510526357308,1.91443238914164,1.92258627089068,1.91491993666443,1.91544250220798,1.92671264788361,1.93012277606829,1.93067191775414,1.93002853572258,1.92678717143634,1.91746814385564,1.92566318991259,1.92458996108712,1.91301366412576,1.91256445636061,1.91930512033036,1.90921846912966,1.90514780621573,1.90236652507418,1.89624452177022,1.8952075267564,1.89486530830614,1.89560073625001,1.89995157235311,1.92083436216385,1.9280743598643,1.92886286357766,1.9258044928266,1.91892829027682,1.90698359779539,1.91340313314974,1.81226646999136,1.81296160516914,1.8131986616372,1.81328238100173,1.81174399927978,1.81095654451886,1.80996978584728,1.80873716370598,1.80679030289065,1.80585088204063,1.83223682351222,1.84245726415038,1.80972755969618,1.81298202275845,1.81424188730139,1.81217699062479,1.82881318015791,1.83854187038589,1.84715304525086,1.83697424773508,1.82718464931695,1.84389581333208,1.83244689692564,1.80614772149733,1.80560940275262,1.83412675098133,1.86629236600809,1.89137975094116,1.89749308225033,1.84438929940176,1.83668930244886,1.82605203496476,1.80888277472001,1.80718566211508,1.83205013455792,1.84235116294279,1.81893611219917,1.8277253173648,1.83563683828153,1.84160971549346,1.84603207982035,1.83140914247884,1.84548170289025,1.83671852135721,1.82722116482468,1.80901207862977,1.80950528927337,1.80802007314042,1.80765166064034,1.80668860231358,1.77047528054179,1.76552025146063,1.75720642358484,1.74817317766279,1.73976190126905,1.72843821365073,1.72724526482718,1.76112115403974,1.75019267711293,1.73863452733856,1.74547599459744,1.75406429906336,1.76164627824415,1.71630582296946,1.71538321358335,1.71490168945295,1.71537011646378,1.71663509140566,1.71771725440801,1.74508844765406,1.75608532042095,1.74051003142027,1.78285538734226,1.7788960895875,1.77209000859426,1.76463921846619,1.76136217529937,1.75933840271957,1.75854525106663,1.74409194139704,1.73004517696463,1.73886402135552,1.75020522349226,1.79918836434228,1.79660955771527,1.79389967386998,1.79227355955013,1.78850471304991,1.71999037040326,1.71916093732397,1.71795096264432,1.71715425676739,1.71738149559468,1.71849962538176,1.71974892333522,1.72045592348649
2.00506005416964,1.97416493622619,1.97805401877374,1.97004783056258,1.99023743330022,1.97692371790652,1.97623799834046,1.97453346776542,1.89204029815621,1.89116191963759,1.88997165520587,1.89041359203015,1.88954269507554,1.89100962817098,1.96496764931245,1.96365516523102,1.96148819338474,1.9765963207653,1.98358392403832,1.97540304497688,1.9600723408539,1.97399664691533,1.96801616250531,1.9751167015833,1.89371379993041,1.97492224633634,1.98133545009686,1.97049647503631,1.96792535887039,1.96699585660224,1.96875012013389,1.89328524707039,1.9727700926436,1.96909155387128,1.97344617223153,1.97988806732973,1.97972896909098,1.96892140436584,1.95977641747863,1.89362516981684,1.97148113666399,1.9728338026622,1.99383147042239,1.9920559301708,1.96490257998895,1.97233299080954,1.89340914599375,1.95935639720406,1.98059182315699,1.95591986768486,1.96922210287166,1.98580812858658,1.96767088945747,1.8935303886358,1.97540495971222,1.98184657754522,1.96356312444572,1.9804910620124,1.98609449778127,1.89283236452622,1.97935636495489,1.97423799205831,1.97631746121817,1.89218970530545,1.96137058533893,1.88890778432865,1.88795420835302,1.88814987504405,1.88715898815085,1.88812011837473,1.88736573681489,1.88741575139991,1.88783938581797,1.96071926468672,1.96062753085054,1.96050529831649,1.95711543300591,1.95743384405328,1.95731753224727,1.96449208459472,1.81670708008314,1.91021402507946,1.8130758787145,1.8136766319212,1.81289799874549,1.81301783107936,1.81233617671564,1.81040942912794,1.80893617382539,1.80884140649335,1.93490612606929,1.93420609227834,1.80822168648817,1.85580230769209,1.80719378662059,1.8092883427252,1.99807462978708,1.80888817999563,1.91463696584955,1.80752750197948,1.80827424173127,1.90286207928861,1.81156930707466,1.80940623174505,1.80754258490259,1.81047537859928,1.86116579317324,1.90697159583866,1.90572426290206,1.85945680227802,1.85933588735049,1.81282592206086,1.81015409075894,1.80771738544659,1.80742786562481,2.00451812263558,1.80901839091823,1.8600406940991,1.80827489208836,1.80662831111823,1.98193248696216,1.80808420321956,1.97925008475411,1.89915826414014,1.89888461456732,1.80856622307733,1.80756021338222,1.99364532507344,1.8093154578739,1.9699810009676,1.73857850279546,1.8409888618509,1.8402318892719,1.8405783300246,1.73008448130778,1.72945052689905,1.72613693271694,1.77337332880788,1.72758162344073,1.72162409399862,1.82986605573744,1.72120496487693,1.8393966227341,1.71788161658097,1.76470590419333,1.76476625456573,1.71689775108,1.84044292992432,1.71457935319479,1.76518929739734,1.83100201966184,1.71343458550381,1.83542177846015,1.7121712669421,1.71357096919168,1.71146868451184,1.82318550599154,1.82219909474066,1.75833981097461,1.84260030678915,1.71276076006189,1.71169646855626,1.70950363276975,1.83365578412389,1.83403762073714,1.71033216638126,1.80324249787895,1.83667229336853,1.70960958489256,1.71119318488955,1.71111304276759,1.82329888020997,1.75835760399203,1.71069859877522,1.70919105767475,1.70846868533669
2.00232825603086,1.89232934359595,1.98230539463089,1.98238244972989,1.96368069684906,1.98270892751023,1.96263380940103,1.98232386949073,1.88873222795904,1.88859479351301,1.88990998177045,1.88847652848894,1.88822551693811,1.96711025275397,1.96804120676356,1.96188910583793,1.9634607045872,1.96001190746588,1.96155850841033,1.98185615718978,1.9748255711614,1.88729428236945,1.96845522065781,1.98454806208022,1.97682176154209,1.97757893454092,1.97795494819482,1.98138872626556,1.95912730877594,1.97174698804693,1.88888845022974,1.96063555524937,1.98442298100143,1.98572148171073,1.98730225360433,1.89143584592096,1.9850637234921,1.98169364996389,1.96880833403548,1.89104607341746,1.88983421840209,1.98244905187587,1.9825188365464,1.97947181142457,1.8895184806416,1.96804453842506,1.97839823861257,1.9788907303112,1.97992641774679,1.98009631432179,1.96897390918178,1.97726737226417,1.97689978372805,1.97786522533737,1.97617610151957,1.98675382849304,1.96521738617862,1.96550837445176,1.97800911576106,1.97043866377171,1.96904486406156,1.97608044819693,1.88571696024209,1.96554215033863,1.97883774209721,1.95914424272636,1.96059503792272,1.98564584802596,1.95862295270945,1.95813292905579,1.88549976221027,1.88444680727277,1.96323942938832,1.96157097110123,1.96144640510138,1.95846385683923,1.96460282945953,1.96482036717534,1.95830323463683,1.95683129954225,1.86571096780579,1.81850029744893,1.8137758139448,1.81392292953272,1.81268905141908,1.81296528050067,1.8118280062878,1.98782231672146,1.80979951220375,1.80947050766392,1.80976421536231,1.8090335859775,1.80785363887554,1.80826701685313,1.8077253053657,1.80756325135181,1.80893335487456,1.80910273039829,1.91625340751228,1.80822621436022,1.80833093747586,1.90400122518479,1.80996591859773,1.81025484588552,1.91127362168122,1.81016736718319,1.9028189815415,1.8113666155576,1.89212451552699,1.81100058210322,1.90615701106374,1.81217332174153,1.80983971848024,1.80930478914178,1.80805646613568,1.80751275560383,1.99171313517434,1.98720574722714,1.80760977813045,1.80741409974531,1.80809047458048,1.91246845208349,1.8091650312649,1.80704483435151,1.80936187765639,1.80920918558338,1.80749458480452,1.80876021653332,1.80862715703622,1.80828284825828,1.82999969855207,1.73781712245502,1.73178963229885,1.8429605100485,1.72868775541381,1.77708668987168,1.84233238210279,1.84215600139968,1.84268433712481,1.72158553311663,1.84254565174451,1.84072331779032,1.8398316169935,1.76650609067859,1.7659943600106,1.79885137682663,1.83038153516532,1.71389235105947,1.71199931068358,1.76479473289698,1.83775864311499,1.8370957550889,1.71261357772531,1.83503704063733,1.83635287955457,1.82763607939201,1.71104534047725,1.70930667418031,1.83323576384932,1.71119368132263,1.84293440384653,1.83647613759384,1.71126572070835,1.80220199310786,1.70940123275637,1.7053254353819,1.83082513729197,1.71138157110484,1.83351895933748,1.83171159936812,1.70738789415611,1.82579515406848,1.83024227395292,1.71016417678055,1.71019217447024,1.70858267824686
1.84934926892825,1.8931486558718,1.98098877568053,1.9815495882668,1.89250635214024,1.96253146177414,1.96241736038764,1.99812235936373,1.89031820323524,1.89072435716107,1.88965135585014,1.8894581478572,1.8889673458111,1.96487205114764,1.96329701098483,1.96867575208401,1.96242498106037,1.9849489871244,1.97646268158158,1.9713524882831,1.96993647907543,1.96926974870861,1.88899663727016,1.97599919977188,1.88972849077888,1.9852270237773,1.98691468201341,1.8890889144517,1.98626889258135,1.98200629422593,1.962950431651,1.96449686989416,1.97913914484153,1.98436939148947,1.88990849946798,1.89013214662717,1.97895235824023,1.96679102331603,1.96892956560168,1.97823821078131,1.9614851363229,1.89186677581305,1.89114128624789,1.98129873420165,1.98215800186946,1.96890830054771,1.96636159804223,1.98444915560758,1.97921188366116,1.97827109926511,1.97934526834462,1.88711131899227,1.97201560154935,1.97936975184068,1.98461612486041,1.98208331300107,1.97520553629037,1.97250656557735,1.88827751164855,1.96617499129721,1.9851780880378,1.88867057875042,1.88719713864284,1.98239406058958,1.97054062010149,1.98224749441139,1.96314105228999,1.9745534944112,1.8834393945008,1.88407950186458,1.88374209576494,1.88396501434052,1.88380368685484,1.96020502201659,1.96041475217749,1.96018164415756,1.96277672639677,1.96347042744159,1.95729013561993,1.97025783251219,1.81978068836685,1.81965996482945,1.81493642691625,1.81375233795311,1.81276254996006,2.00354443927181,1.81073534595173,1.80987993890428,2.00209345384774,1.80813455492378,2.00927198847048,1.80937050094918,1.80791095385579,1.9159606661088,1.80631016325896,1.80718823631199,1.80717329044439,1.80888542489932,1.80824610139936,1.80696869646464,1.99865693062228,1.85647734027622,1.85742102219181,1.85705009519608,1.81079331690586,1.90294232839335,1.90271659621833,1.81114394736198,1.811922633193,1.81089835341518,1.81017286381182,1.81074499016367,1.81011745786657,1.80928494385033,1.809115735632,1.80853681940181,1.8090301428275,1.80858634717346,2.00785919300147,1.99832282358569,1.80942985690015,1.91308575460824,1.80841238015243,1.80874755239403,1.80933708084258,1.81028624211471,1.81008809140901,1.85846561806947,1.96057827436644,1.81013351412655,1.73464786437069,1.73376932658004,1.73233992171445,1.73075642899969,1.81339935179126,1.7252780295202,1.84067339083394,1.72344819162613,1.84278512096612,1.7208589995745,1.72051309468088,1.72006177610036,1.72004764448523,1.71875262627713,1.76492528709976,1.82268752740844,1.71380833327285,1.7158262346167,1.82482581244261,1.8406633545322,1.83940676793043,1.71378860102591,1.83622485198424,1.83622971852929,1.71297730680176,1.83282152164803,1.71152952439486,1.81166199520099,1.71227899202214,1.71154770204193,1.71117077112584,1.83572456172963,1.71118808099183,1.70903775280042,1.75783666975539,1.75789449072825,1.83356421106449,1.70889234119647,1.70762958371471,1.71008951816573,1.70865465418954,1.70797749456906,1.70780231710114,1.70784685926406,1.70820114850326,1.70884027215211
2.00533859518225,1.89287155158676,1.98471548353282,1.98201107141442,1.9647154772824,1.96358525375266,1.98401859252104,1.98910146321813,1.8905140859501,1.89055400178423,1.88966832747379,1.96399481170903,1.96427164859269,1.96443033716615,1.9642758487362,1.96786807755236,1.96242516496849,1.96078606679133,1.98340255180578,1.97855115433329,1.88771086119813,1.98037295626308,1.88965848739979,1.97853941487394,1.98603491019786,1.98522336492877,1.98405605848787,1.99225970612441,1.97643403973143,1.96340386961039,1.981393142746,1.89036890939272,1.89062496453336,1.89133585446331,1.99839919090833,1.97324208691154,1.97791536056218,1.96877135972832,1.96892796311114,1.967737724612,1.9684936884979,1.98245751230536,1.9737229997774,1.89163818767066,1.97580526170985,1.8899480468315,1.97632750702966,1.9833667571503,1.98477616702463,1.98161393601747,1.96616263483515,1.88775407729123,1.97224469249661,1.88947075106494,1.9710643914049,1.97407610043764,1.96755633847349,1.88984304176286,1.98156864726922,1.97939161555671,1.97891889734344,1.88869977802084,1.95882182594552,1.97681746073864,1.97757445360214,1.96840592493797,1.8851726120426,1.88442323104226,1.88578161424718,1.88413109762012,1.88449879598501,1.88886462318481,1.88442527520531,1.88342169501454,1.95875714185736,1.95999459773443,1.95892391270936,1.96560451372943,1.95657015522308,1.8839882136931,1.81939061619548,1.99182205524519,1.81435585312627,1.81482912664025,1.81141942840424,1.81077485511809,1.91659069652065,2.02030706659325,1.99350214263721,1.80790302806008,1.80753295583809,1.8074760039229,1.80841578881621,1.80842029462965,1.80767634277399,2.00557771923734,1.80922824305996,1.89815753401626,1.85491453756629,1.80712943970624,1.80698810737772,1.80860383527162,1.9931107538149,1.91295777383161,1.91243948678159,1.90374998719336,1.89649655164193,1.85783399667172,1.81005542377383,1.99140203497062,1.80925734890505,1.8573105623144,1.8097744434349,1.80909317035004,1.8091918194634,1.99454264111456,2.00963473325306,1.80687555308142,1.80846769991386,1.80643561599467,1.80461409654942,1.80945759914984,1.8098943368516,1.90250092549192,1.97483987187114,1.98546256763241,1.98638241263924,1.80665332475437,1.80788643967322,1.80876229019682,1.7350782720993,1.73258863810259,1.73326912072095,1.72699273796944,1.72676313149016,1.72533108401219,1.84020352883284,1.83961610301501,1.72183241510164,1.72150857097836,1.7200164682634,1.7187358192107,1.83981201108574,1.71880696134215,1.81018237832467,1.76470563531007,1.76269145192951,1.71508366756109,1.76341693911752,1.71386409263369,1.84008296288007,1.71264988159005,1.71363556884233,1.7136192205399,1.7130729805965,1.71230934660935,1.7121540445518,1.83343622807128,1.71192993925456,1.71118086071248,1.83682817380257,1.83277280167774,1.71092402566985,1.83037198924999,1.75722245828894,1.70664738064336,1.83227223288587,1.83077803994892,1.82964194074481,1.70627994246337,1.70724535585155,1.8104973935306,1.70699813910166,1.70758589215699,1.799217303581,1.79770268501512
2.00380933777912,1.98654594971576,1.98909708947029,1.9741525659673,1.89342276001202,1.98772573230528,1.98799789990429,1.97399983132199,1.96412164727839,1.96477379549096,1.96347669174612,1.89006259781547,1.96484248899043,1.89105535142873,1.96531706239441,1.9658272858923,1.96513908054117,1.96773217161392,1.99812235936373,1.97389690031325,1.8899117477715,1.97583619356567,1.9639875928044,1.96274171634896,1.88906436781227,1.88922910303685,1.99033731860024,1.98820116999678,1.96299821057045,1.97473486249656,1.98213772414172,1.89072716197984,1.97969255020939,1.97372170598471,1.97298038966676,1.9742196865525,1.96521122614589,1.97798048274083,1.88992895500084,1.97576581400176,1.89111283315795,1.89126630642748,1.89004886101048,1.89064746777843,1.97292541996793,1.97859560133842,1.97603433866822,1.99281483043963,1.97064126560277,1.96927301742402,1.98542469502047,1.96960870121394,1.98207567569212,1.96003415719258,1.97355611541888,1.88878317002841,1.88873756974087,1.96989508772962,1.98127131841459,1.88767611898269,1.97482141758838,1.98202793662095,1.97215747039755,1.98045846798414,1.97186240583898,1.88606285929173,1.96635448012991,1.96949324008894,1.98121034564857,1.88512139184901,1.8845627568606,1.88461335322715,1.88475052217276,1.95983109700866,1.95910608495032,1.95901339886128,1.96020868739827,1.88097488642025,1.95842309177904,1.88412822045129,1.81816389890143,1.81635904953053,1.81568218037621,1.9329508044123,1.81079789902016,1.8609284642249,1.81023373937233,1.81030935249723,1.81013990460452,1.80868310163027,1.80767298986508,1.91493421125514,1.91575408415136,1.91536579260462,1.80796709758166,1.80670035231604,1.93304626356561,1.93212349175027,1.8965442743253,1.80713967072046,1.80679527679772,1.81024688539591,2.0018548122582,1.8096096234048,1.91230809006468,1.91257256807178,1.80987690903408,1.85805673469612,1.80827138002796,1.89597151940543,1.80959912220805,1.89590469799812,1.85813310201877,1.85779581301041,1.81022229217449,1.90960308649827,1.80970982488523,1.81087297205372,1.80716967331165,1.81139194178489,1.80672102055187,1.81068202916599,1.80639518658531,1.80826898621131,1.99703412501598,1.98812816488152,1.85923883721129,1.99448536562258,1.97479214229448,1.80878990555655,1.84425175014143,1.73248572174645,1.84267031016824,1.84245393608741,1.77660939410513,1.72636211782713,1.82051105871294,1.72395412489326,1.71919093558981,1.72059995116428,1.72017127708326,1.718490054843,1.84030502355937,1.84027588144977,1.71713076101244,1.71780459032993,1.71591225299664,1.83837146629746,1.81680438959675,1.81409905757814,1.71324331667493,1.71431893526336,1.71303611988277,1.71393935529362,1.83755051757899,1.71179354155404,1.71122049011855,1.71000397324876,1.83638591590859,1.71034066582306,1.71068485005627,1.71057710209906,1.75851033863733,1.71014054767892,1.82052537758594,1.81894075564097,1.70928031491958,1.70803179246982,1.70655379887448,1.70716379378519,1.7078674672966,1.70772676996817,1.81663541708851,1.70711152975302,1.70814638685934,1.70699280639029
2.00267337562407,1.98839705585843,1.98895788432276,1.89591145483141,1.97548899411365,1.98467381744507,1.98622832069059,1.96689497949553,1.96495867869082,1.89120810765521,1.96304479413983,1.96531995788172,1.89197416519058,1.89166469081139,1.9700987036007,1.9661296798025,1.89054943949736,1.97740771022232,1.96833911649489,1.88949661107248,1.89017280602252,1.89017628024405,1.9654699028185,1.96365606141812,1.89017605783769,1.98614223562317,1.96667811426304,1.97965101319802,1.96388810751603,1.9648325351357,1.98895828064586,2.00161616437492,1.89212072523708,1.97851692913929,1.98119496115769,1.89160744511322,1.96537668863101,1.98162701605474,1.96460029124278,1.96320022375287,1.96933900958425,1.96975250962264,1.98295426725662,1.97743761650356,1.97710111514315,1.89078013245119,1.97981352290183,1.98110741247982,1.97660455594313,1.98178820312703,1.98587653480362,1.96329886999757,1.96425346165084,1.97360844476974,1.8901507001546,1.88970589399387,1.9703819294115,1.99891467033622,1.97591073007328,1.97090063555989,1.89002441415415,1.97127923339428,1.96207294768129,1.97392919932745,1.96782657937817,1.98434760354092,1.97576032797716,1.97519481663109,1.97545120619775,1.88535863107461,1.88671425998039,1.88574250786603,1.88570591202309,1.88535831303032,1.88354005493826,1.88413346224334,1.88391897569695,1.95872269059984,1.9572425921254,1.95401083490705,1.81806650406013,1.81690690068048,1.91875211518675,1.93424268495377,1.81174671895676,1.81078229933037,1.8104489849608,1.81075181235764,1.8098073762443,1.89967533455391,1.80626302912219,1.80515510880098,1.93337877961631,1.91591998557643,1.91505139559507,1.80617763092473,1.91629477314538,1.8060854562921,1.80616272768136,1.89037284006373,1.88917005473201,1.98549311338066,1.80785549353863,1.89900712048073,1.8098594081893,1.80906391524504,1.85563048121613,1.80709795933,1.80851011174517,1.9063001997937,1.80995432332859,1.85626051162798,1.80874253609556,1.80961121439069,2.01452224190259,1.80654405682893,1.80821142809166,1.80598469061627,1.80511992135023,1.80694971385486,1.80669266256478,1.80535151320478,1.81000141321133,1.80697262313924,1.85661331274876,1.8566984304938,1.80870433600355,1.80732209250962,1.98628542435314,1.97015282744356,1.7348533074794,1.73265445923447,1.72935951183966,1.72818571877241,1.83689184942114,1.72480400492238,1.72308506739377,2.01504726724581,1.71967226004885,1.81478350951427,1.7159397283521,1.84117303101368,1.84092388662043,1.84007531187166,1.71531928319725,1.8132275253153,1.83688230350581,1.71485768604944,1.71470822428939,1.76161276111994,1.71269879729092,1.71343102513203,1.71238400442122,1.71394455328901,1.76238598026176,1.71144079507761,1.70901286113719,1.70977359706585,1.7106110326348,1.71027881152753,1.71126254738641,1.71024343545683,1.7093986654734,1.70788904661752,1.71025252756866,1.70944333496122,1.70848235263473,1.70661332698284,1.83166953512518,1.82822032707225,1.82063515561227,1.81677860581848,1.70792785831146,1.70694554474405,1.70699928681304,1.70804641355
2.02607279945325,1.89580175964252,1.89483752530951,1.89427346888839,1.89516389195024,1.97624189310585,1.98014862911419,1.96893877793893,1.9686334931399,1.96465981517431,1.9659840390077,1.96556117712777,1.89147663780913,1.89145588907634,1.89171630035484,1.96540927147356,1.96491181739812,1.96374165818197,1.98100653317503,1.98850308896208,1.98310751937689,1.98757022584172,1.99671910981006,1.96498058366696,1.9651696910536,1.96467365132773,1.98505400127542,1.96805613606523,1.96490256451209,1.96532973701968,1.97284318458103,1.97386777949326,1.89317470659453,1.89361831089521,1.98778340499834,1.8927465910094,1.98733546598211,1.97853413964028,1.99119201814257,1.98624724738259,1.97928826473337,1.97295586990184,1.89273704509407,1.97754490850003,1.98618243182873,1.89162653694389,1.98128303107925,1.89168540342176,1.98393985091112,1.97427289337542,1.97916676963911,1.97573461111907,1.97565779411124,1.97752801812216,1.8906806300403,1.89016979198526,1.97964624024039,1.97916894447376,1.88983349584752,1.96923362207204,1.97868850890499,1.88959484796425,1.96906268838554,1.96717413165894,1.96634078860962,1.88735317454255,1.95837216038302,1.96673481837154,1.98574130717927,1.88607766573231,1.8876003416311,1.88288918472646,1.88367426107564,1.88431853145842,1.88553670641239,1.88421168580421,1.95808838145091,1.88379093144293,1.95752448350777,1.95515861855059,1.81823407485718,2.01295671178829,1.92285832109193,1.81426137169048,1.92079022544261,1.91927510626616,1.81061331221054,1.9168197984886,1.89490237688835,1.8072711627915,1.99887648667489,1.80449623164198,1.93485521452086,1.85359401927882,1.85461225024748,1.80401628762181,1.80108221445663,1.80630909807215,1.80642492402513,2.0126226047517,1.80701307768769,1.90462170968131,1.80697148832055,1.80681940168379,1.85742352231249,1.85695895443304,1.80718985778863,1.80709494834756,1.90722615358082,1.80810734347501,1.80973459192136,1.99244253974172,1.80887299693842,1.80808068596594,1.85730260738496,1.85669803274733,1.80740080503042,1.80974379230998,1.80815902112998,1.81117709860944,1.80788351272394,1.80906142891276,1.80732985070829,1.80907756375484,1.85698480795373,1.85612965303865,1.80898555160329,1.80919941530365,1.80884791261886,1.73618244267784,1.78091460191946,1.87364362344595,1.77744943465427,1.72703491519301,1.72608956070742,1.84387945944352,1.72300281369228,1.72226264176305,1.72113977575443,1.72051925356079,1.84000382394386,1.71836552033314,1.84017261908698,1.7163842142811,1.78675670210211,1.78599302887561,1.71394615801072,1.76253871490706,1.71430784132636,1.836080446618,1.71236242521196,1.71420844317263,1.83442280713906,1.7128621737623,1.71144924773338,1.71115302391919,1.71117235768932,1.70994599020388,1.71161635463405,1.71164773431564,1.83042926474197,1.70854901762833,1.8339182967955,1.70808176327328,1.70796302957076,1.76046725128021,1.70804368614745,1.70687275661213,1.70665452240421,1.82941238163962,1.82017695167633,1.70467137616982,1.75401580350226,1.75302939225138,1.70548952541739,1.70410984676412
2.0030392939533,1.9745534944112,1.89669383501426,1.98696477532755,1.96885965242414,1.98842370938731,1.89334703304777,1.89436871931648,1.9674801069543,1.96688981097298,1.89234180513846,1.89270090776735,1.89188971213418,1.89201553480266,1.89094040512462,1.96466022342495,1.96431478847136,1.97197926991492,1.97218291668279,1.97973692540424,1.89218179101898,1.96404747819579,1.96550843826555,1.96508605185229,1.98144971270892,1.97830097170767,1.96508394640274,1.8927289047027,1.89376393289662,1.99050737196934,1.98552949620029,1.89419597915385,1.9823128378556,1.89381315987284,1.98613324007986,1.98346984259286,1.96964582627035,1.97564176888159,1.89581444690111,1.89252273489961,1.89154926162211,1.97650781913938,1.89323979663484,1.97180427201349,1.98214047922296,1.97606437437458,1.97191302248401,1.98227613278781,1.89152740194627,1.97362925835693,1.98200832381236,1.89144205106365,1.89016863642343,1.97265538437342,1.98524491958205,1.97234997895559,1.97182177164063,1.88993850091617,1.97121404761451,1.97114430366049,1.97705315716825,1.97896343126652,1.88611936162395,1.88487820110338,1.88856453354994,1.88720784585596,1.9618968124534,1.97244442568084,1.88786749606666,1.88664215427176,1.88587409984318,1.88328669249788,1.88319574153195,1.8848219959793,1.88472426264407,1.88537001885896,1.95862931665301,1.88340909482968,1.95874553924693,1.88358092130564,1.81673975506047,2.01440769091862,1.81423326495047,1.81381515914739,1.91848751515941,1.91886707102038,1.91699091667988,2.00818375412273,1.80783628097911,1.80756848537102,1.91259095799691,1.90084948213963,1.80392847211126,1.80327074729104,1.80430634248711,1.8034672637298,1.80253311322874,2.00298123026727,1.80527092901767,1.80516904406735,1.80409183750733,1.90512446122209,1.80488703896934,1.80606041599001,1.80644377220741,1.91541654893492,2.00723870850495,1.85635347519185,1.80697495077342,1.85594549642205,1.97950782446805,1.80661475010774,1.99812235936375,1.99869511428358,1.91453196078091,1.91366646445755,1.89865392161348,1.80611459926612,1.8068078653845,1.80708106368818,1.81032797503762,1.80716087478201,1.80981020644442,1.807747507153,1.98069151796911,1.80978560538489,1.8085421665658,1.97449345809076,1.974253312809,1.97300335942505,1.82747003098933,1.89492692352777,1.87337633781668,1.77680985832708,1.72475277471543,1.72421546780697,1.72284595312143,1.7209293333881,1.72115115432787,1.71973348454997,1.84418993426652,1.7178136157971,1.71737904091982,1.81372391291252,1.71445606871647,1.71394879990646,1.71410056184096,1.71474801489853,1.83624272717862,1.71278486949705,1.71249254570935,1.71066157584119,1.8381581063715,1.71179381657797,1.71175524749492,1.83146840175745,1.70911891205141,1.70948269455096,1.83256277869995,1.7078374413277,1.70694015515214,1.70705927150801,1.83577020436974,1.70783875530336,1.86687556947618,1.71080849532099,1.70762657953774,1.81876415620735,1.70744006545793,1.75426240631498,1.70582643192488,1.8227102624021,1.82117492994673,1.83302057164372,1.83254163943453,1.83088992334181
2.00927120027644,1.90094620495684,1.90030639944442,1.98735297588434,1.97102973262141,1.96744469750801,1.96912475405162,1.89921915856311,1.96955042528649,1.97011086667476,1.96911005511657,1.89691833963224,1.89637606548205,1.89569997276296,1.96811376718537,1.96567641588908,1.97077306766459,1.96457590237384,1.96607781070464,1.96676987562456,1.96755476489,1.96531563683001,1.96542209000341,1.9801092171339,1.96648881559152,1.96269584793484,1.98502059057178,1.98400872354667,1.89862109655624,1.98482585090383,1.9846703608677,1.97742682451648,1.98435862558545,1.97307387753488,1.98548474608116,1.97876768474056,1.97801273217421,1.9758897132854,1.98049231708592,1.97214792752308,1.99092473920407,1.97517190302779,1.97569937770224,1.96590489512121,1.89869647575857,1.97507798768002,1.97281031353026,1.89809304458508,1.89646165002529,1.96832955761528,1.96706949679164,1.89657595736946,1.96466392612816,1.97248990694844,1.96155195773022,1.89747595174537,1.89729151776088,1.96314612559051,1.8952415478343,1.97419955166342,1.89545979525637,1.89474309425297,1.98140109767539,1.97961919348025,1.96121076150667,1.96226654127394,1.96208523813718,1.97917371025712,1.89241166037658,1.96138967716959,1.89127010250156,1.89197827352905,1.89171394905067,1.95852590257025,1.88779907640365,1.88872908450206,1.89033548419946,1.97645313909745,1.98175110703551,1.96583807371389,1.81627757132689,1.81512572129165,1.81495181567119,1.81132973210358,1.91757940081969,1.91927369161607,1.91578051815767,1.8078299400285,1.90893487242509,1.80316321776072,1.80290552782289,1.8524612373262,1.8038470335686,1.91228548870632,1.80346987707792,1.80253628793199,1.80188661198179,1.80235372410258,1.80268862855277,1.80284586200859,1.80238801257348,1.80060286373245,1.80395597427223,1.89892120724275,1.91526381428962,1.80525890042887,1.85740744555546,1.85752631076637,1.85896741842822,1.97100241390803,1.89346094367335,1.80637816653647,1.98770776573748,1.90993401156309,1.90866122285226,1.80810480193049,1.80667632062222,1.80652100439708,1.80524303899348,1.8067954415363,1.90517378178463,1.80861523476939,1.80751505361058,1.8564514299346,1.88952802655693,1.85518182319556,1.89894029907341,1.995535416309,1.81089513026885,1.97349506765201,1.89733249419121,1.8958651506346,1.72470672007258,1.72428033567565,1.77176006911692,1.72461681058246,1.7215413169706,1.7209411291141,1.71734027938132,1.84575547020571,1.84424817086806,1.84335753627454,1.71595151140664,1.71720787845564,1.71411143328794,1.78332660287049,1.71443492787816,1.83687275759048,1.71346321725505,1.83645273731591,1.71228457813137,1.71231302868535,1.7130114126318,1.71256501000455,1.71192336340166,1.83393566179265,1.83353000885605,1.70812092163479,1.83700162556598,1.70777973935805,1.83791326236157,1.70731810964588,1.70707775528687,1.70784620858644,1.75738392062826,1.83245299879217,1.75512312968067,1.75409853476846,1.70811662054087,1.70749101700569,1.82411406450135,1.82239355647635,1.70492560784486,1.70305847204274,1.70361446763996,1.75513108461011
1.92885019251056,1.92174981277733,1.92161215558807,1.9290858370816,1.93062509997288,1.93057745531834,1.92893376010307,1.92194924565118,1.92867524741611,1.92843927338209,1.91982622723036,1.91548365544034,1.90978675854813,1.90994896695983,1.91536469185459,1.91876020731559,1.92828093197082,1.93016064241198,1.92826877271249,1.91917531852358,1.91962670544252,1.92816139220672,1.92828017326278,1.92077163112348,1.92653498741595,1.92123765860765,1.92846501445766,1.92846756319483,1.92121616223814,1.92690653275695,1.92191239886601,1.92894415791469,1.93033922585799,1.92893668882804,1.92210204075375,1.92895166488631,1.93058835760355,1.9308271023757,1.93084247767784,1.93084247767784,1.93084245196605,1.9308213966859,1.93051939756882,1.92859889229212,1.92102443520153,1.92822904143129,1.92769310828621,1.91748279454328,1.9121541893301,1.92362280492538,1.91751909234067,1.91778180447602,1.92576842764555,1.9206219343833,1.92582016378631,1.91799438096657,1.91748478064344,1.92286415590901,1.91153003693045,1.9222138925057,1.91554356841181,1.91370381141291,1.91542715655618,1.92683123909824,1.93016366626733,1.93070348460355,1.93009304672666,1.92641676349641,1.91384703767508,1.908923281299,1.90398907497221,1.90782053295433,1.90780481465749,1.90421923957406,1.89794870178367,1.89859044716901,1.90630560402071,1.91383811844316,1.90637555855327,1.9072058090378,1.84819899795631,1.84257745550661,1.83322640143556,1.82569815895803,1.89991080874545,1.89829605931826,1.90029948069315,1.82883984844498,1.83901262729981,1.80045059751328,1.80109265083385,1.8009497714549,1.80188262152518,1.80093622349359,1.80050491752479,1.79882805465719,1.79897477829557,1.7985736416018,1.79983018307598,1.79929148605115,1.79949290670793,1.79808103537647,1.82792434634318,1.88455150305543,1.88470884100185,1.87147505476669,1.86820479751747,1.86700430273084,1.86798713333278,1.87579599711353,1.88980560439389,1.89714713498192,1.89332406150203,1.88826684170513,1.84223795038209,1.83255177872191,1.82386148051121,1.8051516405348,1.80381777890293,1.82991631034918,1.84068944156005,1.80445922647085,1.80625539531698,1.81412891762765,1.81827678940686,1.82024611282577,1.81914514972868,1.81800377677401,1.81972836339389,1.8295989050449,1.83272095234423,1.83438446748675,1.76619678114507,1.76199525929178,1.75541800157386,1.74729987485478,1.73977492581707,1.73433686987701,1.73071447826351,1.74799154270121,1.84234761873623,1.84071353506862,1.73392242023057,1.74331573012438,1.75395712064812,1.79270751800068,1.80049909475494,1.80482615403775,1.72432095640487,1.72571563143648,1.72852745023666,1.73206265789759,1.73741535621822,1.74374029631263,1.74978010717537,1.75451873538344,1.75787108045032,1.7603147791124,1.76146459095597,1.70436697592855,1.70415440000756,1.70441048526767,1.70466358089755,1.70487773784675,1.7233168274915,1.7297683055668,1.73771713588325,1.74637350757244,1.75312264900184,1.75695255740707,1.82965135401319,1.82933999395252,1.74184324100208,1.70072812281433,1.69982294838742,1.70014344046848
2.02801061318625,1.97498306060117,1.98862258262336,1.97335548203724,1.99134475947864,1.98245077508248,1.96839923697638,1.96898340900389,1.9683264248933,1.96880240962131,1.89995642651225,1.96598126856387,1.89840770966875,1.89710968812871,1.89830668171971,1.897429173574,1.97456918533206,1.97061652707643,1.97874413380049,1.89829427021891,1.8991591858049,1.97461126564224,1.98609450604652,1.89870384203416,1.98933057134377,1.89926928130953,1.98194316131702,1.98149392730613,1.97656355486536,1.98137161642556,1.89997965720674,1.97320752713573,1.97775227690276,1.97835971898415,1.89990911158376,1.98526462503094,1.99723779163204,1.99611771066284,1.96899777168849,1.98124899561768,1.97954600433355,1.97937035948733,1.9730299007079,1.96564742947053,1.96591580604157,1.98295516432544,1.98330386937634,1.97317888260352,1.89757550954823,1.99177432566854,1.89663166529811,1.96360432952641,1.9791546256008,1.89906196511155,1.99159295327725,1.97854117013033,1.97537727438022,1.97523094003843,1.89435603387159,1.97390415914438,1.98453851118427,1.95828725468697,1.8934951992874,1.97009077899389,1.97831131379962,1.96113193745565,1.9687830887988,1.98415668800203,1.96899777168849,1.89099752664255,1.89170286701262,1.96098238478213,1.96034599042672,1.88824507438168,1.88747328742731,1.88717476870835,1.96873731027345,1.95968095832532,1.88810374498452,1.88798885609423,1.92469083813976,1.92391208941392,1.91660978835131,1.81220313882692,1.99812235936373,2.00912879974051,1.99825600217837,1.80755125841657,1.91888171620012,1.80469266397147,1.80552504624224,1.80491807082845,1.80512606435433,1.80058596037256,1.80201185055528,1.9094885355143,1.80077329880132,1.91677206891194,1.8027876274015,1.85073356990887,1.80263582466238,1.80261150472447,2.00585455078194,1.99522994701841,1.91516358217864,1.91388442952428,1.80557740637549,1.90759685329285,1.90640679584823,1.85848884985529,1.98220931850676,1.91332599347741,1.98335482834649,1.87496284327015,1.8058958073223,1.99785881645368,2.00147877884106,1.80742541210452,1.80647518866156,1.99520130927241,1.97840049828964,1.80707545059401,1.80725666424654,1.80883330558685,1.80709710977059,1.80765623836107,1.8089039931136,1.81029877054169,1.81075078542849,1.73140954076673,1.82645873647993,1.82752451626559,1.82697775520498,1.82399605669336,1.72523333282303,1.84280808503561,1.84136336639757,1.84585366720642,1.71849697598399,1.71801761254327,1.84498678562193,1.83248276711104,1.71508765257782,1.84089157783222,1.83323578205299,1.80656447641418,1.84038100371407,1.8397191659715,1.7116355780998,1.7114333054158,1.83377914492369,1.83541503009844,1.83469629604691,1.83438872928265,1.83392188139169,1.71066309934979,1.7102685348839,1.8361487186301,1.83489446022551,1.70785406428087,1.70791281413454,1.83346213841289,1.83304430006182,1.70582408415954,1.70791762596794,1.70699532034759,1.70612976677018,1.70545170251924,1.82111245246189,1.82902364629645,1.82540878350065,1.82544767993452,1.82796223138507,1.70400488830147,1.83353694963617,1.70379885344249
