1.96977, 1.94669, 1.94641, 1.94487, 1.9428, 1.94213, 1.99074, 1.98585, 1.98486, 1.93161, 1.93214, 2.05155, 2.05345, 2.12445, 1.92181, 1.91934, 2.04187, 1.91532, 1.9652, 1.9147, 1.91509, 2.01753, 1.91312, 1.91476, 1.91466, 1.91392, 2.09998, 2.09473, 2.05861, 1.97955, 2.0532, 2.07663, 1.97172, 2.08034, 2.04113, 2.15273, 2.0731, 2.03248, 2.03156, 1.94952, 2.07029, 1.94421, 2.01732, 2.16149, 1.93598, 2.01373, 2.01093, 1.93064, 2.05941, 1.93361, 2.01063, 2.00883, 2.05524, 1.941, 2.0204, 2.02621, 2.14197, 2.02116, 2.01856, 2.01713, 2.01549, 2.0138, 2.01407, 2.0113, 2.01086, 2.01063, 2.01133, 2.10034, 2.11807, 2.00925, 2.09137, 2.09258, 2.09993, 2.00508, 2.10413, 2.00239, 2.00128, 1.99972, 2.08592, 2.08413, 2.09021, 2.09347, 2.06834, 2.07978, 1.98739, 2.07871, 1.984, 1.98131, 2.05465, 2.06267, 2.05469, 1.97227, 1.97196, 1.96964, 2.04404, 1.99299, 1.90083, 1.89476, 1.89283, 2.00376, 2.08777, 1.88311, 1.88075, 1.87897, 1.87263, 1.87388, 1.87245, 1.92218, 1.92164, 1.87059, 1.87151, 1.87, 1.93815, 1.8688, 1.86742, 1.98553, 1.91826, 1.86781, 1.75603, 1.75233, 1.74971, 1.74682, 1.79441, 1.74007, 1.73868, 1.73737, 1.73712, 1.73292, 1.73349, 1.73088, 1.73028, 1.8907, 1.72985, 1.72838, 1.8928, 1.7797, 1.72727, 1.77985, 1.73096, 1.83048, 1.72977, 1.73129, 1.73069, 1.73501, 1.78694, 1.73462, 1.73731, 1.78709, 1.8593, 1.7402
1.97001, 1.9462, 2.05872, 1.94282, 1.94105, 1.93952, 1.93969, 1.93732, 1.93198, 2.05715, 1.93083, 2.03453, 1.92663, 1.92465, 2.03345, 1.96912, 1.91534, 1.91672, 2.12832, 1.96412, 1.91318, 1.96281, 1.91313, 1.91485, 2.02252, 1.91196, 1.91685, 1.917, 2.06101, 2.05825, 2.08269, 2.07876, 1.97098, 2.04299, 2.07434, 2.03496, 2.07258, 2.03066, 2.02811, 2.02498, 1.94454, 2.01929, 2.01754, 2.01485, 2.01286, 1.93494, 2.01405, 1.93122, 2.0104, 2.0064, 2.0081, 2.0564, 1.93897, 2.01708, 2.14482, 1.9489, 2.13199, 2.10719, 2.10758, 2.11571, 2.10611, 2.01258, 2.01165, 2.01098, 2.09765, 2.01083, 2.09658, 2.10345, 2.10482, 2.10168, 2.10458, 2.09651, 2.00642, 2.00432, 2.00373, 2.0033, 2.00075, 2.00027, 1.99786, 2.08606, 2.07923, 1.99331, 2.07768, 2.07376, 2.06593, 1.98687, 1.98454, 2.06945, 2.07021, 2.05155, 2.0521, 1.97139, 1.97163, 1.96707, 2.05833, 1.90193, 2.09266, 2.09653, 1.89377, 1.88863, 2.08954, 2.00066, 1.98679, 1.88029, 1.87863, 2.10029, 1.87602, 1.9982, 1.87102, 1.87154, 1.98238, 1.87098, 1.86859, 1.87025, 1.98701, 1.86827, 1.8686, 1.86624, 1.86795, 1.75165, 1.90438, 1.74471, 1.79301, 1.79212, 1.73708, 1.89708, 1.73431, 1.73295, 1.73211, 1.89013, 1.89217, 1.89042, 1.7268, 1.72708, 1.72703, 1.72558, 1.72817, 1.72489, 1.7276, 1.73012, 1.87606, 1.87493, 1.98286, 1.87027, 1.73461, 1.85932, 1.73604, 1.73892, 1.73555, 1.73642
1.97259, 1.94379, 2.05505, 1.94219, 1.94358, 1.94111, 1.93912, 1.93725, 1.93275, 2.05863, 1.92887, 1.92825, 1.92535, 2.03521, 1.97094, 1.9177, 1.91783, 1.91498, 1.91453, 1.9637, 1.96496, 1.91371, 2.03201, 1.91477, 1.91647, 1.91115, 1.9166, 1.91728, 2.05935, 2.0585, 2.05213, 2.07595, 2.04667, 1.96622, 1.96474, 2.14856, 2.03456, 2.03181, 1.95251, 2.02541, 2.02169, 2.02018, 2.15528, 1.93824, 1.93683, 2.012, 1.93402, 1.93118, 2.0103, 2.00788, 2.00958, 2.01325, 2.05663, 2.01752, 2.0205, 2.0259, 2.12485, 2.02164, 2.11068, 2.09415, 2.01328, 2.01221, 2.01013, 2.01052, 2.08741, 2.1021, 2.12467, 2.0097, 2.10418, 2.10305, 2.00754, 2.0886, 2.09353, 2.00393, 2.09115, 2.0767, 2.10129, 2.09603, 2.0839, 2.09815, 1.99423, 1.99276, 2.08632, 2.07665, 2.08327, 1.98546, 2.08378, 2.09094, 1.97947, 2.06806, 2.05199, 1.97205, 1.96775, 1.96894, 1.96847, 2.06351, 1.9007, 1.89972, 1.89369, 1.99295, 1.88762, 1.99716, 1.93118, 1.87844, 1.87641, 2.09204, 2.0942, 1.99414, 2.09362, 1.87022, 2.09338, 1.99185, 1.86898, 1.92567, 1.86723, 1.8695, 1.86943, 1.86845, 1.75561, 1.75097, 1.89665, 1.88656, 1.88612, 1.73988, 1.90588, 1.73234, 1.73092, 1.73103, 1.7288, 1.72903, 1.88857, 1.7263, 1.72644, 1.72653, 1.72413, 1.72604, 1.72474, 1.7272, 1.72665, 1.72562, 1.877, 1.729, 1.73018, 1.86826, 1.73287, 1.85662, 1.73521, 1.82352, 1.73821, 1.73699
1.96867, 1.94632, 2.13508, 1.94399, 1.9445, 2.14099, 2.05813, 1.93651, 1.93529, 2.05857, 1.93048, 1.92648, 1.92412, 2.03154, 2.03308, 1.91808, 1.91728, 2.11482, 1.91378, 1.91656, 1.91337, 1.91451, 2.01064, 1.91487, 1.91463, 1.91332, 2.01109, 1.91443, 2.05826, 2.15369, 2.05162, 2.07554, 2.04761, 2.04429, 2.16553, 2.03807, 2.03129, 2.0315, 1.95175, 2.02359, 1.94583, 2.01802, 2.01671, 2.15569, 2.01189, 2.1558, 1.93348, 2.0619, 2.00442, 2.00781, 2.00993, 2.01165, 1.93746, 2.01573, 2.01852, 2.15201, 2.14579, 2.09571, 2.09396, 2.01468, 2.09135, 2.01164, 2.00971, 2.08817, 2.08712, 2.00969, 2.10565, 2.10862, 2.10203, 2.09313, 2.1072, 2.08706, 2.00514, 2.00486, 2.09342, 2.00226, 2.00012, 2.08169, 2.09698, 2.08782, 1.99354, 2.07982, 1.99063, 2.06535, 2.07016, 1.98601, 1.98413, 1.9795, 1.97798, 1.97613, 1.97283, 1.97184, 1.96864, 1.97198, 2.05892, 1.90518, 1.99989, 1.89803, 1.89271, 1.88849, 1.93527, 1.88383, 1.93137, 1.87985, 1.87722, 1.92565, 1.87398, 1.87042, 1.87146, 1.86906, 1.86969, 1.87029, 1.9261, 1.92469, 1.92404, 1.86864, 1.86891, 1.98304, 1.75503, 1.75069, 1.74633, 1.79225, 1.88302, 1.73728, 1.90399, 1.73282, 1.84129, 1.73088, 1.72633, 1.79946, 1.72505, 1.72654, 1.7271, 1.72557, 1.72438, 1.72357, 1.72348, 1.72434, 1.72413, 1.72739, 1.72727, 1.72996, 1.72997, 1.73151, 1.84966, 1.78352, 1.73399, 1.7352, 1.85883, 1.78735
1.95345, 1.94504, 1.94552, 2.06239, 1.94024, 1.93751, 2.05632, 1.93484, 1.98306, 1.93052, 1.92533, 1.9257, 1.92288, 2.0326, 2.03163, 2.0327, 1.91794, 1.9137, 1.91407, 1.91451, 1.9161, 1.91227, 1.91475, 1.91389, 1.91429, 1.91551, 1.91384, 1.91511, 1.98243, 2.07609, 2.05218, 2.07503, 2.07562, 2.07267, 2.07242, 2.03594, 1.95648, 2.02932, 2.02875, 2.02657, 2.02042, 2.01896, 2.06853, 2.06708, 2.01033, 2.0108, 2.01259, 1.931, 2.00547, 2.0081, 2.05653, 2.05628, 2.01246, 2.05434, 2.02126, 2.02218, 2.04958, 2.09396, 2.11059, 2.11702, 2.09044, 2.01192, 2.0099, 2.01054, 2.10407, 2.00732, 2.11756, 2.00864, 2.10097, 2.08051, 2.08355, 2.10334, 2.10382, 2.00403, 2.09982, 2.09331, 1.99944, 2.09103, 2.0974, 1.99562, 2.10518, 2.08136, 2.08087, 2.07345, 2.08264, 1.98616, 2.07627, 2.07227, 2.07738, 2.07234, 1.9724, 1.96936, 1.97, 1.96877, 1.967, 1.90309, 1.90268, 1.89641, 1.94183, 1.93923, 1.97028, 1.88188, 1.93047, 1.92916, 1.87653, 1.99905, 1.87597, 1.87242, 1.99554, 1.87213, 2.07948, 1.99031, 1.97624, 1.92426, 1.86931, 1.86835, 1.86947, 1.86919, 1.74833, 1.90683, 1.74455, 1.79135, 1.88387, 1.78554, 1.73292, 1.73155, 1.72975, 1.72823, 1.8957, 1.72507, 1.72358, 1.72544, 1.72458, 1.88578, 1.72087, 1.72392, 1.72335, 1.7242, 1.72395, 1.72606, 1.72541, 1.72573, 1.72893, 1.854, 1.84151, 1.78279, 1.73446, 1.73443, 1.73482, 1.73519
1.96636, 1.94586, 1.94499, 1.94104, 1.93933, 2.05759, 1.93912, 1.98285, 1.9354, 1.93079, 1.93067, 1.97688, 1.92384, 1.92357, 2.03599, 1.91714, 2.04825, 2.12823, 1.91674, 2.11957, 1.91443, 2.03775, 1.9646, 1.9154, 1.96548, 1.91626, 2.0309, 1.96602, 2.05593, 2.05276, 2.05178, 2.04867, 2.04604, 2.04248, 2.03984, 1.9612, 2.0334, 2.02813, 1.95182, 2.02412, 2.02241, 2.01721, 2.01528, 2.15336, 2.00846, 2.06603, 2.01018, 2.00801, 2.00581, 2.00746, 2.05831, 2.00775, 2.01064, 2.05478, 2.0186, 2.05117, 2.14024, 2.01857, 2.11726, 2.10414, 2.01356, 2.01085, 2.01077, 2.00963, 2.11352, 2.09783, 2.11018, 2.09643, 2.08463, 2.09196, 2.08006, 2.09835, 2.00454, 2.00383, 2.11136, 2.0915, 2.0852, 2.08723, 1.99735, 2.08039, 1.99412, 2.0892, 2.07421, 2.0719, 2.09284, 2.06979, 2.07204, 2.07449, 1.97798, 2.07657, 1.97279, 1.96851, 1.96932, 1.96791, 2.05185, 1.90692, 1.9017, 1.89646, 1.94345, 1.93995, 1.9361, 1.88135, 1.99515, 1.99965, 1.88186, 2.08469, 1.87517, 1.92434, 1.92406, 1.87249, 1.87203, 1.87275, 1.98752, 1.87332, 1.87116, 1.8698, 1.86914, 2.07371, 1.87224, 1.74698, 1.89949, 1.78998, 1.73458, 1.73319, 1.90015, 1.7834, 1.78265, 1.72657, 1.72389, 1.72381, 1.7229, 1.72334, 1.72166, 1.88227, 1.72143, 1.72055, 1.7217, 1.72246, 1.7218, 1.72346, 1.72445, 1.72639, 1.86944, 1.72815, 1.73129, 1.73155, 1.73028, 1.73249, 1.86324, 1.73503
2.0682, 1.94553, 2.05989, 2.03824, 1.93769, 1.93785, 1.93859, 1.98474, 1.93449, 2.05192, 1.92988, 1.92605, 1.97407, 1.92377, 2.03409, 1.91903, 1.91512, 1.91433, 1.9151, 1.91314, 1.91522, 2.11782, 1.96452, 1.96496, 1.91641, 1.91569, 2.08244, 2.01391, 2.07902, 2.0532, 2.15291, 2.07422, 1.96958, 1.96713, 2.03805, 2.0361, 2.16073, 1.9533, 1.95142, 2.16029, 2.02089, 2.01848, 2.01579, 1.93749, 2.06691, 2.15315, 1.93196, 1.93018, 2.15263, 2.13793, 2.05903, 2.01017, 2.01387, 1.93762, 2.02014, 2.02238, 2.13402, 2.10999, 2.10279, 2.0974, 2.08821, 2.01442, 2.00882, 2.00841, 2.10526, 2.11688, 2.099, 2.0933, 2.10137, 2.09012, 2.09908, 2.1014, 2.09748, 2.09172, 2.00302, 2.09279, 1.99992, 2.08392, 2.08295, 1.99505, 1.99328, 2.08072, 2.08383, 2.08278, 2.07876, 1.98467, 1.98099, 2.07593, 2.0662, 2.06725, 1.9725, 1.96935, 1.96719, 1.97126, 2.0596, 1.90714, 1.90305, 1.89722, 1.89439, 2.0625, 2.00116, 1.88317, 1.99133, 1.88106, 1.87926, 1.87646, 1.87521, 1.87385, 1.87516, 1.87404, 1.87356, 1.87305, 1.87342, 1.87205, 1.87341, 1.87031, 1.98361, 1.87238, 1.90282, 1.84432, 1.74167, 1.74054, 1.73371, 1.73209, 1.90058, 1.72661, 1.7241, 1.72386, 1.72103, 1.72404, 1.72065, 1.89217, 1.88915, 1.72223, 1.72027, 1.71877, 1.71918, 1.72019, 1.71741, 1.72325, 1.7206, 1.72385, 1.72595, 1.72466, 1.72931, 1.73019, 1.73228, 1.73041, 1.86229, 1.73535
1.95418, 2.06114, 1.94369, 1.94427, 1.94108, 2.13626, 1.93667, 1.9833, 1.93106, 1.92944, 2.12916, 1.92469, 2.032, 1.92289, 1.92064, 1.96832, 1.9673, 1.91664, 1.91456, 1.91546, 1.91348, 2.03478, 1.91618, 1.96506, 1.96537, 1.96578, 1.91597, 2.01287, 2.05961, 2.15514, 2.05111, 2.07288, 1.96946, 2.04552, 2.03896, 2.03739, 2.15394, 2.03086, 2.0704, 2.02403, 2.0201, 1.94169, 1.93938, 2.0646, 2.00992, 2.01096, 1.93177, 1.93144, 2.0064, 1.93028, 2.00761, 2.14409, 2.01219, 2.01816, 2.05187, 1.95045, 2.04674, 2.11123, 2.10147, 2.10359, 2.01155, 2.01137, 2.00967, 2.00777, 2.00721, 2.0069, 2.10087, 2.00724, 2.10841, 2.10015, 2.08064, 2.10394, 2.00368, 2.00312, 2.00067, 2.08504, 1.99818, 1.99794, 2.09447, 1.99606, 2.08306, 2.08723, 2.07801, 2.08069, 2.07505, 2.07675, 1.98021, 2.08916, 1.97687, 1.97215, 1.97038, 1.97119, 1.96648, 1.96738, 1.96739, 1.90625, 1.90126, 1.89628, 1.89442, 1.93908, 1.93508, 2.07962, 1.98944, 1.98669, 1.87739, 1.99574, 1.87677, 1.87665, 1.87305, 1.87214, 1.87448, 1.97659, 1.92354, 1.92324, 1.87224, 1.87184, 1.87017, 1.87187, 1.74427, 1.7414, 1.90259, 1.73727, 1.73339, 1.89944, 1.72828, 1.72418, 1.72521, 1.72358, 1.77486, 1.72149, 1.72056, 1.89129, 1.71823, 1.71986, 1.71831, 1.7178, 1.7693, 1.71996, 1.7187, 1.72025, 1.71843, 1.72324, 1.87396, 1.72527, 1.72649, 1.73045, 1.72988, 1.73103, 1.86178, 1.73388
1.96899, 1.94129, 1.94173, 1.93879, 1.94007, 1.9381, 2.04089, 2.04241, 1.93407, 1.92815, 1.92994, 2.12579, 2.03048, 2.03739, 1.99306, 1.96865, 1.96573, 1.91541, 1.91558, 1.91302, 1.91359, 1.9145, 2.02749, 2.00966, 1.91446, 1.98936, 1.91482, 1.91433, 2.16793, 2.07682, 2.07433, 2.04508, 2.04469, 2.07031, 2.03975, 2.06986, 1.95772, 2.02829, 2.02618, 2.02166, 2.021, 2.01486, 2.01417, 1.93858, 2.06254, 1.93187, 2.00813, 2.06042, 2.05924, 2.05861, 2.00779, 2.1424, 1.93591, 2.01444, 2.05528, 1.94845, 2.14086, 2.11728, 2.10095, 2.09851, 2.01051, 2.01016, 2.00974, 2.08953, 2.08816, 2.00782, 2.00637, 2.09069, 2.00662, 2.09705, 2.08, 2.08842, 2.00331, 2.00125, 2.00009, 2.08471, 2.09683, 1.99711, 1.99687, 1.99387, 2.07983, 2.07365, 1.98807, 2.06772, 1.98449, 2.06831, 2.0752, 2.07496, 2.06903, 2.06892, 2.05805, 1.96863, 1.96437, 1.96628, 2.06546, 1.90396, 1.90297, 1.89572, 1.89231, 1.89027, 1.88548, 1.88335, 1.88174, 1.98267, 1.87942, 1.87888, 1.87665, 1.87532, 1.92682, 1.87509, 1.87577, 1.87368, 1.92402, 1.92284, 1.87241, 1.8734, 1.87285, 1.87196, 1.86558, 1.7402, 1.7393, 1.73452, 1.73319, 1.73374, 1.90582, 1.90293, 1.90049, 1.7197, 1.89835, 1.72031, 1.7185, 1.89183, 1.89027, 1.81667, 1.71674, 1.71519, 1.71812, 1.77862, 1.87874, 1.71855, 1.72054, 1.72102, 1.82416, 1.72313, 1.86615, 1.72769, 1.86334, 1.72878, 1.86227, 1.85844
1.96673, 1.94401, 1.94065, 1.94131, 1.93734, 1.93911, 1.93542, 1.93238, 1.98082, 1.97938, 1.97763, 2.01814, 2.04782, 1.92159, 1.96867, 1.96877, 1.91499, 1.91524, 2.1145, 1.91518, 1.96504, 1.91358, 2.11051, 2.02437, 1.91422, 2.00866, 1.91444, 1.91632, 2.05665, 2.05579, 2.0531, 2.15508, 2.04831, 2.14761, 2.06964, 2.03563, 2.06655, 2.02859, 2.02745, 2.02388, 2.02256, 2.01651, 2.01792, 1.9357, 2.01137, 2.06134, 2.00677, 2.06226, 2.0619, 2.00741, 2.00594, 2.0097, 2.01121, 2.01325, 2.04894, 1.94661, 2.13718, 2.12512, 2.1024, 2.01362, 2.0102, 2.00892, 2.00896, 2.00675, 2.1002, 2.007, 2.00599, 2.10094, 2.08711, 2.09159, 2.07919, 2.09765, 2.08976, 2.08889, 2.08395, 2.08444, 2.07695, 2.08646, 2.09204, 1.99337, 1.99301, 2.08412, 2.07687, 2.08086, 2.0831, 1.98214, 2.07306, 2.06917, 2.07055, 2.06262, 2.06512, 1.96751, 1.96868, 1.9652, 2.05737, 1.90385, 1.90014, 1.99911, 1.99718, 1.89162, 1.8857, 1.88214, 1.88216, 1.88055, 1.95184, 1.92967, 1.87717, 1.87876, 1.87865, 1.87685, 2.06502, 1.87399, 1.92436, 1.87421, 1.87398, 1.87199, 1.87217, 1.87332, 1.87153, 1.74058, 1.73464, 1.73323, 1.73126, 1.90458, 1.90032, 1.72331, 1.71863, 1.89705, 1.72031, 1.71715, 1.8138, 1.76736, 1.71481, 1.76528, 1.71516, 1.71671, 1.71609, 1.71457, 1.71604, 1.71539, 1.71424, 1.87547, 1.86998, 1.86895, 1.86858, 1.865, 1.86174, 1.72858, 1.86153, 1.86248
1.96876, 1.94283, 2.05528, 1.94038, 1.93907, 1.93547, 2.05159, 2.0283, 1.93129, 1.93193, 1.92757, 2.04923, 1.92215, 2.04267, 2.12737, 1.92011, 2.10707, 1.98739, 1.91561, 2.11452, 1.91339, 1.9134, 1.91213, 1.91348, 2.02549, 1.91386, 1.91435, 2.0262, 2.07639, 2.05201, 1.9762, 2.0709, 2.04555, 2.04192, 2.04166, 2.06921, 2.03135, 2.02809, 2.02497, 2.06572, 2.02035, 2.01672, 2.06621, 2.01223, 2.01052, 1.93105, 2.15411, 2.13777, 2.13875, 2.00361, 1.93036, 2.00672, 2.01197, 2.1457, 2.01365, 2.04828, 2.04822, 2.01861, 2.11665, 2.08955, 2.08389, 2.00803, 2.00823, 2.00546, 2.00675, 2.11384, 2.00623, 2.0045, 2.1103, 2.09369, 2.08945, 2.10152, 2.08388, 2.08225, 2.077, 2.08929, 2.07538, 2.08509, 2.09449, 2.07011, 1.99103, 2.07328, 2.0688, 2.07092, 2.07985, 2.0793, 2.07568, 1.97904, 2.06531, 2.05547, 1.97075, 1.96891, 1.96756, 1.96615, 2.07937, 1.90612, 1.89982, 1.89593, 1.89222, 2.00269, 1.88605, 1.88295, 1.88244, 1.98971, 1.92953, 1.92913, 1.87608, 1.87857, 1.92712, 1.87812, 1.87637, 1.87348, 1.92342, 1.87351, 1.98462, 1.87061, 2.0779, 1.87268, 1.90348, 1.90217, 1.73569, 1.7319, 2.08268, 1.7265, 1.7232, 1.77164, 1.72004, 1.71871, 1.71669, 1.89693, 1.89524, 1.88922, 1.71604, 1.71416, 1.71597, 1.88369, 1.88211, 1.71261, 1.71552, 1.71396, 1.87562, 1.71751, 1.86997, 1.72333, 1.72095, 1.72485, 1.72691, 1.86082, 1.7284, 1.858
1.96654, 1.94168, 2.05741, 1.93849, 1.93809, 1.9387, 1.93434, 1.93394, 1.98217, 1.92982, 1.97937, 1.92487, 1.92299, 1.92259, 1.92181, 1.96851, 1.9673, 1.91671, 2.00847, 1.91518, 1.91117, 1.91329, 1.91354, 1.91315, 1.91753, 1.92037, 2.01371, 1.91773, 2.07423, 2.05059, 2.07293, 1.9719, 2.06908, 2.0673, 2.03847, 2.03504, 2.06677, 2.02731, 2.02605, 2.02356, 2.02045, 2.01517, 2.01472, 2.01131, 2.06244, 2.00872, 2.00702, 2.05822, 2.00388, 2.00495, 1.93031, 1.93234, 2.05632, 1.93738, 2.05179, 2.02755, 2.04591, 2.10796, 2.09049, 2.10141, 2.01078, 2.00742, 2.00619, 2.00643, 2.09513, 2.00351, 2.08971, 2.005, 2.1104, 2.10078, 2.1058, 2.09582, 2.08733, 2.0835, 2.0834, 2.08434, 2.07357, 2.07625, 2.08961, 2.07366, 1.99067, 2.08595, 1.98738, 2.0796, 2.06445, 2.07234, 1.97886, 2.05834, 2.06542, 2.05552, 1.96908, 1.968, 1.96503, 1.96368, 2.04209, 1.9066, 2.0686, 1.89676, 1.89274, 1.8901, 1.98232, 1.88569, 1.88274, 1.88325, 1.88052, 1.92946, 1.92759, 1.87836, 1.87867, 1.8773, 1.87597, 1.98044, 1.8757, 1.87416, 1.87282, 1.87139, 1.97913, 1.97721, 1.74203, 1.82801, 1.73157, 1.90163, 1.72642, 1.72483, 1.72304, 1.89057, 1.71885, 1.81387, 1.89614, 1.71383, 1.71264, 1.84015, 1.83803, 1.71275, 1.71297, 1.71324, 1.71339, 1.71093, 1.71374, 1.88032, 1.71376, 1.71455, 1.71595, 1.71932, 1.72325, 1.72363, 1.72358, 1.86216, 1.8271, 1.85763
1.96225, 1.94177, 1.94122, 1.94121, 1.9417, 1.93555, 1.93512, 1.9325, 1.93102, 1.98009, 1.97724, 2.04574, 2.05124, 1.92013, 2.04257, 1.9182, 1.96578, 1.91631, 1.91502, 1.91373, 1.96411, 1.96278, 2.03112, 2.02762, 1.91813, 1.96758, 1.9133, 1.91757, 1.97873, 2.05544, 2.05047, 1.97076, 2.04301, 2.04436, 1.96154, 2.03532, 1.95583, 2.02847, 2.0232, 2.067, 2.01877, 2.01376, 2.01424, 2.0104, 2.06173, 2.06232, 2.00667, 2.00559, 2.00467, 2.00373, 2.00525, 1.93047, 2.01195, 2.01416, 2.15649, 1.94494, 2.14859, 2.01597, 2.10356, 2.10083, 2.01089, 2.00979, 2.00765, 2.00523, 2.00512, 2.00445, 2.10113, 2.11199, 2.00478, 2.09973, 2.10704, 2.1009, 2.07683, 2.08717, 2.07464, 2.0942, 2.07288, 2.07713, 2.08636, 1.99231, 1.99018, 2.07367, 2.07756, 2.07726, 1.98505, 2.08731, 2.07781, 2.06139, 2.04943, 1.97238, 1.97013, 1.96762, 1.96294, 1.96508, 2.06699, 1.90413, 1.89912, 1.9997, 1.99908, 1.89088, 1.88597, 1.88655, 1.88382, 1.88355, 1.93062, 1.88158, 1.87868, 1.9862, 1.92711, 1.87924, 1.92689, 2.00402, 1.87574, 1.87569, 1.9863, 1.87483, 1.87246, 1.87166, 1.73858, 1.90322, 1.90303, 1.84345, 1.77577, 1.72323, 1.72012, 1.7173, 1.94789, 1.71257, 1.71306, 1.88975, 1.71027, 1.70929, 1.7119, 1.70986, 1.71067, 1.71201, 1.7111, 1.98052, 1.87544, 1.71089, 1.71337, 1.82417, 1.71601, 1.87019, 1.72149, 1.71835, 1.8681, 1.86124, 1.85933, 1.72732
1.95109, 1.94066, 1.93905, 1.94049, 1.93463, 1.93509, 1.93393, 1.98319, 2.01732, 2.01766, 1.97642, 1.9261, 1.92335, 2.04386, 2.11886, 1.91791, 1.91727, 1.91356, 1.91426, 1.91235, 2.03445, 1.9139, 2.20739, 1.91388, 1.91632, 1.91435, 1.92034, 1.91756, 2.16871, 2.14809, 1.97535, 2.04573, 2.04525, 2.04148, 2.06564, 2.14239, 2.06391, 1.95407, 2.0277, 2.02231, 1.9437, 2.01496, 2.13973, 2.15029, 2.00725, 2.00653, 2.0077, 2.00511, 1.92908, 1.92829, 2.00601, 2.00699, 1.93105, 2.14565, 1.93907, 1.94461, 2.13058, 2.1066, 2.01473, 2.08661, 2.08291, 2.00907, 2.00523, 2.00461, 2.08954, 2.00336, 2.00386, 2.00305, 2.09776, 2.0976, 2.09277, 2.08548, 2.00104, 2.07357, 2.08443, 2.08419, 2.09573, 2.07015, 2.08959, 2.09027, 1.9899, 1.98951, 2.07208, 2.08207, 2.07191, 2.0743, 2.06862, 2.07295, 2.04828, 1.97172, 2.06685, 1.96618, 1.96701, 1.96492, 1.96418, 1.90202, 1.90284, 1.94637, 1.97917, 2.08991, 1.88854, 1.88531, 1.88307, 1.88218, 1.98449, 1.98459, 1.87979, 1.98459, 1.92779, 1.87863, 1.92834, 1.98285, 1.87788, 1.87467, 1.87465, 1.87404, 1.8734, 1.87154, 1.74036, 1.90361, 1.90554, 1.85103, 1.72321, 1.90056, 1.71962, 1.71651, 1.71399, 1.71353, 1.71304, 1.81224, 1.76132, 1.7077, 1.71083, 1.70855, 1.70956, 1.7585, 1.75973, 1.70881, 1.71124, 1.70917, 1.87556, 1.87436, 1.7159, 1.71497, 1.71955, 1.86491, 1.7232, 1.85969, 1.85649, 1.85569
1.94996, 1.94213, 1.94242, 1.93949, 1.9378, 1.93462, 1.9373, 1.93224, 1.93082, 1.93052, 1.92419, 1.97728, 1.9245, 1.97227, 1.92092, 2.12421, 1.9168, 2.11788, 1.91393, 1.9111, 1.91177, 2.00996, 1.9137, 1.96547, 1.91492, 1.91613, 1.96635, 1.91766, 2.05561, 2.06891, 2.14524, 2.06664, 2.06608, 2.06639, 1.96012, 2.06668, 2.03042, 1.95125, 2.16738, 2.13798, 2.01763, 1.93839, 2.01731, 1.93553, 2.06046, 2.05858, 2.00441, 1.92907, 2.00267, 2.00455, 1.92772, 2.00445, 2.04919, 2.01043, 2.12551, 1.94551, 2.04625, 2.0153, 2.11428, 2.01048, 2.08784, 2.00722, 2.00673, 2.00466, 2.10152, 2.00353, 2.00388, 2.11256, 2.00303, 2.00256, 2.10799, 2.00111, 2.00074, 2.07901, 2.07927, 2.09201, 2.08688, 2.08685, 1.99286, 2.07635, 1.98975, 2.08062, 2.09027, 2.05605, 1.98328, 2.08335, 1.9767, 1.97556, 2.05941, 2.05576, 1.96547, 1.96493, 1.96485, 1.96411, 2.03983, 1.90385, 1.90033, 1.8962, 1.88993, 1.99575, 1.97507, 2.08461, 2.09577, 2.07956, 1.99132, 1.88015, 1.87933, 1.98957, 1.87892, 1.87843, 1.87637, 1.96927, 1.87706, 1.98632, 1.87599, 1.87461, 1.95936, 1.87296, 1.73621, 1.73359, 1.90344, 1.72371, 1.72143, 1.7202, 1.71844, 1.7133, 1.71257, 1.70956, 1.89468, 1.70977, 1.70926, 1.8207, 1.70887, 1.70751, 1.70819, 1.75986, 1.70854, 1.71022, 1.70736, 1.71065, 1.71152, 1.71093, 1.71622, 1.71375, 1.8685, 1.86649, 1.7196, 1.72355, 1.72698, 1.72659
1.96956, 1.94008, 1.94062, 2.04959, 1.93735, 1.93459, 1.984, 1.93196, 2.04599, 1.93144, 1.92634, 1.97515, 2.03407, 1.97912, 1.9209, 1.91649, 2.11199, 2.03425, 2.11424, 2.1109, 1.91149, 1.91285, 1.98785, 1.96406, 1.91553, 1.96559, 1.91671, 1.91711, 2.0602, 2.06863, 2.04786, 2.06497, 2.03882, 2.06631, 2.0351, 2.06574, 1.95335, 2.02814, 2.02386, 2.02162, 2.01746, 2.06178, 2.01372, 2.06089, 2.00986, 2.05931, 2.00496, 2.00298, 2.00451, 2.05411, 2.00393, 2.00435, 2.00839, 2.05012, 2.0153, 2.01777, 2.03959, 2.10477, 2.01382, 2.08863, 2.00766, 2.08672, 2.00479, 2.0038, 2.08839, 2.10319, 2.09308, 2.00497, 2.0018, 2.09067, 2.00242, 2.09081, 2.08787, 1.99786, 2.08726, 2.08728, 2.08366, 2.09005, 1.99229, 2.07291, 1.98987, 2.08995, 2.08873, 1.98343, 1.98194, 1.97937, 2.05603, 2.07576, 1.97303, 1.96931, 1.96701, 1.96721, 1.96397, 1.9638, 2.053, 1.90039, 1.90316, 2.09226, 1.99092, 1.99059, 1.938, 1.88618, 1.88193, 1.8821, 1.8822, 1.88238, 1.87973, 1.99304, 1.99095, 1.87825, 2.07261, 1.92694, 1.87373, 1.98485, 1.87617, 1.97159, 1.92497, 1.87012, 1.73462, 1.73161, 1.72854, 1.77428, 1.72087, 1.83838, 1.71587, 1.71165, 1.71062, 1.80704, 1.89292, 1.70899, 1.70954, 1.70654, 1.70874, 1.70716, 1.70629, 1.7565, 1.88678, 1.70648, 1.70621, 1.70983, 1.70753, 1.82659, 1.71063, 1.86905, 1.71448, 1.8658, 1.86395, 1.72195, 1.72733, 1.72633
1.96602, 1.9393, 1.93928, 2.04159, 1.93742, 1.93401, 1.93539, 2.03831, 1.93098, 1.93076, 1.92465, 1.92421, 2.04165, 2.03396, 1.97147, 2.00496, 1.9155, 1.96364, 2.11148, 2.00397, 1.91284, 1.91243, 1.91136, 2.01004, 1.91412, 1.96569, 2.00341, 1.99783, 2.0551, 2.06721, 2.14738, 2.04858, 2.06221, 2.04084, 2.06261, 2.03317, 2.03044, 1.94913, 2.15592, 2.15291, 2.01914, 2.06079, 2.01336, 2.01094, 2.0097, 2.00515, 2.0039, 2.00187, 2.00288, 2.13867, 1.92827, 2.00374, 2.04997, 2.0117, 2.01463, 1.94514, 2.04408, 2.10449, 2.10162, 2.1048, 2.00758, 2.005, 2.00357, 2.00371, 2.0035, 2.09712, 2.00054, 2.09974, 2.09878, 2.09208, 2.09477, 2.09477, 2.10082, 2.09334, 1.99596, 1.99422, 2.08511, 2.07827, 1.99108, 2.08311, 2.07975, 2.08726, 2.08336, 2.06896, 2.07359, 1.97757, 2.07712, 2.06538, 2.06128, 2.06597, 1.96795, 1.96637, 1.96359, 1.96348, 2.05864, 1.89854, 2.08619, 2.09418, 1.89179, 1.88985, 2.07285, 1.88483, 1.88585, 1.88339, 1.88183, 1.88117, 1.87891, 1.87801, 1.87581, 1.98285, 1.87964, 1.87802, 1.87885, 1.87365, 1.97845, 1.87337, 1.87484, 1.87175, 1.90357, 1.7786, 1.72688, 1.7727, 1.71949, 1.71654, 1.76479, 1.8307, 1.89526, 1.70954, 1.89543, 1.70614, 1.70602, 1.70336, 1.70445, 1.70378, 1.70496, 1.75473, 1.88385, 1.88303, 1.70598, 1.70727, 1.87644, 1.70785, 1.71186, 1.86808, 1.86536, 1.71665, 1.71413, 1.71996, 1.72168, 1.72185
1.96841, 1.94088, 1.93938, 2.04105, 1.93861, 2.04543, 2.03379, 2.03578, 1.9307, 1.92811, 2.0415, 1.92554, 1.92384, 2.0186, 1.9198, 1.91785, 1.91965, 1.91573, 1.90846, 2.11409, 1.96097, 1.96381, 1.91199, 1.91214, 1.96285, 1.91365, 1.91624, 2.08692, 2.05443, 2.06776, 2.04635, 2.04512, 2.04216, 2.06435, 2.03485, 2.15581, 2.02661, 1.95128, 2.05948, 2.02035, 1.94179, 2.01376, 1.93408, 2.05857, 2.00765, 1.92933, 2.00251, 2.00136, 2.00194, 2.14808, 2.00343, 2.00641, 2.00696, 2.12406, 2.04527, 2.04408, 2.04528, 2.01417, 2.09874, 2.0859, 2.0073, 2.00514, 2.07973, 2.00331, 2.00078, 2.00135, 2.10041, 2.07484, 2.09136, 1.99949, 2.09074, 1.99927, 2.08315, 1.9964, 1.99574, 2.07955, 2.07986, 1.99012, 2.08669, 2.07621, 2.07995, 2.07608, 1.9826, 2.06538, 2.08676, 2.07377, 2.07541, 2.08115, 2.06488, 2.06276, 1.96852, 1.96633, 1.96557, 1.96309, 1.9629, 1.95262, 1.89755, 1.89612, 1.89189, 1.93951, 1.88759, 1.88618, 1.9355, 1.93368, 1.88275, 1.87972, 1.88139, 1.88039, 1.88072, 1.88049, 1.87988, 1.87628, 1.87646, 1.87791, 1.92586, 2.06656, 1.97297, 1.87367, 1.7335, 1.72917, 1.7261, 1.90297, 1.71744, 1.71677, 1.89943, 1.71125, 1.70738, 1.70775, 1.70698, 1.70599, 1.70394, 1.70424, 1.70496, 1.70494, 1.70391, 1.70377, 1.70367, 1.70532, 1.8769, 1.70645, 1.7062, 1.70712, 1.70946, 1.70884, 1.711, 1.71301, 1.71889, 1.72014, 1.71736, 1.72038
1.9689, 1.94113, 2.0411, 1.98925, 1.93606, 2.05188, 2.04128, 2.03352, 1.98005, 1.97736, 1.97971, 1.92452, 1.97375, 2.02119, 1.9202, 1.91643, 1.91409, 1.91485, 2.11539, 1.90946, 2.11175, 1.91125, 1.91182, 1.91159, 1.96318, 2.08104, 1.91518, 2.0937, 2.17597, 2.05181, 2.04871, 1.96838, 2.04153, 2.06144, 2.035, 2.03348, 2.0298, 2.02561, 1.94459, 2.01927, 2.01768, 2.01377, 1.93514, 2.00877, 2.00756, 2.13526, 2.05593, 2.00346, 2.00236, 2.00327, 2.00167, 1.92833, 1.93117, 2.12423, 2.01421, 2.02092, 2.15951, 2.105, 2.0863, 2.08382, 2.08238, 2.00637, 2.00286, 2.0038, 2.0011, 2.08978, 2.0763, 1.99971, 2.07728, 2.11027, 2.08142, 2.07484, 1.99759, 2.07911, 2.0903, 2.08104, 2.07909, 2.07945, 2.0755, 2.07689, 2.08078, 2.06687, 2.0799, 2.06767, 2.0667, 2.06682, 2.06706, 2.06251, 2.08266, 1.96855, 1.96799, 1.96854, 1.96304, 1.96288, 2.05905, 1.95116, 1.89876, 1.89418, 1.98616, 1.99301, 1.99228, 1.99444, 1.88519, 1.93406, 1.88171, 1.88194, 1.88025, 1.87855, 1.88088, 1.87873, 1.87888, 1.87849, 2.06986, 1.92805, 1.92572, 1.87459, 2.06639, 1.8714, 1.73079, 1.72633, 1.72346, 1.90349, 1.7148, 1.71427, 1.89863, 1.70856, 1.80922, 1.7062, 1.874, 1.75453, 1.70339, 1.70319, 1.70331, 1.88119, 1.7046, 1.70066, 1.70161, 1.70155, 1.87604, 1.70659, 1.75407, 1.8241, 1.84816, 1.90957, 1.71333, 1.86601, 1.8609, 1.71948, 1.72005, 1.76951
1.94965, 1.94056, 2.04035, 1.93672, 1.93536, 1.93357, 2.04061, 2.04291, 1.92793, 1.97672, 1.98509, 1.98613, 2.04163, 1.9221, 1.9176, 2.03776, 2.03418, 1.96117, 1.91191, 1.91097, 1.91205, 1.90995, 1.99793, 1.91079, 1.98087, 2.01502, 1.91712, 2.01301, 2.0535, 1.97536, 2.06301, 2.04501, 1.96522, 2.04116, 2.03457, 2.03203, 2.0598, 2.02767, 2.02446, 2.02092, 2.02058, 2.01146, 2.05882, 2.00801, 2.0105, 2.0071, 2.0012, 2.00062, 2.00136, 2.00195, 2.00319, 2.00337, 2.00356, 1.93407, 2.01483, 2.02044, 2.0247, 2.08839, 2.10435, 2.09004, 2.09848, 2.00475, 2.00303, 2.00004, 2.10354, 2.00185, 2.08009, 2.09047, 2.08427, 2.08352, 2.07913, 2.08948, 2.08644, 2.07978, 2.08453, 1.99244, 1.99002, 2.07177, 2.07563, 1.98596, 1.98687, 2.07187, 2.07409, 2.0741, 2.05346, 2.07275, 2.069, 2.05785, 1.97045, 2.06492, 1.96633, 1.96575, 1.96208, 1.962, 2.05301, 1.95078, 1.94683, 1.89433, 1.89178, 1.88952, 1.88771, 1.88574, 1.88573, 1.88181, 1.95215, 1.93885, 2.06273, 1.87944, 1.88014, 1.87739, 1.8785, 1.87641, 1.92636, 1.87656, 1.92488, 1.87446, 1.8716, 2.06195, 1.77969, 1.72423, 1.72052, 1.71913, 1.71432, 1.80403, 1.9003, 1.70722, 1.70577, 1.75528, 1.70334, 1.70445, 1.8055, 1.69879, 1.70013, 1.70119, 1.69995, 1.70242, 1.70225, 1.8765, 1.87526, 1.70381, 1.85229, 1.75586, 1.7578, 1.70869, 1.76124, 1.71306, 1.7144, 1.71611, 1.71733, 1.7175
1.96504, 1.94018, 2.06634, 2.06857, 1.98457, 2.04175, 1.93326, 1.92997, 1.93, 1.92503, 1.92488, 1.92384, 2.04548, 1.97102, 1.9173, 1.91726, 1.91333, 2.03209, 1.91319, 1.96147, 2.09194, 1.90988, 1.90914, 2.01692, 1.99623, 1.91423, 1.91533, 1.9161, 2.16655, 2.0628, 2.06266, 2.06042, 2.04097, 2.06005, 2.03408, 2.03153, 2.05857, 2.05699, 1.94745, 2.01772, 1.9417, 2.14166, 2.01367, 2.05878, 1.93147, 2.00354, 2.05565, 2.00688, 1.92464, 2.0011, 2.00267, 2.04718, 2.00519, 2.12145, 2.04275, 2.04184, 2.13735, 2.10951, 2.10809, 2.10441, 2.00589, 2.00341, 2.00171, 2.0003, 2.00042, 2.00001, 1.99954, 2.00155, 2.07981, 2.07414, 2.07272, 2.07084, 2.08002, 2.08935, 2.08763, 1.9905, 2.07485, 2.07857, 1.98747, 2.07222, 2.08382, 2.07434, 2.06993, 2.07366, 2.06245, 2.06968, 2.06165, 1.97333, 2.0651, 1.96878, 2.07333, 1.96291, 1.96489, 1.96501, 2.03528, 1.9004, 1.89655, 1.89135, 1.89041, 1.88944, 1.99671, 1.99384, 1.93387, 1.88212, 1.88259, 1.9311, 1.88004, 1.88019, 1.88015, 1.92829, 1.87877, 1.87859, 1.94066, 1.92651, 1.9256, 1.87477, 1.87265, 1.87243, 1.77843, 1.72218, 1.71776, 1.71383, 1.71364, 1.71092, 1.70811, 1.70965, 1.8944, 1.75416, 1.75048, 1.75151, 1.74976, 1.69673, 1.70017, 1.69713, 1.81548, 1.69778, 1.69918, 1.70215, 1.87546, 1.70357, 1.76183, 1.75432, 1.75489, 1.75878, 1.8178, 1.71163, 1.85456, 1.71364, 1.7193, 1.71905
1.94661, 2.0412, 1.93605, 2.06709, 1.93564, 2.0365, 1.93046, 2.04332, 1.92738, 2.0401, 1.92506, 1.9252, 1.92447, 2.01455, 1.91723, 2.03175, 2.02388, 2.0171, 2.01743, 2.01416, 1.9594, 1.90924, 2.10403, 1.9097, 1.96201, 2.01457, 1.91649, 1.91612, 2.05208, 2.05866, 2.06228, 1.96878, 2.05655, 2.03682, 2.14293, 2.02813, 2.03007, 1.95005, 2.05686, 2.01981, 2.02089, 2.015, 2.01353, 2.05817, 1.92958, 1.92795, 2.00069, 1.92586, 2.00088, 1.99958, 1.92405, 2.04802, 2.0457, 2.00736, 2.01177, 2.0421, 2.03773, 2.09507, 2.11035, 2.09787, 2.00832, 2.00669, 2.00289, 2.00182, 2.09489, 2.10142, 2.10088, 1.99995, 2.09663, 2.08296, 2.08405, 2.10501, 2.09014, 2.08907, 2.07952, 2.0767, 1.9883, 2.0805, 2.07393, 2.08304, 2.06921, 2.07449, 2.07016, 2.06813, 2.07179, 2.0663, 2.062, 2.05474, 1.96996, 2.0492, 1.96549, 1.96364, 1.9625, 1.96171, 1.96128, 1.89882, 2.07963, 1.89332, 1.89074, 1.88678, 1.88825, 1.9363, 1.93426, 1.93377, 1.88265, 1.93059, 1.88343, 1.87883, 1.96805, 1.92763, 1.87711, 1.87611, 1.87577, 1.87698, 1.87725, 1.87397, 1.8742, 1.87203, 1.83278, 1.72141, 1.72026, 1.71321, 1.71161, 1.70935, 1.70475, 1.70484, 1.75185, 1.7755, 1.69992, 1.70059, 1.69784, 1.88632, 1.69814, 1.6964, 1.69855, 1.69658, 1.88204, 1.80997, 1.69956, 1.70231, 1.70343, 1.70338, 1.75508, 1.76986, 1.81725, 1.70767, 1.85486, 1.71547, 1.71324, 1.71474
1.94474, 2.04496, 1.93575, 2.04411, 1.93479, 2.04162, 1.93135, 1.9284, 1.92837, 1.92569, 1.92429, 1.92219, 1.92064, 2.03055, 1.91725, 1.91611, 1.96497, 2.03019, 1.95941, 1.95965, 1.99053, 1.95955, 1.90736, 1.91121, 1.9621, 1.91159, 1.96432, 1.91715, 1.97627, 2.163, 2.13864, 2.04062, 2.0414, 2.03615, 2.03419, 2.03263, 2.02724, 2.0565, 2.02068, 2.01866, 1.94099, 2.01148, 2.14898, 2.00647, 2.00387, 2.00315, 2.00127, 2.0015, 1.99987, 1.99963, 2.04888, 2.00117, 2.00491, 2.04494, 2.01305, 2.03909, 2.0402, 2.0946, 2.09542, 2.00711, 2.0958, 2.0039, 2.0014, 2.00015, 2.084, 1.99996, 2.09354, 2.08299, 2.08901, 2.10326, 1.99946, 2.0852, 2.0735, 2.07922, 2.0668, 1.98937, 2.06274, 2.0767, 2.07792, 2.07307, 2.0732, 2.08309, 2.07081, 2.0798, 2.0624, 1.9773, 2.04821, 2.04641, 2.06041, 2.05604, 1.96557, 1.96325, 2.04456, 2.04206, 2.05807, 1.89919, 1.89607, 1.89471, 1.94115, 1.93913, 1.98863, 1.98619, 2.08586, 1.88031, 1.88306, 1.88192, 1.88231, 1.88281, 1.92869, 1.87943, 1.87546, 1.87837, 2.07045, 1.8773, 1.87395, 2.07297, 1.87321, 1.87037, 1.82288, 1.72037, 1.89583, 1.90191, 1.71041, 1.81354, 1.81451, 1.70487, 1.70147, 1.70042, 1.7493, 1.69889, 1.81028, 1.69625, 1.9307, 1.69561, 1.69672, 1.69593, 1.6987, 1.69858, 1.69712, 1.69977, 1.70026, 1.86858, 1.70349, 1.7033, 1.86261, 1.8555, 1.85572, 1.85224, 1.84796, 1.71525
1.96516, 1.9407, 1.93228, 1.93491, 2.04254, 1.93063, 1.93052, 1.98121, 1.93075, 1.92438, 2.03659, 1.92071, 2.03481, 1.9184, 1.91916, 1.91659, 1.96246, 2.10249, 1.9135, 1.90931, 1.95902, 1.9589, 1.95848, 2.01313, 1.95976, 1.91189, 1.91404, 1.99566, 2.13862, 2.04605, 2.14165, 2.04431, 2.05623, 2.05879, 2.05545, 2.03135, 1.9491, 2.02408, 2.05468, 2.05612, 2.01645, 1.93554, 2.00874, 1.93065, 2.00103, 2.00049, 2.00008, 2.00095, 1.99757, 2.00025, 1.92341, 2.00036, 1.92945, 2.04645, 2.01043, 2.01752, 2.14149, 2.11495, 2.12186, 2.08343, 2.0033, 2.00457, 2.00136, 2.07988, 2.0795, 1.99935, 2.09037, 1.99788, 2.0978, 2.09647, 1.99549, 1.99411, 2.07967, 1.99151, 2.07594, 1.99008, 2.077, 1.98612, 1.98389, 1.98442, 2.07555, 1.98223, 2.06447, 2.07156, 1.97656, 2.06225, 1.97357, 2.06284, 2.05907, 1.96808, 1.9646, 1.96248, 1.96125, 1.96127, 2.05977, 2.09019, 1.89657, 1.89335, 1.94008, 1.93788, 1.88693, 1.8833, 2.08301, 1.88201, 1.88242, 1.98259, 1.88055, 1.88027, 1.93042, 1.92827, 1.92881, 1.87596, 2.06948, 1.87318, 2.07332, 1.87197, 2.06206, 1.96922, 1.90373, 1.71963, 1.71447, 1.95145, 1.70967, 1.70616, 1.70322, 1.88948, 1.6989, 1.69653, 1.79785, 1.69612, 1.80364, 1.88512, 1.88, 1.88211, 1.69325, 1.79686, 1.69559, 1.69543, 1.87489, 1.87362, 1.69808, 1.86835, 1.70156, 1.70223, 1.70657, 1.70631, 1.85589, 1.84953, 1.71057, 1.842
1.96305, 2.03481, 2.04286, 1.93591, 1.93133, 1.93114, 1.92749, 2.02535, 1.97787, 1.92642, 2.03157, 1.97226, 1.97216, 1.9697, 2.01658, 1.91725, 1.96164, 1.91006, 1.90989, 1.95777, 1.90878, 1.91005, 1.95643, 1.90917, 2.00035, 2.09619, 1.91378, 1.91467, 2.05229, 1.97259, 2.04489, 2.05183, 2.04092, 2.0386, 2.03596, 1.95436, 2.14313, 2.02242, 2.02322, 2.01631, 2.01479, 2.01202, 2.1433, 2.00732, 2.00353, 2.00146, 2.0005, 2.04891, 2.04924, 1.92469, 1.99845, 2.00057, 2.04185, 2.0038, 2.01102, 2.03804, 2.0378, 2.10369, 2.11252, 2.09787, 2.08292, 2.00384, 2.00128, 2.07644, 2.0941, 2.09268, 2.0844, 1.99766, 1.99724, 2.09999, 2.07853, 1.99493, 2.08643, 2.07691, 2.07461, 2.08716, 2.08735, 2.08285, 2.07264, 2.07852, 2.07412, 2.06877, 2.07655, 2.06704, 1.97654, 2.05512, 2.06654, 2.0675, 2.05587, 2.05813, 1.96481, 1.9613, 1.96027, 2.04186, 2.05601, 1.89819, 1.89623, 1.89372, 1.88863, 1.88908, 1.88536, 1.88393, 1.88259, 1.98759, 1.87821, 1.88256, 1.88007, 1.88128, 1.88111, 1.87882, 1.92672, 1.87554, 1.87583, 1.87504, 1.87284, 1.87249, 1.86871, 1.86774, 1.90316, 1.90159, 1.71069, 1.71268, 1.88993, 1.75491, 1.70075, 1.7011, 1.88571, 1.79922, 1.88592, 1.69176, 1.69499, 1.69187, 1.78867, 1.69364, 1.80152, 1.69435, 1.69513, 1.69426, 1.87194, 1.87175, 1.69591, 1.69818, 1.69932, 1.70226, 1.85797, 1.70604, 1.80734, 1.70925, 1.84709, 1.8461
1.94541, 2.04147, 1.93394, 1.93398, 1.93221, 1.93377, 1.93041, 1.92687, 1.97759, 1.92561, 2.03066, 1.9727, 1.9872, 1.99083, 1.96773, 1.96342, 1.9122, 1.91056, 1.90986, 1.90697, 2.02321, 1.90725, 2.0208, 2.1005, 1.9583, 1.91186, 1.91076, 1.96226, 2.05332, 2.04864, 2.04807, 1.96542, 1.96187, 2.03463, 2.0321, 2.13217, 1.94924, 2.02459, 2.01906, 2.01563, 2.14, 2.011, 2.00743, 2.00593, 2.05177, 1.99979, 1.99872, 1.99716, 1.92117, 1.9974, 2.04488, 2.0011, 2.00437, 2.00743, 1.93145, 1.94035, 2.0391, 2.00795, 2.1002, 2.08132, 2.07845, 2.0779, 1.99827, 1.99839, 2.08216, 2.07281, 2.08901, 1.99658, 2.0847, 2.08103, 1.99361, 2.09069, 1.99091, 2.10101, 1.98897, 2.10319, 2.07298, 2.08039, 1.98329, 2.06776, 2.06691, 2.05245, 2.06631, 2.05062, 2.06133, 2.06842, 2.04567, 2.05559, 2.05566, 2.05845, 1.96299, 1.96082, 1.95927, 1.95866, 2.03263, 2.05928, 1.97205, 1.94205, 1.88976, 2.09048, 1.88592, 1.98794, 1.88246, 1.88545, 1.88395, 1.88138, 1.99355, 1.9733, 1.87994, 1.87786, 1.97707, 1.97452, 1.87451, 1.8747, 1.87322, 1.8747, 1.87193, 1.96757, 1.8984, 1.71453, 1.71111, 1.70768, 1.70539, 1.70319, 1.70062, 1.88846, 1.69867, 1.8862, 1.69434, 1.69117, 1.6949, 1.69345, 1.69279, 1.69157, 1.69202, 1.69117, 1.69538, 1.87366, 1.69505, 1.69575, 1.69626, 1.89561, 1.74935, 1.75129, 1.69966, 1.70327, 1.70646, 1.80837, 1.70906, 1.70987
1.94809, 2.03722, 1.93743, 1.93365, 1.9285, 1.93063, 1.92972, 1.92735, 1.92571, 1.97482, 1.97299, 1.97168, 1.96979, 1.91646, 1.96355, 1.96373, 1.97636, 1.90952, 2.02787, 1.90998, 2.02386, 2.02701, 1.90531, 2.01725, 1.95796, 1.90784, 1.91343, 2.01106, 2.06142, 2.04667, 1.96689, 2.05567, 2.03756, 1.96085, 2.0348, 2.02939, 2.02729, 2.05314, 2.13923, 2.13536, 2.14437, 2.01231, 2.13152, 2.05246, 2.0019, 2.04936, 1.92342, 2.14191, 1.99825, 1.9979, 1.99727, 2.00002, 1.92418, 2.04125, 2.03971, 2.0115, 2.1222, 2.07682, 2.08672, 2.07919, 2.07716, 2.07975, 1.99985, 1.99653, 2.07729, 1.99779, 2.08277, 1.99677, 2.07449, 2.08306, 2.07901, 2.08685, 1.99142, 2.08368, 2.08643, 2.08646, 2.07992, 2.08653, 1.98252, 1.98112, 1.98049, 2.06394, 1.98084, 1.97705, 2.07517, 2.07527, 1.97139, 2.06971, 2.06071, 1.96356, 1.96219, 1.96186, 1.96139, 1.95932, 2.03748, 2.09145, 1.89299, 1.89109, 1.88955, 1.88798, 1.88698, 1.98613, 2.07001, 1.88285, 1.88045, 1.88215, 1.88192, 1.87953, 1.9725, 1.87933, 1.87556, 1.87393, 1.8766, 2.07291, 2.06694, 1.8716, 1.87101, 1.71719, 1.71477, 1.89683, 1.89552, 1.7082, 1.7039, 1.70168, 1.69957, 1.7003, 1.88447, 1.69585, 1.69428, 1.69297, 1.88171, 1.69477, 1.69009, 1.68998, 1.68921, 1.69189, 1.69051, 1.69265, 1.69307, 1.69331, 1.8968, 1.84553, 1.69676, 1.74989, 1.75169, 1.70199, 1.70313, 1.84662, 1.70993, 1.70661
1.9431, 1.93417, 1.98337, 1.92999, 1.9334, 1.9285, 2.03616, 1.92294, 1.92737, 2.03207, 1.9203, 1.91785, 1.91908, 1.91402, 1.91678, 1.91415, 1.91102, 2.01843, 1.9041, 2.10235, 1.90667, 1.90497, 1.95563, 1.90498, 1.90649, 1.91078, 1.90934, 1.90805, 2.04921, 2.05546, 2.05378, 2.04555, 1.95845, 2.03364, 2.03136, 2.0537, 2.02708, 2.02212, 2.01635, 2.01418, 2.01263, 2.05201, 2.01389, 2.00662, 2.00336, 1.924, 1.99767, 1.92113, 2.14141, 2.04523, 1.99688, 1.99978, 2.00377, 1.92901, 1.93159, 2.01491, 2.1239, 2.00735, 2.07998, 2.08434, 2.00148, 2.00281, 1.99934, 1.99809, 1.9967, 2.08634, 1.99677, 1.99484, 2.09003, 2.09329, 1.99354, 1.9919, 1.98983, 1.99001, 1.98741, 2.0843, 2.07305, 2.08878, 2.07425, 2.05869, 2.06993, 2.06591, 1.97757, 1.97741, 2.04186, 1.9726, 2.05321, 2.05374, 2.05019, 2.04937, 2.03791, 1.96146, 1.95969, 1.9586, 2.06177, 1.89598, 1.89338, 1.89007, 1.88925, 1.88861, 1.88737, 1.88503, 1.88364, 1.93225, 1.93088, 1.87937, 1.97926, 1.97848, 1.87867, 1.97149, 1.87783, 1.87264, 2.04905, 2.05208, 1.92199, 1.92038, 1.86835, 1.86854, 1.7136, 1.71216, 1.70746, 1.70305, 1.88616, 1.70293, 1.69792, 1.7471, 1.88239, 1.7853, 1.88345, 1.69281, 1.68948, 1.68975, 1.68923, 1.68882, 1.68827, 1.87255, 1.8715, 1.80174, 1.69255, 1.69427, 1.69151, 1.74533, 1.69655, 1.69711, 1.69979, 1.70041, 1.70345, 1.84464, 1.70611, 1.83757
1.94492, 1.93461, 1.93198, 2.02666, 2.02897, 1.97968, 1.92407, 1.97686, 1.92549, 1.92362, 1.92125, 1.91779, 1.91783, 1.9168, 1.9123, 1.91123, 1.91051, 2.02696, 1.90666, 1.9062, 1.90526, 1.95366, 1.90626, 1.90708, 1.95603, 1.90724, 1.90926, 1.91177, 2.05593, 2.04278, 2.04359, 2.03901, 2.03772, 2.03473, 2.04983, 2.05071, 2.02386, 2.02034, 1.94192, 2.01017, 2.01159, 1.93454, 1.93004, 2.00207, 2.00313, 2.00074, 1.92403, 2.1242, 1.99643, 1.9969, 1.92032, 1.99764, 2.00099, 2.00584, 1.93197, 2.01049, 2.03372, 2.00704, 2.10368, 2.09025, 2.00041, 1.99932, 2.00047, 1.99907, 1.99694, 1.99653, 1.99723, 1.99358, 1.99495, 2.08046, 1.99211, 1.99262, 2.07981, 1.98738, 1.98691, 2.07259, 2.07383, 1.98201, 1.9798, 2.06319, 2.07257, 2.07276, 2.06579, 2.06692, 2.06434, 2.05878, 2.05976, 1.96723, 2.05079, 2.04119, 2.04134, 1.95888, 1.95854, 1.95839, 2.03263, 2.06268, 1.89199, 1.8929, 1.88761, 1.88744, 1.88637, 1.88388, 2.08114, 1.93185, 1.93033, 1.97972, 1.8801, 1.97261, 1.87857, 1.87671, 1.87531, 1.96665, 1.87379, 1.96868, 1.92019, 1.95464, 2.05219, 1.91673, 1.71259, 1.70969, 1.70559, 1.89168, 1.70055, 1.88548, 1.6989, 1.74563, 1.69388, 1.69249, 1.6923, 1.68943, 1.88111, 1.68655, 1.87554, 1.73873, 1.87536, 1.68942, 1.87272, 1.86874, 1.68861, 1.69253, 1.69222, 1.6933, 1.74504, 1.74505, 1.74796, 1.74932, 1.848, 1.84898, 1.70355, 1.70489
2.01076, 1.93439, 2.1136, 1.93088, 1.9306, 1.9267, 1.97648, 1.97552, 2.031, 1.92384, 1.92016, 1.91731, 1.91844, 1.91629, 1.91292, 2.0282, 1.91279, 2.02501, 1.90695, 2.02625, 1.90429, 2.00026, 1.90493, 1.90441, 1.95598, 1.95701, 1.90737, 1.91044, 2.05736, 1.96947, 2.0507, 2.13279, 2.03536, 1.95567, 2.05148, 2.02882, 2.02497, 2.02121, 2.0204, 2.05202, 2.01122, 2.00717, 2.00045, 2.00033, 2.00298, 1.99963, 1.92225, 1.99687, 1.99618, 1.99554, 1.99705, 2.12828, 1.92402, 2.00482, 2.0069, 1.93526, 2.03254, 2.00651, 2.00365, 2.07759, 2.07616, 2.00066, 1.99863, 1.9959, 1.9959, 1.99564, 2.0794, 2.08014, 2.07992, 2.0858, 2.08614, 2.08012, 2.065, 2.08311, 1.9846, 2.06053, 2.06914, 2.08346, 2.0766, 1.97879, 1.97965, 1.97627, 1.97514, 1.97538, 2.06259, 2.05195, 2.07283, 2.05737, 2.03972, 2.03902, 2.0403, 1.95687, 1.95698, 1.95629, 2.05211, 2.07983, 2.08127, 1.89189, 1.88705, 1.9956, 1.97241, 1.93367, 1.88058, 1.93998, 1.92951, 1.87881, 1.87676, 1.97496, 1.87712, 1.87731, 1.87536, 1.87382, 1.96609, 1.87182, 2.04983, 1.86589, 1.91662, 1.94823, 1.80656, 1.89462, 1.70544, 1.70224, 1.88238, 1.69608, 1.69413, 1.7447, 1.69286, 1.68955, 1.6904, 1.74247, 1.68751, 1.68676, 1.87622, 1.68575, 1.68789, 1.68786, 1.68605, 1.68823, 1.74709, 1.8652, 1.69206, 1.84335, 1.94083, 1.74468, 1.69657, 1.6987, 1.80597, 1.84399, 1.69992, 1.70385
1.94255, 1.98185, 1.98348, 1.92893, 2.01833, 1.97627, 1.92423, 1.974, 1.92308, 2.04523, 2.03118, 2.03182, 1.91637, 1.91366, 1.91345, 1.91075, 1.91083, 1.90771, 2.01024, 2.02839, 1.90278, 1.90416, 1.90374, 2.01398, 1.90339, 1.95542, 1.90934, 1.91347, 2.04739, 2.13528, 1.96603, 2.05341, 2.03722, 2.03304, 2.0487, 2.02516, 2.04955, 2.02318, 2.05234, 2.04923, 2.01084, 2.1247, 2.00612, 2.04644, 2.00016, 1.92231, 1.99655, 1.99861, 1.99582, 1.99589, 1.91909, 1.99615, 1.9209, 2.11816, 1.92903, 2.00981, 2.12479, 2.09401, 2.09045, 2.0006, 1.99902, 1.99799, 1.99771, 1.99633, 1.99622, 2.07954, 2.07731, 2.06874, 1.99294, 2.07698, 2.06645, 2.07761, 1.98709, 2.07457, 1.98453, 2.08345, 1.98202, 2.07309, 2.07717, 2.07217, 2.0689, 1.97593, 2.06576, 2.05542, 1.97357, 1.97181, 2.05594, 2.04442, 1.96471, 2.04522, 1.95887, 1.95977, 1.95491, 1.95555, 2.04651, 1.89431, 1.89404, 2.07723, 1.886, 1.99391, 1.93346, 1.93154, 1.93391, 1.93045, 1.92943, 1.87877, 2.06955, 1.8765, 1.87573, 1.87494, 1.87454, 1.87054, 1.86958, 1.86878, 1.86801, 2.0595, 1.86473, 1.71192, 1.89581, 1.70631, 1.70349, 1.70104, 1.75011, 1.69657, 1.69339, 1.87057, 1.6891, 1.69169, 1.68812, 1.79819, 1.68396, 1.68502, 1.87765, 1.68532, 1.68543, 1.73715, 1.73587, 1.68588, 1.68519, 1.68613, 1.68673, 1.74182, 1.69225, 1.83716, 1.75798, 1.84987, 1.69802, 1.70015, 1.70046, 1.70356
2.05769, 2.05793, 1.93102, 1.92895, 1.92863, 1.92494, 1.92437, 1.92396, 2.01933, 1.92015, 1.91883, 1.96758, 1.96589, 1.96233, 1.91099, 1.90974, 1.90766, 1.95583, 1.95571, 1.9063, 1.90316, 1.90282, 1.90306, 1.90452, 1.90305, 1.9062, 1.90623, 1.91049, 2.05249, 2.1496, 2.05183, 1.96227, 2.0498, 2.12986, 2.05206, 1.94941, 2.02235, 2.02419, 2.01639, 1.93968, 2.04871, 1.93097, 2.00507, 2.13216, 2.00056, 2.04522, 1.91926, 1.9963, 1.91855, 2.0414, 1.99438, 1.92072, 2.03734, 2.00311, 2.00593, 2.03171, 2.03177, 2.09414, 2.11071, 2.09039, 1.99891, 1.99743, 1.99748, 1.99574, 1.99438, 2.08732, 2.07308, 2.08669, 2.09647, 1.99072, 2.10041, 2.08279, 1.98703, 2.08071, 2.07878, 2.07579, 2.0666, 1.97928, 1.9787, 2.06297, 2.07221, 2.06755, 1.97556, 2.06373, 2.06523, 1.96932, 1.96817, 2.05754, 2.05238, 2.03447, 1.95832, 1.95905, 1.95445, 1.9564, 2.04467, 1.89357, 1.89208, 2.0705, 1.93541, 1.93387, 1.88433, 1.88041, 1.87826, 1.94092, 1.92764, 1.877, 1.87652, 1.96548, 1.87602, 2.05522, 1.87323, 1.86992, 1.96273, 1.86945, 2.07262, 1.86511, 1.86244, 1.71116, 1.89577, 1.89218, 1.70258, 1.69791, 1.69514, 1.69237, 1.69376, 1.86812, 1.69155, 1.68711, 1.68832, 1.79406, 1.68494, 1.68489, 1.68398, 1.68495, 1.6831, 1.74836, 1.68287, 1.86505, 1.86229, 1.6851, 1.68552, 1.68842, 1.74002, 1.68862, 1.84855, 1.69587, 1.69547, 1.70173, 1.70033, 1.70187
1.9618, 1.9319, 1.93195, 1.93136, 1.92774, 1.97603, 1.92341, 1.92361, 1.97254, 2.02731, 1.91838, 2.02732, 1.91654, 1.91044, 1.90922, 1.91008, 1.90585, 1.90392, 1.954, 1.90345, 1.95161, 1.90056, 2.02399, 2.09059, 2.09336, 1.90656, 2.08281, 1.91016, 2.04591, 2.0449, 2.04822, 2.0515, 2.03515, 2.03361, 2.02761, 1.94798, 2.02482, 2.0215, 2.01413, 2.04639, 2.00946, 2.0084, 2.00366, 2.00295, 2.00299, 1.99857, 2.1351, 1.99395, 1.99282, 1.99567, 1.99514, 2.13142, 1.92256, 2.00109, 2.12585, 2.03128, 2.02917, 2.08225, 2.08668, 2.09657, 1.99838, 2.00038, 1.99386, 1.99405, 1.99387, 2.06923, 2.09322, 2.09591, 2.08251, 2.09237, 2.08622, 2.08509, 1.98607, 2.08235, 2.0788, 2.07371, 2.08423, 1.97831, 2.05703, 1.9756, 2.06292, 2.08056, 2.05819, 2.0585, 2.06881, 1.96958, 2.07028, 2.0539, 2.05289, 2.04528, 2.05374, 2.03811, 1.95614, 1.95497, 2.04846, 1.89307, 1.8876, 1.8868, 1.88622, 1.93391, 1.93196, 1.88171, 1.87949, 1.8775, 2.06957, 1.87611, 1.87542, 1.92524, 1.87267, 1.87291, 1.87155, 1.86981, 1.86832, 1.86765, 1.86595, 1.86378, 1.86095, 1.96574, 1.89379, 1.70262, 1.88396, 1.69866, 1.69227, 1.87973, 1.69259, 1.68937, 1.79087, 1.75554, 1.68572, 1.68543, 1.87199, 1.6826, 1.68162, 1.68248, 1.86845, 1.86486, 1.68116, 1.67977, 1.86205, 1.79981, 1.6857, 1.85959, 1.85431, 1.84805, 1.69256, 1.69449, 1.6959, 1.74755, 1.83899, 1.69836
2.07293, 2.03699, 1.93062, 1.92823, 1.92571, 1.92461, 1.92157, 1.92013, 1.97007, 2.01169, 2.01244, 1.91457, 1.91298, 1.91161, 1.90715, 1.90841, 1.90346, 1.95578, 1.90387, 1.95175, 1.95018, 1.9021, 2.01728, 1.90117, 2.19273, 1.90419, 1.9057, 2.1943, 2.05125, 2.04146, 1.96572, 2.04174, 2.03338, 2.03449, 2.02617, 2.02385, 1.94574, 2.04778, 1.93882, 2.04621, 2.04626, 2.00678, 2.13277, 2.00301, 1.99761, 1.99709, 1.99732, 1.99405, 1.99596, 2.04129, 1.9185, 1.91887, 2.1249, 2.12801, 2.03391, 2.01085, 2.13349, 2.07884, 2.07665, 2.09787, 1.99771, 1.99707, 1.99401, 2.07254, 2.06877, 2.06937, 2.07653, 2.09396, 2.07466, 2.08542, 2.07864, 2.087, 2.08078, 2.06659, 2.07891, 2.06783, 2.06962, 2.07379, 1.97605, 2.0567, 2.07242, 1.97525, 1.97322, 2.08011, 2.05573, 2.05478, 2.06999, 2.0597, 2.04575, 2.05394, 2.03189, 1.95526, 1.95498, 1.95252, 2.022, 1.89326, 1.89145, 1.93789, 1.93547, 2.07835, 1.88078, 1.97168, 1.98105, 1.87549, 1.87597, 1.87355, 1.97456, 1.8729, 1.96802, 1.96979, 2.05963, 1.91778, 1.86802, 1.86523, 1.91355, 1.86151, 1.86076, 1.70873, 1.70589, 1.69928, 1.69905, 1.69423, 1.6937, 1.69041, 1.69024, 1.68819, 1.68573, 1.87691, 1.68465, 1.68579, 1.68168, 1.78755, 1.68249, 1.68244, 1.78922, 1.68121, 1.68073, 1.86711, 1.68368, 1.68315, 1.68338, 1.68353, 1.68452, 1.68957, 1.80157, 1.84729, 1.80026, 1.6951, 1.69838, 1.69682
1.94128, 2.03169, 2.03073, 2.19506, 1.92488, 1.92453, 1.97392, 1.97059, 1.96868, 1.97023, 2.01127, 1.91348, 1.91001, 1.91217, 1.91008, 1.90653, 1.90668, 1.90211, 1.90349, 1.90247, 1.90062, 1.96742, 1.95014, 1.90085, 1.95296, 1.90264, 2.01685, 2.01991, 2.05116, 2.14582, 2.03775, 1.96199, 1.95899, 2.03086, 2.02821, 2.04834, 2.04617, 2.14121, 2.12463, 2.04542, 2.04578, 2.00863, 2.004, 2.00164, 2.00088, 1.99702, 2.13759, 2.13203, 1.99261, 1.9928, 2.03838, 1.9967, 1.9955, 1.99758, 2.03256, 2.01025, 1.93795, 2.09388, 2.10036, 2.09392, 1.99662, 1.99427, 1.99628, 2.0733, 2.07593, 2.08131, 2.10055, 1.99073, 2.07972, 2.07261, 2.06942, 2.081, 2.06761, 2.07707, 2.07517, 2.07999, 2.08037, 2.07607, 1.97554, 2.06899, 2.05916, 2.06019, 2.0613, 2.05223, 2.0511, 2.05594, 1.96544, 2.04912, 2.05299, 2.04986, 2.03505, 1.95477, 1.95475, 1.95199, 2.03796, 1.89301, 1.93781, 1.93584, 1.88349, 1.88303, 1.87925, 1.9279, 1.87641, 1.87532, 1.87566, 1.97359, 1.87257, 1.87167, 1.86723, 2.0634, 1.86782, 1.86362, 1.86385, 1.86582, 1.85938, 1.85895, 1.85851, 1.70664, 1.79924, 1.69922, 1.69653, 1.69087, 1.69114, 1.68907, 1.76862, 1.68682, 1.68371, 1.68201, 1.68233, 1.68436, 1.68172, 1.68297, 1.68153, 1.68187, 1.68134, 1.67883, 1.67779, 1.68046, 1.68022, 1.68062, 1.85482, 1.68214, 1.68476, 1.84776, 1.68684, 1.84167, 1.69135, 1.68812, 1.69759, 1.69457
1.93788, 1.92857, 2.03128, 1.92723, 1.92599, 1.92185, 2.19004, 1.91866, 1.91749, 1.919, 2.00054, 2.01332, 1.96262, 1.91019, 1.90712, 2.02797, 1.90472, 1.90113, 1.90174, 1.90029, 1.95031, 1.96557, 1.89964, 1.9493, 1.89952, 1.90427, 2.01384, 1.9579, 2.04441, 2.0449, 2.0461, 1.95876, 2.03143, 2.03167, 2.02836, 2.04425, 2.02037, 2.01995, 2.01508, 2.00969, 2.00742, 2.00501, 2.1319, 1.99997, 1.92237, 1.91812, 1.91788, 1.99164, 1.99433, 1.99311, 2.0359, 2.03448, 2.03388, 1.99702, 2.1103, 2.1107, 2.02549, 2.10656, 2.0867, 2.07255, 2.0788, 2.07199, 2.06634, 2.07265, 2.06555, 2.09402, 2.08108, 2.09386, 2.0785, 2.08615, 2.06984, 2.08269, 1.98316, 2.07061, 2.06678, 1.97923, 1.97851, 2.05637, 2.06685, 2.08627, 1.97278, 1.97283, 2.06223, 2.05909, 2.05923, 1.96571, 2.05596, 2.05631, 2.05884, 2.04568, 1.95513, 1.9554, 1.95392, 1.95232, 1.95136, 1.89115, 1.88879, 1.88584, 1.88273, 1.88201, 1.87879, 1.87667, 1.9256, 1.87312, 1.8735, 1.87304, 2.06021, 1.8702, 1.86892, 1.86788, 1.8646, 2.06674, 1.86219, 1.86331, 1.95894, 1.85902, 1.85757, 1.70607, 1.70069, 1.69732, 1.69559, 1.69234, 1.68985, 1.68799, 1.6871, 1.68535, 1.68242, 1.87012, 1.6817, 1.68221, 1.68111, 1.73354, 1.67859, 1.67719, 1.86531, 1.67779, 1.67683, 1.67841, 1.67826, 1.85794, 1.85578, 1.85533, 1.68232, 1.84259, 1.83993, 1.84024, 1.83853, 1.69158, 1.82388, 1.80422
1.93514, 1.92811, 2.03091, 1.92509, 2.02875, 1.92208, 1.92315, 1.92045, 1.91785, 1.91694, 1.91423, 1.96176, 1.96077, 1.95969, 1.9074, 2.02453, 1.90368, 1.90346, 1.9018, 1.90097, 1.8965, 1.89925, 1.9479, 1.90018, 1.96184, 1.90202, 1.99734, 1.90675, 2.04625, 2.04863, 2.03635, 1.95891, 1.956, 2.03057, 2.02897, 2.02616, 2.01912, 1.94197, 1.93768, 2.00985, 2.00898, 2.00409, 2.0011, 1.92388, 1.99518, 1.99408, 1.99112, 1.99266, 1.99162, 1.91519, 1.99075, 1.99399, 2.03096, 2.0015, 2.00151, 2.00373, 2.11704, 2.08387, 2.09203, 2.08848, 2.06958, 2.07663, 1.99099, 2.06743, 2.08562, 1.98926, 2.0831, 2.07862, 2.07505, 2.08157, 2.07115, 2.06757, 2.07532, 2.06917, 2.06978, 2.05854, 1.97755, 2.06696, 1.97512, 2.06632, 2.07905, 1.97378, 2.06838, 1.96826, 2.06931, 2.07306, 2.04887, 2.05334, 2.05508, 1.9581, 2.04903, 1.95379, 1.9499, 1.95045, 2.04117, 1.89047, 1.88619, 1.88522, 1.88244, 1.8788, 1.87883, 1.87508, 1.92505, 1.96832, 1.96582, 1.98318, 1.86604, 1.96573, 1.97116, 1.96551, 1.86538, 1.86525, 1.8609, 1.86067, 1.85582, 1.85621, 1.85464, 1.69959, 1.69985, 1.69342, 1.69018, 1.69108, 1.689, 1.68618, 1.74514, 1.68261, 1.7797, 1.68265, 1.68183, 1.67824, 1.7302, 1.67625, 1.72917, 1.77616, 1.86119, 1.67362, 1.67536, 1.67622, 1.67796, 1.67837, 1.67712, 1.67686, 1.84682, 1.84191, 1.83953, 1.83814, 1.6902, 1.69201, 1.82223, 1.69652
1.93856, 1.92909, 1.92867, 1.92388, 1.92204, 1.92196, 1.92292, 1.91779, 1.91542, 1.91468, 2.01723, 1.91156, 1.96072, 1.9589, 1.9066, 1.90301, 2.02228, 1.94981, 1.89957, 1.8998, 1.89955, 2.01354, 1.89726, 2.01168, 1.90038, 1.90084, 2.08667, 2.08336, 2.04907, 2.03881, 2.03623, 2.03628, 2.03105, 2.02921, 2.04503, 2.04422, 2.0207, 2.04307, 2.01391, 2.00854, 2.00747, 2.00187, 2.00314, 1.99822, 1.99462, 2.12797, 1.91742, 1.91495, 1.99061, 1.91332, 1.99239, 2.11449, 2.03032, 1.99781, 1.92467, 2.00666, 2.11678, 2.08134, 2.07336, 2.07712, 2.06955, 2.07248, 2.06848, 2.06413, 2.0725, 2.06454, 2.06177, 1.98782, 1.98657, 1.98625, 2.07399, 2.0767, 2.06664, 2.07011, 1.97887, 2.06381, 2.05789, 2.06208, 2.06676, 1.97307, 1.97204, 2.05539, 2.06271, 1.96833, 1.97026, 2.05441, 2.05215, 2.04857, 2.04753, 2.04338, 2.03041, 1.95286, 1.95278, 1.95036, 1.94934, 1.89219, 2.06869, 1.88319, 1.88019, 1.8796, 1.87698, 2.07305, 1.9932, 1.97863, 1.8695, 1.9698, 1.86698, 1.86625, 2.05755, 1.96784, 1.86484, 1.85997, 1.85572, 1.85752, 1.85512, 1.96025, 1.8508, 1.70111, 1.69797, 1.87881, 1.68912, 1.68906, 1.87137, 1.68316, 1.682, 1.76538, 1.73121, 1.67977, 1.86827, 1.67748, 1.73953, 1.93779, 1.7273, 1.85573, 1.6748, 1.67359, 1.67475, 1.67301, 1.67489, 1.67712, 1.85022, 1.78208, 1.84378, 1.68274, 1.68291, 1.83563, 1.68535, 1.68976, 1.69041, 1.81775
1.95408, 2.1998, 1.92665, 1.92369, 1.92436, 1.92124, 1.9202, 1.91685, 1.9162, 2.02434, 1.91339, 2.02368, 1.9581, 1.95709, 2.02126, 1.90446, 2.02111, 1.90312, 1.89907, 1.89784, 1.89692, 1.89757, 2.01376, 1.89971, 1.90117, 1.90252, 1.90168, 2.07695, 2.04891, 2.04655, 2.04411, 2.0325, 2.03168, 2.03128, 2.02318, 2.02178, 2.01832, 1.93835, 2.01164, 2.00803, 2.00411, 2.00467, 1.99791, 1.99713, 1.99606, 1.9923, 2.03858, 2.03784, 1.98941, 1.91398, 1.99066, 1.99255, 1.99662, 2.03004, 1.99944, 2.02647, 2.02402, 1.9954, 2.08182, 2.07116, 2.07185, 1.98957, 2.06791, 2.06521, 2.07634, 1.98913, 2.088, 2.09639, 2.0672, 1.98275, 1.98569, 2.06696, 2.08608, 2.05982, 2.06202, 1.9775, 2.06193, 2.06685, 2.06655, 1.97213, 1.97041, 2.05214, 2.0387, 1.96815, 1.9658, 2.06584, 2.04449, 2.05114, 2.04892, 2.03988, 1.95205, 1.95112, 1.94996, 1.94943, 2.04074, 1.88739, 1.88693, 1.88368, 1.88051, 1.87712, 2.0743, 1.97913, 1.87147, 1.869, 2.05194, 1.99255, 2.05207, 2.06232, 1.86224, 1.96809, 1.86135, 1.85975, 1.95971, 1.85576, 1.94924, 1.85091, 1.85067, 1.69835, 1.69533, 1.69178, 1.68907, 1.68601, 1.86532, 1.77936, 1.68366, 1.67711, 1.72965, 1.67692, 1.67662, 1.67739, 1.72695, 1.67605, 1.79181, 1.67343, 1.67289, 1.77897, 1.76211, 1.67459, 1.67369, 1.85189, 1.67203, 1.67495, 1.84115, 1.84104, 1.68289, 1.83512, 1.68497, 1.68629, 1.68816, 1.69229
1.95287, 1.92771, 1.92482, 1.92325, 1.92139, 1.92181, 1.92053, 2.01988, 2.02376, 1.91464, 1.91691, 1.91077, 1.95773, 2.00492, 2.00564, 2.00363, 1.90311, 1.90197, 2.01782, 2.01756, 2.09515, 2.01753, 2.19511, 1.97289, 2.00762, 1.90066, 1.90222, 1.90413, 2.04021, 2.03842, 2.04112, 2.04199, 2.03194, 2.02912, 2.02553, 2.02057, 2.01796, 2.04256, 2.04227, 2.00786, 2.00459, 2.00186, 2.00096, 1.99722, 1.99656, 1.91716, 2.12586, 1.98988, 1.91399, 1.99065, 1.99049, 1.91347, 1.99431, 2.02904, 2.02902, 2.02566, 2.09896, 2.07236, 2.08636, 1.99262, 2.06979, 2.06869, 2.06522, 2.0659, 2.06185, 2.07991, 2.07487, 1.9859, 1.98625, 2.07593, 2.05623, 2.08335, 1.98113, 2.06956, 2.06371, 2.06185, 2.06807, 2.07408, 1.97219, 2.06236, 1.97016, 2.07203, 2.06253, 2.06515, 1.96529, 2.05323, 1.96056, 1.96165, 1.95599, 1.95502, 1.95161, 1.94981, 1.94863, 1.94804, 2.04422, 2.06488, 1.93484, 1.88094, 1.87925, 2.06573, 2.06271, 1.87138, 1.86901, 1.8682, 1.96713, 1.86508, 1.86105, 1.86296, 1.96611, 1.85689, 1.85815, 2.05255, 1.96135, 1.85449, 1.95316, 1.8496, 1.84757, 1.79258, 1.69354, 1.69084, 1.6887, 1.68424, 1.6825, 1.68135, 1.86579, 1.67372, 1.67653, 1.67485, 1.67286, 1.67365, 1.67348, 1.67394, 1.72945, 1.67256, 1.67367, 1.67294, 1.6752, 1.67369, 1.84801, 1.84984, 1.67493, 1.67377, 1.83897, 1.83687, 1.68201, 1.68248, 1.68879, 1.68469, 1.68875, 1.68836
1.93251, 1.92665, 1.92318, 2.02456, 2.0277, 1.92032, 2.0273, 2.02594, 2.02486, 1.91165, 1.91214, 1.91052, 1.90779, 1.90594, 1.90617, 2.00821, 1.90237, 1.94762, 1.89832, 1.89786, 1.89545, 1.89637, 1.89579, 1.97238, 1.97217, 1.89973, 1.9026, 1.90377, 2.13452, 1.96106, 2.03549, 2.03447, 2.04108, 2.12263, 2.04186, 2.12045, 2.01993, 2.04208, 1.93387, 2.03895, 2.00462, 2.00153, 1.99966, 2.03749, 2.03818, 1.99099, 1.91484, 2.12755, 2.03386, 1.9865, 1.99024, 2.03142, 1.91503, 1.92009, 2.00129, 2.12843, 2.13148, 2.08335, 2.09628, 2.0917, 2.06783, 2.06732, 1.98722, 1.98541, 2.06237, 2.05789, 2.07862, 2.08398, 2.07888, 2.08179, 2.06905, 2.06965, 2.0731, 1.97932, 2.06795, 2.06745, 2.07368, 1.97286, 2.06801, 1.97219, 2.07536, 2.05192, 2.06209, 2.04866, 1.9656, 2.05078, 2.06866, 2.05868, 2.0422, 1.9542, 2.04239, 1.94855, 1.94795, 1.94825, 2.02736, 1.9372, 1.93448, 1.87782, 1.87589, 2.06507, 1.87243, 1.86987, 1.98132, 1.86497, 1.86493, 1.86123, 1.86132, 1.96609, 2.0569, 1.85808, 1.90659, 1.85448, 1.85286, 1.85079, 1.84988, 2.04851, 1.84467, 1.69422, 1.87278, 1.87418, 1.68635, 1.68364, 1.86617, 1.67687, 1.67889, 1.78873, 1.67509, 1.67529, 1.67185, 1.8556, 1.85571, 1.77095, 1.67036, 1.66952, 1.85018, 1.66932, 1.67024, 1.84804, 1.67135, 1.66991, 1.67232, 1.67494, 1.67632, 1.67762, 1.83408, 1.67959, 1.82665, 1.68849, 1.68425, 1.819
1.9548, 1.92615, 1.92695, 1.92205, 1.92369, 1.9684, 2.01746, 1.91653, 2.02351, 2.01975, 2.01079, 1.90789, 1.90913, 2.00554, 2.01742, 1.95296, 1.89963, 1.89769, 1.8977, 2.01517, 1.89459, 2.01898, 1.89334, 1.89375, 2.01239, 2.01287, 1.96465, 2.07928, 2.03802, 2.04867, 2.04369, 2.03164, 2.12347, 2.12815, 1.94497, 2.04393, 2.015, 2.01486, 2.01147, 2.00636, 2.00338, 1.92385, 1.99991, 2.12797, 1.99466, 1.99309, 1.99298, 1.98893, 1.98819, 2.12145, 1.98958, 1.98994, 1.99178, 1.99642, 2.02422, 1.92538, 2.11394, 2.08079, 2.07584, 2.08262, 2.07483, 1.98667, 1.98516, 1.98366, 2.06653, 2.07725, 2.07398, 1.98446, 1.98324, 1.98161, 2.06662, 2.06584, 2.0682, 2.0588, 2.05412, 2.06927, 1.97598, 2.06266, 1.97229, 2.0558, 2.06487, 2.06551, 2.05332, 1.96675, 2.05174, 2.04744, 2.05842, 2.04866, 2.0491, 2.05157, 1.9515, 1.95018, 1.94674, 1.94653, 2.04109, 1.88615, 1.88207, 1.8759, 1.98335, 1.9251, 1.96867, 1.86699, 1.86377, 1.86353, 1.91049, 1.85895, 1.85886, 1.96551, 1.85482, 1.96074, 1.85137, 1.85189, 1.85051, 1.96746, 1.94151, 1.8449, 1.95166, 1.69216, 1.8741, 1.87053, 1.73247, 1.73053, 1.67874, 1.67824, 1.67662, 1.86072, 1.67252, 1.67156, 1.67233, 1.67074, 1.67086, 1.67058, 1.66986, 1.66555, 1.66849, 1.66785, 1.66664, 1.6685, 1.66833, 1.66725, 1.83876, 1.67314, 1.67567, 1.93829, 1.67834, 1.68131, 1.68285, 1.68499, 1.68469, 1.68443
1.95361, 1.92591, 1.92356, 1.98432, 2.04552, 1.91981, 1.91328, 1.91438, 2.00998, 1.96112, 1.96557, 1.90803, 1.90788, 2.00482, 1.90677, 1.90024, 1.8994, 1.8987, 1.89335, 2.01677, 1.89363, 2.19779, 1.89397, 1.89368, 1.99582, 2.01066, 1.89963, 1.90408, 2.0391, 2.13182, 2.12376, 2.03115, 2.0414, 2.02777, 2.02453, 2.02095, 2.03979, 2.01353, 1.93167, 2.00651, 2.03839, 1.99972, 1.99824, 1.99613, 1.99161, 1.99233, 1.9896, 1.98783, 1.99065, 1.91092, 1.98575, 2.02759, 2.12065, 1.99253, 1.92057, 1.92499, 2.11228, 1.99241, 2.07879, 2.07322, 1.989, 1.98615, 1.98448, 1.985, 1.98312, 2.0825, 2.06907, 1.98278, 2.07253, 2.07738, 2.07332, 2.08298, 1.97842, 2.078, 1.97528, 2.06797, 2.06917, 2.06775, 2.06255, 1.96927, 2.05562, 2.05197, 2.062, 2.05032, 1.96249, 2.04042, 2.05032, 2.03247, 1.95312, 2.02748, 2.02877, 2.02737, 2.02148, 1.94498, 2.04396, 1.88565, 1.87946, 1.87377, 1.98172, 1.9237, 1.97673, 1.86484, 2.07337, 1.90971, 1.85927, 1.90679, 1.85618, 1.85458, 1.85335, 1.95865, 1.84935, 1.84783, 1.89682, 1.95253, 1.84126, 1.84118, 1.94817, 1.69256, 1.68592, 1.68634, 1.73165, 1.68152, 1.67756, 1.67426, 1.67578, 1.85857, 1.76608, 1.67094, 1.67156, 1.85593, 1.6688, 1.76848, 1.8511, 1.66704, 1.66685, 1.66569, 1.66519, 1.84152, 1.66519, 1.66665, 1.67061, 1.67224, 1.83357, 1.67553, 1.67392, 1.82434, 1.82246, 1.68249, 1.82312, 1.68522
1.93048, 1.92439, 1.97289, 1.97939, 2.04389, 1.91681, 1.91574, 1.91238, 2.01886, 1.95894, 1.9587, 1.90829, 1.90543, 1.90287, 2.01827, 1.90184, 1.90059, 2.00189, 1.89561, 2.00243, 1.8928, 1.89028, 1.89147, 1.89299, 1.89607, 1.89764, 1.89845, 1.98625, 2.03922, 2.03542, 2.03866, 2.03166, 2.03269, 2.02531, 2.02149, 2.02049, 2.01648, 1.93397, 2.00753, 2.00726, 2.00677, 1.99901, 2.03909, 1.99335, 1.99035, 1.98909, 1.98888, 2.11493, 1.98319, 1.91009, 2.11385, 2.12685, 1.99066, 2.0239, 1.9983, 2.00696, 2.10598, 1.99247, 1.98967, 1.98714, 1.98645, 1.98522, 1.98371, 1.98256, 1.9812, 1.98173, 1.98089, 2.0691, 2.07052, 1.98052, 2.07022, 2.06212, 2.06232, 1.97529, 2.06647, 2.06513, 2.07242, 2.05719, 2.05957, 1.96849, 2.0531, 2.05692, 2.06825, 2.05216, 1.9618, 2.0696, 2.0588, 1.95586, 1.95285, 2.02789, 2.02423, 2.02137, 2.0235, 1.94479, 1.945, 2.06307, 1.97193, 1.87702, 1.97882, 1.97656, 1.9761, 1.86187, 1.86015, 1.8593, 1.85634, 1.93158, 1.85265, 1.8502, 1.96286, 2.05196, 1.89974, 1.84549, 1.89564, 1.94135, 1.84036, 1.83891, 1.9459, 1.86903, 1.68645, 1.94869, 1.77085, 1.67857, 1.67515, 1.67274, 1.67177, 1.66921, 1.76546, 1.6674, 1.66547, 1.71923, 1.66768, 1.77923, 1.66574, 1.66868, 1.84405, 1.66432, 1.79053, 1.66339, 1.66617, 1.81646, 1.66746, 1.67145, 1.66921, 1.67161, 1.67587, 1.67699, 1.81681, 1.6812, 1.88274, 1.68182
1.94747, 1.92242, 1.97233, 1.96924, 1.91869, 2.10005, 2.09793, 1.91198, 2.01946, 1.91019, 2.02095, 2.02085, 1.9064, 2.0238, 1.90098, 1.89988, 1.90102, 1.89908, 1.89433, 2.01337, 1.89279, 1.89197, 2.00681, 1.89372, 1.95134, 1.89725, 1.90025, 1.96108, 2.03772, 2.03427, 2.04058, 2.04089, 2.02402, 2.0246, 2.03939, 1.94166, 2.01377, 2.03859, 2.00668, 2.00492, 2.03567, 2.00088, 1.99684, 1.99308, 1.91234, 1.99045, 1.90922, 2.03109, 1.98695, 1.98801, 1.98689, 1.90958, 1.98953, 1.91571, 2.02274, 2.0035, 2.1217, 2.08261, 2.09626, 2.07335, 1.98451, 1.98238, 1.98033, 1.98128, 2.06956, 2.0791, 1.97876, 2.06574, 2.08085, 2.08552, 2.06705, 2.06524, 2.06727, 1.97514, 1.9737, 2.06517, 2.05919, 2.05374, 2.05812, 1.96803, 2.04899, 2.06216, 2.05664, 1.96192, 2.0542, 1.95978, 2.0556, 2.0501, 2.06292, 2.04573, 1.94689, 2.02663, 1.94482, 1.94229, 1.9421, 1.87989, 1.96933, 1.96939, 1.97077, 1.97207, 1.86305, 1.85927, 1.85788, 1.85546, 1.90529, 1.85119, 1.85014, 1.84964, 1.8476, 1.8466, 1.89462, 1.8936, 1.89257, 1.83895, 1.83721, 1.83648, 2.03901, 1.6878, 1.80722, 1.6827, 1.85928, 1.72443, 1.72356, 1.79817, 1.66888, 1.66863, 1.76334, 1.66748, 1.66841, 1.66579, 1.66339, 1.66524, 1.84408, 1.66391, 1.66314, 1.66433, 1.71309, 1.83837, 1.79328, 1.66836, 1.66544, 1.71736, 1.67, 1.67162, 1.82129, 1.67637, 1.67596, 1.81508, 1.81304, 1.67885
1.94814, 1.92132, 1.92061, 1.92013, 1.96849, 2.09606, 1.91216, 1.91118, 1.91132, 1.91094, 1.95983, 2.02176, 1.95317, 1.90139, 1.95082, 2.00809, 1.89797, 1.89542, 1.89366, 1.89051, 1.89103, 1.89132, 1.89053, 1.89224, 1.94488, 2.01529, 2.07915, 2.03826, 2.03831, 2.03582, 2.04169, 2.03765, 2.02568, 2.02408, 2.02101, 2.01665, 2.12059, 2.01034, 2.00679, 2.0358, 2.00063, 1.99902, 1.99418, 1.91683, 2.11016, 1.98836, 2.03068, 2.02912, 1.98882, 1.90686, 2.02696, 1.91011, 1.98899, 2.02062, 2.02047, 1.99955, 2.11249, 2.08746, 2.07024, 2.07854, 1.98409, 1.98123, 1.98071, 1.97947, 2.07615, 2.05504, 1.979, 2.0705, 1.97909, 2.06814, 2.07306, 2.05891, 2.0691, 2.04779, 2.05199, 2.05902, 2.07321, 2.06552, 2.04187, 2.04841, 2.0628, 2.04621, 2.04925, 2.06274, 2.04866, 2.0421, 2.04552, 2.04992, 2.03486, 2.04927, 2.02661, 2.02488, 1.94647, 1.94116, 1.94146, 2.07587, 1.87639, 1.86924, 1.91723, 1.96912, 1.85875, 1.85872, 1.85451, 1.85372, 1.84925, 1.84828, 1.897, 1.84586, 2.04502, 1.84055, 1.89125, 1.83815, 1.91447, 1.94863, 1.83497, 1.92787, 1.83014, 1.73606, 1.73347, 1.67903, 1.67627, 1.67324, 1.72137, 1.72009, 1.66764, 1.66719, 1.84772, 1.716, 1.65989, 1.84523, 1.66402, 1.78493, 1.75271, 1.66188, 1.83859, 1.71053, 1.71217, 1.66113, 1.83201, 1.88304, 1.74926, 1.66795, 1.82275, 1.8207, 1.67401, 1.67446, 1.8172, 1.67503, 1.81439, 1.81
1.93089, 1.92434, 1.99397, 1.92027, 1.91757, 2.01411, 1.91316, 1.91095, 1.91071, 1.95853, 1.95888, 2.01775, 1.90428, 1.95147, 1.94993, 2.0131, 1.89893, 1.89347, 1.89116, 1.89474, 1.94112, 1.89151, 1.94122, 2.02435, 1.94462, 1.89594, 1.89808, 2.03848, 2.03906, 1.95919, 2.0293, 2.02739, 2.0247, 2.02425, 2.03395, 2.01683, 2.01046, 2.00938, 2.00654, 2.03427, 2.00296, 1.92079, 1.91826, 1.99052, 2.03265, 1.98718, 1.98986, 1.90736, 1.98284, 1.90709, 1.98267, 1.98581, 1.98713, 1.99286, 2.10424, 2.01721, 2.01758, 2.09353, 1.98629, 1.98301, 1.98206, 1.98089, 1.97887, 1.97849, 1.97615, 2.05547, 2.08547, 2.0675, 2.06369, 2.06955, 2.07236, 2.06436, 2.05784, 2.05617, 2.04878, 2.04616, 2.04481, 1.96615, 2.05609, 2.04997, 2.06175, 2.0521, 2.0495, 1.95867, 2.05232, 2.04327, 1.95557, 2.04096, 2.05137, 2.03586, 2.04242, 1.944, 1.94418, 1.94217, 1.9407, 1.87822, 1.87495, 1.86843, 1.97574, 1.86096, 1.85773, 1.85545, 1.85291, 1.85442, 1.84796, 1.84703, 1.84439, 2.0596, 1.84059, 2.06141, 1.95509, 1.95664, 1.83396, 1.95503, 1.83193, 2.04313, 1.82654, 1.7346, 1.73247, 1.67839, 1.67244, 1.67182, 1.66887, 1.83479, 1.6674, 1.66321, 1.66361, 1.7655, 1.66001, 1.65802, 1.66177, 1.83538, 1.66123, 1.65929, 1.83838, 1.70931, 1.78995, 1.83304, 1.66049, 1.83038, 1.66256, 1.66418, 1.82081, 1.81915, 1.67292, 1.67518, 1.81719, 1.81063, 1.677, 1.67665
1.93016, 1.92065, 1.92037, 1.91828, 1.97948, 2.01779, 2.19015, 2.0281, 1.90889, 1.90385, 1.90801, 1.90487, 1.90559, 1.95247, 1.89997, 2.01215, 2.00422, 2.01363, 1.89332, 1.89267, 1.9402, 1.94067, 1.94062, 2.0229, 1.89004, 2.00205, 2.00755, 1.90142, 2.03649, 2.03793, 2.03868, 2.02783, 2.02359, 2.02151, 2.01835, 2.01724, 1.93451, 2.12507, 2.0319, 2.03398, 2.0002, 1.92019, 1.9937, 1.98947, 1.98804, 1.98681, 1.9866, 1.9854, 1.98369, 1.98294, 1.9063, 2.02444, 1.98672, 1.90998, 1.91729, 1.99754, 2.09359, 2.06495, 2.07833, 2.08204, 1.97948, 1.97891, 1.97961, 1.97731, 2.07296, 2.06859, 2.06125, 2.06893, 2.07375, 1.97641, 2.06791, 2.07674, 2.07298, 2.06143, 2.05779, 2.04455, 2.04516, 1.96524, 2.07045, 2.07573, 2.06246, 2.05282, 2.05258, 2.05278, 2.05539, 1.95449, 2.05262, 1.95015, 1.94944, 2.02329, 2.04879, 1.9448, 1.94236, 1.94196, 1.9408, 1.92506, 2.07166, 1.96686, 1.97439, 1.85961, 2.0631, 1.85388, 2.06263, 2.05806, 1.84449, 1.84243, 1.96493, 1.83985, 2.03951, 1.88691, 1.8865, 1.83044, 1.94087, 1.83028, 1.94595, 1.8232, 1.94143, 1.7329, 1.67917, 1.67275, 1.6717, 1.77845, 1.84631, 1.7813, 1.66532, 1.66283, 1.84041, 1.78088, 1.7102, 1.66023, 1.65628, 1.65792, 1.83394, 1.6566, 1.65716, 1.65521, 1.78761, 1.83033, 1.65932, 1.82992, 1.65952, 1.81679, 1.82008, 1.66731, 1.66903, 1.81038, 1.80853, 1.67552, 1.67681, 1.67853
1.94607, 1.92337, 1.92035, 2.09984, 1.91431, 1.91397, 1.91468, 2.02092, 1.90902, 1.90404, 1.90545, 1.90336, 1.90431, 1.99727, 1.89658, 1.89733, 2.1793, 1.89319, 1.94064, 1.941, 1.89114, 1.93921, 1.89077, 1.89008, 1.89028, 1.99605, 1.89642, 1.89944, 2.03999, 2.03892, 2.02757, 2.02763, 2.03779, 2.02152, 2.01879, 1.9348, 2.03381, 2.00644, 2.03257, 1.92607, 1.92099, 1.99297, 1.99622, 1.9907, 2.02733, 1.90936, 1.98442, 2.11149, 1.98415, 1.9823, 1.98089, 1.98205, 2.09694, 1.98923, 2.0179, 1.92105, 2.11187, 2.08459, 1.9843, 2.06772, 1.98152, 1.97881, 1.9796, 1.97636, 1.97534, 1.97642, 2.06944, 2.06667, 1.97447, 2.06547, 1.97282, 1.97193, 1.97099, 2.06651, 2.0563, 2.04536, 2.0428, 2.05535, 2.06151, 1.96187, 1.96168, 2.05144, 2.06547, 2.05358, 2.04387, 2.04304, 2.02657, 2.03989, 2.03874, 2.04858, 1.946, 1.94437, 1.94053, 1.93898, 2.04494, 1.87528, 2.06727, 1.97641, 1.86253, 1.85587, 1.85284, 1.85133, 1.84718, 1.84309, 1.84272, 1.84102, 1.83675, 1.83709, 1.83249, 1.88277, 1.88056, 1.94789, 1.93908, 1.82452, 1.82135, 1.82116, 1.82026, 1.68228, 1.67855, 1.67215, 1.66946, 1.66657, 1.66542, 1.66486, 1.66233, 1.66191, 1.66205, 1.66047, 1.65849, 1.65716, 1.88753, 1.65589, 1.65492, 1.75591, 1.65628, 1.82628, 1.75894, 1.6552, 1.65586, 1.65599, 1.82669, 1.81406, 1.6623, 1.66735, 1.66877, 1.66919, 1.6694, 1.67443, 1.67515, 1.79525
1.92887, 1.91903, 1.97686, 1.91421, 2.01881, 1.91373, 1.91098, 1.90996, 1.90623, 1.90935, 1.90403, 1.90115, 1.90324, 1.94913, 2.01361, 1.89739, 1.89423, 2.01411, 1.89261, 1.93872, 1.93985, 1.88833, 1.88882, 1.9979, 2.08076, 2.07384, 1.89748, 2.05413, 2.03599, 2.03857, 2.03563, 2.03421, 2.02126, 2.03186, 2.01562, 2.016, 2.03143, 2.00625, 2.00618, 2.00196, 1.99673, 1.9959, 1.99295, 1.99197, 1.98652, 1.98686, 1.984, 1.90499, 1.98, 1.97975, 1.98342, 1.98302, 2.02051, 1.98793, 1.99073, 1.91713, 2.01409, 2.05861, 2.0742, 1.98253, 1.97848, 1.97747, 1.97986, 1.97541, 1.97586, 2.07004, 2.06562, 1.97271, 2.06981, 1.97146, 2.05633, 2.06363, 2.06638, 2.0612, 2.06306, 2.04296, 2.06313, 1.96467, 2.06296, 2.06318, 2.07603, 2.04964, 2.0562, 2.04794, 2.04133, 2.05341, 2.04324, 2.04, 2.03934, 2.03524, 1.94381, 1.94328, 1.93917, 1.93885, 2.03197, 1.87275, 1.8654, 1.86147, 1.85908, 1.96736, 1.96633, 1.84711, 1.94618, 1.84252, 1.83969, 1.83443, 1.83424, 1.8318, 1.83048, 2.02801, 1.87859, 1.9468, 1.82582, 1.94252, 1.81854, 1.818, 1.9248, 1.67721, 1.67511, 1.72462, 1.77299, 1.66773, 1.66446, 1.71284, 1.66156, 1.83427, 1.65857, 1.65573, 1.65844, 1.65646, 1.65408, 1.65745, 1.65317, 1.7357, 1.70389, 1.65241, 1.65434, 1.65366, 1.65422, 1.6559, 1.65828, 1.66134, 1.66173, 1.80928, 1.66527, 1.66863, 1.80525, 1.67009, 1.79807, 1.79291
1.94915, 1.91777, 1.91805, 1.91549, 1.91642, 1.91302, 1.91104, 2.01492, 1.90783, 1.9063, 1.90289, 1.90296, 1.90106, 1.90106, 1.89767, 1.90011, 2.00026, 1.89304, 1.89211, 2.01434, 1.88676, 1.88631, 1.88939, 1.8892, 2.08059, 1.89098, 1.89368, 2.03983, 2.03747, 2.03765, 2.12188, 2.11536, 1.94506, 2.02013, 2.03179, 2.01119, 1.93176, 2.00633, 2.03086, 1.99929, 2.02859, 2.02822, 2.02795, 1.98995, 1.98551, 1.98302, 1.98302, 1.90449, 1.90208, 1.98097, 1.9799, 1.98143, 2.11039, 1.98609, 1.99021, 1.99477, 2.01646, 1.98515, 2.07383, 2.08018, 1.9789, 1.97741, 1.9752, 1.97553, 1.97224, 2.06732, 2.0622, 2.05842, 2.06559, 1.97192, 1.97002, 2.05994, 2.06281, 2.05632, 2.04864, 2.0545, 2.04035, 2.05169, 2.05483, 1.96247, 2.04946, 2.05568, 2.0377, 2.04415, 2.04439, 2.04875, 2.02738, 2.03365, 2.04273, 1.9453, 1.94375, 1.93978, 1.93879, 1.93777, 1.9349, 1.86868, 1.86445, 1.85969, 1.9053, 1.965, 1.96618, 1.89437, 1.84409, 1.83811, 1.95517, 1.83252, 1.83103, 1.82805, 1.87867, 1.82511, 1.82247, 1.82292, 1.82288, 1.8178, 1.94179, 1.81536, 1.80871, 1.84617, 1.67261, 1.6685, 1.66449, 1.66442, 1.84223, 1.65968, 1.6583, 1.83054, 1.82906, 1.82702, 1.65554, 1.65499, 1.65265, 1.65248, 1.82145, 1.65054, 1.75743, 1.75511, 1.65114, 1.65257, 1.81315, 1.65383, 1.65721, 1.65791, 1.66115, 1.71384, 1.665, 1.6665, 1.66908, 1.66976, 1.67187, 1.7839
1.92383, 1.91777, 1.91732, 1.91657, 1.9155, 1.91236, 2.00035, 1.91012, 1.90682, 1.90416, 1.90288, 1.90268, 1.903, 1.90013, 2.00996, 1.89597, 1.99974, 1.8925, 1.88946, 2.01418, 1.88935, 2.00435, 1.88648, 1.88566, 2.07645, 2.07285, 1.89129, 1.94501, 2.11741, 2.03535, 2.11245, 2.11039, 2.02871, 2.11009, 1.93899, 2.01315, 2.00786, 2.00303, 1.92426, 1.99764, 1.99874, 1.99329, 2.02783, 2.11527, 1.98664, 1.98257, 1.9861, 1.90298, 1.97925, 1.97951, 2.02105, 2.02019, 1.98338, 1.9836, 1.9896, 1.99298, 2.10427, 2.07885, 1.98372, 1.97981, 2.05251, 1.97689, 1.97512, 1.97476, 1.97326, 2.04673, 2.05605, 2.06886, 2.06775, 2.07234, 2.05496, 2.06277, 1.96704, 1.96884, 2.05854, 2.06181, 2.03723, 2.05631, 2.05787, 2.05109, 1.95575, 2.05468, 2.04675, 2.04393, 2.04438, 2.04799, 2.02626, 1.94553, 2.03894, 1.94268, 1.93823, 1.93854, 1.93577, 1.93713, 1.93608, 1.86823, 2.05529, 1.8559, 1.85215, 1.9504, 1.96446, 1.89213, 1.83801, 1.90277, 1.8833, 1.83085, 1.82877, 1.82421, 1.82336, 1.87189, 1.82047, 1.88734, 1.81478, 1.9451, 1.80999, 1.80866, 1.90597, 1.67529, 1.67133, 1.66779, 1.76726, 1.66169, 1.65774, 1.65607, 1.65569, 1.82659, 1.65451, 1.65446, 1.7032, 1.65121, 1.65018, 1.81981, 1.81824, 1.70132, 1.73627, 1.70125, 1.64988, 1.65032, 1.64993, 1.65319, 1.7559, 1.80635, 1.6584, 1.79971, 1.6634, 1.66517, 1.66833, 1.66796, 1.66867, 1.79675
1.93861, 1.91789, 1.91626, 1.91337, 1.91097, 2.01149, 1.95815, 1.90824, 1.90708, 1.90176, 1.89993, 1.90191, 1.89955, 1.8976, 1.89561, 1.89336, 2.00672, 1.89199, 1.88938, 1.88678, 2.01074, 2.00419, 1.88674, 1.88921, 1.88792, 2.07087, 1.89226, 1.94381, 2.0314, 2.02804, 2.11473, 2.11155, 2.01999, 2.01752, 2.03083, 2.03105, 1.93068, 2.00703, 2.02752, 1.99745, 1.99617, 2.02816, 2.02509, 1.98805, 1.98392, 1.98358, 1.90364, 1.98119, 1.97924, 1.97792, 1.97612, 1.90202, 1.98145, 2.01646, 1.98865, 1.99202, 2.10645, 2.05791, 2.05622, 2.05514, 2.06262, 2.05137, 1.9737, 1.97325, 2.06814, 2.0535, 2.04848, 2.05654, 2.05619, 1.96882, 1.96855, 2.053, 2.05726, 2.06347, 1.964, 2.04476, 2.05604, 2.05283, 2.05578, 1.95895, 2.04187, 2.04162, 2.0449, 2.04127, 2.06182, 2.04807, 1.94789, 1.94505, 2.04876, 2.01934, 2.0273, 1.94154, 1.93579, 1.93432, 2.02702, 1.86348, 1.90995, 1.85418, 1.95567, 1.84519, 1.89265, 1.83876, 1.83274, 1.82952, 1.83056, 1.92688, 1.82366, 1.93185, 1.81794, 1.81797, 1.95119, 2.03407, 1.81196, 1.80857, 1.80804, 1.94404, 1.90356, 1.78228, 1.66935, 1.66713, 1.66255, 1.66063, 1.82411, 1.65758, 1.70601, 1.65243, 1.65404, 1.65201, 1.70107, 1.70065, 1.65024, 1.81415, 1.70064, 1.64502, 1.69883, 1.64923, 1.64688, 1.64904, 1.65008, 1.64876, 1.65261, 1.65424, 1.65662, 1.79683, 1.66333, 1.66294, 1.66702, 1.6679, 1.7929, 1.78999
1.94179, 1.91729, 1.91363, 1.91486, 1.91011, 1.91407, 1.90903, 2.0182, 2.02058, 1.9542, 2.01061, 1.89995, 1.89821, 1.89577, 1.89711, 1.89347, 1.89179, 1.89038, 1.89049, 2.00712, 1.88339, 1.88482, 1.99897, 1.88591, 1.8883, 2.06786, 2.0693, 2.03484, 2.03527, 2.02518, 2.03231, 2.02876, 2.10783, 2.01575, 2.10683, 2.0106, 2.02784, 2.00539, 2.00362, 1.99615, 1.99454, 1.99372, 1.99226, 1.9857, 1.98328, 2.02432, 1.98021, 1.97845, 1.97984, 1.97858, 1.89981, 2.01702, 1.98024, 2.10721, 1.90757, 1.99285, 2.10965, 2.06701, 2.07654, 2.06674, 1.9762, 1.97413, 1.97192, 1.9711, 2.04682, 2.07212, 2.06238, 2.04526, 2.07892, 2.05813, 2.05547, 2.06221, 2.06355, 2.05944, 1.96195, 2.03728, 2.05338, 2.04148, 1.95772, 2.04124, 2.04281, 1.95436, 2.04038, 1.95115, 2.0563, 2.04809, 2.03294, 2.03536, 2.03896, 2.04252, 2.02165, 1.93853, 1.93744, 1.93505, 2.02398, 1.86024, 1.8532, 1.85137, 1.84569, 1.94783, 1.92742, 1.83449, 1.95992, 1.82701, 1.82469, 1.8233, 1.81839, 1.92968, 1.95435, 1.81435, 1.81254, 2.03487, 1.80699, 1.80589, 1.80386, 1.80119, 1.79925, 1.67123, 1.66768, 1.66269, 1.66066, 1.65773, 1.65471, 1.65381, 1.71186, 1.65097, 1.86486, 1.64791, 1.64979, 1.69881, 1.64699, 1.81067, 1.79419, 1.7315, 1.64576, 1.74881, 1.64748, 1.64803, 1.64864, 1.80258, 1.65161, 1.80083, 1.79487, 1.65769, 1.66113, 1.66169, 1.66778, 1.66598, 1.66697, 1.78857
1.93962, 1.91415, 2.01386, 2.01439, 1.91113, 2.01897, 1.98404, 1.98877, 1.99374, 1.9527, 2.00981, 2.00746, 1.89726, 1.8972, 1.89377, 1.89298, 1.89, 2.00259, 1.88956, 1.88766, 1.8845, 1.88634, 1.88585, 1.88465, 1.99278, 2.07269, 1.89009, 1.95288, 2.13081, 2.02618, 2.03078, 2.02916, 1.944, 2.01446, 1.93439, 2.00862, 2.00666, 1.92775, 1.99923, 1.99428, 1.99635, 1.9917, 1.98839, 1.98361, 1.9036, 1.9825, 1.97782, 1.97932, 1.97616, 1.89939, 2.01821, 1.97753, 1.98061, 1.98265, 2.01702, 1.91179, 2.00875, 2.05597, 2.08378, 2.07631, 2.0692, 2.05061, 2.05008, 1.97124, 2.04447, 1.96873, 2.06284, 2.06601, 2.04904, 1.96985, 2.04875, 2.04794, 1.96322, 2.05835, 1.95993, 2.05346, 2.06043, 2.04008, 2.0416, 2.04335, 1.95463, 2.03966, 2.03497, 2.05211, 1.94934, 1.9485, 2.03699, 2.04081, 2.03224, 2.01625, 1.9377, 1.93723, 1.93452, 1.93272, 2.00848, 1.90767, 1.85249, 2.05677, 1.84148, 1.89049, 1.92474, 1.83229, 1.91279, 1.82248, 1.8232, 1.81956, 1.81468, 1.81545, 1.95473, 1.94537, 2.03073, 1.80573, 1.801, 1.80096, 1.79913, 1.79619, 2.03053, 1.82348, 1.66301, 1.8256, 1.65895, 1.65726, 1.81712, 1.65194, 1.70063, 1.81161, 1.6482, 1.69955, 1.64584, 1.6955, 1.69663, 1.64456, 1.64455, 1.64395, 1.80347, 1.74711, 1.64505, 1.64513, 1.64684, 1.64998, 1.84711, 1.79642, 1.65632, 1.79018, 1.65961, 1.66332, 1.66374, 1.78614, 1.66568, 1.78412
1.91763, 1.91292, 2.01497, 1.90946, 1.95981, 2.01771, 1.90762, 1.95527, 1.95313, 1.9908, 1.89957, 1.94823, 1.89711, 1.89418, 2.08245, 1.89193, 1.94087, 1.98686, 1.93431, 1.88551, 1.88311, 1.88419, 1.8808, 1.99974, 1.98666, 1.98907, 2.05846, 1.89204, 2.12991, 2.02381, 1.94628, 2.02853, 2.01436, 2.02504, 2.0256, 2.00843, 2.11069, 1.92416, 1.92152, 1.99491, 1.99347, 1.9904, 1.98882, 1.98281, 2.02263, 1.90437, 2.0212, 1.97524, 1.97529, 1.97523, 2.01495, 1.97665, 1.90018, 2.01419, 2.01399, 2.00697, 2.09152, 2.10598, 2.05134, 2.05018, 1.9731, 1.97289, 1.97135, 1.96698, 2.06691, 2.05515, 2.05952, 2.0442, 2.06282, 2.06915, 2.04901, 2.0451, 1.96134, 2.05626, 2.04606, 2.06891, 2.03918, 2.05219, 1.95467, 2.04423, 2.02856, 2.0368, 1.95007, 2.04997, 2.03157, 2.05597, 1.94422, 2.03433, 2.03888, 2.01375, 2.01817, 1.93478, 1.93272, 1.93097, 2.00791, 1.94894, 1.85015, 1.8442, 1.83849, 1.83691, 1.82974, 1.95563, 1.94194, 2.06972, 2.02834, 2.04212, 1.81268, 1.81167, 1.80407, 1.803, 1.80317, 1.8882, 1.79881, 1.84617, 1.79149, 1.8423, 2.02238, 1.66546, 1.665, 1.659, 1.65709, 1.87385, 1.64974, 1.64835, 1.77122, 1.64773, 1.64519, 1.64758, 1.69581, 1.69587, 1.64339, 1.64378, 1.63862, 1.63808, 1.63977, 1.74547, 1.64427, 1.64409, 1.64643, 1.79657, 1.64901, 1.65169, 1.6531, 1.78553, 1.78707, 1.78516, 1.66275, 1.66478, 1.78194, 1.66533
1.9176, 1.90959, 1.91083, 2.09234, 1.9068, 1.9078, 2.01557, 1.99132, 2.01323, 1.89932, 1.90035, 1.89946, 1.94581, 1.89328, 1.98692, 1.89271, 1.93717, 1.9362, 1.88605, 1.88662, 1.933, 1.88368, 2.07323, 1.88356, 1.88583, 1.88657, 1.88907, 2.02887, 2.0294, 2.03056, 2.02344, 1.94196, 2.01513, 2.02845, 2.01049, 2.02603, 2.00427, 2.10599, 1.99412, 1.99413, 2.02333, 1.98884, 1.98687, 2.11489, 1.98001, 2.02069, 1.97572, 1.8976, 1.89591, 1.97362, 1.97504, 2.01377, 2.01372, 2.01109, 2.09449, 2.00652, 2.00122, 2.12175, 2.07201, 2.04783, 1.97239, 2.0516, 1.96902, 1.96673, 2.0662, 2.04446, 2.0429, 2.05896, 2.06369, 2.03903, 1.96165, 2.03405, 1.96031, 1.9593, 2.05816, 2.05222, 1.95833, 2.05933, 2.04091, 2.04171, 2.03834, 2.02616, 2.04249, 2.04496, 2.03526, 2.03825, 2.03236, 1.94112, 2.03809, 2.0375, 1.93449, 1.93143, 1.93012, 2.01029, 2.02767, 2.04611, 2.02147, 1.84155, 1.83576, 1.95549, 2.0489, 1.82506, 1.82116, 2.05588, 2.04434, 1.81313, 1.85901, 1.92212, 1.80164, 1.80114, 1.79773, 1.92766, 1.92548, 1.8441, 1.7866, 1.78628, 1.78336, 1.6657, 1.66159, 1.70943, 1.65333, 1.65113, 1.65031, 1.6482, 1.64571, 1.64549, 1.64506, 1.9175, 1.64369, 1.64193, 1.79973, 1.79694, 1.64004, 1.6403, 1.63997, 1.63809, 1.64057, 1.79664, 1.64279, 1.77781, 1.69925, 1.64883, 1.65333, 1.78337, 1.65545, 1.75132, 1.66052, 1.77828, 1.78042, 1.66208
1.91521, 1.91046, 1.91076, 1.90989, 1.90661, 1.90904, 2.00688, 2.00316, 1.9, 2.00799, 1.94887, 1.89749, 2.0034, 1.89349, 1.88912, 1.89112, 1.93749, 1.88729, 1.99278, 1.99406, 1.88312, 1.88359, 1.97501, 1.88377, 1.98514, 1.88692, 1.88854, 1.8884, 2.02574, 2.02467, 2.02337, 1.94119, 2.01304, 2.02466, 2.00949, 2.02425, 2.00377, 2.0224, 1.91865, 2.11457, 2.01814, 1.98691, 1.98502, 1.98003, 2.0196, 1.97866, 2.11448, 2.10136, 2.10722, 1.97905, 2.01474, 1.97402, 1.97327, 2.00992, 1.98218, 1.98695, 2.0042, 1.97711, 2.07248, 2.06101, 1.97312, 1.96976, 2.04229, 1.96964, 2.059, 2.05577, 2.04081, 2.05846, 2.05968, 2.04751, 2.05325, 2.04927, 2.05005, 2.04742, 2.06285, 1.95513, 2.05216, 2.04852, 2.04301, 1.95063, 2.05163, 2.0423, 2.03891, 2.04499, 2.04078, 2.04006, 2.02773, 1.93841, 1.93736, 2.01091, 2.032, 1.92922, 2.0067, 1.92923, 2.00402, 1.89885, 1.84475, 1.83756, 1.83135, 1.92377, 1.82372, 1.82045, 1.818, 1.81338, 1.92707, 1.92627, 1.85517, 1.85208, 1.80226, 1.79602, 1.79337, 2.03331, 1.78788, 1.78567, 1.83473, 1.91665, 1.84148, 1.66334, 1.65834, 1.65876, 1.78947, 1.65113, 1.6448, 1.6452, 1.64428, 1.69402, 1.64286, 1.64283, 1.63894, 1.7997, 1.7956, 1.63655, 1.63563, 1.6366, 1.76243, 1.63838, 1.63841, 1.79037, 1.79005, 1.64402, 1.64765, 1.78023, 1.78195, 1.77995, 1.7814, 1.6576, 1.65796, 1.66119, 1.76469, 1.66386
1.9168, 1.91057, 1.90788, 1.90875, 2.00828, 2.01307, 1.8995, 1.90401, 1.89764, 2.00652, 1.89621, 1.89609, 1.98895, 1.89206, 1.89211, 1.88827, 1.88618, 1.88535, 1.88497, 1.99733, 1.88047, 1.87975, 1.94726, 1.93165, 1.88495, 1.88593, 1.88379, 1.88662, 2.02463, 2.02152, 2.02678, 2.02508, 2.02621, 2.02111, 2.01092, 2.00475, 2.09587, 2.00038, 1.99636, 2.02135, 2.01845, 2.10326, 1.9847, 1.90384, 2.01693, 2.01687, 2.0172, 1.97278, 1.97365, 1.89515, 1.97313, 2.09351, 2.10285, 2.10241, 1.90425, 1.98642, 2.09203, 2.04812, 2.05973, 2.04646, 2.05067, 1.96996, 1.9683, 1.96563, 1.96523, 2.05959, 2.04835, 2.03851, 2.07277, 2.04614, 2.0656, 1.95821, 2.04443, 1.95612, 2.04451, 2.04786, 2.03594, 1.95435, 1.95299, 2.03867, 2.02787, 2.04463, 1.94517, 2.04182, 1.94309, 2.03636, 1.94132, 1.93731, 2.02426, 2.02416, 2.0282, 1.93045, 1.92865, 2.00443, 2.00242, 1.84473, 1.83892, 1.95393, 1.82826, 1.95554, 1.82195, 1.95153, 2.04648, 1.80825, 1.80663, 2.041, 2.03889, 1.84895, 1.79465, 1.79125, 1.92446, 1.78853, 1.90632, 1.78199, 1.77932, 1.77546, 1.7756, 1.66031, 1.65576, 1.70422, 1.71292, 1.64523, 1.64455, 1.64364, 1.64322, 1.63898, 1.63879, 1.63739, 1.63726, 1.63695, 1.7909, 1.63388, 1.63664, 1.74438, 1.63477, 1.63588, 1.78731, 1.78858, 1.63987, 1.78005, 1.78323, 1.64543, 1.78079, 1.64967, 1.76525, 1.65508, 1.77584, 1.65786, 1.65999, 1.65998
1.91393, 2.18431, 1.90664, 1.90549, 1.90564, 2.01074, 1.90295, 2.00985, 2.00407, 1.89896, 1.89928, 1.89425, 1.88999, 2.00284, 1.88899, 1.88647, 1.99879, 2.00053, 2.16537, 1.88197, 1.88019, 1.8817, 1.96136, 1.87993, 1.88117, 1.88015, 1.88436, 2.02395, 2.0285, 2.02269, 2.02534, 2.02509, 2.01356, 2.01085, 2.00626, 2.00531, 2.02203, 2.11224, 2.02081, 1.99288, 1.99293, 1.98575, 1.98314, 1.97974, 1.97743, 1.97613, 1.97461, 2.01387, 1.97212, 1.97045, 1.97068, 1.97361, 1.89832, 1.8991, 1.98195, 1.98548, 2.1049, 2.0483, 2.04611, 2.06256, 2.05333, 1.96821, 1.96609, 1.96419, 2.04563, 2.05565, 2.04467, 2.05932, 2.04881, 2.05804, 2.0534, 2.03181, 2.03132, 2.03927, 2.04318, 2.05105, 1.95164, 2.03779, 2.03641, 2.04673, 1.94706, 1.94571, 1.94423, 2.03897, 2.0254, 2.0278, 2.02924, 2.03194, 2.02783, 1.93243, 1.93039, 1.92877, 1.92712, 1.92376, 2.02516, 1.8396, 2.05268, 1.82879, 1.95279, 1.95137, 1.95118, 1.94944, 1.95145, 1.80612, 2.04082, 1.79735, 1.79478, 2.03203, 1.79001, 2.00321, 1.78531, 1.78297, 1.7785, 1.77619, 1.77248, 1.77078, 1.66284, 1.65747, 1.65392, 1.76029, 1.75895, 1.64442, 1.64193, 1.7856, 1.78521, 1.63758, 1.63751, 1.63512, 1.63633, 1.83547, 1.63404, 1.78288, 1.6337, 1.72456, 1.63328, 1.63346, 1.635, 1.78368, 1.63709, 1.75174, 1.77788, 1.64226, 1.64553, 1.77595, 1.65097, 1.77527, 1.77151, 1.76547, 1.65912, 1.76983
1.9138, 1.99556, 1.90804, 2.02013, 1.95461, 1.90348, 1.90056, 1.90091, 1.89918, 2.00567, 1.89532, 1.89435, 1.89209, 1.99906, 1.88917, 1.88659, 1.88615, 1.88171, 2.16676, 1.87921, 1.98481, 1.87842, 1.87893, 1.88172, 1.93582, 1.88014, 1.98004, 2.0276, 2.02753, 2.0244, 1.94081, 2.01384, 2.02403, 2.00765, 2.00658, 2.01912, 2.09639, 2.01889, 2.09333, 1.99076, 1.98894, 1.98267, 1.98035, 1.97964, 2.01564, 1.8987, 2.01216, 1.89286, 1.89247, 1.96992, 1.97095, 2.00801, 1.97312, 1.97341, 1.97921, 2.00439, 2.1, 2.06998, 2.05944, 2.06823, 2.0716, 1.96604, 1.96322, 2.04429, 2.04253, 2.06705, 2.07663, 2.04934, 2.04837, 2.0513, 1.95805, 2.04579, 2.05698, 2.03934, 2.03684, 2.05497, 2.04475, 1.94803, 1.94562, 2.02775, 2.03549, 2.0414, 2.02603, 2.02467, 2.03608, 1.93909, 1.9364, 1.93404, 2.02558, 2.03407, 1.92823, 1.92666, 1.92694, 1.92469, 2.02337, 1.83525, 1.83056, 1.82516, 1.82233, 1.81798, 2.03836, 2.04124, 1.80625, 1.80056, 1.7966, 1.79481, 1.79164, 1.78726, 1.78367, 1.78268, 1.93943, 1.93578, 1.77531, 1.76987, 1.76956, 1.76563, 1.76284, 1.65493, 1.65194, 1.64774, 1.64542, 1.75552, 1.64078, 1.63795, 1.63503, 1.63475, 1.68533, 1.63313, 1.63225, 1.63088, 1.63174, 1.62874, 1.63001, 1.72173, 1.76232, 1.63139, 1.74466, 1.63357, 1.63445, 1.75844, 1.64366, 1.64198, 1.6958, 1.64934, 1.64767, 1.76967, 1.76588, 1.65576, 1.65698, 1.65573
2.01994, 1.90987, 1.90693, 2.01696, 1.90331, 1.90137, 1.90097, 2.16988, 1.89646, 1.8977, 1.89734, 1.89292, 1.88955, 1.88902, 1.88683, 1.88585, 1.88334, 1.88227, 2.00328, 1.87638, 1.98273, 1.87798, 1.87843, 1.87985, 1.93483, 1.93633, 2.05465, 2.10292, 2.01928, 1.94218, 2.10036, 2.01797, 2.01964, 1.93252, 2.0204, 2.00294, 1.99982, 2.01528, 2.01666, 2.01687, 1.98822, 2.09328, 1.98164, 2.10077, 2.01306, 1.97179, 1.97087, 1.89353, 1.96838, 1.9687, 1.96847, 2.00805, 1.972, 1.97588, 1.9815, 1.98086, 2.00059, 2.0668, 2.05804, 2.06324, 1.96561, 1.96532, 1.96358, 2.05222, 2.03664, 2.06161, 2.05534, 1.96149, 2.04964, 2.03835, 2.04327, 1.9556, 1.95412, 2.04801, 1.95182, 2.04137, 1.94809, 2.04758, 2.03286, 1.94419, 2.02698, 2.02724, 1.94251, 1.93931, 2.02937, 2.0252, 2.02489, 2.02982, 2.02787, 2.02265, 1.927, 1.92534, 1.92393, 1.92437, 2.01961, 1.95132, 1.83001, 2.03828, 2.03881, 1.81414, 1.90832, 1.80615, 1.80293, 1.79572, 1.79257, 1.78784, 1.78621, 1.78469, 1.8819, 1.87669, 1.77504, 1.77319, 1.76702, 1.76616, 1.76348, 1.75883, 1.76107, 1.65284, 1.64915, 1.69702, 1.6424, 1.64004, 1.63874, 1.63666, 1.63512, 1.63206, 1.63465, 1.63212, 1.62987, 1.69973, 1.63009, 1.63041, 1.62664, 1.73007, 1.74979, 1.62807, 1.68193, 1.63133, 1.63399, 1.74489, 1.74355, 1.76842, 1.75179, 1.64425, 1.64701, 1.64908, 1.77147, 1.65406, 1.65462, 1.6548
1.93556, 2.18273, 1.90659, 2.1884, 1.90407, 1.95216, 2.00641, 1.89934, 1.89723, 2.00325, 1.99671, 2.00292, 1.89143, 2.01448, 2.01349, 1.98884, 1.88093, 1.88021, 1.88034, 1.87889, 1.87714, 1.98989, 1.87618, 1.87856, 1.97765, 1.88051, 1.93128, 1.88313, 2.02068, 2.02705, 2.01519, 2.10087, 1.93204, 2.00651, 2.00774, 2.00744, 1.9974, 1.99252, 1.99019, 1.98914, 1.98353, 1.98234, 2.01284, 1.98291, 2.01048, 1.97306, 1.96985, 1.9689, 1.96732, 2.00728, 1.96609, 1.89259, 1.97275, 1.8939, 1.97621, 2.07529, 2.08548, 2.06207, 2.06123, 2.07208, 1.96801, 1.96335, 1.96325, 2.04816, 2.03804, 2.06618, 2.06271, 2.04856, 2.04519, 2.04968, 2.04221, 2.02983, 2.04241, 2.0389, 2.05191, 2.02945, 2.03178, 1.9463, 2.0416, 1.94161, 2.02919, 2.03853, 2.0262, 2.03203, 2.01198, 1.93542, 2.03119, 2.01881, 2.02328, 2.01112, 1.92592, 1.92426, 1.92119, 1.92192, 2.01683, 1.94106, 1.91343, 1.8192, 1.81413, 1.94481, 2.03165, 1.80026, 1.8472, 1.79036, 1.78999, 1.92723, 1.77897, 1.88625, 1.87523, 1.77338, 1.7672, 1.89113, 1.76373, 2.02398, 1.75915, 1.75583, 1.82139, 1.6493, 1.6454, 1.69546, 1.75805, 1.77634, 1.63471, 1.63228, 1.77646, 1.6315, 1.77424, 1.6282, 1.6272, 1.62702, 1.62709, 1.62778, 1.67643, 1.72884, 1.62582, 1.67732, 1.67907, 1.68044, 1.63108, 1.76073, 1.75872, 1.63993, 1.64178, 1.64329, 1.64388, 1.64841, 1.6479, 1.65115, 1.64928, 1.76159
1.92964, 1.90753, 1.90486, 1.90667, 2.0062, 1.89918, 1.98225, 1.89463, 1.9936, 1.89258, 1.89192, 1.89155, 1.88752, 1.88798, 1.97914, 1.98864, 1.87777, 1.87985, 1.87722, 1.87565, 1.87647, 1.98995, 1.87436, 1.87789, 1.87641, 1.97316, 1.98243, 1.95451, 1.94081, 2.0991, 2.0147, 2.01673, 2.01639, 2.00499, 2.00319, 2.00055, 2.0136, 1.99274, 1.99012, 2.01141, 1.9845, 2.01158, 1.97892, 1.97678, 1.97688, 1.97042, 2.00722, 1.96902, 1.88878, 2.00592, 1.96516, 1.88975, 1.97252, 1.97192, 1.97609, 2.09707, 2.07557, 1.96874, 2.04356, 2.05891, 2.06019, 1.96294, 1.9651, 1.96043, 2.03633, 2.07649, 2.04802, 1.95754, 1.95598, 2.04434, 2.05219, 2.03846, 2.04131, 1.94823, 2.04383, 2.03219, 2.02575, 2.03916, 2.02629, 2.03579, 2.03862, 2.03086, 2.02029, 1.93746, 2.04123, 2.0212, 2.04382, 2.02217, 1.92719, 2.00423, 1.92403, 1.92316, 1.91877, 1.91995, 1.91786, 1.82138, 1.91002, 1.90917, 1.80884, 1.87548, 1.80226, 1.94759, 1.84156, 1.78623, 1.90366, 1.77925, 1.77619, 1.77265, 1.77046, 1.8786, 1.76619, 1.76112, 1.75578, 1.7577, 1.75294, 1.86892, 1.74805, 1.64797, 1.64282, 1.69427, 1.63759, 1.63537, 1.68458, 1.63002, 1.70911, 1.73469, 1.62606, 1.72063, 1.62495, 1.62488, 1.76921, 1.73964, 1.62347, 1.7474, 1.73646, 1.62137, 1.67509, 1.62459, 1.67781, 1.6286, 1.63484, 1.63623, 1.63742, 1.64185, 1.75975, 1.69664, 1.69958, 1.69941, 1.86618, 1.65414
1.93136, 2.18627, 2.0093, 1.90146, 1.99724, 1.89975, 1.90118, 1.89697, 2.00159, 1.89643, 1.89064, 1.89127, 1.8897, 1.93596, 1.93406, 1.98529, 1.87752, 1.87882, 1.87645, 1.92811, 1.98629, 1.87292, 1.98536, 1.87472, 1.87648, 1.92907, 1.93129, 1.87716, 2.01729, 2.01867, 2.01882, 2.01699, 2.00343, 2.00597, 2.10052, 1.99803, 1.91966, 2.0136, 1.98929, 1.98569, 1.90695, 1.98007, 1.97555, 2.09875, 2.09528, 2.00742, 1.96888, 1.96615, 1.966, 1.9623, 2.0033, 1.89048, 1.89106, 1.9701, 1.97554, 1.99655, 1.997, 1.9685, 2.04112, 2.04105, 1.96342, 1.96235, 1.95932, 1.96047, 2.0431, 1.95631, 2.04501, 1.95573, 2.04581, 2.05271, 2.04604, 2.03575, 1.9478, 2.04892, 2.02961, 2.02028, 2.04341, 1.94195, 2.02469, 2.02751, 2.01993, 2.04514, 2.02474, 2.03056, 2.00726, 1.93222, 1.92896, 2.03789, 2.029, 2.00668, 1.92201, 1.92027, 1.91916, 1.91599, 1.91518, 1.94871, 1.9093, 1.8076, 1.893, 1.79875, 1.79387, 2.01909, 1.78693, 1.78228, 1.77822, 1.84871, 1.93554, 1.76638, 1.7648, 1.76162, 1.75961, 1.75677, 1.75184, 1.80074, 1.74671, 2.02005, 1.74251, 1.64448, 1.77117, 1.68962, 1.76524, 1.63065, 1.68189, 1.62953, 1.62754, 1.6252, 1.6759, 1.68382, 1.76295, 1.7649, 1.62124, 1.73792, 1.61803, 1.62142, 1.75168, 1.62158, 1.62075, 1.62416, 1.62409, 1.62772, 1.76221, 1.63435, 1.63548, 1.64083, 1.64119, 1.69488, 1.69807, 1.64739, 1.76312, 1.65132
2.02786, 1.90385, 1.90272, 1.90073, 1.90238, 1.9976, 1.8989, 1.89624, 1.89395, 1.8916, 1.9415, 1.89004, 1.88605, 1.88271, 1.99446, 1.9662, 1.88019, 1.88044, 1.87684, 1.87393, 1.87369, 1.8738, 1.87373, 1.87327, 1.92655, 1.92734, 1.87814, 1.87913, 2.01801, 2.02045, 2.01726, 2.01584, 2.0969, 2.01526, 2.09917, 2.10493, 1.99629, 2.08635, 1.98825, 1.98449, 2.10474, 1.97949, 1.97953, 1.97211, 1.9704, 1.96949, 1.96818, 1.96522, 2.00431, 1.9636, 2.09331, 1.96458, 1.88917, 1.96909, 1.97164, 1.9763, 2.07105, 2.06307, 2.06815, 2.06048, 1.96137, 1.95944, 1.95872, 1.95662, 2.05385, 2.03992, 1.95368, 2.03879, 1.95288, 1.95389, 2.04476, 2.03734, 2.0338, 1.94666, 2.0331, 2.02903, 2.02894, 2.02812, 1.93896, 2.01712, 2.02045, 2.03322, 2.03524, 2.038, 2.01833, 2.01422, 2.02389, 2.01316, 2.01105, 1.9225, 1.92141, 1.91785, 1.91853, 1.91602, 2.01429, 1.8136, 1.9051, 1.90129, 1.79735, 1.88865, 1.79351, 1.94491, 2.04239, 1.77812, 1.93826, 1.76993, 1.93584, 1.81338, 1.91747, 1.75642, 1.75356, 1.84881, 1.74929, 1.74618, 1.74233, 1.92396, 1.69652, 1.64094, 1.63726, 1.63618, 1.63361, 1.76163, 1.62977, 1.62707, 1.67672, 1.62327, 1.75672, 1.67155, 1.61976, 1.67143, 1.61818, 1.6182, 1.61699, 1.75505, 1.7477, 1.61691, 1.62002, 1.61912, 1.61977, 1.62282, 1.62759, 1.63176, 1.68527, 1.6382, 1.63843, 1.6402, 1.64228, 1.75469, 1.64563, 1.64813
1.92935, 1.90369, 1.99641, 1.99056, 1.89906, 1.89671, 1.89615, 1.89545, 1.9421, 1.89032, 1.89096, 1.99512, 1.88576, 1.99606, 1.88395, 1.87889, 1.87915, 1.87722, 1.87737, 1.87246, 1.87379, 1.9587, 1.87542, 1.87184, 1.87515, 1.96263, 1.95103, 2.01701, 2.01372, 2.01689, 2.01809, 2.00916, 2.01001, 2.00107, 2.01399, 1.99559, 2.01049, 2.01049, 1.98662, 1.98356, 1.90316, 1.97731, 1.97906, 2.09622, 1.96902, 1.96718, 1.96679, 1.96469, 1.96146, 1.96168, 1.88636, 1.99848, 1.96295, 1.99726, 1.97161, 1.99569, 1.99503, 2.05884, 1.96488, 2.0623, 2.04909, 1.95876, 1.95809, 1.95534, 2.05225, 2.04031, 2.04158, 1.95219, 1.95083, 2.04763, 1.948, 2.03235, 2.03004, 2.02885, 2.02969, 2.02295, 2.03189, 2.02477, 2.02265, 2.02465, 2.03888, 2.01642, 2.02008, 2.01456, 2.00792, 2.00422, 2.01757, 2.02558, 2.0281, 2.02067, 1.91977, 1.91728, 1.91451, 1.91454, 2.0166, 1.80992, 1.80349, 2.0268, 2.02614, 2.03328, 1.78285, 1.78161, 1.94207, 1.77143, 1.93806, 1.76232, 1.76311, 1.75605, 1.75443, 1.80525, 1.74921, 1.74737, 1.74406, 1.74094, 1.7377, 1.73599, 1.69659, 1.63899, 1.63688, 1.63439, 1.62989, 1.62938, 1.62362, 1.62429, 1.67337, 1.6204, 1.61973, 1.61718, 1.61778, 1.75186, 1.6184, 1.61724, 1.6141, 1.75432, 1.61716, 1.61308, 1.61553, 1.61571, 1.62008, 1.76034, 1.62615, 1.63067, 1.75159, 1.63478, 1.63476, 1.75511, 1.75246, 1.64141, 1.6429, 1.64427
1.92749, 1.90403, 1.90132, 1.89894, 1.89705, 1.89347, 1.8935, 1.89614, 1.89392, 1.8894, 1.93792, 1.99529, 1.88353, 1.88196, 1.99333, 1.9929, 1.87777, 1.87536, 1.98351, 1.87675, 1.87372, 1.92011, 1.86984, 1.87179, 1.92946, 1.92569, 1.87311, 1.87431, 1.93747, 2.01067, 2.09344, 2.01066, 2.00499, 2.01236, 2.09383, 1.91826, 1.9928, 1.99218, 1.98607, 1.98496, 1.97782, 1.97558, 1.97847, 1.96937, 1.96551, 1.9668, 1.96362, 1.88878, 1.96134, 1.88375, 1.96187, 1.99732, 1.96368, 1.88905, 1.89235, 1.97552, 2.08132, 2.0547, 2.06826, 2.04592, 2.03374, 2.03258, 2.03493, 1.95476, 2.03842, 2.0377, 2.04384, 2.03425, 2.03124, 1.94866, 2.03193, 2.02786, 2.02774, 2.02126, 2.02092, 2.01505, 2.02867, 2.04509, 2.03475, 1.93556, 2.01492, 2.00496, 2.01217, 2.01487, 2.01565, 2.00083, 2.01357, 2.00708, 1.92125, 1.91839, 2.00689, 1.92022, 1.91425, 1.91402, 1.91165, 1.80078, 1.79796, 1.79252, 1.78745, 1.78349, 2.03306, 1.93596, 1.93483, 1.76575, 1.93512, 1.93241, 1.7554, 1.75219, 1.91298, 1.74763, 1.74237, 1.74, 1.8686, 2.01688, 2.02708, 1.73008, 1.72928, 1.63689, 1.74354, 1.62741, 1.62676, 1.62434, 1.62154, 1.62082, 1.62069, 1.6181, 1.61491, 1.61668, 1.61392, 1.61317, 1.61479, 1.73043, 1.61414, 1.6151, 1.61337, 1.61199, 1.61332, 1.61395, 1.61645, 1.62244, 1.62609, 1.73503, 1.62711, 1.63431, 1.74723, 1.63468, 1.63827, 1.74909, 1.642, 1.75174
1.92807, 2.01822, 1.90348, 1.99087, 1.89847, 1.89584, 1.89332, 1.89531, 1.98002, 1.97973, 1.88866, 1.88298, 1.88546, 2.00434, 1.88101, 1.8769, 1.87644, 2.1562, 1.87378, 1.8717, 1.97611, 1.91904, 1.86905, 1.87137, 1.97575, 1.87036, 1.87149, 2.13721, 2.00976, 2.01273, 2.0143, 2.01324, 2.0109, 2.00146, 1.99709, 2.08367, 2.09084, 2.00673, 2.08468, 1.98325, 1.9796, 2.00327, 1.97376, 1.97016, 1.96983, 1.96583, 1.88569, 1.99802, 2.08785, 1.96036, 1.95988, 1.96004, 1.99367, 1.96587, 1.89248, 1.98955, 2.0755, 2.05671, 2.05582, 2.04534, 1.95643, 2.03487, 2.03784, 2.03065, 2.04549, 2.04471, 2.0241, 2.04119, 1.94866, 2.03728, 1.94473, 1.94487, 2.02518, 2.0313, 2.03433, 2.011, 2.02808, 2.02793, 2.02837, 2.02875, 2.02715, 2.01876, 2.03768, 2.01386, 2.01845, 2.01067, 2.01272, 2.01366, 1.9208, 2.00691, 1.98935, 1.91536, 1.91233, 1.91034, 1.91017, 1.7977, 1.79239, 1.78682, 1.78249, 1.93603, 1.77325, 1.76849, 1.76239, 1.7619, 1.85434, 1.75131, 1.84623, 1.79893, 1.79448, 1.82315, 1.8356, 1.92485, 1.73477, 1.92011, 1.72747, 1.72634, 1.63585, 1.63374, 1.63019, 1.74972, 1.62492, 1.71678, 1.61982, 1.61854, 1.61572, 1.61762, 1.61572, 1.61539, 1.61225, 1.73689, 1.61585, 1.61236, 1.60974, 1.73862, 1.74741, 1.61001, 1.60951, 1.61028, 1.61484, 1.75092, 1.61724, 1.73435, 1.62542, 1.73458, 1.63069, 1.74633, 1.63743, 1.63783, 1.63736, 1.80088
1.92821, 1.90191, 1.89951, 1.90176, 1.89696, 2, 1.89285, 1.88988, 1.89048, 1.88729, 1.88729, 1.88376, 1.88199, 1.99379, 1.97671, 1.98114, 1.96903, 1.87199, 1.92114, 1.92028, 1.9659, 1.91827, 1.86511, 1.86674, 1.97228, 1.86887, 1.86676, 1.93682, 2.01412, 1.93174, 2.01411, 2.00147, 2.00361, 2.00682, 2.00703, 1.99347, 2.11302, 1.90996, 1.98307, 2.0788, 1.97698, 1.97559, 1.97093, 1.96908, 1.99978, 1.99988, 1.88299, 1.99772, 1.95923, 1.88011, 1.95877, 1.95897, 1.9588, 1.96123, 1.96566, 1.97077, 2.08207, 1.96128, 1.95878, 2.05311, 1.95495, 2.02744, 2.03523, 2.03499, 2.05841, 2.04794, 2.04869, 2.03797, 2.03984, 2.04622, 2.02819, 2.04165, 1.94174, 1.93882, 2.0236, 2.03096, 2.02446, 2.0066, 2.01837, 2.02586, 2.0238, 2.02157, 1.92582, 2.01186, 1.92372, 1.92382, 2.00099, 2.01073, 1.91744, 1.99458, 1.98632, 1.91198, 1.91155, 1.90714, 2.01015, 1.88644, 1.78603, 1.78166, 1.82684, 2.04124, 1.87306, 1.93524, 1.75844, 1.86507, 1.75082, 1.74711, 1.74384, 1.7393, 1.73995, 1.73577, 1.8323, 1.73152, 1.72741, 1.83086, 1.71886, 1.71999, 1.71618, 1.63033, 1.62976, 1.62452, 1.62304, 1.74707, 1.61619, 1.61403, 1.61255, 1.66482, 1.61264, 1.61001, 1.73954, 1.61287, 1.60995, 1.60949, 1.61114, 1.60977, 1.74066, 1.60803, 1.60932, 1.61142, 1.61064, 1.74501, 1.61557, 1.73864, 1.7506, 1.74759, 1.62974, 1.74555, 1.73149, 1.63551, 1.63534, 1.69938
1.92391, 1.89941, 1.89929, 2.17023, 1.89477, 1.89604, 1.8936, 1.89364, 1.88986, 1.89207, 1.88532, 1.88216, 1.97855, 1.87994, 1.98381, 1.99467, 1.92217, 1.87309, 1.87221, 1.86789, 1.86739, 1.86649, 1.97667, 1.86622, 1.86712, 1.91706, 1.95848, 1.93472, 2.00972, 2.00796, 2.00687, 2.01371, 2.00019, 1.99689, 2.00439, 1.99407, 1.98953, 1.98308, 2.00294, 1.97741, 2.00003, 1.97409, 1.99887, 2.00047, 1.96578, 1.99792, 1.95879, 1.9598, 1.95665, 1.95617, 1.99309, 1.95923, 1.95934, 1.98925, 1.96413, 1.89262, 2.09675, 2.03465, 2.05586, 1.95619, 1.95502, 2.02977, 2.03451, 2.03438, 2.02586, 2.05145, 2.04817, 1.94558, 2.01816, 2.03511, 1.9415, 2.03171, 2.03817, 2.02784, 2.02448, 2.02506, 2.02693, 2.01365, 2.02807, 2.00927, 2.02148, 1.92574, 2.02823, 1.92251, 1.92203, 1.92064, 2.03474, 2.01341, 2.00694, 1.9917, 1.9935, 1.91091, 1.91013, 1.90928, 2.00039, 1.7849, 1.93738, 1.93707, 1.82286, 1.76527, 1.86956, 1.93269, 1.85007, 1.86179, 1.74446, 1.74426, 1.73839, 1.73676, 2.01204, 1.73076, 1.82606, 1.72284, 1.72179, 1.71967, 1.71605, 1.91657, 1.82695, 1.74064, 1.62358, 1.62159, 1.61775, 1.74234, 1.61585, 1.61268, 1.61278, 1.66117, 1.60972, 1.60474, 1.60791, 1.60769, 1.72138, 1.72437, 1.60552, 1.60517, 1.73963, 1.60637, 1.85647, 1.60574, 1.61109, 1.61245, 1.74234, 1.73703, 1.73506, 1.62211, 1.73025, 1.6904, 1.63029, 1.6341, 1.70228, 1.63416
