0.421219, 0.421194, 0.422442, 0.427156, 0.426873, 0.429495, 0.430897, 0.43066, 0.446169, 0.445791, 0.444481, 0.439907, 0.438908, 0.433353, 0.432737, 0.424948, 0.419287, 0.418248, 0.398383, 0.39596, 0.402759, 0.374082, 0.370609, 0.404232, 0.405459, 0.361586, 0.362343, 0.447092, 0.446569, 0.00358859, 0.828944, 0.00331561, 1.68606, 0.00358701, 1.7335, 0.00352442, 1.82652, 1.84521, 1.88696, 1.88729, 1.88631, 1.92037, 1.88674, 1.88886, 1.98635, 1.98281, 1.98712, 1.96118, 1.70976, 1.67995, 1.65419, 1.66118, 1.66085, 1.66042, 1.89493, 1.89662, 1.84031, 1.80248, 1.82885, 1.68259, 1.69533, 1.67627, 1.65538, 1.648, 1.64786, 1.64621, 1.64538, 1.72809, 1.72791, 1.75144, 1.74827, 1.76056, 1.69611, 1.68706, 1.68617, 1.69959, 1.6993, 1.93613, 1.95817, 1.966, 1.9663, 1.9974, 2.00038, 2.00079, 2.1628, 0.00340682, 0.00328359, 2.14756, 2.16294, 2.17268, 2.13345, 2.13337, 2.13356, 2.10015, 2.10398, 2.10057, 2.11032, 2.10661, 2.09408, 2.09972, 2.09728, 2.09162, 2.09175, 2.08953, 2.09749, 2.04883, 2.04801, 2.04833, 2.06494, 2.022, 2.022, 2.0217, 2.02214, 2.02203, 2.02271, 2.0173, 2.01688, 0.0032651, 0.00381514, 2.04184, 2.0414, 2.02704, 2.02672, 2.01734, 2.01801, 2.01441, 2.0295, 2.03792, 2.0319, 2.00651, 2.03093, 2.03348, 2.01651, 1.99023, 1.99066, 1.96541, 1.96523, 1.96422, 2.01549, 2.01355, 2.01392, 2.02066, 2.02393, 1.99818, 2.00306, 2.00858, 2.02469, 2.01591, 2.01828, 2.02085, 2.01744, 2.01719, 2.0092, 2.01058, 2.02529, 2.02501, 2.02031, 2.0203, 1.99833, 1.99572, 2.01171, 1.99465, 1.98487, 2.01166, 2.00442, 2.02053, 2.00415, 2.00298, 2.00545, 2.03121, 2.03737, 2.03522, 2.03976, 2.02777, 2.02943, 1.99985, 1.9976, 1.99008, 1.98311, 1.94832, 1.93217, 1.91094, 1.88757, 1.89822, 1.91294, 1.83462, 1.81405, 1.8057, 1.72406, 1.72317, 1.70343, 1.68788, 1.6875, 1.70337, 1.70177, 1.68304, 1.67492, 1.66944, 1.67584, 1.66993, 1.6715, 1.65623, 1.66589, 1.6335, 1.65526, 1.65552, 1.63745, 1.62926, 1.6258, 1.62355, 1.6106, 1.61045, 1.60854, 1.57849, 1.57922, 1.5765, 1.57664, 1.56285, 1.55474, 1.56914, 1.54761, 1.55151, 1.52711, 1.52664, 1.50891, 1.5102, 1.51409, 1.50869, 1.48361, 1.4897, 1.50548, 1.47552, 1.48744, 1.48868, 1.46206, 1.46896, 1.46724, 1.4673, 1.44324, 1.43997, 1.48316, 1.49003, 1.49855, 1.46327, 1.49481, 1.47468, 1.50196, 1.50036, 1.52426, 1.5252, 0.00354265, 0.00351341, 0.00327954, 1.59995, 1.60105, 1.60039, 1.6202, 1.62652, 1.63706, 1.63667, 1.64744, 1.64543, 1.65636, 1.65517, 1.6682, 1.67284, 1.67429, 1.68818, 1.69192, 1.69077, 1.69124, 1.6917, 1.70861, 1.70908, 1.70901, 1.71169, 1.71809, 1.71724, 1.71771, 1.73827, 1.72779, 1.73899, 1.74037, 1.74019, 1.74032, 1.73762, 1.73666, 1.73678, 1.75741, 0.00341639, 0.00341721, 1.77513, 1.77839, 1.77387, 1.78487, 0.00353394, 1.79356, 0.0033585, 0.00346906, 0.00362369
0.417863, 0.423899, 0.424183, 0.422284, 0.421246, 0.428147, 0.432787, 0.433858, 0.442635, 0.448388, 0.451079, 0.451027, 0.442405, 0.447951, 0.435594, 0.42425, 0.422601, 0.418598, 0.376537, 0.377838, 0.375502, 0.399755, 0.366508, 0.401736, 0.402006, 0.380621, 0.456209, 0.446275, 0.444769, 0.455326, 0.927136, 1.66127, 1.73755, 1.72415, 0.00308009, 1.91238, 1.91731, 1.92551, 1.92469, 1.93482, 2.13052, 2.06842, 2.12189, 2.12229, 1.99809, 2.00013, 2.0033, 1.70976, 1.70939, 1.68987, 1.63958, 1.63792, 1.79895, 1.7924, 1.73487, 1.75667, 1.76125, 1.76613, 1.75151, 1.71049, 1.70999, 1.72302, 1.72063, 1.65571, 1.65541, 1.65736, 1.66232, 1.66121, 1.66141, 1.75411, 1.67049, 1.67925, 1.6833, 1.6819, 1.93704, 1.93785, 1.95185, 1.94705, 1.94888, 1.97248, 1.98056, 1.99514, 1.99879, 2.00022, 0.00331252, 0.00320221, 0.00345029, 0.0033797, 0.0036502, 2.09983, 2.10007, 2.1206, 2.09847, 2.09966, 2.08601, 2.08572, 2.11018, 2.11025, 2.09821, 2.09831, 2.09798, 2.09416, 2.10499, 2.10573, 2.10631, 2.08676, 2.07378, 2.04819, 2.05903, 2.05867, 2.07418, 2.07339, 2.0739, 2.07243, 2.07379, 2.07225, 2.05534, 2.06645, 2.06715, 2.06791, 2.04171, 2.04243, 2.0452, 2.04116, 2.05531, 2.05539, 2.01023, 2.00973, 2.00998, 2.01489, 2.01332, 2.01494, 1.99403, 1.99351, 1.98686, 1.97302, 1.97022, 1.97527, 1.98007, 1.98579, 1.98642, 2.02181, 2.00433, 2.00658, 2.00423, 2.02382, 2.01504, 2.01498, 2.00472, 2.01822, 2.01883, 2.01681, 2.01097, 1.99066, 1.99674, 1.99611, 2.00754, 1.96879, 1.98588, 1.98563, 1.98394, 1.98828, 1.98793, 1.99044, 2.01709, 1.99362, 2.07211, 2.07294, 0.00310349, 2.03193, 2.02865, 2.03049, 2.02232, 2.01198, 2.00249, 2.01471, 2.00305, 1.99745, 1.95872, 1.94128, 1.94834, 1.87988, 1.87937, 1.88582, 1.8902, 1.84842, 1.83148, 1.82541, 1.79354, 1.75664, 1.72581, 1.72065, 1.72084, 1.72186, 1.71979, 1.67917, 1.68582, 1.68221, 1.72176, 1.72679, 1.71818, 1.7282, 1.69671, 1.73156, 1.71228, 1.71577, 1.64925, 1.64221, 1.6418, 1.64002, 1.61327, 1.61214, 1.61281, 1.59867, 1.60356, 1.57652, 1.56796, 1.5652, 1.5609, 1.56225, 1.5418, 1.53033, 1.53105, 1.50265, 1.49549, 1.50704, 1.51724, 1.49151, 1.48936, 1.47489, 1.49555, 1.46573, 1.4978, 1.45264, 1.4762, 1.46825, 1.46775, 1.46169, 1.46423, 1.44512, 1.45151, 1.47121, 1.48526, 1.47232, 1.48138, 1.48412, 1.50003, 1.49915, 1.52702, 1.51419, 1.58532, 0.00340876, 1.57613, 1.60146, 1.60112, 1.60011, 1.60098, 1.62652, 1.63347, 1.64221, 1.6446, 1.65457, 1.65492, 1.66011, 1.65895, 1.67536, 1.67497, 1.68531, 1.68954, 1.68902, 1.68924, 1.69167, 1.6916, 1.70872, 1.70841, 1.71367, 1.71325, 1.71269, 1.71398, 1.71259, 1.71326, 1.72339, 0.00340108, 1.7447, 1.74489, 1.74261, 1.74176, 1.74171, 1.74939, 1.75924, 1.76449, 1.76351, 1.77746, 1.77597, 1.78666, 1.79234, 1.79106, 1.79029, 0.00355126, 1.82353
0.420825, 0.420474, 0.420879, 0.423076, 0.422509, 0.429059, 0.438145, 0.43881, 0.437505, 0.4528, 0.452977, 0.451544, 0.45319, 0.43825, 0.4317, 0.430661, 0.427714, 0.426086, 0.400704, 0.397746, 0.404353, 0.362803, 0.365973, 0.367218, 0.368947, 0.420106, 0.434888, 0.451971, 0.458894, 0.915086, 0.980087, 0.00345651, 1.89722, 1.88979, 1.9094, 1.94441, 1.93913, 1.94542, 2.13058, 2.13141, 2.12973, 2.12293, 2.12562, 2.13007, 2.13012, 2.13002, 1.94558, 1.93642, 1.71027, 1.7103, 1.6614, 1.66165, 1.64616, 1.66253, 1.74392, 1.743, 1.76785, 1.783, 1.7828, 1.77541, 1.72497, 1.72462, 1.68984, 1.68542, 1.67149, 1.66589, 1.66969, 1.65223, 1.68149, 1.68329, 1.67989, 1.681, 1.71464, 1.93362, 1.94089, 1.94439, 1.944, 1.94604, 1.9617, 1.974, 1.98954, 1.99017, 2.07681, 2.07883, 2.08265, 2.10686, 2.23439, 2.23324, 2.09672, 2.09662, 2.09949, 2.0974, 2.11779, 2.13522, 2.13586, 2.13505, 2.11463, 2.0923, 2.09519, 2.09801, 2.19996, 2.12825, 2.108, 2.10707, 2.10712, 2.07874, 2.0724, 2.07271, 2.0731, 2.04816, 2.04477, 0.00353659, 2.07484, 2.07343, 2.03942, 2.03892, 2.07758, 2.06579, 2.06687, 2.1319, 2.1315, 2.05582, 2.05543, 2.10634, 2.09481, 2.09474, 2.05619, 2.01951, 2.05854, 2.06148, 2.0695, 2.02447, 2.01825, 2.00309, 1.98732, 1.9781, 1.98231, 1.97509, 1.98327, 1.99995, 1.99782, 1.98961, 1.99726, 2.0151, 2.01154, 2.02474, 2.0165, 2.03089, 2.01425, 2.00808, 2.01411, 2.00035, 1.99923, 1.9946, 2.02054, 2.02205, 2.01273, 2.00814, 1.97284, 1.98056, 1.9761, 1.97756, 2.00571, 1.98268, 1.98223, 2.00447, 2.00465, 2.12289, 2.12268, 2.1301, 2.13046, 2.02832, 2.00003, 1.98991, 1.99169, 1.97521, 1.97971, 1.9707, 1.97006, 1.95054, 1.94765, 1.87585, 1.89974, 1.88455, 1.88316, 1.8248, 1.82404, 1.79207, 1.79084, 1.759, 1.71171, 1.69963, 1.69907, 1.71111, 1.68132, 1.6798, 1.8855, 1.67432, 1.71652, 1.71972, 1.70479, 1.72691, 1.72743, 1.68876, 1.68329, 1.67164, 1.66233, 1.67935, 1.65151, 1.65271, 1.63358, 1.65749, 1.6563, 1.60549, 1.57255, 1.57084, 1.58339, 1.56162, 1.61661, 1.54656, 1.54394, 1.53329, 1.53209, 1.5058, 1.48895, 1.48552, 1.5209, 1.4881, 1.46214, 1.48136, 1.46847, 1.48315, 1.45003, 1.45666, 1.45886, 1.46358, 1.46714, 1.50201, 1.48419, 1.45529, 1.4682, 1.4627, 1.47059, 1.47158, 1.47971, 1.49484, 1.50701, 1.50712, 1.50979, 1.52575, 1.52632, 1.59066, 1.58935, 0.00330714, 1.59986, 1.59892, 1.62848, 1.62917, 1.63319, 1.64548, 1.64488, 1.64492, 1.65561, 1.65818, 1.66092, 1.65971, 1.67696, 1.67592, 1.68984, 1.6917, 1.69599, 1.69447, 1.69715, 1.69935, 1.71031, 1.71014, 1.70839, 1.70688, 1.7065, 1.71487, 1.71336, 1.71135, 1.71242, 0.0032851, 1.74203, 1.74068, 1.73998, 1.74186, 1.74321, 1.7609, 1.76189, 1.76077, 1.76328, 0.003366, 1.78866, 1.78969, 1.79018, 0.00341741, 1.80861, 1.82427
0.427267, 0.426143, 0.427833, 0.425341, 0.424637, 0.424569, 0.442031, 0.44226, 0.443021, 0.452615, 0.456288, 0.455485, 0.458452, 0.435186, 0.43405, 0.434549, 0.433977, 0.391808, 0.422107, 0.400992, 0.40368, 0.386315, 0.373016, 0.394258, 0.353562, 0.353632, 0.390149, 0.389641, 0.881504, 0.881305, 0.00358802, 0.00307989, 0.00324349, 0.0035134, 0.00341409, 2.05412, 0.0032376, 0.00332375, 0.00338374, 2.13244, 2.1319, 2.11021, 0.0032578, 0.00327127, 2.06442, 2.08637, 2.04518, 0.00320978, 1.9028, 1.90037, 1.88033, 1.68626, 1.8119, 1.81177, 1.81705, 1.8166, 1.81788, 1.82814, 1.79637, 1.79615, 1.79694, 1.7536, 1.73703, 1.69248, 1.67843, 1.68219, 1.68303, 1.68374, 1.82347, 1.82321, 1.93147, 1.93135, 1.94507, 1.94596, 1.95109, 1.95871, 1.9581, 1.95668, 1.95925, 1.99941, 2.05925, 2.06165, 2.07871, 2.07824, 2.07722, 2.11406, 2.09667, 2.09598, 2.09608, 2.09689, 2.12317, 2.14156, 2.19782, 2.13692, 2.11856, 2.1377, 2.12065, 2.10288, 2.10345, 2.1152, 2.13068, 2.13072, 2.13011, 0.00329986, 0.00326758, 2.1651, 2.16488, 2.16417, 0.00350789, 2.28996, 2.05796, 2.05818, 2.05845, 2.0613, 2.05944, 2.0605, 2.06114, 2.06143, 2.0615, 2.06148, 0.00321692, 2.04254, 2.07004, 2.0698, 2.10409, 2.07286, 2.04576, 2.04556, 2.04406, 2.05122, 2.04967, 2.03342, 2.04469, 1.99496, 1.99322, 2.0071, 1.98748, 1.97075, 1.97471, 1.98338, 1.98503, 1.99661, 1.98624, 2.00087, 2.02101, 2.02148, 2.02234, 2.02659, 2.02749, 1.99721, 2.01807, 1.99992, 1.99991, 2.00002, 2.00751, 2.00081, 2.00047, 2.00368, 2.05994, 2.05883, 2.0581, 2.05777, 1.99348, 1.9943, 2.00551, 2.00503, 2.00606, 2.12379, 2.12241, 2.12782, 2.12711, 1.99589, 1.98017, 1.96679, 1.96672, 1.96026, 1.94959, 1.98651, 1.95442, 1.93085, 1.89617, 1.88589, 1.88566, 1.91575, 1.859, 1.85865, 1.84568, 1.83704, 1.81466, 1.81341, 1.74812, 1.74534, 1.74229, 1.73067, 1.7104, 1.71295, 1.76749, 1.71717, 1.70946, 1.70851, 1.72153, 1.73051, 1.71485, 1.74502, 1.7449, 1.70257, 1.69973, 1.64752, 1.63697, 1.63571, 1.6308, 1.6521, 1.65105, 1.62461, 1.67778, 1.56927, 1.56849, 1.57824, 1.56982, 1.54152, 1.53619, 1.53543, 1.51957, 1.51911, 1.49548, 1.4957, 1.45981, 1.45873, 1.44769, 1.46531, 1.46024, 1.45425, 1.45167, 1.46149, 1.45135, 1.4621, 1.46732, 1.46223, 1.46515, 1.46753, 1.45396, 1.45443, 1.46559, 1.4832, 1.49308, 1.48778, 1.4994, 1.49752, 1.50811, 1.52606, 1.53429, 1.58577, 1.58728, 0.0032364, 1.58936, 1.63639, 0.00352802, 1.62462, 0.00336391, 1.64103, 1.64902, 1.64884, 1.65554, 1.65713, 1.65823, 1.66579, 1.66968, 1.68246, 1.68976, 1.69549, 1.69218, 1.6904, 1.69036, 1.70335, 1.70561, 1.7111, 1.7093, 1.70894, 1.7096, 1.71716, 1.71737, 1.71632, 1.71424, 1.72222, 0.00339891, 0.00363235, 1.75099, 1.74771, 1.7491, 0.00338881, 0.00350747, 0.00372964, 0.00310965, 0.00346049, 1.79297, 1.79237, 1.79163, 1.79786, 0.00360299, 1.82567
0.425401, 0.425138, 0.436587, 0.437164, 0.436248, 0.441113, 0.446121, 0.44724, 0.44513, 0.458781, 0.458814, 0.458565, 0.458158, 0.444525, 0.441433, 0.440104, 0.435668, 0.432174, 0.391037, 0.387825, 0.403457, 0.397803, 0.42273, 0.373735, 0.372252, 0.476726, 0.493645, 0.497442, 0.897055, 0.98013, 0.00366973, 0.00358341, 2.13725, 0.00315524, 2.16297, 0.00358622, 2.1688, 2.09663, 2.11043, 0.00380877, 2.16671, 2.08689, 2.08335, 2.0841, 2.07177, 2.07335, 2.09688, 2.07185, 1.87817, 1.87801, 1.87757, 1.84506, 1.82754, 1.82342, 1.81356, 1.81003, 1.81087, 1.83224, 1.83203, 1.83828, 1.83932, 1.84221, 1.87129, 1.87213, 1.9035, 1.9064, 1.92664, 1.91845, 1.92495, 2.06615, 2.06802, 2.07977, 2.08065, 2.08099, 2.08108, 1.96824, 1.96825, 1.96942, 2.07697, 2.06446, 2.08744, 2.08585, 2.09446, 2.07972, 2.07635, 0.00328671, 2.10754, 2.10747, 2.12893, 2.13556, 2.12667, 2.14473, 2.1449, 2.13314, 2.12143, 2.10725, 2.11079, 2.1047, 2.11576, 2.09101, 2.12838, 2.14199, 2.1385, 0.00306724, 2.09489, 2.09413, 2.09326, 0.00305083, 0.00343707, 0.00320809, 2.23586, 0.0033888, 0.00377696, 0.00317854, 2.06162, 2.06132, 2.06147, 2.0621, 2.06252, 2.06112, 2.16088, 2.09662, 2.04979, 2.04919, 2.04895, 2.09314, 2.09281, 2.04196, 2.04556, 2.04459, 2.03286, 2.03452, 2.03482, 2.03711, 2.03733, 2.00818, 1.97668, 1.97362, 1.97033, 1.98394, 1.9844, 1.98764, 1.9973, 1.99504, 2.00166, 2.01665, 2.02828, 2.02813, 2.02832, 2.01552, 2.01715, 2.01712, 1.99968, 2.0239, 2.01668, 1.99431, 2.00607, 2.0066, 2.04166, 2.05986, 2.05821, 2.05906, 2.05589, 2.00106, 2.00017, 1.98268, 2.00754, 1.99353, 2.12323, 2.12427, 1.98894, 2.00408, 1.99095, 1.96171, 1.97435, 1.94189, 1.95641, 1.97925, 1.9714, 1.91231, 1.89776, 1.89693, 1.89518, 1.8861, 1.85804, 1.85589, 1.8447, 1.83192, 1.8309, 1.83125, 1.83258, 1.79795, 1.75892, 1.74553, 1.72817, 1.71891, 1.71087, 1.71224, 1.74174, 1.71367, 1.71406, 1.72766, 1.74111, 1.73115, 1.72325, 1.72145, 1.70419, 1.65586, 1.64626, 1.6443, 1.64033, 1.63004, 1.62347, 1.63391, 1.71706, 1.57665, 1.5785, 1.60609, 1.5716, 1.54935, 1.55323, 1.55571, 1.55417, 1.53947, 1.49147, 1.49408, 1.49026, 1.46037, 1.45903, 1.45699, 1.46229, 1.46272, 1.47143, 1.46117, 1.44511, 1.43391, 1.43253, 1.43349, 1.44009, 1.45036, 1.46207, 1.44656, 1.44069, 1.46133, 1.46848, 1.49367, 1.49893, 1.49228, 1.50592, 1.51273, 1.51224, 1.5924, 1.59286, 1.60963, 1.58604, 1.60972, 1.7311, 0.00323546, 1.63154, 1.63878, 1.64378, 1.65476, 1.66137, 1.65895, 1.65813, 1.6649, 1.67543, 1.68164, 1.68722, 1.68705, 1.68624, 1.69362, 1.69315, 1.7028, 1.70136, 1.70616, 1.70151, 1.70649, 1.70691, 1.71702, 1.71678, 1.7216, 1.71965, 1.72091, 1.7283, 1.7272, 1.73744, 0.00315937, 1.76171, 1.76185, 0.00305796, 0.00308308, 1.78234, 1.78955, 1.79245, 1.79316, 0.00350043, 0.00320042, 1.82063, 1.81942
0.435821, 0.448635, 0.447586, 0.445921, 0.444681, 0.444365, 0.45115, 0.454458, 0.452005, 0.458709, 0.461817, 0.461509, 0.459999, 0.446732, 0.445244, 0.43937, 0.432892, 0.431474, 0.400467, 0.40222, 0.400508, 0.389918, 0.419125, 0.434408, 0.437405, 0.435615, 0.468341, 0.481121, 0.00321291, 0.00378253, 0.00344472, 0.00358699, 0.0037849, 0.00329194, 0.00310078, 0.00354714, 0.00318803, 0.0030972, 0.00332523, 0.00335083, 0.00348368, 2.09368, 2.10109, 2.0959, 2.09431, 2.09464, 2.08667, 2.05808, 2.05822, 2.05839, 1.90427, 1.90725, 1.89337, 1.82934, 1.83225, 1.81598, 1.81637, 1.83325, 1.82543, 1.82119, 1.81946, 1.81988, 1.8477, 1.87034, 1.89922, 1.89943, 1.91503, 1.94174, 1.942, 2.06757, 2.06837, 2.0834, 2.06632, 2.08001, 2.07764, 2.07539, 2.06988, 2.08659, 2.0723, 2.07255, 2.07284, 2.10788, 2.09272, 2.10231, 2.08996, 2.08105, 2.07989, 2.10742, 2.12043, 2.13794, 2.12507, 2.14249, 2.14174, 2.14192, 2.1281, 2.13482, 2.12641, 2.12522, 2.13133, 2.08962, 2.10915, 2.11976, 2.1147, 2.09781, 2.0947, 2.09452, 2.09455, 2.0929, 2.09337, 2.09367, 2.09316, 0.00316591, 2.18727, 2.18655, 0.00353588, 0.00327029, 0.00334632, 2.18434, 2.06346, 2.10721, 2.1065, 2.10626, 2.08428, 2.06454, 2.06199, 2.06128, 2.07206, 2.19206, 2.07909, 2.18867, 2.08267, 2.07055, 2.07148, 2.07099, 2.03924, 2.06392, 2.07331, 1.97544, 1.97453, 1.97233, 1.98234, 1.99309, 1.99069, 2.00846, 2.06565, 2.05893, 2.0592, 2.05582, 2.05217, 2.05872, 2.03583, 2.02847, 2.02487, 2.01581, 2.01904, 2.01794, 2.00658, 2.02772, 2.05206, 2.05162, 2.04988, 2.05714, 2.0182, 2.01762, 1.97789, 1.99795, 1.99645, 2.01522, 2.01119, 2.01077, 2.0037, 1.99058, 1.98993, 1.989, 1.94583, 1.94526, 1.95098, 1.94498, 1.92401, 1.90899, 1.90877, 1.90479, 1.91121, 1.91478, 1.86964, 1.85965, 1.86077, 1.83413, 1.83376, 1.82488, 1.82569, 1.81283, 1.78146, 1.8143, 1.72304, 1.72279, 1.7209, 1.71947, 1.72282, 1.72067, 1.74514, 1.72377, 1.72988, 1.71825, 1.71928, 1.71697, 1.67607, 1.67302, 1.67855, 1.66428, 1.65119, 1.62743, 1.62815, 1.62823, 1.628, 1.62659, 1.58323, 1.58075, 1.59757, 1.53824, 1.51898, 1.50562, 1.56073, 1.48844, 1.48761, 1.48981, 1.49942, 1.49253, 1.46937, 1.46805, 1.51127, 1.44748, 1.44605, 1.43705, 1.44146, 1.42736, 1.41158, 1.39833, 1.39888, 1.39803, 1.39298, 1.39659, 1.41708, 1.41687, 1.454, 1.46992, 1.4697, 1.49699, 1.52442, 1.5096, 1.5238, 1.55553, 1.59557, 1.61833, 1.5927, 1.5924, 0.00311222, 1.62149, 1.62952, 1.63166, 1.64763, 1.64697, 1.65571, 1.65549, 1.66501, 1.67119, 1.66938, 1.67404, 1.68357, 1.6858, 1.68564, 1.69194, 1.69883, 1.69738, 1.70287, 1.70177, 1.69975, 1.70763, 1.70704, 1.71976, 1.71927, 1.72166, 1.72347, 1.72526, 1.72564, 1.72522, 0.00346397, 0.00361109, 0.00332778, 0.00413098, 0.00334662, 1.79313, 1.79176, 1.79476, 1.79658, 1.79648, 1.80897, 1.81981, 1.81763, 1.81699
0.437225, 0.450773, 0.450459, 0.450888, 0.446307, 0.452913, 0.453395, 0.452636, 0.452234, 0.459722, 0.4638, 0.467278, 0.449413, 0.446022, 0.44567, 0.443193, 0.440075, 0.466639, 0.435428, 0.409731, 0.41384, 0.401259, 0.432694, 0.431036, 0.448481, 0.436218, 0.454849, 0.499839, 0.00347146, 0.00333804, 0.00318881, 0.0032267, 0.00322754, 0.00329057, 0.00353415, 0.00336325, 2.19426, 0.00346945, 0.00361249, 0.00362967, 0.00312694, 0.00350284, 0.00359937, 0.00358465, 2.11406, 2.10968, 2.10723, 2.09539, 2.09382, 2.07748, 1.93554, 1.93414, 1.93049, 1.91014, 1.89923, 1.88152, 1.84758, 1.83385, 1.83747, 1.83744, 1.83677, 1.85886, 1.85512, 1.85385, 1.89025, 1.89718, 1.94144, 1.95987, 1.94993, 1.96647, 2.09324, 2.08467, 2.08027, 2.08107, 2.0497, 2.07726, 2.07691, 2.07179, 2.07242, 2.07454, 2.05968, 2.10419, 2.1027, 2.10239, 2.08207, 2.08879, 2.08032, 2.09019, 2.11139, 2.1111, 2.1035, 2.14604, 2.11777, 2.11038, 2.10591, 2.274, 2.1977, 2.15585, 2.11179, 2.11085, 2.11077, 2.11093, 2.11362, 2.11562, 2.09019, 2.09058, 2.11772, 2.09091, 2.11599, 2.09524, 2.08942, 2.18929, 2.18807, 2.18963, 2.18992, 2.18938, 2.1898, 2.0768, 2.088, 2.09706, 2.09799, 2.08206, 2.08313, 2.10667, 2.06846, 2.06882, 2.07357, 2.07444, 2.06901, 2.08288, 2.0821, 2.06332, 2.06344, 2.06841, 2.04451, 2.03746, 2.04111, 2.04127, 1.9793, 1.99714, 2.00509, 1.99744, 2.00422, 2.01571, 2.07017, 2.06965, 2.06254, 2.06872, 0.00329292, 0.00320815, 2.22774, 2.02022, 2.0378, 2.03651, 2.03152, 2.03173, 2.03126, 2.04433, 2.00333, 2.01209, 2.01181, 2.02172, 2.01897, 2.00499, 1.99589, 2.00673, 1.98385, 1.98233, 1.97996, 2.00998, 1.9982, 1.99684, 1.97932, 1.97986, 1.96343, 1.96238, 1.94844, 1.93889, 1.95227, 1.93077, 1.92857, 1.92639, 1.92488, 1.91459, 1.92407, 1.8693, 1.84754, 1.82831, 1.83034, 1.82505, 1.82362, 1.82115, 1.91931, 0.00351369, 1.88667, 1.76972, 1.78823, 1.78898, 1.72665, 1.71278, 1.70712, 1.70573, 1.70797, 1.71168, 1.7312, 1.71321, 1.68361, 1.68202, 1.67622, 1.64386, 1.62986, 1.62863, 1.696, 1.62278, 1.56834, 1.56135, 1.56019, 1.5879, 1.58498, 1.57264, 1.56447, 1.49488, 1.49401, 1.50689, 1.50895, 1.49356, 1.49577, 1.48441, 0.00329377, 1.47077, 1.46896, 1.44914, 1.46626, 1.45988, 1.45098, 1.42387, 1.42707, 1.39062, 1.38797, 1.36944, 1.62433, 1.3688, 1.40034, 1.40205, 1.47073, 1.47182, 1.48216, 1.49856, 1.49948, 1.50555, 1.50506, 1.56122, 1.60241, 1.62363, 1.62148, 0.00344186, 1.61513, 0.00367948, 1.63047, 1.63177, 1.64024, 1.64785, 1.65174, 1.65736, 1.65739, 1.66744, 1.67783, 1.67485, 1.67475, 1.68281, 1.68505, 1.68505, 1.69407, 1.69251, 1.695, 1.69657, 1.69963, 1.6997, 1.71055, 1.7086, 1.72024, 1.72628, 1.72634, 1.72724, 1.72848, 1.74081, 0.00320003, 0.0036222, 0.00306187, 1.78009, 1.78296, 1.78235, 1.79493, 1.79229, 1.7991, 1.7987, 1.80961, 1.80823, 1.81699, 1.81655
0.452304, 0.453853, 0.451979, 0.453777, 0.453593, 0.454172, 0.45833, 0.45579, 0.472947, 0.472316, 0.472082, 0.469109, 0.468517, 0.457648, 0.451345, 0.44972, 0.455416, 0.411708, 0.422633, 0.415162, 0.411515, 0.409139, 0.435391, 0.413002, 0.394309, 0.403411, 0.469825, 0.483937, 0.468389, 1.95968, 0.00330727, 0.0036119, 0.00321976, 0.00334522, 0.00353422, 2.33201, 0.0031608, 0.00330853, 0.00331541, 0.00367773, 0.0030466, 0.00319345, 0.00336329, 0.00353152, 0.00317879, 2.1392, 0.00338826, 2.1201, 0.00305843, 1.96311, 1.95189, 1.95234, 1.9434, 1.95164, 1.90537, 1.90431, 1.89295, 1.88967, 1.88642, 1.88534, 1.88881, 1.89095, 1.89412, 1.89485, 1.89619, 1.94849, 1.94763, 1.96558, 1.96567, 1.9832, 1.98177, 2.08752, 2.07666, 2.08333, 2.0756, 2.07929, 2.07999, 2.0728, 2.08024, 2.10385, 2.09681, 2.16635, 0.00332148, 0.00331429, 0.00317459, 2.15559, 2.09006, 2.09003, 2.17545, 2.11303, 2.11326, 2.13881, 2.12077, 2.12059, 2.29589, 2.1984, 2.1312, 2.13078, 2.09618, 2.11195, 2.10145, 2.10295, 2.10201, 2.07521, 2.07529, 2.08657, 2.08718, 2.08557, 2.08581, 2.08595, 2.0854, 2.15573, 2.08213, 2.09471, 2.19047, 2.09037, 2.06159, 2.07985, 2.07921, 2.07689, 2.08454, 2.08913, 2.08849, 2.08679, 2.07437, 2.09006, 2.09097, 2.08924, 2.1532, 2.08358, 2.07436, 2.01401, 2.02107, 2.02056, 2.05829, 2.06171, 0.00324352, 2.01988, 2.1117, 2.1108, 1.99536, 2.00009, 2.04464, 2.09173, 2.07805, 2.08049, 2.07526, 2.06599, 2.14139, 2.13637, 2.11152, 2.07226, 2.02478, 2.06412, 2.04519, 2.04561, 2.03737, 2.01773, 2.028, 2.02789, 2.01686, 2.04493, 2.04041, 2.02472, 2.0154, 2.03464, 2.02608, 1.98798, 2.02446, 2.02133, 2.00204, 2.00488, 1.97912, 1.95322, 1.97983, 1.94251, 1.93876, 1.94769, 1.95006, 1.93181, 1.92939, 1.89698, 1.89744, 1.87536, 1.85274, 1.85209, 1.82749, 1.82728, 1.83987, 1.84134, 1.81721, 1.81847, 1.81862, 1.77951, 1.7785, 1.76249, 1.75488, 1.75876, 1.73062, 1.69753, 1.69797, 1.74121, 1.69951, 1.69174, 1.68539, 1.68955, 1.6771, 1.68368, 1.66456, 1.63804, 1.64358, 1.63991, 1.62646, 1.59414, 1.57423, 1.57493, 1.55225, 1.55694, 1.56629, 1.56522, 1.61582, 1.49917, 1.49898, 1.50708, 1.5052, 1.47767, 1.52643, 1.5259, 1.52504, 1.50714, 1.47639, 1.46785, 1.44975, 1.46598, 1.43932, 1.41234, 1.39506, 1.39611, 1.62404, 1.62299, 1.35677, 1.60879, 0.00316922, 1.42933, 1.46113, 1.45084, 1.48521, 1.49258, 1.50647, 1.4956, 1.52824, 1.56886, 1.60443, 1.60538, 0.00320497, 1.61301, 1.61405, 1.62039, 0.00350119, 1.6407, 1.64201, 1.64585, 0.00335217, 1.65539, 1.66123, 1.66131, 1.67958, 1.67835, 1.67621, 1.67847, 1.67768, 1.68861, 1.69511, 1.69557, 1.69296, 1.69939, 1.70687, 1.70601, 1.7048, 1.71272, 1.71694, 1.72976, 1.72845, 1.72851, 1.72995, 1.73062, 0.00332387, 0.00347212, 0.00316595, 1.78508, 1.78348, 1.7834, 1.78378, 1.78226, 0.00336657, 1.81097, 1.81041, 1.81152, 1.82001, 1.81701
0.443855, 0.445129, 0.457245, 0.456841, 0.459768, 0.460308, 0.459991, 0.462052, 0.461036, 0.47725, 0.477607, 0.479035, 0.477217, 0.456646, 0.456606, 0.476097, 0.475642, 0.442799, 0.420309, 0.41503, 0.424034, 0.409569, 0.400649, 0.392121, 0.428206, 0.39607, 0.394681, 0.46672, 0.467228, 1.61373, 1.97807, 0.00310928, 0.0036008, 0.00332388, 2.27661, 2.27474, 0.00349718, 0.00342978, 0.00336595, 0.00343319, 0.003531, 0.00333011, 0.00328494, 0.00333148, 2.15328, 0.00344432, 2.14816, 0.00338041, 0.0109429, 0.00356535, 0.00346656, 0.00354361, 2.00718, 1.97614, 1.97487, 1.962, 1.96232, 1.96833, 1.90686, 1.89706, 1.89621, 1.89553, 1.89761, 1.96338, 1.94817, 1.94798, 1.98919, 2.01458, 2.01479, 2.01488, 2.10072, 2.08887, 2.11963, 0.00335861, 0.00390807, 2.23474, 0.00353445, 0.00305949, 2.10168, 2.09729, 2.14212, 2.16516, 2.16476, 2.16484, 2.19618, 2.18698, 2.12978, 2.13356, 2.13416, 2.11388, 2.12031, 2.11857, 2.11592, 2.12376, 2.12467, 2.13939, 2.13083, 2.14911, 2.14985, 2.10596, 2.1084, 2.13269, 2.07923, 2.08864, 2.07637, 2.07784, 2.11686, 2.11138, 2.09294, 2.13578, 2.14224, 2.14128, 2.14183, 2.14141, 2.13563, 2.09144, 2.07973, 2.07979, 2.10424, 2.08938, 2.10407, 2.09259, 2.09286, 2.09348, 2.09106, 2.11061, 2.10984, 2.10782, 2.10428, 2.10667, 2.09771, 2.02272, 2.02247, 2.03088, 2.06703, 2.08124, 2.01691, 2.01966, 2.02044, 2.02015, 2.04923, 2.13157, 2.12753, 2.12001, 2.10709, 2.09029, 2.08691, 2.08394, 2.09719, 2.08084, 2.08557, 2.0771, 2.06585, 2.06494, 2.08356, 2.05137, 2.02772, 2.01786, 2.02882, 2.01635, 2.00667, 2.00097, 2.02012, 2.01861, 2.03126, 2.03206, 2.02631, 2.01196, 2.01091, 1.9777, 1.97665, 1.96931, 1.9546, 1.95949, 1.95223, 1.93584, 1.92226, 1.92455, 1.89529, 1.88595, 1.88544, 1.88992, 1.87846, 1.87568, 1.8639, 1.8647, 1.86262, 1.81231, 1.81023, 1.81927, 1.81322, 0.00335147, 1.79066, 1.78165, 1.76751, 1.74455, 1.74163, 1.72753, 1.72824, 1.70594, 1.68478, 1.68434, 1.66935, 1.69885, 1.69967, 1.67142, 1.66707, 1.67608, 1.6688, 1.67092, 1.63303, 1.62038, 1.61108, 1.67557, 1.67334, 1.67244, 1.56884, 1.5761, 1.56911, 1.56774, 1.5685, 1.57365, 1.50868, 1.50366, 1.50723, 1.48805, 1.48867, 1.48888, 1.47414, 1.47219, 1.44305, 1.44009, 1.45465, 1.45899, 1.45792, 1.44703, 1.4298, 1.4325, 1.41778, 1.42617, 1.42376, 1.42863, 1.44059, 1.4615, 1.45403, 1.44325, 1.49236, 1.49216, 1.49937, 1.50313, 1.5248, 1.60297, 1.60456, 1.58479, 1.58333, 0.0035153, 0.00357259, 0.00318974, 1.62878, 1.64163, 1.64461, 1.64839, 1.65342, 0.00313286, 1.66713, 1.66518, 1.67696, 1.67736, 1.67803, 1.67776, 1.68331, 1.69518, 1.69584, 1.70242, 1.69988, 1.70624, 1.70655, 1.71467, 1.71372, 1.72147, 1.71993, 1.73333, 1.73148, 1.73023, 1.73236, 0.00327702, 0.00333791, 0.00319023, 1.7875, 1.78588, 1.7849, 1.78259, 1.78229, 1.78554, 0.00318783, 0.00359311, 1.81456, 1.81495, 1.8156, 1.81319
0.455041, 0.453666, 0.461653, 0.462544, 0.46402, 0.466321, 0.46867, 0.46994, 0.480561, 0.480084, 0.480017, 0.47938, 0.479132, 0.462797, 0.462116, 0.486771, 0.487136, 0.438474, 0.445812, 0.435097, 0.441691, 0.411673, 0.394155, 0.442872, 0.432121, 0.432047, 0.469539, 0.417374, 0.473528, 0.510973, 0.00319304, 0.0032509, 0.00339859, 2.27302, 2.27228, 0.00340602, 0.00389133, 0.00353366, 0.00328221, 0.00343637, 0.00354207, 0.00357844, 0.00306018, 0.0034608, 0.00320646, 0.00308052, 0.0033761, 2.16669, 0.00346156, 0.00362708, 0.00347395, 2.02482, 2.01944, 2.02416, 2.03136, 2.03171, 2.03069, 2.03179, 1.99755, 1.98715, 1.99105, 1.99362, 1.98354, 1.98553, 1.97969, 1.99676, 1.98886, 1.99223, 2.01461, 2.12498, 2.11425, 2.11541, 2.11446, 2.17144, 2.17114, 2.17085, 2.18289, 0.00336177, 0.00347805, 2.10292, 2.10269, 2.10988, 2.10558, 2.10733, 2.11994, 2.11077, 2.12, 2.13575, 2.12987, 2.11345, 2.11199, 2.1127, 2.12076, 2.13358, 2.13428, 2.13335, 2.1408, 2.08263, 2.08274, 2.08326, 2.08702, 2.09371, 2.13914, 2.07951, 2.09015, 2.08464, 2.11381, 2.11129, 2.14553, 2.13322, 2.21069, 2.21044, 2.14128, 0.00339652, 2.14891, 2.14867, 0.00343742, 2.1137, 2.09294, 2.094, 2.09446, 2.11421, 2.11396, 2.11607, 2.11031, 2.11029, 2.11008, 2.10907, 2.12299, 2.1215, 2.15007, 2.09736, 2.09744, 2.04512, 2.02124, 2.06248, 2.06117, 2.03084, 2.05709, 2.12735, 2.13114, 2.13961, 2.12354, 2.12579, 2.11827, 2.12095, 2.11044, 2.0865, 2.07199, 2.08412, 2.08891, 2.05954, 2.05622, 2.06241, 2.06671, 2.05223, 2.04445, 2.04738, 2.02661, 2.00829, 2.02229, 2.02366, 2.02158, 1.99477, 2.01878, 2.0176, 2.03518, 2.01155, 2.03058, 2.02974, 2.03046, 1.95211, 1.94525, 1.95553, 1.93884, 1.93769, 1.90705, 1.91183, 1.90581, 1.91007, 0.00348355, 1.91894, 1.91982, 1.91989, 1.82069, 1.81017, 1.79602, 1.79542, 1.80438, 1.80082, 1.79446, 1.77696, 1.78827, 1.74863, 1.75773, 1.74041, 1.73773, 1.72407, 1.72051, 1.67509, 1.70679, 1.69914, 1.64723, 1.65802, 1.65918, 1.66106, 1.64424, 1.63873, 1.64301, 1.63149, 1.67665, 1.67554, 1.67455, 1.66114, 1.67481, 1.59777, 1.56177, 1.56492, 1.57158, 1.58294, 1.56663, 1.62987, 1.48482, 1.47967, 1.47887, 1.52955, 1.52885, 1.49679, 1.47579, 1.47542, 1.52777, 1.52512, 1.44629, 1.43733, 1.43757, 1.45149, 1.43861, 1.4242, 1.42694, 1.43283, 1.43395, 1.46377, 1.45409, 1.45379, 1.46023, 1.46145, 1.46523, 1.49238, 1.49224, 1.5002, 0.00353018, 0.00326079, 0.0034562, 0.00369689, 0.00361196, 0.00324147, 0.00334108, 0.00366316, 0.00325458, 0.0033299, 1.65097, 1.65071, 1.65307, 1.65375, 1.65527, 1.67323, 1.67228, 1.67801, 1.67788, 1.68926, 1.69039, 1.69257, 1.69556, 1.69527, 1.69451, 1.71459, 1.71591, 1.72023, 1.72047, 1.72284, 1.72396, 1.7334, 1.73697, 1.73806, 1.73694, 0.00335068, 0.00304428, 0.00343626, 1.78888, 1.78825, 1.78644, 1.78562, 1.78481, 1.7857, 1.8026, 1.80215, 1.8127, 1.81671, 1.8152, 1.82077
0.460284, 0.458654, 0.466148, 0.472798, 0.471196, 0.474608, 0.474726, 0.4736, 0.479601, 0.483811, 0.481017, 0.480419, 0.479826, 0.474423, 0.46253, 0.461051, 0.486729, 0.486194, 0.450451, 0.445899, 0.41836, 0.431924, 0.439673, 0.406632, 0.386608, 0.41864, 0.43226, 0.416996, 0.415397, 0.52811, 0.00336734, 0.00340062, 2.31682, 0.00321067, 0.00402775, 0.00336736, 2.31865, 0.00316005, 0.00346128, 0.00322637, 0.00345917, 0.00337213, 2.24289, 0.00344617, 0.0031343, 0.0030879, 2.20432, 0.00308698, 0.00330511, 0.00324964, 0.00324162, 0.00305656, 2.11465, 0.00304657, 2.03213, 2.03811, 2.03851, 2.02493, 2.02105, 2.00444, 2.00738, 2.00647, 1.99915, 2.08629, 2.08656, 2.09748, 2.08649, 2.11448, 2.12092, 2.11472, 2.08779, 2.08783, 2.31333, 2.31384, 2.13925, 2.13803, 2.29038, 2.29289, 2.29682, 2.29537, 2.22628, 2.104, 2.10202, 2.10372, 2.13415, 2.11773, 2.11815, 2.11855, 2.12179, 2.22255, 2.13331, 2.13317, 2.13495, 2.13815, 2.13684, 2.13711, 2.13635, 2.12315, 2.1086, 2.10817, 2.09663, 2.09725, 2.099, 2.10052, 2.13826, 2.14858, 2.14079, 2.14672, 2.14243, 0.00323108, 2.21724, 2.21116, 2.21088, 2.21223, 2.2135, 0.0034301, 0.00356383, 0.00314051, 2.1064, 0.0034625, 2.1324, 2.1322, 2.12857, 2.11406, 2.12354, 2.14118, 2.14035, 0.00341448, 0.00339271, 2.15156, 2.09674, 2.09684, 2.0964, 2.05119, 2.08052, 2.06589, 2.05727, 2.05516, 2.05482, 2.11719, 2.11361, 2.11339, 2.12904, 2.12097, 2.11568, 2.08457, 2.0904, 2.07375, 2.07278, 2.06606, 2.06215, 2.05976, 2.06108, 2.07652, 2.07666, 2.0772, 2.03371, 2.03209, 2.01612, 2.01854, 2.02473, 2.01092, 2.00835, 2.01413, 2.03065, 2.00426, 2.00982, 2.00688, 2.03523, 2.02537, 1.95865, 1.93258, 1.94758, 1.94572, 1.92515, 1.92363, 1.9097, 1.90969, 0.00327426, 1.89536, 1.84198, 1.84246, 1.91969, 1.91972, 1.81979, 1.81527, 1.7992, 1.7998, 1.80761, 1.75892, 1.75877, 1.74258, 1.75418, 1.7447, 1.73686, 1.73387, 1.73356, 1.71856, 1.68618, 1.68126, 1.6883, 1.64483, 1.6528, 1.65173, 1.63333, 1.63266, 1.63375, 1.63373, 1.62585, 1.61966, 1.62226, 1.60634, 1.60593, 1.59879, 1.67101, 1.6704, 1.59152, 1.58895, 1.56757, 1.5663, 1.56565, 1.50542, 1.50425, 1.49096, 1.4905, 1.49108, 1.49202, 1.51909, 1.47905, 1.48086, 1.48684, 1.52292, 1.47126, 1.42898, 1.41389, 1.44479, 1.45978, 1.4514, 1.41538, 1.41889, 1.41909, 1.43613, 1.43634, 1.44487, 1.46111, 1.48222, 1.5137, 1.54625, 1.54017, 0.00327318, 0.00341042, 1.56411, 0.00327564, 0.00317228, 0.00325123, 1.61591, 1.61592, 1.62296, 1.63134, 1.63911, 1.63769, 1.65096, 1.65063, 1.65744, 1.66032, 0.00296056, 1.67561, 1.67793, 1.68125, 1.68977, 1.68831, 1.69779, 1.70236, 1.70064, 1.70426, 1.71765, 1.71932, 1.72034, 1.72006, 1.71991, 1.73194, 1.73344, 1.73665, 1.73771, 1.73845, 1.74788, 0.00339413, 0.00293571, 1.78988, 1.79293, 1.79309, 1.7942, 1.79692, 1.81077, 1.81172, 1.81118, 1.8102, 1.81023, 1.81091, 0.00317986
0.46353, 0.46251, 0.461977, 0.474286, 0.47765, 0.476473, 0.481031, 0.481639, 0.480432, 0.484083, 0.490445, 0.491255, 0.490762, 0.472502, 0.472457, 0.461585, 0.460488, 0.456603, 0.454376, 0.43677, 0.442315, 0.428266, 0.416976, 0.386878, 0.38687, 0.391664, 0.38807, 0.387088, 0.5137, 0.508623, 0.00334268, 0.00348473, 0.00336614, 0.00338486, 0.00318892, 2.30994, 0.00318931, 0.00375738, 0.00319236, 0.00318467, 0.00328162, 2.24342, 2.24336, 2.24353, 0.00362271, 0.00349968, 0.00302606, 2.18581, 0.00321465, 0.00349413, 0.00333738, 0.00351341, 0.00346056, 2.1278, 2.10277, 2.10398, 2.10445, 0.00374631, 2.07208, 2.07148, 2.07524, 2.07708, 2.08619, 2.08607, 0.00299474, 2.10428, 2.0763, 2.07523, 2.07482, 2.13276, 2.1313, 2.15484, 2.17267, 2.3144, 2.12831, 2.12812, 2.12774, 2.27752, 2.20306, 2.203, 2.20304, 2.1479, 2.1315, 2.15077, 2.13153, 2.13117, 0.00348772, 2.22111, 2.22315, 2.22369, 2.13375, 2.13312, 2.13369, 2.13377, 2.11688, 2.13783, 2.12797, 2.09428, 2.09224, 2.12124, 2.10788, 2.10736, 2.11893, 2.12923, 2.13149, 2.1297, 2.14701, 2.1463, 2.14591, 2.14526, 2.17288, 2.21488, 2.21536, 2.21507, 2.21558, 0.00341926, 0.00317179, 0.00321967, 0.00351103, 0.00335935, 0.00323818, 2.1209, 2.12996, 2.13403, 2.13394, 2.13405, 2.13383, 2.16266, 2.16267, 2.08664, 2.08445, 2.0814, 2.14459, 2.13271, 2.07971, 2.06207, 2.05922, 2.07777, 2.0791, 2.10734, 2.09994, 2.1129, 2.12514, 2.10048, 2.07619, 2.06882, 2.06703, 2.0773, 2.06974, 2.09411, 2.07217, 2.05998, 2.06123, 2.05087, 2.03678, 2.03776, 2.03835, 2.03959, 2.01412, 2.01389, 2.01458, 2.01579, 2.02488, 2.00814, 2.01363, 2.0071, 2.0308, 2.03084, 2.02993, 2.02711, 1.94097, 1.94232, 1.93404, 1.92006, 1.89438, 1.89409, 1.89308, 1.88606, 1.84543, 1.8498, 1.84059, 1.8192, 1.81929, 1.81, 1.77866, 1.78227, 1.81011, 1.76997, 1.77004, 1.77027, 1.76283, 1.74509, 1.72126, 1.74577, 1.73553, 1.73783, 1.73846, 1.99004, 1.98924, 1.67252, 1.65908, 1.65358, 1.66045, 1.64751, 1.62727, 1.62948, 1.6414, 1.63384, 1.61484, 1.60561, 1.60059, 1.60396, 1.59071, 1.59286, 1.604, 1.59551, 1.57383, 1.54774, 1.56755, 1.56109, 1.5321, 1.50153, 1.50304, 1.49182, 1.49032, 1.49032, 1.48891, 1.54616, 1.44765, 1.4468, 1.44048, 1.43519, 1.44607, 1.44422, 1.40887, 1.40835, 1.44847, 1.45857, 1.46114, 1.47566, 1.46154, 1.44318, 1.44793, 1.4682, 1.50764, 1.63053, 1.64008, 0.00375267, 0.00344851, 1.76838, 0.00318138, 0.00326393, 0.00321614, 1.59967, 0.00316046, 0.00372669, 0.00327589, 1.63102, 1.6376, 1.63735, 1.63753, 0.00333328, 0.00332375, 1.6666, 1.66838, 1.66791, 1.67455, 1.67263, 1.67322, 1.68939, 1.69754, 1.6988, 1.70069, 1.70335, 1.71295, 1.71097, 1.71682, 1.71873, 1.71771, 1.73101, 1.7333, 1.73364, 1.74023, 1.73919, 1.73993, 1.75067, 0.00345628, 1.79558, 1.79546, 1.7946, 1.79301, 1.79388, 1.8044, 1.80368, 1.79908, 1.80122, 1.80209, 1.80383, 1.80718, 1.81793
0.46247, 0.466749, 0.472808, 0.474094, 0.482872, 0.482443, 0.482861, 0.483317, 0.483647, 0.493639, 0.494717, 0.494568, 0.493387, 0.490364, 0.48666, 0.4622, 0.460547, 0.466542, 0.460613, 0.439528, 0.4453, 0.435979, 0.434749, 0.424368, 0.399984, 0.399235, 0.400286, 0.378122, 0.376695, 0.405928, 0.434016, 0.00339326, 0.00300676, 0.00324763, 0.00342446, 0.00352093, 0.00387688, 0.00351056, 2.28314, 2.27286, 0.00336915, 0.00318686, 2.2443, 2.25193, 0.00357414, 0.00316889, 2.21501, 2.21559, 2.21487, 0.00328488, 2.16558, 2.19368, 0.00344334, 2.15633, 2.12799, 2.12505, 2.12436, 2.176, 2.18463, 2.19731, 0.00300465, 2.08934, 2.10672, 2.24276, 2.11186, 2.10644, 2.12749, 2.0936, 2.15599, 2.15924, 2.15288, 2.15675, 2.16399, 2.16362, 2.13544, 2.13603, 2.13519, 2.14131, 2.17162, 2.20386, 2.17349, 0.00332388, 2.13685, 2.1378, 2.1378, 2.13491, 2.13453, 2.13394, 2.13324, 0.00321457, 0.00343465, 0.00343685, 2.23448, 2.12833, 2.12788, 0.00313265, 2.15163, 2.1605, 2.12994, 2.12668, 2.12188, 2.12464, 2.10848, 2.11659, 2.141, 2.12494, 2.16969, 2.14782, 2.14659, 2.16681, 2.17286, 2.1972, 2.21747, 2.21834, 0.00334658, 0.00341172, 0.00345877, 0.00303332, 2.13398, 2.18452, 2.15813, 2.13535, 2.13346, 2.13243, 2.13267, 2.13306, 2.13395, 2.14703, 2.13216, 2.13584, 2.0856, 2.08447, 2.08301, 2.07964, 2.09977, 2.0998, 2.08604, 2.08911, 2.08822, 2.08651, 2.12426, 2.10816, 2.10783, 2.07652, 2.08334, 2.09271, 2.07569, 2.06507, 2.07635, 2.07473, 2.0697, 2.09022, 2.06448, 2.03914, 2.04466, 2.05236, 2.0241, 2.02293, 2.02186, 2.0138, 2.01277, 2.07597, 2.00674, 2.02892, 1.98827, 1.98647, 1.98869, 1.97958, 1.9615, 1.94596, 1.93589, 1.93779, 1.92518, 1.91827, 1.91069, 1.87528, 1.85884, 1.8136, 1.81309, 1.82449, 1.82238, 1.80018, 1.80677, 1.7981, 1.77908, 1.77112, 1.77998, 1.75432, 1.75437, 1.7508, 1.72518, 1.72467, 1.70923, 1.70844, 1.70585, 1.70817, 1.68548, 1.69187, 1.68198, 1.67611, 1.67519, 1.76912, 1.73373, 1.64498, 1.65125, 1.61098, 1.6042, 1.61191, 1.59052, 1.58851, 1.58369, 1.5827, 1.56849, 1.56821, 1.57092, 1.56046, 1.56119, 1.54408, 1.54452, 1.52336, 1.51686, 1.49543, 1.50018, 1.47758, 1.48645, 1.49236, 1.49222, 1.47993, 1.43777, 1.43623, 1.43705, 1.46148, 1.44222, 1.43954, 1.41554, 1.4144, 1.45165, 1.43687, 1.44796, 1.45309, 1.45803, 1.46141, 1.47124, 1.48436, 1.62813, 0.00344572, 0.00343445, 0.00327245, 0.00366319, 0.0032006, 0.00348575, 0.00319913, 1.56935, 1.60087, 1.60041, 1.61287, 1.61242, 1.617, 1.63474, 1.6364, 1.63516, 0.00347122, 1.66734, 1.66831, 1.67207, 1.6711, 1.67676, 1.68699, 1.68723, 1.69333, 1.69395, 1.69484, 1.70132, 1.70151, 1.70394, 1.71726, 1.71824, 1.72012, 1.71961, 1.73297, 1.73172, 1.73791, 1.74433, 1.73998, 1.76189, 1.7588, 0.00338125, 0.00314107, 1.79482, 1.79366, 1.79256, 1.79279, 1.80055, 1.80323, 1.80026, 1.79887, 1.79755, 1.80129, 1.8134, 1.81374
0.476295, 0.473684, 0.472651, 0.473032, 0.483799, 0.482461, 0.482582, 0.485952, 0.488659, 0.486633, 0.497457, 0.495934, 0.495069, 0.492869, 0.490159, 0.476835, 0.471153, 0.470693, 0.509411, 0.438084, 0.513977, 0.456089, 0.450221, 0.431021, 0.428742, 0.424481, 0.380538, 0.378128, 0.411111, 0.434746, 0.521828, 0.00360943, 0.00332842, 0.00336636, 0.00363802, 0.00330128, 2.33146, 2.33169, 2.29819, 2.29149, 2.285, 2.26279, 2.2627, 2.28008, 0.00328266, 0.00343148, 0.00321513, 2.23085, 0.00335141, 0.00350198, 2.19597, 2.19364, 0.00331657, 0.00323938, 0.00319066, 0.00360045, 0.00315318, 2.19699, 2.19624, 2.19698, 2.19674, 0.00331235, 0.00325362, 2.34131, 0.00317814, 0.00374703, 0.00333923, 2.18783, 2.15929, 2.15933, 0.00327445, 2.16281, 2.15462, 2.16024, 2.15273, 2.13518, 2.14202, 2.14346, 2.1431, 2.14292, 2.14832, 2.13989, 2.14124, 2.13664, 2.13662, 2.13751, 2.13398, 2.13331, 0.00339054, 2.17644, 2.35687, 2.35707, 2.35692, 2.35695, 2.34727, 2.14557, 2.15153, 2.15111, 2.15048, 2.1092, 2.13892, 2.13354, 2.12252, 2.11668, 2.11726, 2.13166, 2.162, 2.16086, 2.17211, 2.16645, 2.16589, 2.17323, 2.1787, 2.23853, 2.14428, 0.00316975, 2.13656, 2.13579, 2.19265, 2.19061, 2.1796, 2.19126, 0.00323106, 2.22037, 0.0030673, 0.00359918, 0.00323021, 2.14251, 2.13413, 2.13109, 2.11281, 2.13352, 2.06497, 2.0764, 2.07713, 2.07658, 2.08641, 2.08613, 2.08857, 2.08845, 2.07988, 2.08608, 2.08967, 2.08999, 2.07915, 2.07374, 2.08443, 2.08622, 2.08368, 2.0672, 2.07132, 2.04706, 2.06274, 2.03762, 2.0428, 2.0488, 2.02214, 2.01499, 2.00188, 1.99984, 1.99685, 2.01762, 2.01669, 2.00799, 1.99345, 1.99451, 1.9759, 1.96933, 1.96286, 1.94137, 1.90275, 1.90281, 1.9279, 1.89414, 1.88024, 1.85438, 1.85417, 1.83785, 1.80898, 1.82494, 1.81271, 1.80537, 1.80341, 1.80369, 1.80908, 1.76851, 1.76834, 1.74955, 1.74866, 1.75279, 1.73429, 1.76538, 1.75115, 1.74307, 1.69994, 1.70154, 1.69606, 1.6944, 1.67594, 1.6884, 1.67292, 1.70945, 1.66419, 1.66402, 1.63321, 1.6339, 1.59976, 1.59716, 1.58819, 1.59235, 1.57875, 1.57512, 1.57214, 1.56561, 1.56758, 1.56637, 1.5642, 1.56539, 1.61192, 1.51077, 1.53425, 1.51605, 1.47954, 1.48025, 1.48209, 1.53846, 1.48277, 1.44793, 1.46823, 1.43603, 1.43458, 1.44832, 1.449, 1.42141, 1.42015, 1.45072, 1.42071, 1.42946, 1.42344, 1.43395, 1.45461, 1.44867, 1.48131, 0.0036323, 0.00316221, 0.00329208, 0.00331043, 1.53748, 0.00333725, 0.00360919, 0.0032935, 0.00350823, 0.00298327, 1.57951, 0.0030994, 0.00327068, 1.61688, 0.00347225, 1.63273, 1.63161, 0.00323822, 0.00373451, 1.66184, 1.6634, 0.00338564, 1.68537, 1.68485, 1.68498, 1.69007, 1.69498, 1.69668, 1.69617, 0.00310826, 1.7133, 1.71442, 1.71667, 1.71964, 1.72314, 1.7239, 1.72875, 1.72905, 1.73383, 1.74076, 1.73945, 0.00324503, 1.76089, 0.00327293, 0.00349341, 0.00326393, 1.79214, 1.79116, 1.79093, 1.79994, 1.80223, 1.8011, 1.79929, 1.79852, 1.8033, 1.80652, 0.00327747
0.474095, 0.474506, 0.473532, 0.479345, 0.478118, 0.484326, 0.484366, 0.494025, 0.493346, 0.497239, 0.49676, 0.497538, 0.497079, 0.496014, 0.492787, 0.479427, 0.479083, 0.477297, 0.47423, 0.455231, 0.473336, 0.472941, 0.453131, 0.457337, 0.431427, 0.430856, 0.38794, 0.391297, 0.39191, 0.441808, 0.469286, 0.00335943, 0.00338613, 0.00368234, 0.00331156, 0.00340162, 0.00345854, 0.00337118, 0.00332755, 0.00313163, 2.29199, 0.00325577, 2.28059, 0.00304971, 2.25396, 0.00328647, 2.2376, 2.23734, 2.2396, 0.003259, 0.00317474, 0.0029383, 0.00363249, 0.00342016, 0.00372716, 0.00318507, 0.00367342, 0.00350229, 2.15829, 2.15866, 2.15982, 0.00330863, 0.00315612, 0.00331839, 2.23744, 2.23602, 2.24513, 2.14801, 2.20506, 2.16041, 2.16061, 0.00367325, 2.23631, 2.15311, 2.14204, 2.13557, 0.00356296, 2.14364, 2.14308, 2.14385, 2.14611, 2.14621, 0.00366917, 0.00332701, 0.00336834, 0.00299031, 0.0032755, 0.00322858, 0.00326733, 2.16723, 2.17255, 2.17044, 2.35518, 2.35587, 2.14498, 2.27411, 2.27404, 2.20992, 2.17537, 2.12478, 2.11203, 2.11772, 2.11146, 2.12335, 2.13929, 2.12916, 2.13868, 2.17814, 2.18305, 2.18288, 2.16592, 2.19649, 2.1522, 2.14463, 2.1442, 2.19282, 2.1908, 2.18536, 2.23112, 2.20261, 2.20332, 2.18653, 0.00336581, 2.13831, 2.15499, 2.09978, 2.08226, 2.0837, 2.08744, 2.09704, 2.07047, 2.06947, 2.06859, 2.07635, 2.07254, 2.07228, 2.08694, 2.08667, 2.11775, 2.08539, 2.07885, 2.10135, 2.11829, 2.07585, 2.09965, 2.09449, 2.09421, 2.09794, 2.09652, 2.10649, 2.08658, 2.04595, 2.04577, 2.05061, 2.04101, 2.02794, 2.0267, 2.02507, 2.00583, 1.99707, 1.98975, 1.98824, 1.98779, 1.95527, 1.97037, 1.98052, 1.93459, 1.94148, 1.97233, 1.97194, 1.88604, 1.91909, 1.88898, 1.87675, 1.86174, 1.8622, 1.84995, 1.8049, 1.80398, 1.80303, 1.81007, 1.81535, 1.8149, 1.92429, 1.78136, 1.77866, 1.78204, 1.78144, 1.77057, 1.76358, 1.76446, 1.73016, 1.74491, 1.69711, 1.69675, 1.70126, 1.70224, 1.73031, 1.72961, 1.67712, 1.70411, 1.70398, 1.65172, 1.6366, 1.62074, 1.63187, 1.7146, 1.59922, 1.58595, 1.58569, 1.58128, 1.58401, 1.56801, 1.56036, 1.5594, 1.55626, 1.54792, 1.54753, 1.50957, 1.50524, 1.50447, 1.49937, 1.4899, 1.47268, 1.47741, 1.47567, 1.52187, 1.46268, 1.44336, 1.46792, 1.43742, 1.42804, 1.44841, 1.4421, 1.4141, 1.45154, 1.43857, 1.44164, 1.43952, 1.45374, 1.4724, 1.48522, 0.00370681, 1.79639, 1.60608, 0.00333905, 1.75235, 0.00296588, 1.55713, 1.56277, 1.57546, 1.57632, 1.5879, 0.00329379, 1.59179, 0.00318957, 1.628, 1.62726, 1.62601, 0.00341, 1.64811, 1.65286, 1.65561, 0.00303894, 1.68564, 1.68895, 1.68719, 1.68984, 1.69367, 1.69281, 1.69195, 1.69947, 1.70686, 1.71618, 1.71595, 1.71868, 1.71986, 1.72177, 1.72457, 1.72555, 1.73305, 1.73116, 1.73576, 1.7428, 0.00344672, 1.75281, 1.75754, 1.75727, 0.00350718, 0.00342807, 0.00325619, 1.79567, 1.80247, 1.79779, 1.80447, 1.8014, 1.80805, 1.811, 1.8128, 1.81245
0.487673, 0.48974, 0.482426, 0.48787, 0.489761, 0.494165, 0.493451, 0.497232, 0.498104, 0.500311, 0.500862, 0.49975, 0.498026, 0.497103, 0.493113, 0.48042, 0.479517, 0.480005, 0.479219, 0.476084, 0.467009, 0.483605, 0.483952, 0.482074, 0.445474, 0.428264, 0.43995, 0.459098, 0.418064, 0.416983, 0.417578, 0.00344108, 0.00322553, 0.00327204, 0.00333845, 0.00322505, 0.00321411, 0.00302663, 0.0032429, 0.00343886, 0.00331142, 2.43527, 0.00316815, 2.26001, 2.32822, 2.25395, 2.2553, 2.24185, 2.25613, 2.24963, 2.24317, 0.0031963, 0.00331148, 0.00356307, 0.00338857, 0.00324004, 0.00336957, 0.00307326, 0.00354102, 2.1833, 2.18295, 2.18247, 2.31491, 2.31411, 0.00372944, 2.2388, 0.00321357, 2.24034, 2.21126, 2.2108, 2.21097, 2.16705, 2.28257, 0.00340647, 0.00345607, 2.3331, 2.3328, 2.33267, 2.1596, 2.15981, 2.16597, 2.16592, 2.16514, 2.18264, 2.25815, 2.25852, 2.26608, 0.00331897, 2.27302, 2.1688, 2.16956, 2.17055, 2.16894, 2.16691, 2.16633, 2.18344, 2.14102, 2.14151, 2.18109, 2.11533, 2.11649, 2.11628, 2.11401, 2.14337, 2.12937, 2.13165, 2.16194, 2.13427, 2.1828, 2.17601, 2.19634, 2.15322, 2.15242, 2.22501, 2.17875, 2.17944, 2.18545, 2.15594, 2.20312, 0.00296435, 2.16031, 2.15907, 2.1517, 2.15905, 2.10378, 2.09063, 2.09245, 2.10496, 2.10618, 2.0974, 2.08336, 2.08245, 2.08311, 2.1049, 2.07726, 2.07664, 2.09085, 2.0895, 2.08894, 2.08893, 2.1351, 2.12745, 2.11702, 2.10836, 2.09634, 2.09672, 2.09761, 2.09735, 2.0941, 2.09362, 2.08605, 2.07273, 2.0736, 2.06847, 2.02133, 2.02075, 2.02466, 2.01729, 2.10007, 2.02537, 2.01801, 2.01774, 2.01801, 1.94952, 1.94827, 1.9336, 1.93502, 1.93092, 1.92849, 1.90982, 1.9083, 1.8924, 1.89099, 1.86611, 1.84867, 1.84828, 1.84757, 1.8486, 1.84819, 1.80429, 1.84152, 1.83397, 1.92037, 1.92005, 1.92592, 1.7863, 1.75997, 1.77478, 1.75448, 1.75411, 1.76093, 0.0032415, 1.70663, 1.70671, 1.70022, 1.70026, 1.70994, 1.68625, 1.6832, 1.73355, 1.68668, 1.64725, 1.6269, 1.6277, 1.64073, 1.63713, 1.71536, 1.71456, 1.60337, 1.60287, 1.57759, 1.56925, 1.57772, 1.56869, 1.5647, 1.56083, 1.54665, 1.51555, 1.51418, 1.51762, 1.4968, 1.55018, 1.49829, 1.4689, 1.46907, 1.47151, 1.43976, 1.43912, 1.45007, 1.47122, 1.45551, 1.43844, 1.42427, 1.43626, 1.449, 1.44474, 1.45382, 1.46063, 1.45843, 1.47954, 1.49531, 1.4952, 1.54427, 1.54358, 1.55021, 1.55545, 1.56007, 1.55055, 1.56917, 1.56748, 1.56607, 0.00329437, 0.0034516, 1.5967, 0.00335201, 1.6035, 0.00305855, 1.62802, 1.62654, 1.64427, 0.00339141, 1.6507, 1.65964, 1.66064, 0.00338467, 0.00346564, 1.69491, 1.6959, 1.69814, 1.69309, 1.69368, 1.69379, 1.70286, 1.71761, 1.71509, 1.72021, 1.72034, 1.72461, 1.72426, 1.72851, 1.7336, 1.73288, 1.73069, 1.74674, 1.74798, 1.74911, 1.75705, 1.76011, 1.76135, 1.78192, 1.78139, 1.77975, 1.77971, 1.78487, 1.78393, 1.81066, 1.80959, 1.80942, 1.81272, 1.82011
0.485624, 0.48677, 0.493035, 0.492605, 0.49717, 0.501288, 0.500447, 0.50321, 0.502987, 0.505174, 0.504756, 0.501875, 0.501089, 0.500524, 0.494618, 0.494239, 0.485783, 0.485729, 0.477791, 0.478385, 0.453049, 0.44971, 0.462364, 0.448245, 0.456218, 0.431871, 0.394417, 0.390871, 0.38849, 0.438565, 0.437957, 0.00297565, 0.00364795, 0.00317869, 0.00369919, 0.00301046, 0.00326026, 0.0029857, 0.00331406, 0.00352227, 0.00321411, 0.00316658, 0.00327967, 0.00331593, 2.33494, 0.00316076, 2.28139, 2.27065, 2.26259, 2.26276, 2.2522, 0.00300794, 2.23625, 0.00308644, 2.28246, 2.23861, 2.29069, 0.00333702, 2.25344, 2.24874, 2.2768, 2.27725, 2.27692, 2.31605, 2.31605, 2.23152, 2.24657, 2.24543, 2.19642, 2.19652, 2.19665, 0.00325305, 2.21495, 0.00312904, 2.26984, 0.00316285, 2.33446, 2.33415, 0.00308919, 0.00336602, 0.00344438, 0.0030952, 2.22895, 2.22779, 2.21368, 2.25646, 2.26682, 2.19721, 2.1995, 2.16961, 2.16981, 2.16959, 2.16961, 0.00337605, 2.21583, 2.19908, 2.1955, 2.19394, 2.19371, 2.16623, 2.12157, 2.12051, 2.14874, 2.13228, 2.14895, 2.1482, 2.13441, 2.16291, 2.16491, 2.15271, 2.15345, 2.13828, 2.1186, 0.0033382, 2.22418, 2.20582, 2.19948, 2.20541, 2.1881, 2.1837, 2.18443, 2.17859, 2.15675, 0.00305778, 2.15215, 2.09777, 2.09725, 2.09966, 2.08084, 2.09942, 2.13436, 2.1382, 2.10103, 2.1078, 2.11512, 2.10855, 2.11774, 2.13944, 2.12044, 2.10877, 2.10703, 2.13338, 2.12122, 2.10305, 2.1007, 2.11521, 2.08943, 2.08885, 2.08878, 2.08478, 2.0861, 2.08583, 2.08569, 2.05016, 2.04957, 2.04906, 2.11678, 2.03115, 2.02097, 2.01516, 2.00706, 2.04149, 2.04082, 2.05744, 2.05016, 1.96898, 1.93711, 1.93073, 1.93039, 1.90039, 1.94244, 1.94161, 1.88268, 1.86119, 1.86898, 1.85305, 1.85241, 1.8617, 1.84822, 1.83906, 1.80107, 1.8179, 1.817, 1.79108, 1.79066, 1.75916, 1.77331, 1.76128, 1.75019, 1.74864, 1.78154, 1.71197, 1.70462, 1.70419, 1.70389, 1.69104, 1.68761, 1.68611, 1.68625, 1.69261, 1.65729, 1.63736, 1.66169, 1.62449, 1.61241, 1.63127, 1.63001, 0.00327216, 1.57125, 1.5688, 1.56804, 1.57137, 1.56995, 1.57179, 1.55132, 1.55734, 1.5551, 1.54398, 1.53741, 1.5035, 1.50198, 1.5435, 1.54268, 1.48554, 1.48277, 1.48646, 1.46897, 1.4505, 1.42361, 1.42297, 1.45171, 1.44032, 1.41918, 1.43607, 1.42128, 1.43474, 1.44045, 1.46538, 1.47115, 1.4706, 1.47379, 1.50835, 1.51684, 1.66834, 1.70865, 1.7105, 0.00367888, 0.00317487, 1.56511, 1.56419, 1.56847, 0.00340938, 0.00336505, 1.59696, 1.5965, 1.61063, 1.60899, 0.00320641, 0.00361105, 1.65091, 1.65041, 1.64954, 1.66085, 1.65888, 1.65878, 0.00336596, 1.69748, 1.69805, 1.69704, 1.69223, 1.6931, 1.69331, 1.70432, 1.70484, 1.71105, 1.71103, 1.7236, 1.72318, 1.72013, 1.73372, 1.73208, 1.73238, 1.73094, 0.00342724, 1.75528, 1.75438, 1.75645, 1.75426, 1.76841, 1.78183, 1.78218, 1.78147, 1.7789, 1.78554, 1.78238, 0.00321438, 1.81367, 1.81189, 1.82043, 1.8216
0.48591, 0.486766, 0.490654, 0.490632, 0.507299, 0.506879, 0.506772, 0.507492, 0.506455, 0.505667, 0.508909, 0.509376, 0.510085, 0.504953, 0.50377, 0.501577, 0.491109, 0.480001, 0.487537, 0.484509, 0.450155, 0.448362, 0.45652, 0.507225, 0.431944, 0.443476, 0.442818, 0.442291, 0.400742, 0.431893, 0.433441, 0.00354348, 0.00313367, 0.00335859, 0.00356851, 2.46088, 2.46218, 0.00345766, 0.00355762, 0.00324186, 0.0031866, 0.00338053, 0.00331061, 0.00323897, 2.33245, 2.33277, 0.00318727, 2.26309, 2.26323, 2.26298, 0.00329242, 0.00343796, 0.00358622, 0.00325297, 0.00349146, 2.30142, 2.3045, 0.00330746, 0.00323205, 2.29294, 0.00339386, 2.2749, 0.00333559, 2.29032, 0.00335804, 0.0034166, 0.00327401, 2.24302, 2.19649, 2.19683, 2.25312, 2.21829, 2.21702, 0.00361657, 2.2434, 2.24462, 0.00328693, 2.22517, 0.00359119, 0.00356684, 0.00314816, 2.2554, 2.20171, 2.20034, 2.20697, 2.20968, 2.18315, 2.18294, 2.18336, 2.19568, 2.19428, 2.18598, 2.21526, 2.17321, 2.17266, 2.17201, 2.16484, 2.21168, 2.21063, 2.18433, 2.15523, 2.15069, 2.18006, 2.13049, 2.14791, 2.14583, 2.16399, 2.15457, 2.15581, 2.14146, 2.14199, 2.14272, 2.1327, 2.13693, 2.1555, 2.13091, 2.14439, 2.20316, 2.15191, 2.19775, 2.13707, 2.18229, 2.14304, 2.14439, 2.14239, 2.08425, 2.08249, 2.08242, 2.08133, 2.08224, 2.1205, 2.10356, 2.09854, 2.1103, 2.10938, 2.10998, 2.16742, 2.13134, 2.17657, 2.19007, 2.14476, 2.15448, 2.13781, 2.1206, 2.14162, 2.12217, 2.09203, 2.09102, 2.09011, 2.14502, 2.08431, 2.08369, 2.0854, 2.08962, 2.04532, 2.0388, 2.12459, 2.12672, 2.12699, 2.00956, 2.02691, 1.99688, 2.02435, 2.01637, 2.05008, 2.05149, 1.93214, 1.92773, 1.93058, 1.93543, 1.95809, 1.93759, 1.94032, 1.86897, 1.86118, 1.85285, 1.85181, 1.83407, 1.82368, 1.82327, 1.8099, 1.79333, 1.79186, 1.78724, 1.76507, 1.75151, 1.75166, 1.76217, 1.76295, 1.71985, 1.72674, 1.71824, 1.7008, 1.69955, 1.69656, 1.69693, 1.67255, 1.67397, 1.64515, 1.64331, 1.64791, 1.63774, 1.63336, 1.62486, 1.63824, 1.64848, 1.6291, 1.62304, 1.68869, 1.56496, 1.59878, 1.61384, 1.5754, 1.56825, 1.56541, 1.55112, 1.5537, 1.52442, 1.52401, 1.52672, 1.51692, 1.50528, 1.4864, 1.49175, 1.44653, 1.44188, 1.48001, 1.48881, 1.42456, 1.42124, 1.4195, 1.4561, 1.44348, 1.4336, 1.40712, 1.42227, 1.4579, 1.45742, 1.49716, 1.48946, 1.50435, 1.55859, 1.5572, 1.53322, 1.70736, 1.70635, 1.69963, 1.55041, 1.56162, 1.56122, 0.00330833, 0.00321014, 1.58619, 0.00338556, 0.00318531, 0.00318592, 0.00312915, 1.62442, 1.6312, 0.00311731, 1.64729, 1.65808, 1.65817, 1.65743, 0.00337509, 1.67809, 1.69831, 1.69778, 1.69721, 1.6941, 1.69404, 1.69617, 1.6998, 1.70695, 1.70524, 1.70749, 1.71658, 1.71921, 1.72045, 1.72096, 1.73026, 1.7311, 1.73689, 1.75092, 1.75922, 1.75565, 1.76186, 1.75942, 0.00336412, 1.78187, 1.7807, 1.78564, 1.78357, 1.78292, 1.78253, 0.00369961, 0.00347351, 1.81908, 1.81806, 1.82046
0.499147, 0.498481, 0.498855, 0.499442, 0.512632, 0.512342, 0.51388, 0.512511, 0.512105, 0.515641, 0.516945, 0.515124, 0.516193, 0.510673, 0.510483, 0.509673, 0.493199, 0.496172, 0.495095, 0.493226, 0.453314, 0.466359, 0.456844, 0.463075, 0.432425, 0.431847, 0.442147, 0.425307, 0.469267, 0.431272, 0.434285, 0.487783, 0.50798, 0.00330612, 2.47454, 2.47363, 2.46996, 2.46301, 0.00335866, 0.00329454, 0.00341853, 0.0031674, 0.0031987, 2.34194, 2.34197, 2.34034, 2.34621, 2.32435, 2.32217, 2.32417, 2.37018, 0.00318751, 2.32334, 2.3242, 2.33462, 0.00308398, 0.00331395, 0.00330667, 0.00329182, 0.00327541, 0.00355658, 0.00296158, 0.00332006, 0.00332687, 2.30518, 0.00326014, 2.28722, 0.00334412, 0.00317505, 0.003295, 2.2317, 2.21742, 2.21778, 2.21775, 2.2183, 2.22758, 0.00352406, 2.21807, 2.21789, 0.00333567, 2.24968, 0.00310951, 2.20081, 2.20037, 2.2013, 2.2106, 2.21236, 2.2241, 2.19461, 2.20649, 2.20679, 2.24531, 2.2447, 2.18037, 2.24564, 0.0032287, 2.22218, 2.21424, 2.19976, 2.21576, 2.21734, 2.18321, 2.18237, 2.15785, 2.13938, 2.14084, 2.1658, 2.1562, 2.14441, 2.15669, 2.16505, 2.15308, 2.15389, 2.16393, 2.13915, 2.17341, 2.15783, 2.15903, 2.14144, 2.14126, 2.1411, 2.13814, 2.14029, 2.1255, 2.22172, 2.09386, 2.10359, 2.10341, 2.10395, 2.10416, 2.11428, 2.11628, 2.10812, 2.12796, 2.12369, 2.2415, 2.24138, 2.24086, 2.24029, 2.16647, 2.15905, 2.14439, 2.13535, 2.12436, 2.12529, 2.13509, 2.09176, 2.09291, 2.09193, 2.08985, 2.13596, 2.13408, 2.091, 2.03959, 2.03868, 2.03942, 2.03873, 2.04951, 2.02568, 2.02465, 2.02497, 2.0728, 2.00403, 1.99636, 1.99024, 1.97623, 1.97512, 1.97363, 1.94085, 1.93486, 1.92342, 1.93131, 1.9303, 1.92986, 1.94463, 1.8383, 1.83808, 1.83037, 1.83, 1.82048, 1.79753, 1.78584, 1.76796, 1.75406, 1.75299, 1.74925, 1.77562, 1.76238, 1.73438, 1.71279, 1.70446, 1.70344, 1.72358, 1.68701, 1.68516, 1.67013, 1.68565, 1.6754, 1.6541, 1.65246, 1.65763, 1.62244, 1.65228, 1.65719, 1.60473, 1.5825, 1.58139, 1.56738, 1.5656, 1.55472, 1.55437, 1.57235, 1.57517, 1.61057, 1.60916, 1.56759, 1.51975, 1.51902, 1.52119, 1.49793, 1.49121, 1.46828, 1.46963, 1.47251, 1.47208, 1.46773, 1.48862, 1.48902, 1.47224, 1.41626, 1.44002, 1.41732, 1.43081, 1.43398, 1.45789, 1.46329, 1.47188, 1.48758, 1.59648, 1.49093, 1.51872, 1.54276, 1.53747, 1.51373, 1.68108, 1.72036, 1.7114, 0.00315242, 0.00311859, 0.00350101, 0.00355451, 0.00329839, 0.0035295, 0.00315371, 0.00328702, 0.003496, 0.00329528, 0.00358942, 0.00353188, 0.00329702, 0.00349373, 1.65055, 1.64897, 0.00323436, 0.00318739, 0.00344616, 1.69645, 1.70053, 1.69868, 1.69265, 1.69252, 1.69931, 1.69893, 1.69975, 1.70118, 1.70743, 1.709, 1.71835, 1.72012, 1.7224, 1.72318, 0.00325995, 1.73778, 1.74208, 1.74186, 1.7458, 1.75818, 1.75822, 1.7648, 1.78079, 1.78593, 1.78506, 1.78351, 1.78892, 1.78343, 1.78811, 0.00304143, 1.81114, 1.81135, 1.82146
0.499421, 0.499642, 0.500374, 0.500718, 0.513707, 0.513004, 0.512296, 0.519378, 0.520622, 0.520393, 0.518821, 0.520844, 0.516418, 0.51299, 0.513588, 0.510393, 0.508341, 0.494915, 0.494383, 0.496197, 0.495489, 0.484001, 0.470217, 0.460471, 0.467742, 0.471988, 0.414606, 0.413732, 0.447019, 0.44637, 0.401487, 0.438305, 0.485079, 0.425569, 0.00311332, 0.00315184, 0.00321066, 0.00332578, 0.00335815, 0.00350845, 0.00331915, 0.00344968, 0.00326392, 2.38115, 0.00318406, 0.00325309, 0.00316051, 2.34824, 0.00328246, 2.38418, 0.00304823, 0.00336039, 0.003349, 2.34158, 2.32258, 2.33836, 2.32991, 2.33313, 0.00301558, 2.33144, 0.00331785, 2.32099, 0.00317359, 0.00321959, 0.00317139, 2.31199, 0.00317606, 0.00329576, 0.00316368, 2.25939, 0.0035083, 2.27354, 2.2187, 2.21922, 0.00325468, 2.3259, 2.32563, 2.32556, 0.00328732, 2.31802, 0.0030555, 2.22147, 2.23252, 0.00323347, 0.00329374, 0.00359877, 2.22398, 2.24159, 2.23955, 2.21188, 0.00309101, 2.21727, 0.00340036, 0.0035243, 2.22588, 2.22608, 0.00331312, 2.21856, 2.20552, 2.18264, 2.19565, 2.18684, 2.1881, 2.20803, 2.20682, 2.16694, 2.16631, 2.15942, 2.15794, 2.16061, 2.1593, 2.15913, 2.17352, 2.17949, 2.17436, 2.19427, 2.17221, 2.12601, 2.12757, 2.12745, 2.13025, 2.1324, 2.13241, 2.12224, 2.1081, 2.11548, 2.11592, 2.10362, 2.123, 2.16447, 2.16382, 2.1762, 2.16264, 2.16264, 2.1779, 2.24965, 0.00319518, 0.0033276, 0.00298563, 2.16307, 2.16341, 2.14261, 2.15139, 2.13796, 2.14699, 2.12888, 2.13422, 2.0995, 2.10011, 2.0867, 2.08651, 2.07169, 0.00332804, 2.04544, 2.05233, 2.05235, 2.00249, 2.03168, 2.03112, 2.031, 2.038, 2.00463, 2.01141, 2.01136, 2.01331, 1.9796, 1.95034, 1.95135, 1.95291, 1.93772, 1.93501, 1.93373, 1.93485, 1.93356, 0.00309809, 1.84775, 1.8391, 1.83571, 1.82228, 1.80362, 1.80324, 1.7891, 1.76838, 1.75505, 1.75512, 1.74156, 1.82663, 1.72609, 1.70046, 1.6986, 1.7024, 1.72383, 1.6798, 1.67679, 1.68616, 1.68645, 1.64179, 1.63906, 1.63086, 1.62122, 1.5985, 1.62369, 1.58565, 1.57929, 1.59257, 1.59992, 1.59908, 1.55763, 1.55051, 1.56847, 1.56801, 1.56093, 1.54667, 1.62641, 1.52469, 1.53036, 1.53125, 1.53076, 1.48862, 1.48913, 1.47952, 1.44921, 1.44811, 1.44834, 1.46617, 1.46004, 1.42499, 1.43585, 1.43637, 1.41715, 1.4266, 1.41627, 1.4453, 1.44366, 1.46149, 1.50782, 1.47077, 1.60442, 1.60495, 0.00330602, 0.00307474, 1.54749, 1.54516, 1.66196, 1.69302, 1.69667, 0.0035169, 1.72053, 0.00337666, 1.56631, 0.0030874, 0.00304681, 0.00323473, 1.59329, 1.59945, 1.61197, 1.6193, 1.62442, 1.62341, 1.62458, 1.64097, 1.63996, 1.64743, 1.64818, 0.00321727, 0.00333019, 1.69889, 1.69663, 1.69225, 1.691, 1.69018, 1.6892, 1.70001, 1.69701, 1.70271, 1.70271, 1.71433, 1.71698, 1.71667, 1.72323, 1.7219, 1.73711, 1.73678, 1.73839, 1.73841, 1.74664, 1.75326, 0.00340085, 1.7601, 1.77194, 1.7817, 1.78271, 1.78335, 1.78131, 0.00327825, 0.0032808, 0.00336119, 1.81495, 1.81313, 1.82408
0.501626, 0.500256, 0.499826, 0.501794, 0.508, 0.520985, 0.520473, 0.519188, 0.527229, 0.526744, 0.526765, 0.525275, 0.516112, 0.51693, 0.517989, 0.518238, 0.516809, 0.500404, 0.499015, 0.49987, 0.497709, 0.494821, 0.462112, 0.460772, 0.471593, 0.45369, 0.452652, 0.462933, 0.471159, 0.409761, 0.407899, 0.407761, 0.432383, 0.437092, 0.434735, 0.00334198, 0.00330976, 0.00335036, 0.00330637, 0.00320652, 0.00322445, 0.00320706, 2.40847, 0.0030546, 0.00351915, 0.0032907, 0.00328869, 0.00309283, 0.00350402, 0.00321371, 2.38993, 0.00332949, 2.38987, 0.0032632, 0.00360204, 0.00329548, 0.00314633, 0.00330231, 0.00319555, 0.00337142, 2.34178, 2.34217, 2.32407, 0.00343812, 0.00337882, 0.00322409, 2.28814, 2.29685, 2.28122, 2.28154, 2.28068, 2.27485, 2.30244, 2.2722, 0.00313531, 0.00307582, 0.00342997, 2.25281, 2.24154, 0.00333512, 2.27707, 0.00323307, 0.00342139, 2.27646, 2.24043, 0.00330909, 2.2916, 0.00339531, 2.26061, 2.25923, 2.26989, 0.00310927, 2.28593, 2.27686, 2.28944, 2.2767, 2.22768, 2.22611, 2.21089, 2.22808, 2.24921, 2.22139, 2.21466, 2.24818, 2.19667, 2.24093, 2.24158, 0.00331312, 2.2211, 0.00316692, 2.23467, 2.23431, 2.23486, 2.23455, 2.23842, 0.0033421, 2.21509, 2.17445, 2.17606, 2.17629, 2.13313, 2.13257, 2.16257, 2.14256, 2.10867, 2.14338, 2.1962, 2.17964, 2.17126, 2.16725, 2.17302, 2.17303, 2.19149, 2.19747, 2.19767, 2.16829, 2.16868, 2.18453, 2.15574, 2.15605, 2.17711, 2.14892, 2.14632, 2.14995, 2.14877, 2.11816, 2.10671, 2.12119, 2.09503, 2.09604, 2.0686, 2.06791, 2.06704, 2.06593, 2.00998, 2.00956, 2.00725, 2.00448, 1.99504, 2.04105, 1.99789, 2.00696, 2.00639, 2.00358, 0.00371698, 1.94946, 1.94877, 1.94906, 1.99957, 1.99931, 1.92703, 1.92505, 1.92515, 1.90764, 1.92226, 1.9011, 1.89624, 1.81766, 1.79669, 1.81133, 1.80204, 1.7383, 1.74913, 1.74836, 1.71756, 1.71741, 1.71616, 1.69947, 1.6986, 1.69678, 1.69747, 1.69121, 1.66924, 1.66524, 1.63912, 1.64417, 1.63473, 1.57936, 1.57822, 1.57891, 1.57572, 1.57565, 1.576, 1.57129, 1.5635, 1.56588, 1.53704, 1.53419, 1.548, 1.54825, 1.53664, 1.52386, 1.53369, 1.52408, 1.51825, 1.50526, 1.49598, 1.48537, 1.47091, 1.45907, 1.45494, 1.45459, 1.45523, 1.49872, 1.43114, 1.42633, 1.44609, 1.44677, 1.42303, 1.42274, 1.45387, 1.44809, 1.46473, 1.47085, 1.46975, 1.47005, 1.52506, 1.58096, 1.58663, 1.63025, 0.00340362, 0.00326528, 1.642, 1.65167, 1.66198, 1.69753, 1.55106, 0.00344281, 1.56914, 1.57926, 1.5799, 0.00352699, 1.59094, 1.59744, 1.59766, 0.00320497, 1.62247, 1.62082, 1.61987, 1.62148, 1.63074, 1.62982, 1.64107, 1.64865, 1.64704, 0.00353582, 0.00316332, 0.00341953, 1.68971, 1.68895, 1.68884, 1.68776, 1.68736, 1.68834, 1.69972, 1.70726, 1.70754, 1.70936, 1.70932, 1.72181, 1.72465, 1.73342, 1.73362, 1.73266, 1.74136, 1.75084, 1.74872, 0.0030893, 1.76786, 0.00330397, 1.78867, 1.78824, 1.79244, 0.00302844, 1.81559, 1.81315, 1.8125, 1.81315, 1.82729, 1.82209
0.506717, 0.507306, 0.509427, 0.510294, 0.510665, 0.522453, 0.524583, 0.52552, 0.533138, 0.532544, 0.528968, 0.528662, 0.527776, 0.525114, 0.52158, 0.519595, 0.518606, 0.520638, 0.49424, 0.493193, 0.493167, 0.495033, 0.493615, 0.465285, 0.479837, 0.480361, 0.463402, 0.476688, 0.484563, 0.49139, 0.487838, 0.546098, 0.536895, 0.642352, 0.641585, 0.00325858, 0.00331827, 0.00339617, 0.00341762, 0.00364341, 0.00315536, 0.0032593, 0.00324987, 0.00330869, 0.00311548, 0.00328813, 0.00349463, 0.00310864, 0.00320347, 2.42911, 0.00299787, 0.00335668, 0.00319667, 0.00331421, 2.41846, 0.0032823, 0.00336177, 0.00343952, 0.00324156, 0.0031909, 2.34538, 0.00332869, 2.32942, 2.32963, 2.33223, 0.00326044, 2.31011, 2.33828, 0.00337685, 0.00335908, 2.31038, 2.30965, 2.3171, 0.00329843, 0.00318734, 2.26347, 2.26064, 2.25154, 2.28115, 2.27998, 2.2795, 2.28613, 0.00325446, 0.00344996, 0.00309707, 0.00341368, 0.0032805, 0.00337179, 0.00308643, 0.00327069, 0.0034654, 2.32205, 0.00340956, 2.28547, 2.25954, 2.25898, 0.00298714, 0.00331595, 0.00342121, 2.30439, 0.00329174, 2.25565, 2.2736, 2.28538, 0.00324102, 0.00321097, 0.00333164, 0.00316523, 0.00309606, 0.00323705, 0.00328116, 0.00343406, 0.00340353, 2.29006, 2.28962, 2.24518, 2.25177, 2.25206, 0.00328656, 2.17126, 2.21043, 2.18999, 2.1894, 2.19742, 2.19717, 2.19446, 2.20056, 2.20142, 2.18327, 2.16895, 2.1678, 2.17609, 2.16871, 2.16907, 2.16643, 2.16815, 2.16225, 2.1647, 2.15369, 2.15566, 2.15942, 2.143, 2.15292, 2.15089, 2.13611, 2.1192, 2.11839, 2.12613, 2.1211, 2.11874, 2.10122, 2.06794, 2.08128, 2.09312, 2.09624, 2.09737, 2.03853, 2.03788, 2.04765, 2.04801, 2.00294, 1.98818, 1.96724, 1.98617, 1.97861, 1.97722, 1.95104, 2.00033, 1.99962, 1.99929, 1.99913, 1.92392, 1.92365, 1.87891, 1.89652, 1.83094, 1.82225, 1.81947, 1.83254, 1.83203, 1.76822, 1.75813, 1.76152, 1.71589, 1.7153, 1.72514, 1.70404, 1.70704, 1.69888, 1.68695, 1.67834, 1.67731, 1.66952, 1.66219, 1.63487, 1.62488, 1.59686, 1.58106, 1.58195, 1.57524, 1.57455, 1.57534, 1.57154, 1.57834, 1.64512, 1.64484, 1.55327, 1.56178, 1.54392, 1.5226, 1.52212, 1.50939, 1.50911, 1.47579, 1.46786, 1.48158, 1.48164, 1.4822, 1.47469, 1.44733, 1.4369, 1.43587, 1.41633, 1.42014, 1.42164, 1.43986, 1.47485, 1.4745, 1.45325, 1.44289, 1.44448, 1.48822, 1.48498, 1.47114, 1.47132, 1.58029, 1.51572, 0.00335801, 0.00319949, 1.50868, 0.00313566, 1.51672, 1.64248, 1.66927, 1.66806, 1.67282, 1.5566, 1.5561, 0.00319091, 1.57562, 1.57545, 1.58542, 1.59298, 1.59176, 1.5983, 1.60491, 1.60667, 1.61947, 1.62075, 1.62167, 1.62683, 1.63404, 1.64536, 1.64359, 1.64531, 1.65377, 0.00332839, 0.00312857, 1.68932, 1.69443, 1.69438, 1.68917, 1.68661, 1.6866, 1.68935, 1.70286, 1.70221, 1.7019, 1.71279, 1.72058, 1.71851, 1.73047, 1.7309, 1.73097, 1.74553, 1.76052, 1.759, 1.76015, 1.7692, 1.76888, 0.0034455, 1.79733, 1.79753, 1.79765, 1.81449, 1.81326, 1.81272, 1.81172, 1.81384, 1.82943
0.508784, 0.520432, 0.52083, 0.516057, 0.518035, 0.518683, 0.527781, 0.529027, 0.535023, 0.534307, 0.533758, 0.533566, 0.530793, 0.528164, 0.522579, 0.525088, 0.524009, 0.522995, 0.522234, 0.494307, 0.526298, 0.525657, 0.542649, 0.466058, 0.465905, 0.465563, 0.464979, 0.472764, 0.495183, 0.462659, 0.491235, 0.456152, 0.515204, 0.562391, 0.564072, 0.571967, 0.659595, 0.00325635, 0.00298602, 0.00318365, 0.00346235, 0.00319852, 0.00350598, 0.00325599, 0.00345726, 0.00337606, 0.00336755, 0.00326401, 0.00337358, 0.00315212, 2.46098, 2.43683, 2.43673, 0.00327164, 0.00335436, 0.00299908, 2.52104, 0.00329058, 0.0031432, 0.00315157, 0.0034732, 2.3521, 2.34404, 0.00316942, 2.33627, 2.34264, 2.33421, 2.33135, 2.35072, 0.0032422, 0.00336984, 0.00328673, 0.00315407, 0.00329558, 0.00347274, 0.00341285, 0.0032705, 0.00318314, 2.32863, 0.00326282, 2.34892, 0.00342501, 0.00345583, 0.00312691, 2.32198, 0.00305751, 0.00335465, 0.00341504, 2.32146, 2.29326, 2.27946, 2.31813, 2.31151, 2.3126, 2.30832, 0.00321307, 0.00307721, 0.00298697, 2.27963, 0.00308898, 2.2968, 0.00331542, 2.2982, 0.00323213, 0.0034756, 0.00335361, 2.2827, 0.00341772, 0.00352155, 0.00327722, 2.27873, 0.00350103, 2.28691, 2.27449, 0.00327694, 0.00352433, 0.00352975, 2.42188, 0.00345269, 0.0030366, 2.24235, 2.23417, 2.23567, 2.20724, 2.21423, 2.20176, 2.20217, 2.19723, 2.18436, 2.18091, 2.2018, 2.16886, 2.18322, 2.17638, 2.18398, 2.18662, 2.16509, 2.16279, 2.2086, 2.15915, 2.15181, 2.14584, 2.13548, 2.1453, 2.11214, 2.10386, 2.12557, 2.11157, 2.11045, 2.15551, 2.09934, 2.08228, 2.08313, 2.10441, 2.10364, 2.1031, 0.00360665, 0.00317731, 2.0141, 1.97853, 1.97531, 1.9698, 1.9666, 1.96907, 1.97174, 1.97172, 1.92026, 1.92805, 1.92132, 1.90676, 1.92137, 1.85935, 1.8416, 1.84193, 1.91402, 1.8983, 1.8982, 1.80027, 1.80928, 1.78779, 1.75044, 1.75029, 1.75059, 1.71647, 1.75094, 1.70242, 1.70237, 1.71481, 1.70725, 1.70784, 1.66135, 1.66063, 1.6372, 1.6491, 1.61734, 1.61603, 1.60238, 1.59952, 1.57884, 1.59494, 1.56741, 1.56725, 1.57311, 1.60304, 1.58514, 1.5476, 1.53682, 1.52031, 1.51845, 1.48774, 1.59175, 1.49023, 1.48973, 1.47807, 1.48225, 1.48448, 1.47163, 1.45624, 1.45423, 0.00311221, 0.00314903, 1.42612, 1.41313, 1.41286, 1.43428, 1.41854, 1.41604, 1.42726, 1.44077, 1.43601, 1.46765, 1.46551, 1.47393, 0.00323109, 1.5825, 0.00315911, 0.00328538, 0.00323935, 1.51582, 0.00311552, 0.00338831, 0.00320702, 1.64075, 0.0031663, 0.00329444, 0.003277, 1.55847, 1.55983, 1.56887, 0.00302793, 1.5772, 0.00358069, 0.00323032, 1.59243, 1.59892, 0.00297764, 1.60347, 0.00330293, 1.61495, 1.62918, 1.62797, 1.62678, 1.63248, 1.64038, 1.64738, 1.64903, 1.6544, 0.00307387, 0.00335991, 1.70278, 1.68988, 1.68741, 1.68544, 1.68632, 1.6904, 1.69538, 1.70222, 1.70349, 1.70234, 1.719, 1.72161, 1.72331, 1.73702, 1.73658, 1.73536, 1.75717, 1.7565, 1.7577, 1.77188, 1.77119, 0.00309894, 1.79338, 1.79897, 0.00307867, 1.81499, 1.81373, 1.81371, 1.8131, 1.81298, 1.81916
0.511077, 0.521449, 0.518895, 0.516333, 0.514902, 0.520989, 0.531986, 0.530962, 0.535877, 0.535698, 0.539877, 0.540208, 0.534247, 0.533505, 0.53196, 0.528094, 0.527197, 0.524758, 0.524476, 0.5431, 0.543712, 0.50496, 0.525888, 0.473506, 0.46151, 0.461649, 0.454373, 0.495455, 0.480871, 0.484245, 0.475313, 0.464664, 0.521392, 0.528723, 0.5273, 0.561241, 0.571207, 0.642269, 0.00324504, 0.00353825, 0.00310929, 0.00291933, 0.00336688, 2.58154, 2.58157, 0.00337491, 0.00327421, 0.0034201, 0.00347385, 0.00372616, 0.00327623, 0.00354849, 2.43679, 0.00339588, 0.00331982, 0.00350482, 0.00321047, 0.00319259, 0.00324982, 0.00350339, 0.00302594, 0.00382136, 0.0034192, 0.00334324, 2.34589, 2.33961, 2.35578, 2.3842, 2.38007, 2.37803, 0.00306888, 0.00322297, 0.00322953, 0.00342931, 0.00320417, 0.00344069, 0.0033809, 2.36983, 0.00345559, 0.00373981, 0.00318369, 0.00322318, 2.42182, 0.0035328, 0.00318081, 0.00357575, 0.00308446, 0.00322246, 0.00328095, 2.42721, 0.00329847, 0.0031759, 0.00320648, 2.43517, 0.0030327, 0.00334625, 0.0033716, 2.34595, 0.00350964, 2.30401, 0.00320785, 0.0033466, 0.00320803, 0.0036955, 2.29382, 2.29358, 0.00311569, 0.00356179, 0.00346711, 0.00335953, 0.00332113, 0.00344018, 2.26928, 0.00347518, 2.26582, 2.26573, 2.33812, 2.33809, 0.00314664, 0.00333878, 2.21978, 2.21955, 2.23069, 2.23249, 2.22801, 2.20773, 2.22252, 2.24418, 2.18763, 2.18082, 2.18107, 2.18068, 2.16941, 2.17053, 2.16737, 2.16836, 2.18454, 2.17096, 2.15171, 2.15129, 2.15266, 2.15624, 2.16294, 2.14481, 2.12078, 2.11808, 2.11213, 2.11201, 2.13176, 2.16535, 2.09509, 2.09534, 2.09859, 2.09036, 2.09049, 2.10394, 2.10255, 1.99313, 1.99356, 1.99405, 1.98503, 1.94909, 1.94937, 1.94715, 1.93822, 1.97935, 0.00297365, 1.92087, 1.91473, 1.88014, 1.87873, 1.81477, 1.81398, 1.82862, 1.82876, 1.90992, 1.90953, 1.80712, 1.83048, 1.83032, 1.82953, 1.73559, 1.72325, 1.72251, 1.7177, 1.72974, 1.69621, 1.72396, 1.72277, 1.70894, 1.66985, 1.6578, 1.64626, 1.61642, 1.61613, 1.62437, 1.60056, 1.58808, 1.59817, 1.61015, 1.61278, 1.56095, 1.56348, 1.54771, 1.54041, 1.6168, 1.54356, 1.54261, 1.49991, 1.47111, 1.47754, 1.47301, 1.47226, 1.49992, 1.49943, 1.46414, 1.46194, 1.46127, 1.48854, 1.64491, 1.42982, 1.42933, 1.40783, 1.40722, 1.40838, 1.40732, 1.41869, 1.44016, 1.43182, 1.43554, 1.45328, 1.45185, 0.00338587, 0.00381658, 0.00337467, 1.48459, 0.00340335, 0.00314314, 0.00327101, 0.00343348, 0.00316234, 0.00320866, 0.00315197, 0.00344579, 0.00342522, 1.55419, 1.56123, 1.56746, 1.56812, 1.56831, 0.00309945, 1.58844, 1.58719, 1.59515, 1.5958, 1.60447, 1.60583, 1.60977, 0.0032074, 1.62901, 1.62817, 1.62812, 1.62962, 1.63436, 1.6502, 1.64973, 1.65256, 1.66116, 0.00332785, 1.6904, 1.69092, 1.6867, 1.68526, 1.68633, 1.68858, 1.6886, 1.69627, 1.70068, 1.71205, 1.72032, 1.72749, 1.72759, 1.73739, 1.73789, 1.74327, 1.75638, 1.75539, 1.75422, 1.76431, 1.76425, 0.00324237, 1.79018, 1.79122, 0.0035593, 1.81373, 1.81426, 1.8151, 1.81469, 1.81413, 1.8153
0.514984, 0.520255, 0.523207, 0.520046, 0.519089, 0.524895, 0.536625, 0.535567, 0.536026, 0.54358, 0.544711, 0.545002, 0.54282, 0.539647, 0.528935, 0.527868, 0.527776, 0.534489, 0.534681, 0.527557, 0.549547, 0.512396, 0.548673, 0.529478, 0.562319, 0.475087, 0.479164, 0.477828, 0.48689, 0.486385, 0.477493, 0.506864, 0.49155, 0.550215, 0.524818, 0.534853, 0.533981, 0.606607, 0.663543, 0.662237, 0.00334177, 0.00335941, 0.00352174, 0.00325213, 0.00333658, 0.00336583, 0.00326107, 0.00343966, 0.0033371, 0.00319871, 0.00352808, 0.00302803, 0.00331287, 0.00335136, 0.00342594, 0.00332051, 2.4533, 0.0032842, 0.00337507, 0.00318646, 0.00318538, 0.00325428, 0.00299545, 0.0030597, 2.37034, 0.00334151, 2.44388, 0.00316296, 2.47331, 0.00341675, 0.00327012, 0.00345326, 0.00327067, 0.00334259, 2.48108, 0.00310411, 0.0032919, 0.00286936, 0.00321457, 0.00309716, 0.00326576, 0.00360605, 0.00319072, 0.00323842, 0.00339744, 0.00315547, 2.4695, 0.00320557, 2.44852, 0.00334928, 0.00342537, 0.00325166, 2.45893, 2.44589, 2.43837, 2.43878, 2.43892, 2.42056, 0.00338957, 0.00326003, 2.35039, 2.34202, 2.31782, 0.00320806, 0.00325321, 0.00327146, 0.00336871, 0.0034113, 2.29082, 2.29786, 2.31798, 2.30466, 2.30392, 0.00329013, 2.28257, 2.29197, 2.26567, 2.29741, 2.28518, 2.27216, 2.24666, 2.25915, 2.23317, 2.23426, 2.22438, 2.22879, 2.22384, 2.22335, 2.18493, 2.18479, 2.18499, 2.18437, 2.16825, 2.17778, 2.17535, 2.17202, 2.16309, 2.16534, 2.15862, 2.15161, 2.15201, 0.00303318, 2.13843, 2.12411, 2.1321, 2.13129, 2.1348, 2.12129, 0.00343246, 2.16495, 2.16467, 2.06912, 2.04046, 2.04025, 2.02915, 2.13417, 1.99166, 1.99188, 1.97504, 1.95943, 1.95888, 1.96682, 1.96653, 1.94462, 1.93788, 1.92024, 1.90634, 1.90336, 1.93463, 1.82702, 1.8351, 1.81282, 1.81335, 1.82413, 1.82965, 1.81772, 1.81722, 1.78296, 1.78181, 1.78121, 1.74074, 1.74082, 1.74191, 1.72552, 1.71605, 1.71637, 1.69275, 1.69232, 1.70169, 1.68446, 1.68033, 1.65967, 1.63141, 1.6317, 1.5989, 1.59956, 1.58215, 1.58053, 1.67883, 1.57115, 1.6118, 1.57115, 1.56918, 1.55033, 1.56203, 1.55491, 1.49379, 1.49569, 1.4712, 1.47101, 1.50196, 1.50028, 1.46151, 1.44739, 1.437, 1.43196, 1.44308, 1.43242, 1.42701, 1.43442, 1.43027, 1.42759, 1.42972, 1.41766, 1.4171, 1.41493, 1.42695, 1.4445, 1.41019, 1.42985, 1.4478, 1.44794, 0.00340693, 0.00307203, 0.00343176, 0.00316716, 0.00339046, 0.00338966, 0.00338824, 0.00332645, 0.00358103, 0.00349272, 1.53484, 0.00342932, 0.00330783, 1.55551, 1.5601, 1.56876, 1.56798, 1.57307, 0.00322483, 1.59132, 1.58976, 1.59477, 1.60618, 1.60552, 1.60932, 1.60894, 1.61684, 1.62188, 1.6352, 1.6342, 1.63372, 1.63648, 1.65777, 1.65569, 1.65544, 1.65741, 1.65626, 1.69047, 1.68935, 1.69001, 1.68676, 1.69133, 1.68927, 1.69511, 1.69951, 1.717, 1.71607, 1.71804, 1.72697, 1.73384, 1.73519, 1.73696, 1.73907, 1.74893, 1.75146, 1.75861, 1.76994, 1.76838, 1.7914, 1.79003, 1.79563, 0.00320771, 0.0034778, 1.81751, 1.81949, 1.81968, 1.82154, 1.82287
0.515273, 0.524606, 0.523115, 0.522488, 0.527876, 0.528703, 0.527565, 0.537139, 0.545227, 0.548302, 0.551743, 0.551362, 0.549752, 0.549289, 0.550729, 0.546505, 0.544051, 0.539334, 0.5358, 0.532786, 0.548905, 0.551832, 0.56039, 0.562295, 0.483957, 0.50778, 0.486427, 0.466696, 0.48666, 0.500689, 0.515184, 0.472778, 0.535146, 0.476169, 0.524749, 0.538003, 0.577231, 0.563497, 0.622919, 0.63481, 0.641221, 0.700482, 0.00334409, 0.0032379, 0.00335775, 0.00304887, 0.00305776, 0.00327423, 0.00304285, 0.00356842, 0.00330266, 0.00359088, 0.0033813, 0.00344916, 0.00330232, 0.00320331, 0.00319935, 0.00341603, 0.00320868, 0.00370146, 0.00325979, 0.00362146, 0.00315653, 0.00346789, 0.00323561, 2.45681, 0.00325238, 0.00308129, 0.00325112, 0.00312748, 0.00334549, 2.48498, 0.00331481, 0.0033454, 0.00307975, 2.5016, 0.00314681, 0.00329469, 0.00331873, 2.51867, 0.00341066, 2.52524, 2.5337, 2.50567, 2.50567, 2.49563, 2.49615, 2.51192, 0.00344589, 0.00326415, 0.00305895, 0.00304332, 0.00290408, 2.45991, 2.45283, 2.46323, 2.44151, 2.4359, 0.0033736, 2.46031, 2.44959, 0.00363373, 2.30395, 2.30413, 2.36685, 2.37339, 0.00311122, 2.29197, 2.29216, 2.33525, 2.31451, 2.33049, 2.2937, 2.29484, 2.28687, 2.28708, 2.28287, 2.27383, 2.28329, 2.28127, 2.28078, 2.25188, 2.252, 2.25063, 2.24419, 2.24467, 2.23563, 2.23828, 0.00336126, 0.00319926, 0.00306003, 2.19073, 2.19102, 2.19683, 2.1915, 2.17934, 2.18007, 2.16285, 2.15483, 2.16108, 2.14882, 2.14271, 2.14565, 2.14227, 2.10914, 2.10702, 2.1101, 2.07994, 2.08276, 2.07733, 2.06247, 2.05686, 2.03631, 2.03926, 2.04875, 2.0387, 1.99054, 1.98291, 1.98944, 1.96771, 1.98196, 1.94779, 1.93839, 1.92809, 1.93473, 1.89571, 1.88038, 1.92081, 1.94171, 1.94128, 1.83025, 1.8415, 1.81507, 1.81473, 1.81137, 1.81552, 1.79035, 1.78161, 1.76699, 1.75563, 1.73811, 1.73926, 1.73776, 1.72372, 1.71399, 1.71374, 1.71558, 1.6904, 1.68208, 1.70063, 1.75948, 1.67527, 1.67469, 1.63971, 1.59604, 1.60156, 1.59247, 1.58492, 1.58151, 1.58118, 1.53245, 1.55122, 1.53957, 1.52799, 1.51003, 1.50742, 1.51502, 1.47822, 1.46459, 1.48203, 1.46186, 1.4691, 1.45738, 1.43202, 1.42934, 1.45935, 1.42137, 1.40405, 1.39998, 1.40098, 1.43688, 1.43234, 1.44121, 1.44269, 1.41561, 1.42686, 1.42563, 1.43641, 1.42868, 1.4415, 1.44199, 1.44293, 0.00360525, 1.45681, 0.00304187, 0.00343489, 0.00321718, 1.50056, 0.00330977, 0.0035788, 0.00310606, 1.53035, 1.53164, 1.54111, 1.55144, 1.55187, 1.56093, 1.56245, 0.00305434, 1.58441, 1.58254, 1.5865, 0.0029679, 0.00334761, 1.60398, 1.60585, 0.00319019, 1.61634, 1.61665, 1.62801, 1.62805, 1.63827, 1.64022, 1.63738, 1.65564, 1.6562, 1.65624, 1.6577, 1.65762, 1.67578, 1.69159, 1.68738, 1.68712, 1.68883, 1.68851, 1.69521, 1.70327, 0.00348692, 1.72118, 1.72142, 1.72696, 1.73141, 1.73486, 1.73392, 1.73409, 1.7503, 1.75031, 1.75734, 0.00310554, 0.00345458, 0.00319987, 0.00328863, 1.79961, 1.80354, 0.0033601, 1.81981, 1.81921, 1.81911, 1.82018, 1.83262
0.521615, 0.521865, 0.53987, 0.537914, 0.534857, 0.532201, 0.534916, 0.541902, 0.551373, 0.550141, 0.550913, 0.550115, 0.552753, 0.554261, 0.554973, 0.55338, 0.54979, 0.545916, 0.54463, 0.541869, 0.535611, 0.527785, 0.520362, 0.518746, 0.491773, 0.4937, 0.50479, 0.490609, 0.483594, 0.490777, 0.474991, 0.474412, 0.532342, 0.518668, 0.517031, 0.547516, 0.549872, 0.560488, 0.597574, 0.626184, 0.65326, 0.666715, 0.00316105, 0.00326313, 0.00322803, 0.00337336, 0.00338497, 0.00306514, 0.0033386, 0.00309776, 0.00338737, 0.003229, 0.00367503, 0.00346463, 0.00298159, 0.0031328, 0.00346269, 0.00356359, 0.00332538, 0.00312473, 0.0037113, 0.00312947, 0.00361326, 0.0031523, 0.00337489, 0.00312604, 2.52296, 2.50487, 2.50585, 0.00322103, 2.54303, 0.00328715, 0.00338831, 0.00333971, 2.5915, 0.0032113, 0.00312885, 0.00323353, 0.00320443, 0.00323148, 0.00320913, 0.0033577, 2.55963, 0.00328405, 0.00337831, 2.57849, 2.56713, 2.54781, 2.58356, 0.00346158, 0.00329341, 0.00333412, 0.00337705, 0.00343832, 2.47885, 0.00314854, 2.47772, 0.00319165, 2.48735, 0.00313023, 0.00338112, 0.00337225, 2.42904, 0.00302291, 2.32055, 2.34313, 2.34654, 2.31545, 2.31131, 2.32532, 2.3129, 2.31178, 2.31391, 2.29554, 2.29393, 0.00322704, 2.28221, 2.3003, 2.27445, 2.25566, 2.31042, 0.00323193, 2.26393, 2.28212, 2.24919, 2.25592, 2.25894, 2.2561, 2.23968, 2.25273, 2.23649, 2.23571, 2.22395, 2.19339, 2.19458, 0.00325177, 2.19016, 2.18012, 2.18066, 2.18085, 2.15425, 0.00304939, 0.00308562, 2.13589, 2.13417, 2.1221, 2.08546, 2.09936, 2.07408, 2.08296, 2.08319, 2.05229, 2.05888, 2.03798, 2.03806, 2.00632, 2.01361, 1.98631, 1.97974, 1.97236, 1.9743, 1.95932, 1.94197, 1.91727, 1.90916, 1.90371, 1.86294, 1.86321, 1.84359, 1.84501, 1.84489, 1.82404, 2.01635, 1.82939, 1.81395, 1.76125, 1.75227, 1.76123, 1.76251, 1.74965, 1.74318, 1.74166, 1.72393, 1.71131, 1.71552, 1.7032, 1.69177, 1.6824, 1.65671, 1.6565, 1.64007, 1.6126, 1.61003, 1.63453, 1.59934, 1.57711, 1.58262, 1.55597, 1.55738, 1.54179, 1.54131, 1.51605, 1.51524, 1.49703, 1.4956, 1.53526, 1.4688, 1.47318, 1.48004, 1.48763, 1.48761, 1.43432, 1.43268, 1.44366, 1.43096, 1.43892, 1.42316, 1.43569, 1.43168, 1.42726, 1.42262, 1.42597, 1.43806, 1.41976, 1.43596, 1.40495, 1.40203, 1.39494, 1.41989, 1.43218, 1.4548, 1.47081, 1.48094, 1.47872, 1.52117, 1.5239, 0.00314221, 0.00314632, 1.63691, 0.00319724, 0.00335912, 1.52774, 0.00313764, 0.00318335, 1.55105, 1.56344, 1.56263, 1.56244, 0.00341039, 1.57743, 0.00344599, 1.59081, 1.59599, 1.59527, 1.60773, 1.60749, 1.61311, 1.61618, 1.62478, 1.62324, 1.62992, 1.63001, 1.64465, 1.6533, 1.65326, 1.65354, 1.6556, 1.65722, 1.66478, 0.00318301, 1.68925, 1.68872, 1.69165, 1.68849, 1.68752, 1.69888, 0.0032509, 1.72354, 1.72348, 1.72826, 1.73364, 1.735, 1.73532, 1.73536, 1.73723, 0.0031448, 0.00322647, 0.00317244, 1.76502, 0.00330086, 0.00303111, 1.80088, 1.79872, 1.7974, 1.81113, 1.81255, 1.82025, 1.82086, 1.82303, 1.82573
0.520316, 0.524564, 0.524064, 0.527653, 0.528459, 0.537824, 0.53799, 0.551864, 0.555262, 0.555236, 0.554157, 0.556912, 0.556726, 0.556459, 0.555565, 0.553609, 0.549021, 0.546963, 0.546087, 0.542655, 0.542269, 0.540677, 0.536814, 0.533957, 0.507553, 0.507641, 0.483447, 0.503753, 0.528302, 0.482952, 0.522414, 0.490751, 0.481614, 0.456999, 0.455486, 0.459214, 0.489601, 0.515989, 0.531045, 0.569763, 0.624194, 0.635832, 0.647047, 0.00321609, 0.00338482, 0.00340575, 0.0033087, 0.00331423, 0.00310149, 0.00308662, 0.00313919, 0.00298449, 0.00335136, 0.0033523, 0.00341644, 0.00348979, 0.00318123, 0.00336637, 0.00334132, 0.00314521, 0.00309372, 0.00354521, 0.00331716, 0.00322536, 0.00343363, 0.00341159, 0.00305272, 0.00324, 0.00323229, 0.00331838, 0.00328033, 0.00315898, 0.00331399, 0.00309611, 0.00297932, 2.59402, 0.0034027, 0.00324219, 0.003261, 0.00328949, 0.00331659, 0.0031543, 0.00327562, 0.00348397, 0.00315345, 2.60848, 2.57981, 2.58135, 0.00319673, 2.59572, 0.00339636, 0.00331296, 0.00317681, 0.00319844, 0.00322637, 0.00323002, 0.00304602, 0.00313654, 0.00322285, 0.00315635, 0.00327386, 0.00360388, 0.00307788, 0.00333204, 0.00334478, 0.00342338, 0.00324034, 0.00339842, 2.32803, 2.32809, 2.32307, 2.32229, 2.32, 2.30242, 2.30349, 2.29982, 2.29825, 2.28021, 2.30156, 2.28076, 2.32689, 2.30574, 2.29469, 2.25902, 2.29022, 2.26003, 2.26067, 2.24539, 2.24637, 2.23777, 2.22948, 2.22857, 2.22712, 2.23539, 0.00323365, 0.00305032, 2.20703, 2.17783, 2.19142, 2.18471, 2.18945, 2.17597, 0.00337266, 2.13077, 2.12471, 2.12367, 2.10484, 2.1088, 2.09364, 2.10167, 2.08485, 2.07699, 2.06371, 2.04197, 2.03835, 2.03901, 2.01009, 1.99978, 1.99917, 1.99321, 1.95945, 1.95564, 1.92956, 1.89738, 1.89704, 1.8798, 1.86089, 1.84378, 1.93729, 1.93746, 1.92436, 1.84538, 1.77539, 1.77537, 1.76857, 1.75413, 1.76516, 1.73638, 1.73841, 1.73736, 1.71685, 1.714, 1.70319, 1.70096, 1.70424, 1.68218, 1.67577, 1.67497, 1.66659, 1.62141, 1.6408, 1.62779, 1.62838, 1.65164, 1.69262, 1.56797, 1.69011, 1.54007, 1.54727, 1.54124, 1.50629, 1.49529, 1.49478, 1.54313, 1.47901, 1.49242, 1.47659, 1.461, 1.47859, 1.4288, 1.42851, 1.41688, 1.4162, 1.39867, 1.397, 1.42962, 1.42032, 1.40129, 1.40281, 1.41221, 1.3672, 1.38408, 1.43048, 1.43055, 1.37812, 1.37778, 1.39683, 1.41071, 1.4156, 1.43461, 1.4352, 1.45202, 0.0031435, 0.00319657, 0.00338384, 0.00342006, 0.00333889, 0.00339788, 0.0032477, 0.00312241, 0.0034326, 0.00315232, 1.54339, 1.5438, 0.00336684, 1.56188, 1.56077, 0.00303351, 0.00329705, 1.58238, 1.58964, 1.59458, 1.59238, 1.59258, 1.60321, 1.6031, 1.61381, 1.6244, 1.62629, 1.62951, 1.62992, 1.63588, 1.64693, 1.64887, 1.64978, 1.65017, 1.65723, 1.65515, 1.66423, 1.6891, 1.68821, 1.6867, 1.68642, 1.69161, 1.69022, 1.70733, 1.71074, 1.71691, 1.7253, 1.72604, 1.73021, 1.73639, 1.73818, 1.74273, 1.74734, 1.74752, 0.00327183, 1.76266, 1.77468, 1.77508, 0.00325389, 1.79073, 1.80207, 1.80058, 1.80623, 1.8061, 1.82279, 1.82039, 1.81846, 1.83042
0.531479, 0.528285, 0.530094, 0.529088, 0.531469, 0.531937, 0.566769, 0.565418, 0.565829, 0.563395, 0.559861, 0.566722, 0.568688, 0.569558, 0.56038, 0.561174, 0.555471, 0.548856, 0.548149, 0.547217, 0.54756, 0.544878, 0.539456, 0.544869, 0.539325, 0.514402, 0.51022, 0.510649, 0.500735, 0.497438, 0.489712, 0.478283, 0.480248, 0.487041, 0.481974, 0.439882, 0.472863, 0.459545, 0.525289, 0.496913, 0.549119, 0.550633, 0.659795, 0.00305967, 0.00331401, 0.00305818, 0.0035187, 0.00325863, 0.00306317, 0.00314423, 0.00322319, 0.0034777, 0.00344039, 0.00314559, 0.00324336, 0.00324652, 0.00340867, 0.00336399, 0.00360169, 0.00338152, 0.00307578, 0.00326066, 0.00344028, 0.00330535, 0.00348256, 0.00334621, 0.00326605, 0.00320587, 0.00298245, 0.00320501, 0.00302032, 0.00321652, 0.00364732, 0.0031483, 0.00344574, 0.00338706, 0.00348151, 0.00310111, 0.00346913, 0.00314519, 0.00338635, 0.00311429, 2.66684, 0.00318723, 0.00324061, 0.0032643, 2.63956, 0.00315219, 2.61753, 0.00316116, 2.59415, 0.00313008, 2.57137, 2.56663, 2.56613, 2.56908, 2.54822, 0.00308179, 0.00335205, 0.00327056, 0.00330262, 0.00301256, 0.00343425, 0.00313837, 0.0032402, 0.00317327, 2.3935, 2.3774, 2.37696, 0.00310844, 0.00343887, 0.00322818, 0.00335593, 2.30563, 2.30488, 2.30669, 2.30709, 2.29342, 2.28, 2.30075, 2.31071, 2.30962, 2.29371, 2.29393, 2.29209, 2.2709, 2.25152, 2.27031, 2.26625, 2.23756, 2.22761, 2.2311, 2.23785, 2.23807, 2.23766, 2.22942, 2.22156, 2.22056, 2.21449, 2.18957, 2.18934, 2.18901, 2.21082, 2.21075, 2.12975, 2.13706, 2.13533, 2.10015, 2.09343, 2.08982, 2.05891, 2.05888, 2.06363, 2.04579, 2.05164, 2.04272, 1.99712, 1.99788, 2.00147, 0.00295565, 1.93167, 1.93067, 1.92097, 1.92093, 1.87479, 1.8718, 1.85838, 1.83529, 1.84414, 1.84996, 1.80198, 1.79746, 1.77889, 1.77242, 1.76815, 0.00318606, 1.71654, 1.71582, 1.7167, 1.72404, 1.72359, 1.70163, 1.70349, 1.69062, 1.68956, 1.67508, 1.66473, 1.64741, 1.62605, 1.64723, 1.61094, 1.61038, 1.61035, 1.58958, 1.56087, 1.60618, 1.53387, 1.52474, 1.52376, 1.52145, 1.50477, 1.50572, 1.47808, 1.48141, 1.46017, 1.44025, 1.44665, 1.41603, 1.41315, 1.41333, 1.44414, 1.51932, 1.46467, 1.46478, 1.40383, 1.42459, 1.4298, 1.36785, 1.37477, 1.34871, 1.34776, 1.35321, 1.38609, 1.42043, 1.38656, 1.41062, 1.39547, 1.42299, 1.43309, 1.43215, 1.7254, 0.00316401, 0.00343904, 0.00324085, 0.00337248, 0.00328929, 0.00360787, 0.00306739, 0.00346675, 1.52631, 1.52525, 0.00321654, 1.54009, 0.00322441, 0.00339126, 0.00327908, 1.56476, 0.00311919, 0.00304795, 0.00319886, 1.58506, 1.59257, 1.59632, 1.60287, 1.60991, 1.61417, 1.61357, 1.62561, 1.62678, 1.6274, 1.62907, 1.63284, 1.64267, 1.64248, 1.64757, 1.65033, 1.65103, 1.65917, 0.00333096, 0.00327669, 1.68841, 1.68798, 1.69079, 1.69066, 1.69419, 1.70801, 1.71431, 1.72061, 1.72085, 1.7303, 1.72914, 1.7329, 1.73786, 1.74765, 1.7485, 1.76516, 1.76526, 1.76531, 1.76523, 1.77416, 1.77914, 0.00309836, 1.80619, 1.80948, 1.80746, 1.81084, 1.81472, 0.0034108, 1.82866, 1.83175
0.535192, 0.536287, 0.536824, 0.534468, 0.532554, 0.537559, 0.537655, 0.570026, 0.569253, 0.566989, 0.565516, 0.5742, 0.575487, 0.573636, 0.572276, 0.570974, 0.562636, 0.559418, 0.555987, 0.556805, 0.550688, 0.554905, 0.554239, 0.543832, 0.542025, 0.54151, 0.541853, 0.524029, 0.539746, 0.525464, 0.504951, 0.49459, 0.488097, 0.487518, 0.47666, 0.476103, 0.46564, 0.475776, 0.39808, 0.440184, 0.437255, 0.52824, 0.524978, 0.521869, 0.0033805, 0.00352481, 0.00330422, 0.00322481, 0.00308612, 0.00347911, 0.00295131, 0.0035633, 0.00342241, 0.00312742, 0.00314901, 0.00341565, 0.00326541, 2.65042, 0.00310906, 0.00334656, 0.00329732, 0.00325625, 0.00322605, 0.00320771, 0.00313692, 0.00335543, 0.00324966, 0.00298937, 0.00321877, 0.00343896, 0.00327321, 0.00356854, 0.00323303, 0.00357236, 0.00326063, 0.00356326, 0.00321242, 0.00330392, 0.00350415, 0.00337725, 0.00338239, 2.67777, 0.00317885, 0.00315841, 0.00337108, 2.63051, 2.63102, 2.62351, 0.00352531, 2.59744, 0.00310045, 0.003101, 0.00338414, 2.56101, 2.57851, 2.53239, 0.00292911, 2.54085, 2.4949, 2.49486, 2.50159, 2.49897, 2.44239, 2.44209, 0.00329547, 2.41578, 2.39354, 2.40212, 2.39409, 2.37635, 0.0031881, 2.363, 0.00297398, 2.35631, 2.339, 2.33643, 2.32461, 2.30267, 2.32252, 2.30698, 2.34099, 2.34112, 2.34166, 2.29154, 2.28829, 2.28061, 2.27029, 2.27615, 2.27829, 2.27044, 2.27589, 2.25655, 2.25731, 2.23902, 2.22763, 2.23577, 2.2358, 2.2116, 2.19714, 2.19745, 2.1937, 2.17273, 2.21074, 2.20983, 0.00312739, 2.07612, 2.07386, 2.06319, 2.06224, 2.06595, 2.05087, 2.04931, 2.04195, 2.01977, 1.98143, 1.98998, 1.99617, 1.96441, 1.9423, 1.93773, 1.91476, 1.92739, 1.92626, 1.87453, 1.8699, 1.86847, 1.86373, 1.84088, 1.79981, 1.80811, 1.77583, 1.75998, 1.76511, 1.75937, 1.7656, 1.72287, 1.70815, 1.7131, 1.71127, 1.72053, 1.72838, 1.83909, 1.68625, 1.68571, 1.67973, 1.66317, 1.63822, 1.64025, 1.61754, 1.61116, 1.59327, 1.59299, 1.57008, 1.56073, 1.5578, 1.56725, 1.52794, 1.50233, 1.50194, 1.49639, 1.47622, 1.48213, 1.45512, 1.45709, 1.45687, 1.44746, 1.42349, 1.41432, 1.41673, 1.40999, 1.40837, 1.43913, 1.47052, 1.47044, 1.47055, 1.3915, 1.40211, 1.3808, 1.39852, 1.35523, 1.35587, 1.37638, 1.37204, 1.38344, 1.40462, 1.41689, 1.43575, 1.43373, 1.43388, 1.43369, 0.00329172, 0.00329353, 0.00313753, 0.00329056, 0.00334297, 0.00327808, 1.53298, 1.54886, 0.00344643, 1.52324, 0.00336928, 1.53863, 1.5399, 1.5535, 1.55728, 1.55631, 1.56106, 1.57523, 1.57441, 1.57708, 0.00300878, 0.00340214, 1.59964, 1.60586, 1.60538, 1.61011, 1.6098, 1.61581, 1.6261, 1.62781, 1.63039, 1.63276, 1.63763, 1.64677, 1.64423, 1.65323, 1.65812, 1.66438, 1.66245, 1.67518, 1.68941, 1.68809, 1.68861, 1.69361, 1.70263, 1.70357, 1.71292, 1.71106, 1.71975, 1.7277, 1.73034, 1.73457, 1.74123, 1.74825, 1.75289, 1.76271, 1.76347, 1.76596, 1.76552, 1.78047, 1.77822, 0.0034569, 0.0032268, 1.80941, 1.80895, 1.81389, 1.82839, 1.82779, 1.8276, 1.83085
0.534383, 0.534746, 0.539539, 0.538243, 0.568867, 0.568974, 0.570465, 0.57349, 0.573166, 0.572782, 0.571078, 0.578985, 0.580626, 0.580767, 0.578867, 0.575529, 0.566869, 0.566201, 0.564635, 0.562376, 0.560318, 0.554443, 0.553293, 0.55598, 0.555886, 0.548742, 0.547718, 0.594611, 0.523444, 0.521845, 0.542786, 0.511919, 0.527338, 0.517469, 0.52535, 0.488284, 0.482829, 0.455268, 0.442642, 0.413521, 0.413239, 0.413127, 0.439109, 0.425231, 0.42384, 0.00333146, 0.00302597, 0.00338418, 0.00330034, 0.00327013, 0.0033845, 0.00317569, 0.00352086, 0.00346568, 0.00342195, 0.00326535, 0.00321885, 0.00316369, 0.00320366, 0.0032948, 0.00326527, 0.00338614, 2.72552, 0.00332114, 0.00316388, 0.00333757, 0.00321246, 0.00336558, 0.00336361, 0.00352825, 0.00320142, 0.00317557, 0.00351371, 0.00322997, 0.0032604, 0.00339744, 0.0034558, 0.00326805, 0.00367739, 0.00321701, 2.67815, 2.66942, 2.66509, 2.67831, 2.66327, 2.62719, 2.62563, 0.00322492, 0.00324788, 2.58726, 2.59347, 0.00310891, 2.54027, 2.53883, 2.53771, 2.5436, 2.52513, 0.00336566, 2.51208, 2.47925, 2.45748, 2.44608, 2.43676, 2.43709, 2.40261, 2.41748, 2.40684, 2.40817, 2.40322, 0.00315416, 2.40479, 0.00330548, 0.00332425, 2.36356, 2.33876, 2.34026, 2.33918, 2.34326, 2.35281, 2.35339, 2.34241, 2.3371, 2.34278, 2.33577, 2.31489, 2.30703, 2.28365, 2.27445, 2.27195, 2.2795, 2.27025, 2.24567, 2.24662, 2.24518, 2.24689, 2.23133, 2.19281, 2.18031, 2.14653, 2.15115, 2.1328, 2.13301, 2.16977, 2.07488, 2.07555, 2.07947, 2.06609, 2.03816, 2.04407, 2.03359, 2.02649, 2.02686, 1.98618, 1.98501, 1.98494, 1.97683, 1.95637, 1.94802, 1.9359, 1.89732, 1.88876, 1.8972, 1.85062, 1.86633, 1.82865, 1.8188, 1.80992, 1.83518, 1.77952, 1.76585, 1.76496, 1.76503, 1.7268, 1.72442, 1.70817, 1.69934, 1.70599, 1.70735, 1.69796, 1.69425, 1.69386, 1.69578, 1.6774, 1.65015, 1.66325, 1.66063, 1.68942, 1.68813, 1.60576, 1.59958, 1.5776, 1.57677, 1.56522, 1.54031, 1.56549, 0.00326915, 1.51993, 1.52073, 1.48154, 1.46829, 1.45864, 1.46861, 1.46907, 1.43744, 1.43049, 1.47044, 1.40183, 1.38835, 1.41231, 1.40919, 1.40755, 1.39123, 1.37882, 1.38104, 1.37475, 1.39129, 1.39937, 1.40245, 1.34892, 1.37333, 1.34547, 1.38247, 1.40283, 1.40474, 1.40705, 1.42519, 1.43426, 1.44778, 0.00320016, 0.00304006, 0.00340847, 0.00317473, 0.00329306, 0.00319079, 0.00301078, 1.52816, 1.53282, 0.00323954, 0.003245, 1.52993, 0.00318401, 0.00353612, 1.54534, 1.54508, 0.00289251, 1.55608, 1.56451, 1.56446, 0.0033556, 1.57904, 1.58852, 1.59865, 1.59684, 1.60513, 1.6061, 1.61406, 1.61423, 1.61284, 1.62922, 1.62832, 1.62739, 1.63227, 1.64457, 1.64529, 1.64471, 1.65792, 1.65764, 1.66484, 0.0033046, 0.00326495, 1.69156, 1.69192, 1.6957, 1.69728, 1.70668, 1.70524, 1.70453, 1.71362, 1.71905, 1.73374, 1.73144, 0.00301971, 0.00328627, 1.74945, 1.74939, 1.75133, 1.75482, 1.76432, 1.7621, 0.00329004, 0.00300057, 0.00312072, 0.00337498, 0.00330274, 0.00329975, 1.82753, 1.82953, 1.83045, 1.82999, 1.8283
0.538089, 0.536759, 0.537739, 0.537609, 0.00301863, 0.570535, 0.576244, 0.575406, 0.578802, 0.57757, 0.575946, 0.583869, 0.582986, 0.582682, 0.582943, 0.573645, 0.568898, 0.56801, 0.566691, 0.565704, 0.569322, 0.568529, 0.560133, 0.559491, 0.558843, 0.558427, 0.556455, 0.553579, 0.527492, 0.552438, 0.551464, 0.54024, 0.515135, 0.55649, 0.540019, 0.510371, 0.465752, 0.465806, 0.441889, 0.428363, 0.450112, 0.406885, 0.406401, 0.407249, 0.406656, 0.52771, 0.00324768, 0.00333767, 0.00319992, 0.00359804, 0.00304683, 0.0036129, 0.00318653, 0.00311059, 0.00312537, 0.00332254, 0.00286637, 0.00338513, 0.00314947, 0.00346223, 0.00345711, 0.00325467, 0.00291165, 0.00343047, 0.00319388, 0.00342008, 0.00328181, 0.00334048, 0.00324512, 0.0106545, 0.00299171, 0.00325911, 0.00314868, 0.00342227, 0.00304387, 2.75814, 0.00315572, 0.0034375, 0.00322819, 2.68562, 0.00316766, 2.65272, 2.65108, 2.66071, 0.0033674, 2.63581, 0.00331686, 2.6178, 0.00320765, 2.57788, 2.57694, 0.00323935, 0.00330677, 2.52142, 0.00312374, 2.49391, 0.00308734, 2.49528, 2.50101, 2.45644, 0.00313469, 2.43259, 2.43183, 2.42156, 2.40468, 2.40566, 2.40479, 2.41217, 2.39878, 2.39724, 2.39473, 2.38704, 2.37921, 2.40816, 0.00322282, 2.37405, 2.33934, 2.37091, 2.34513, 2.33797, 2.34535, 2.34594, 2.33106, 2.33506, 2.33822, 2.29715, 2.28959, 2.29761, 2.28065, 2.27634, 2.27256, 2.25636, 2.23521, 2.23442, 2.23513, 2.19408, 2.19337, 2.19494, 2.16536, 2.1487, 2.13247, 2.11993, 2.12964, 2.07571, 2.06853, 0.00341774, 2.04121, 2.03062, 2.02899, 2.01789, 1.99897, 2.02201, 1.99108, 1.97738, 1.96324, 1.95081, 1.94648, 1.94177, 1.91082, 1.85596, 1.85499, 1.84504, 1.83382, 1.82686, 1.81187, 1.80816, 1.81041, 1.79211, 0.00333136, 0.00349969, 1.7617, 1.72022, 1.72298, 1.70353, 1.69597, 1.69442, 1.68855, 1.68251, 1.69297, 1.68009, 1.67879, 1.65661, 1.66477, 1.7202, 1.6376, 1.6193, 1.61874, 1.60745, 1.57936, 1.62094, 1.54994, 1.59173, 1.54709, 1.5285, 1.53328, 1.50542, 1.49649, 1.48828, 1.47882, 1.4544, 1.46987, 1.43446, 1.42374, 1.42822, 1.41206, 1.42048, 1.40518, 1.50673, 1.37527, 1.37736, 1.37708, 1.37347, 1.38136, 1.3796, 1.37132, 1.36051, 1.34139, 1.34069, 1.36886, 1.39597, 1.39787, 1.38769, 1.39628, 1.39257, 1.41849, 1.45333, 1.48314, 1.43984, 0.00320262, 1.47327, 1.46127, 0.00348922, 0.00312248, 0.00359616, 0.00309437, 0.00348495, 1.54014, 1.54046, 1.53138, 1.52952, 1.53974, 1.53984, 1.5466, 1.54472, 0.00306775, 1.55849, 0.00285043, 0.00322707, 0.0032864, 1.58419, 1.58552, 1.59278, 1.59253, 1.59998, 1.60624, 1.60779, 1.61229, 1.61251, 1.6298, 1.62808, 1.62712, 1.64101, 1.64029, 1.64884, 1.6485, 1.6598, 1.66019, 1.66704, 1.6723, 0.00347499, 1.70191, 1.70161, 1.70118, 1.70051, 1.69966, 1.70304, 1.71618, 1.7162, 1.7171, 1.73738, 1.73575, 1.73489, 1.74983, 1.74772, 1.74976, 1.75401, 1.75172, 1.76008, 1.7607, 0.00334358, 0.00321233, 0.00336644, 0.00308435, 1.81569, 1.81525, 1.82332, 0.00321743, 1.82813, 1.82986, 1.8307
0.539116, 0.541054, 0.54134, 0.541125, 0.541604, 0.579001, 0.578903, 0.577772, 0.575191, 0.581264, 0.57861, 0.587331, 0.591535, 0.590401, 0.588737, 0.00345762, 0.579429, 0.574628, 0.573012, 0.57241, 0.573055, 0.570492, 0.568855, 0.565743, 0.563416, 0.565008, 0.564665, 0.553329, 0.555757, 0.538453, 0.571482, 0.540869, 0.538189, 0.552911, 0.54177, 0.539898, 0.532153, 0.498158, 0.455501, 0.454708, 0.432542, 0.469555, 0.428387, 0.500266, 0.499625, 0.43093, 0.645779, 0.645928, 0.00351785, 0.00314892, 0.00324909, 0.00312438, 0.00359829, 0.00327172, 0.00325633, 2.79867, 2.78423, 0.00319537, 0.00327409, 0.00336071, 0.00332324, 0.00309008, 0.0031924, 0.00312555, 0.00333037, 0.00329106, 0.00338551, 0.00321748, 0.00363444, 0.00333913, 2.87367, 0.00308104, 0.00371858, 0.00326945, 0.00344924, 0.00320404, 2.69187, 0.00315634, 2.66513, 0.00302754, 2.67785, 0.0032052, 2.64954, 2.6505, 0.00334351, 0.00320956, 2.62167, 0.0029987, 2.57769, 2.57036, 0.00350531, 0.00314594, 2.50125, 2.50124, 2.49011, 2.48305, 2.49627, 2.49033, 2.4903, 2.4505, 2.44276, 2.43546, 2.44305, 0.00328333, 2.40486, 2.41185, 2.41078, 2.41947, 2.42114, 2.41396, 2.42906, 2.40381, 2.41833, 0.00297107, 2.41472, 2.40335, 2.42265, 2.42652, 2.42178, 2.34937, 2.35054, 2.34808, 2.35314, 2.34525, 2.33033, 2.29195, 2.29049, 2.27274, 2.27304, 2.27282, 2.24969, 2.24705, 2.24385, 2.23285, 2.23587, 2.19105, 0.00323948, 0.00328083, 2.14678, 0.00334435, 0.00346616, 2.0662, 2.06569, 2.0648, 2.0648, 2.0648, 2.02245, 2.02487, 2.01451, 1.99862, 1.99775, 1.99094, 1.97416, 1.95067, 1.94186, 1.93143, 1.91516, 1.91275, 1.91093, 1.88228, 1.84215, 1.8416, 1.82721, 1.81714, 1.82382, 1.83927, 1.79518, 1.79311, 1.78511, 1.74385, 1.77378, 1.70696, 1.70458, 1.69532, 1.69562, 1.68387, 1.67485, 1.67587, 1.66256, 1.65938, 1.65888, 1.659, 1.65783, 1.644, 1.64555, 1.61471, 1.58257, 1.58749, 1.56873, 1.567, 1.53726, 1.53858, 1.54493, 1.53738, 1.47789, 1.48525, 1.47621, 1.46058, 1.45007, 1.44098, 1.42795, 1.41905, 1.41209, 1.39554, 1.39585, 1.40727, 1.38463, 1.37994, 1.37468, 1.36458, 1.3654, 1.35446, 1.35929, 1.39801, 1.34797, 1.34427, 1.38064, 1.35671, 1.38811, 1.38573, 1.39216, 1.39089, 1.39194, 1.39813, 1.51091, 1.52859, 0.0031571, 0.00318986, 0.00334208, 0.00307433, 0.00338671, 0.00312168, 0.0033221, 0.00331252, 1.56847, 0.00313459, 1.56774, 1.56429, 1.56308, 1.53369, 1.54117, 1.5403, 1.55056, 1.55262, 1.55267, 1.56273, 1.56282, 1.57219, 1.57458, 1.57802, 1.58504, 0.00305187, 1.59478, 1.5966, 1.60725, 1.60903, 1.61697, 1.61722, 1.62975, 1.62907, 1.63867, 1.64001, 1.64073, 1.65056, 1.6516, 1.66113, 1.66069, 1.67202, 0.00348166, 0.00343019, 1.70497, 1.70394, 1.70213, 1.70129, 1.7029, 1.71676, 1.71938, 1.71605, 1.72941, 1.73401, 1.73441, 1.73483, 1.74754, 1.75089, 1.75178, 1.75248, 1.76173, 1.76178, 1.76153, 1.77896, 0.00319241, 0.00314221, 1.81035, 0.00300348, 1.8146, 1.82286, 1.81641, 1.82906, 1.82898, 1.83387
