0.801444905742879,0.80165446705279,0.801711221120843,0.800233247588548,0.798414812358849,0.796438742469931,0.7949047557048,0.794705854993356,0.794302435920779,0.794837121078428,0.793826223516963,0.797782985593217,0.79965687250854,0.800509389454532,0.800612982842933,0.80085621366844,0.800761697709681,0.802334363148555,0.802905572433633,0.805066659211445,0.809200735679484,0.809665719084688,0.809133268321676,0.810136232713967,0.808905562764856,0.804257123256683,0.802522024332086,0.803647327808605,0.806208947265425,0.806086556558424,0.806793121807691,0.811511586298603,0.816180384448288,0.816637843170771,0.816665325755969,0.818034397510908,0.81810210448686,0.819563384518277,0.820285484084659,0.819972812177998,0.81894822314182,0.819469131388122,1.01531,0.812317213433064,0.806747649783674,0.803689294044323,0.802810391213174,0.802493437673173,0.804208259177289,0.80675988972899,0.809019421581035,0.810494288560814,0.810775807741282,0.806846523248953,0.801930867930209,0.79868903260177,0.795892979491294,0.795653765081257,0.796084906133678,0.795518444947277,0.796823036602121,0.799995190266179,0.804513437932152,0.805281403253908,0.803500598611142,0.800362779962561,0.797815498666964,0.798633663961847,0.799546736496455,0.799736654587749,0.799339234883412,0.799073556372234,0.79854574735329,0.800508460582434,0.800885605448797,0.798981065151277,0.795425436254827,0.797372896672477,0.797710805090057,0.792817693394052,0.787367110990498,0.787636780243835,0.7891689642824,0.788544201976898,0.790045384188529,0.790796005204019,0.791750248052293,0.789812327908749,0.789237746658388,0.790804267224198,0.794938023991681,0.798521595635072,0.800621390312579,0.800797005426006,0.800887330509609,0.801192175710399,0.801861108227444,0.797985185182264,0.794098012799257,0.796995466610774,0.797680426729397,0.799061987641094,0.799646169408033,0.79943631535833,0.798947774765018,0.799583366544244,0.800385084833966,0.798543556731241,0.798026370324262,0.797213871886106,0.798318315324805,0.798130017332455,0.799107140182923,0.799988768719113,0.801693379573572,0.803292443614389,0.803986325779539,0.805097307018944,0.805751912468663,0.806166396945037,0.806369754407702,0.804697309830561,0.798048828320621,0.799317278833098,0.799357243174926,0.799549741589499,0.801111263100439,0.802246855203291,0.803826749776331,0.805083137480947,0.806681790903209,0.80793202937628,0.809314396139567,0.810950926190468,0.812897721093474,0.81360331819249,0.991489,0.81781272816316,0.815629145503663,0.814225690169993,0.814447440240445,0.816208080303759,0.818955338038468,0.822141379353563,0.826449837732804,0.828523621599571,0.831321830106321,0.834499236037134,1.36149,0.842800191753599,0.837911540035463,0.840236050539025,0.844574447814698,0.84692592083069,1.17052,0.852194416095291,0.852489243856427,0.852652611625921,0.852661672368439,0.853625937249744,0.85540544734218,0.856458549712668,1.08893,0.863317847072253,0.862676316309757,0.862212818639653,0.861528876332888,0.863108971032654,0.863368506727567
0.804834384526374,0.804029689628605,0.803854929798186,0.802536940239546,0.801730810589305,0.800971887714356,0.800336488776592,0.799779225373901,0.799386075848834,0.799379782685625,0.800895690089904,0.800352700007711,0.800761823444609,0.802133624051655,0.801374014015195,0.801625892545586,0.802897219869891,0.804191344360618,0.805321838042313,0.806738531159634,0.809016684957762,0.810636748000841,0.811600040146975,0.812200891374807,0.812701803767134,0.814425373168789,0.814352792152898,0.814390496233959,0.814737299323902,0.815307186857812,0.815869067954124,0.816342241437093,0.816834158439963,0.817334394572222,0.818151106544828,0.819511296812064,0.819284610452523,0.820468128424363,0.820582822941769,0.820790362751181,0.819894516798869,0.819912162662195,0.818869642555865,0.818422867374017,0.81817698459392,0.818205560399545,0.817718029171732,0.816700580524137,0.815360933506977,0.813960238055779,0.812686266997832,0.811643095253923,0.811915203149744,0.813438170145057,0.813449947488939,0.81332022296696,0.812769791536343,0.811860645390164,0.810908108776805,0.810050270951771,0.809263807707047,0.808513387573264,0.807812995354284,0.807677946677479,0.806886249158824,0.807591970475091,0.807297934539145,0.806342577944738,0.805498360101467,0.803337273525538,0.802113854469133,0.801730822678555,0.801804569684486,0.801974464220813,0.801437705655993,0.800302022729882,0.799752454519312,0.798800724661162,0.798483676729183,0.79831789925597,0.798512416921952,0.797759270920706,0.797281912769732,0.796922326407511,0.796699856435446,0.796705230089868,0.796935480528475,0.797259647950694,0.797601428672074,0.798063291494138,0.798809027233686,0.800014774238653,0.800987793608576,0.801034325217289,0.801261237199367,0.801368081326984,0.801726072414969,0.800980649855346,0.801756267490609,0.800709428179974,0.801035923466408,0.801385790825203,0.801958292646093,0.802008882928903,0.800970417645743,0.800898584547409,0.801384833903431,0.802969725571902,0.804681280235911,0.806278317272517,0.807398723260023,0.807776948666143,0.807382795066975,0.80674690506196,0.806375689711158,0.806825759827064,0.807486865569509,0.80797147626755,0.808290120189166,0.80848895790618,0.808041195331912,0.805894526066801,0.803876388517749,0.801142684950723,0.799758651896257,0.798368882517852,0.800740891610549,0.802379250382605,0.803905769120703,0.805696462678829,0.807647415381996,0.808831198969503,0.810572439520381,0.812140348338872,0.814363573778165,0.816156962538347,0.818785534028002,0.819925796412276,0.821941001879828,0.823152566361241,0.824458748604321,0.825647337180446,0.826804396660711,0.828400234472872,0.82880851975161,0.829593181331113,0.830723448249503,0.83807424370589,0.84833879273454,0.847137867392263,0.848102348066214,0.848040654795203,0.847686609343148,0.848827813588332,0.850198550604619,0.851587914741011,0.852396863225132,0.854362001833845,0.853992872767081,0.854942781602674,0.857457877962396,0.859285559800575,0.861687190155662,0.863289169992692,0.863999654413014,0.864067838110114,0.864645644283777,0.865044853224569,0.865826860444303
0.806632482834294,0.805884043051062,0.807102820034932,0.806390909650581,0.807554937809802,0.879619985743338,1.60735,0.8762244045961,0.805884203567768,0.804574826537127,0.802992405683818,0.801806147166376,0.00375501,0.805907486277669,0.809468184412086,0.810693277928782,0.811413172210884,0.808323477368287,0.807619722885582,0.807889319778111,0.809702203627075,0.812371782575277,0.81435792565469,0.81424079045115,0.815129211977551,0.816070775881708,0.817943343080839,0.818770811263643,0.819321756077567,0.821724286387549,1.18853,0.824213003737202,0.817647179228436,0.818017692834127,0.819346037176558,0.822805217745113,0.826236383757451,0.822668740001154,0.82086334466802,0.822832728818998,0.828245033932755,0.821311829435723,0.818072108718345,0.818059625937161,0.81765015858103,0.821600045323382,0.825682388595762,0.824269693767283,0.821934125214328,0.821797635727135,0.819813741587835,0.819824485020887,0.818414616427199,0.815406529362828,0.813300686135137,0.813284644888525,0.813271721133925,0.814953814168263,0.815094923457891,0.816278959010804,0.815788886032023,0.814285102802544,0.810499256749119,0.810601966613658,0.810503738087865,0.810957428943698,0.810745755472059,0.809896836717109,0.807558294469794,0.808488433798963,0.809233876757327,0.809170526781801,0.807758144002726,0.80408328696534,0.802491497516564,0.804228423549521,0.806870052850362,0.802536355832987,0.799311778131796,0.799018843375801,0.799811841148712,0.80151403506785,0.802895775675121,0.805752287947386,0.805504580711387,0.807408297162212,1.2866,0.808522352368111,0.807546318198274,0.806131626175675,0.804069145344462,0.802032437266095,0.802245694980373,0.801616221824744,0.801804663515406,0.801914648578855,0.802564207161144,0.802633004018708,0.803129956946662,0.80324957646041,0.803658200904495,0.803998583153186,0.804060296070763,0.806121480093549,0.809208113178839,0.811295614665354,0.812465118408955,0.812892698133088,0.812135325172626,0.812373165518125,0.810994061246101,0.812045917841877,0.81154802914039,0.812514826381544,0.812624935103561,0.811198147437511,0.811358164969522,0.810960727821785,0.811033244252192,0.811279214633221,0.811516101941631,0.81229586702835,0.81187087760454,0.80663998016703,0.791124028570769,0.793523886914608,0.791159271770507,0.80288290157016,0.803327024785497,0.806799752916875,0.809023682641031,0.809809465847988,0.811658107893437,0.813169214362238,0.815786447926413,0.81761167480248,0.819823215541004,0.820904804351612,0.822677725978855,0.829482265651354,0.832657640482477,0.833011616487119,0.831464339462064,0.83021479792503,0.831004126394591,0.830617881817855,0.831458061952022,0.8422749509893,0.848976109490801,0.849021133476733,0.848978742058854,0.849503054317615,0.849102963728329,0.850397302673114,0.849886811183873,0.851224231561867,0.850883001371314,0.858330589521338,0.943004999999984,0.862668371760451,0.859939645739325,0.861798960564859,0.862026078121976,0.864465545107956,0.864758868089716,0.866329159618142,0.866512903101214,0.867453816782352,0.866452425967089
0.824286482313648,0.824917082441944,0.825041847363022,0.82564555958011,0.886327765111215,0.923041183019046,0.983470230433723,0.947489283243171,0.91236240854456,0.877895809119965,0.822374404873389,0.822525186528088,0.822172493957023,0.821435191115206,0.820578992748158,0.819829145822114,0.819154544616194,0.817967150458142,0.816803099900554,0.815906271794599,0.81532153687907,0.814931920602848,0.814950089682322,0.815201552081632,0.815754255313888,0.816645614758189,0.817826597853374,0.818706032682113,0.819200055847883,0.824438627379708,0.832175804887221,0.832045784127832,0.830611088345709,0.829010802623376,0.827550745453751,0.82620303631509,0.824178047671039,0.823156464873479,0.822738298079007,0.823699580522491,0.825051655175359,0.824122834113665,0.824740943781277,0.824817405499831,0.825136726344689,0.825424919878703,0.825461964040298,0.825104712815924,0.823960446514953,0.823388009924341,0.822498040906627,0.820705297610391,0.818432771271723,0.815764845505191,0.813182630831884,0.812934552440878,0.8134792924917,0.816252651688957,0.816470773709601,0.817863307720019,0.817727732837451,0.816393317592899,0.814998162937062,0.813476513665744,0.812289243181881,0.811810587303332,0.811698881115365,0.811394260627741,0.810948603252669,0.810583548221942,0.81038685792817,0.811393811711044,0.813046777035215,0.812984676071816,0.812218805679215,0.810802033592486,0.809112083609978,0.809698678056983,0.810171027806019,0.810390876317769,0.810316632179058,0.810020366463469,0.809596627819627,0.808626141731943,0.808439760554589,0.809102176761941,0.809878150891592,0.809477186215025,0.80865489407632,0.80665158709609,0.803124915114549,0.801704107033262,0.801305112063581,0.801221067316732,0.801555630376171,0.80177893680334,0.8024582812909,0.803363702811106,0.804575203017282,0.804635547739709,0.805035442849249,0.806113588513957,0.807455569903897,0.808698384666281,0.81062925172215,0.812070855038967,0.813283385061895,0.813730480059581,0.813856352247188,0.813778014452369,0.81370104287857,0.813810620771554,0.813994100756286,0.813963915774844,0.813969156170424,0.813493834077028,0.813607579918106,0.813631034221504,0.81398119342677,0.81429943245115,0.814810303946246,0.816042476652167,0.817071749094623,0.818761275565219,0.820548829847337,0.821686300866402,0.821951298608243,0.822631717430836,0.822916398293562,0.823583090039308,0.823702831635473,0.823525214722071,0.823304098624825,0.82335951024389,0.824003131196548,0.825246801190511,0.827405167663847,0.829778438898372,0.831313529595418,0.833738064660887,0.834372256932765,0.835460261982746,0.838136897945508,0.840536166585563,0.842476513433747,0.844010187014496,0.845379079771496,0.846826319224303,0.849444857657171,0.850508887236678,0.851157820393839,0.85163100902945,0.852234604251365,0.853583724927232,0.856106524462915,0.858370523753277,0.861191059618376,0.861934383042231,0.864333510855403,0.864962081948014,0.866225154617447,0.865418204670438,0.866026186510371,0.866642892784247,0.867666636279357,0.868497794553117,0.869848400011809,0.870573185915585,0.871916021003846
0.823104828711461,0.824652585464398,0.823865791842393,0.825601465895754,1.08765,0.961774837113742,1.55647,1.27637943853109,1.57656,0.914338212004181,0.82183604450785,0.886215194909823,1.10212000041751,0.823293818504712,0.821580942455847,0.820580591212934,0.819611998229617,0.820257219043995,0.82081385292044,0.821590695008453,0.821236820350429,0.817329358767117,0.815438693566993,0.815988932770648,0.816035647036131,0.816833531291329,0.817793623590434,0.818691762616787,0.819333978803938,0.827757365609149,0.831595334267091,0.832784543708792,0.834344701413796,0.834188789465055,0.833369105100217,0.830262163782013,0.821121514714599,0.823174788842939,0.823184989623387,0.824252390187568,0.824011562006483,0.825443151920999,0.825423378914827,0.828163641560569,1.4739,0.9064780881407,1.26034,0.826627060116569,0.825252971866955,0.825129091275991,0.825743283034924,0.826952255415414,0.828652035863451,0.823784643384793,0.810601364407402,0.811606463699511,0.811216965660925,0.819650319981195,0.822175727310323,0.820870292808847,0.821120195365111,0.820780661466994,0.821107446832229,0.816686702972297,0.813535955323334,0.812702493916201,0.81311942378746,0.814782815184595,0.81854029043528,0.819441615422444,0.818700379409008,0.817256796614041,0.815306092920136,0.816095560932907,0.816576110667336,0.817587357440471,0.816698576913432,0.817450699427018,0.817375501326876,0.815472414613874,0.81287535370083,0.811554814595687,0.809908921920555,0.810610961865125,0.810141544426358,0.810718354289905,0.810896864737587,0.810958109467251,0.810862879115829,0.808718426623681,0.800073915897376,0.800561385998413,0.799995259940623,0.800832677252128,0.801369718312029,0.801663697814452,0.801970767031,0.804004098464858,0.806552713501452,0.805620057703706,0.80499382552118,0.808323129419829,0.810164493843143,0.811140449808806,0.812052892772366,0.813503153331689,0.814390422111564,0.814984262643172,0.815307653125998,0.815378002623227,0.81605987944062,0.815942461344209,0.816779234139322,0.81585865423234,0.815954286283603,0.815376808355695,0.816094874780765,0.81590188428143,0.81723669589082,0.816973802979032,0.817816980998911,0.818875426257369,0.820704387787659,0.822199613081185,0.822251482474254,0.82267657555829,0.820864113922759,0.822163418519283,0.821626196477103,0.824759446386501,1.36044,0.829283304587141,0.82781252210175,0.829817910148362,0.829696261251199,0.831404988956329,0.831887689941633,0.833383234959574,0.835200200120701,0.83608342777986,0.835744840414088,0.83974414207448,1.34862,0.862255957765601,0.869506686454257,0.851901266032172,0.850460095378305,0.850415709565694,0.851170697565041,0.852474733937964,0.852973700818514,0.854019115017699,0.854357640417549,0.855806301291302,0.864914750982873,0.86387024586958,0.862955200996315,0.864062736537767,0.865552912769574,0.866945265692142,0.868558955203339,0.868439555811297,0.868692391689922,0.869366593985396,0.869213057488961,0.871237887182113,0.872263252579546,0.873825436246691,0.875477032783614
0.825564583558801,0.826065042969597,0.826148843109943,0.82677204630383,0.890792286543617,0.925585171529286,0.961773947775133,1.27632087591368,1.27637967359695,1.13541804016968,1.13241728169681,1.12622133373706,1.11658338216,0.836824325542276,0.833502275304072,0.832813195405236,0.831385458837857,0.829216705623067,0.826500929946684,0.822803038673347,0.820533785972194,0.81801391584204,0.816812810078304,0.8174146540573,0.819714225875042,0.82211217982026,0.824484235933361,0.826663349754914,0.828519806213558,0.830096415751497,0.831542291847648,0.832858826280056,0.833985740812469,0.834351177691951,0.834248299773589,0.83096476726121,0.828099126838218,0.825294112285289,0.824812967639579,0.826008372015564,0.826340447986937,0.828219068373611,0.830540213495667,0.830952367697859,0.833726768940672,0.836682338681184,0.837548689580326,0.829489304930313,0.826623925938218,0.826072399572462,0.826537548535292,0.827453378082609,0.828172641324215,0.827439741095306,0.825698290817272,0.824776758627534,0.824569599849085,0.824689723947731,0.822386110529058,0.822034802311099,0.822175282048634,0.822063338409931,0.822375163706676,0.822706241137733,0.823765629839601,0.824050643554016,0.823458360189317,0.822180365191997,0.82056696210666,0.82065455721846,0.82154616415895,0.82159015173014,0.820954851612831,0.820500620009376,0.820010117683395,0.819905414848898,0.819234069039135,0.818065495456636,0.817223967341657,0.816201931652894,0.815994738999494,0.815914805202781,0.81542073347299,0.813399340705178,0.812566506348655,0.812320994233606,0.812439411923882,0.812434246829625,0.812680284286788,0.812286051139466,0.812259382873533,0.812665988116778,0.813389073091863,0.814137636397782,0.81460888452675,0.814399042944926,0.813781388850862,0.812789822714108,0.811533319268971,0.811257088827647,0.811271453163788,0.811488347015051,0.811927188702713,0.812881224523569,0.814020434442683,0.814798880862638,0.8154931599174,0.815782754143533,0.815995741192102,0.815996466578916,0.816542255566707,0.816925019478085,0.817593124181856,0.816796638286502,0.816338359231568,0.816107631668192,0.816448886873547,0.816932472573923,0.817946413716132,0.818841448396534,0.819399453520243,0.821078188802986,0.822098481083048,0.823499036368788,0.824156770917266,0.824819040336167,0.825751875552537,0.82648177812171,0.827227402144049,0.827845193824477,0.82976866319038,0.830518273852562,0.830754626558593,0.831590841733312,0.832007269596272,0.832858881252266,0.833357558317874,0.834494416356268,0.836386834042911,0.839685170466172,0.842463183535171,0.845012374852039,0.851476648185255,0.852500011508462,0.853305612909494,0.853176312287532,0.852947584458329,0.853036271493112,0.853880338800809,0.854706349466033,0.855936399090076,0.856698341515111,0.858186979171178,0.859623238975989,0.863093417203038,0.863863815391962,0.864480996043654,0.865198093690191,0.86660792281357,0.867770432090896,0.869359626803577,0.869845179973324,0.87077489877567,0.871339342157944,0.872392157895484,0.873313119070471,0.874767367103227,0.875887569478469,0.877594489516754
0.826792525106131,0.827564237689557,0.827430955172893,0.828186965153207,0.828321259923356,0.833223134569805,0.827725999999363,1.2761605867802,1.59272,1.14368469783714,1.58883,1.12935048476203,1.58945,0.837688443177631,0.833547003484984,0.832910508847681,0.83194691247803,0.829599669341889,0.827475877935356,0.830282967163332,0.832477075722837,0.825831708682214,0.00349564,0.830754832689887,0.837110100279237,0.839690745504382,0.847988345144788,0.842086952535218,0.839148485050435,0.842455875836251,0.842960862391665,0.844283128704515,0.843604544540278,0.840776002416867,0.838324171105898,0.842246046169588,0.846005522376187,0.841273680064038,0.00378951,0.828709879816972,0.831457789519456,0.83074170543927,0.832690907836799,0.831629937441869,0.00383584,0.838701339914242,0.838258063092928,0.835290426264671,0.825759074962364,0.826246353653561,0.827074807306989,0.828531065750192,0.829505429776324,0.829364592197824,0.830993329176565,0.830974805993536,0.831513306311054,0.827113254765669,0.820443375293201,0.822658340137781,0.823326497455627,0.823176823812513,0.823775028703689,0.823604531824067,0.824619394740079,0.824765760303899,0.825382150981857,0.826619199795787,0.827750436068758,0.827011669911324,0.825089044171046,0.825659544838121,0.825162517589491,0.823235547366511,0.822083948872154,0.821764530622058,0.823396107162605,0.82524582377046,0.826414471527554,0.826769532637567,0.826456383842415,0.817997410284263,0.817230694185903,0.815268879950137,0.813972058596987,0.813767742395299,0.813909142078665,0.813849494736637,0.815166069014345,0.816934139379716,0.819303261662933,0.818682129033963,0.818836502425412,0.816911547573165,0.814945021881243,0.815425618165644,0.815671902780329,0.815647963186674,0.815701610359689,0.816681689005879,0.817177571802018,0.814695113886374,0.81272387252999,0.814857648323088,0.815632503248978,0.816631854739535,0.81633270681307,0.816949048158222,0.816591586996289,0.816506485365065,0.817051701671593,0.817925102582068,0.81977569224793,0.817697604169939,0.816629854986451,0.816482026818178,0.816904618816794,0.817556292785266,0.819074131982229,0.820944865705087,0.825194998182157,0.823599314467316,0.822939282212581,0.82528342266251,0.82601674597597,0.826825316097137,0.828093061452115,0.828140269717039,0.827653862748971,0.829776201644648,0.830795450359726,0.83224450778208,0.832610740716459,0.833710328895888,0.833725943611992,0.83490232589534,0.834302030175344,0.834946285131083,0.836077711128847,0.843768275594239,0.846915979273596,0.847724108065632,0.85041685635589,0.852709289425043,0.854141642731308,0.854478360838504,0.854934112114231,0.854981977980206,0.856275872738117,0.856871877975692,0.859019133826302,0.859181907081902,0.860901704621209,0.862010799184414,0.863949565905881,0.864593173931743,0.865456273692832,0.866210357434713,0.86709759668809,0.868955822528675,0.870028126557816,0.871676550399557,0.871760522774683,0.873712460668283,0.874238804673686,0.875790249069282,0.876184646907628,0.878053597876972,0.878931248744257
0.829703510279995,0.829566426430678,0.829070625009613,0.829919658793675,0.829235470190447,0.835519947561289,0.917869333919175,1.27600035778206,1.27594172043762,1.02709799408377,0.986474290777078,0.950414196623811,0.915101105002706,0.853751494397493,0.851330136351224,0.848267644238061,0.845348138842401,0.844103143259509,0.843546445155895,0.844335604860298,0.844412051138685,0.843708211041544,0.842465606046971,0.842155697670505,0.842312302395343,0.842559506954859,0.845161077657748,0.844589663937685,0.845099949546805,0.845029842245651,0.845538012455901,0.846196070178471,0.846530105257206,0.847165163441789,0.847263000928084,0.847013980511076,0.846820680394433,0.846112426771757,0.845685731042936,0.845468919475314,0.845251872882558,0.844819912490842,0.844107225296903,0.843199397349515,0.842170435521521,0.840930192654192,0.83949925454797,0.838093870633634,0.836301952381117,0.834444718984861,0.832441982136557,0.830269385106491,0.829826867181928,0.829780423572977,0.830371130932687,0.830623656649114,0.830839924787848,0.829405655832337,0.826858258744359,0.824824622741298,0.82421436267051,0.823620707341254,0.823797597174392,0.824178613140402,0.824726151379082,0.825366111393254,0.826013010632715,0.826662231989205,0.827477807108104,0.8283014926448,0.82774313174832,0.827456179325789,0.826495486950237,0.826306961265564,0.826023962718944,0.825799426877044,0.825792430603985,0.826014019860094,0.827142759480891,0.827035869000458,0.824070667330627,0.820077851327028,0.817437690071927,0.816184843130606,0.815564698456089,0.814607238975747,0.814560626505125,0.814608741382337,0.815068434503038,0.816325397473999,0.817724786810998,0.818121517686492,0.818389160277055,0.818503187427866,0.818849929145299,0.819218900651971,0.819310519235255,0.818926904718275,0.818165829952303,0.817401876068739,0.817647315310144,0.817306463882822,0.818312339112713,0.817780354477124,0.818508799942122,0.819205561344783,0.820377788296114,0.819097616834114,0.819424008004863,0.819604644343939,0.81998597289448,0.820917876451769,0.82253324637971,0.824610209713794,0.826468655776813,0.827759370384363,0.828422484689366,0.828508966240842,0.828126968938309,0.827500701725345,0.826817514726944,0.827691359610333,0.829484392773993,0.828441273798361,0.828327461485741,0.828500483411681,0.829337201100775,0.83053043071016,0.831532994313788,0.832771214784084,0.833716222322609,0.834610133332121,0.835665439292666,0.83644291178294,0.83771589948778,0.839527224913816,0.84247298623806,0.843601515068096,0.844703042160678,0.846075944232329,0.847349905597392,0.84860714796072,0.85070691573553,0.853729521648128,0.855436928829026,0.855528390015572,0.855333943997369,0.855435780697224,0.855941289162014,0.857390531325581,0.858642688048646,0.859958653016127,0.862753948898724,0.863348018053053,0.864150154080854,0.864725738152131,0.86562208347266,0.866394984005161,0.867772458000211,0.870052458424304,0.872258609327514,0.873688195596418,0.875096396420249,0.876283817004607,0.876579021899106,0.878258400356631,0.879086771912955,0.880311977626405,0.882309567785308
0.835384415596627,0.83422899692606,0.836047475689622,0.83299427802164,0.00371552,0.840565344310853,1.56485,1.27594171987008,1.57457,0.991287884666996,0.845727000000012,0.867235345927613,0.840986413743203,0.855422039718941,0.856065659852036,0.847460170772384,0.843361926994311,0.843141794713681,0.841811969302865,0.847458446648319,1.14407,0.849518463279185,0.841489469463365,0.842017332436191,0.842670727444984,0.843469952256717,0.845609859307184,0.845997611996082,0.845482435061054,0.846881632625536,0.847802362355864,0.84836020997847,0.848926916971789,0.851311788543102,0.852104230585745,0.849963618729985,0.848313106840118,0.851490658698892,0.854791810293856,0.854704710498108,0.854264914252796,0.853884881270224,0.852545124585391,0.850951986347229,0.849237380171597,0.843112248692755,0.840499020788507,0.841244601345723,0.844132237305006,0.843902149086873,0.843550928915571,0.837357690959032,0.00365704,0.844668223792562,0.851518154221027,0.837608914375197,0.831957760151482,0.833051020224786,0.834755598845785,0.825948119488416,0.825228572511352,0.830577021283235,0.840741596055871,0.838399762630529,0.837226579960462,0.837571516722667,0.836996200002821,0.836312695486207,0.835307189287936,0.831422047348671,0.83009640814225,0.830223511247355,0.83236901128604,0.833815683627331,0.835329859168653,0.835636867075955,0.83609641461998,0.834582557691345,0.832479996716521,0.829884079668848,0.822669504191123,0.821202816174846,0.816336301148295,0.816619927968822,0.817246712274916,0.821191420663407,0.829677026166568,0.830681299696817,0.831917899706717,0.831617516355004,0.831905438143788,0.832120761529656,0.832914282431776,0.829634388762717,0.826549109125908,0.83210842574881,0.916075000000158,0.878089751642462,1.22895,0.823601223883739,0.818830187923258,0.818640574932812,0.819747572200432,0.819554077523804,0.821072112213941,0.821456628945702,0.824053964463459,0.825877008095225,0.827931954900204,0.828981340945722,0.829695667057618,0.835486092884367,1.22563,0.83579497683797,0.829873264494844,0.83136044669083,0.832900279611224,0.835383224822505,0.836439149226906,0.836883777750339,0.835729124474482,0.834277937486984,0.831808194859134,0.830262065964585,0.830277525231859,0.829639433611449,0.83033720561827,0.833269812959006,0.837711848813863,0.836302253262054,0.836405295146126,0.837018724735189,0.838510044217459,0.83891643800587,0.840417060535185,0.842240695548141,0.844122252308236,0.847506014586614,0.849355130905823,0.848744557545903,0.847976842003607,0.848849195762802,0.850146350873555,0.856063198926002,0.858302403381842,0.856888520585852,0.00401468,0.0778609329894748,0.0035399,0.867276163176895,0.872349455488998,0.869734206662117,0.866785614091385,0.864852791201279,0.864395863594501,0.864912785160086,0.865599686897275,0.866417620247242,0.86723585444326,0.872027392863812,0.874605946728759,0.876075826450437,0.877362053019336,0.880144636455509,0.883453832831906,0.881989774417921,0.880850109516243,0.882137524905545,0.885012216271002
0.833978856781142,0.834012629849655,0.834657470373681,0.845145503423658,0.846397359486591,0.848700939458266,0.868497984619418,0.869340773355107,0.868496149411541,0.868773889753283,0.867919712547157,0.867454597223904,0.857671258902716,0.855962574128019,0.852934025523744,0.850683760480592,0.851752221743813,0.853108092210904,0.854335090935442,0.855722246492551,0.866373840901368,0.865659154327553,0.863596940572975,0.860406088839471,0.857077579567759,0.854727933204199,0.852300448083004,0.848598545833691,0.848235701196074,0.849194476964798,0.849122350066236,0.850462925743917,0.851834783654531,0.853101215883273,0.854086143617315,0.854486043243124,0.855019861175763,0.855566620521285,0.856110772414511,0.855144256726027,0.854716613533997,0.85470670249598,0.85279852115072,0.851002825931832,0.849225102486499,0.845905566487008,0.842428339507977,0.842230017220261,0.84332610645213,0.844000035955267,0.844798408254089,0.846520503596163,0.846582062398005,0.846845376678641,0.847747163287592,0.842546044568597,0.838930012673321,0.836088123779236,0.831495963047601,0.828019538929051,0.826605785569994,0.833249762033009,0.838050006648815,0.837751933822729,0.837642707752892,0.838215654177303,0.838420610159221,0.83647645284823,0.834603031692054,0.832175069808213,0.830985921468989,0.831037946769886,0.832307860330662,0.833660064585081,0.834819653005494,0.83537489674267,0.835532229518219,0.83494284764428,0.834435415238488,0.835807769051933,0.836878492741843,0.83735655118238,0.837799376444583,0.83819480124564,0.838389052354797,0.838256394681164,0.837844582150938,0.837397408041502,0.837209466225365,0.837488173662191,0.838313006669637,0.839501105192327,0.840649196818923,0.841516092083505,0.841601878355624,0.841575867916276,0.84155813161168,0.841919679914422,0.841673716483351,0.840896960134686,0.840743406242748,0.840855827054751,0.841065581115481,0.841580425639742,0.842303213672985,0.844037946434121,0.844997560391813,0.845310423708906,0.84538214883271,0.845562555811444,0.845918801583817,0.84627262021119,0.84577903393983,0.845411479005103,0.844408486946289,0.842878326175092,0.841056719302959,0.839317295594585,0.83813499600381,0.838343613649774,0.836849761378413,0.835812676583781,0.835999343031356,0.837059808643538,0.837816034827284,0.838761342678638,0.83941307038281,0.839341787771579,0.839247183373169,0.838170392859652,0.837779232379407,0.838091069496526,0.839018784461946,0.839870697816455,0.841548213863874,0.844454165375714,0.845999578945622,0.848873916737707,0.850889841560253,0.851641032408971,0.853692000482005,0.854851063673988,0.855884381196216,0.857113742458467,0.858669658946931,0.860449635910389,0.86234606564252,0.864350585574116,0.86649947266202,0.868829712289386,0.871334411649045,0.87292199220267,0.874673116120006,0.876542749359189,0.878369600826893,0.879951496910769,0.881206052423165,0.882238083188657,0.883094977901695,0.883670024948553,0.882920706198687,0.882065675589127,0.882116621613016,0.883120748218846,0.884140842272086,0.885062540580643,0.885777156902106,0.88648694144134,0.887626272331468
0.853726039060688,0.84515913279369,0.00394304,0.85415929717234,0.863008763626023,0.864622751285995,0.866117596977429,0.872814750995645,0.866489999999188,0.870634039255539,1.59915,0.937833095919348,0.859460371418522,0.857669474524579,0.848804457422763,0.850261170723463,0.851034898494721,0.852801700727883,0.853954557651926,0.857065407324731,0.866206230272006,0.866018866854877,0.86634205400559,0.859903134310257,0.855800359025286,0.85482087746011,0.853970529239341,0.855321256846688,0.856459639913673,0.852813739815602,0.00365665,0.852696331568261,0.855006051840878,0.855469979864953,0.856841974384727,0.859311120333848,0.861917183467559,0.860483639079129,0.85897633264315,0.860782888173027,0.870097867322714,0.857229595332779,0.00408288,0.850963280256531,0.850512411262239,0.848490467935629,0.840925350079197,0.842013467155084,0.843036556062547,0.843987859156113,0.844975369316703,0.849044291805759,0.853442197847827,0.855791430606114,0.857234965581624,0.85850620182908,1.25266,0.850292271965277,0.0038441,0.0776903523873408,0.00354161,0.846332018073132,0.85122606311685,0.848243454498601,0.845538786726813,0.843146294019025,0.841846130233227,0.846956670744629,0.851744098110076,0.844220567867421,0.00327576,0.848333497062482,0.941189999999983,0.89448715309511,1.37001,0.9406606037841,1.34449,0.841042279298044,0.834292504379041,0.835872403167461,0.837357459706568,0.838666395560446,0.840005385230499,0.840279881088427,0.840619604347145,0.841427643868717,0.842358226968038,0.843515949762706,0.843376979657983,0.844923699809927,0.844893900719485,0.844836125821218,0.843322271224815,0.842156754632562,0.841617855551592,0.841411598904468,0.840954473568996,0.842296064247952,0.841409498770623,0.840919805975104,0.84042038775954,0.840634855920536,0.840565072330573,0.841042163611547,0.840804439698397,0.848797705524839,0.853018402556588,0.851622042424723,0.847546136259932,0.84837537880269,0.847741111514824,0.846887902199139,0.845241805487926,0.845458712743354,0.844450044491595,0.842707060596882,0.840567720805745,0.84346384294444,0.845021855149643,0.841474648313012,0.837885639074766,0.8369240490763,0.837858292372325,0.838245807543779,0.840507179514738,0.840840529944357,0.84141738942136,0.840785504711558,0.841822630367224,0.839406022509643,0.838178756788199,0.838569369567048,0.839267802894768,0.840110999043342,0.841098822575569,0.847933917605843,0.85108021980791,0.851193465089059,0.853659176320439,0.853220631203743,0.854383555713676,0.858186956567054,0.867579857845247,0.86932239776126,0.873036626543678,0.873057155827105,1.44471,0.957703733327243,1.3244,0.883214985120539,0.883096714875475,0.884298131885873,0.88512426782667,0.88552788526158,0.885763796173107,0.885359304101168,0.884242390940429,0.885016493631998,0.884769827541261,0.885103367622555,0.885382751380127,0.886484906602143,0.887747116866388,0.886271527676808,0.884723533523131,0.888288864069821,0.892191137145586,0.894874059287916,1.71783
0.939079670043619,0.929731871956992,0.918961675752334,0.907784178438813,0.89725053934052,0.888241754881089,0.881438696403896,0.876368977302947,0.87448292195098,0.873391651389623,0.999305988398111,0.963957141548394,0.869560679816769,0.867994177778981,0.866434424776232,0.865012460927379,0.863856246405426,0.863011444847574,0.862418020307672,0.8615191076428,0.864437247280342,0.865448343327319,0.865359449740906,0.863409458705014,0.863328463734931,0.863393435009657,0.862122843164168,0.860609321447375,0.858295017003823,0.857695575826677,0.857148396574901,0.856736880268527,0.8564662258391,0.857097806949823,0.858439549038072,0.859331493288999,0.860544070882658,0.860680173137484,0.861285068574133,0.862519616838856,0.865036705389286,0.859442957544069,0.850881862690534,0.851516110441242,0.852517556212892,0.853897034418048,0.854797290380388,0.855765944034197,0.856674263196037,0.857052188188795,0.856884793785041,0.856239009303159,0.855554774834581,0.856515562552361,0.85771911891998,0.859728767777044,0.861688880226793,0.861259395193281,0.859791737250137,0.857597612733069,0.855715988205043,0.855047233246481,0.854515702070269,0.856267908585421,0.857525667580695,0.858514631500092,0.859353920256519,0.860265303754256,0.86130378948091,0.862585160823824,0.863621624951255,0.864586873226164,0.865430299422812,0.865444004083605,0.864660929747548,0.864293518082396,0.863609249761201,0.860502613402758,0.859066417268202,0.857922101137524,0.856936685485661,0.856604490030989,0.856048381525972,0.854918126678637,0.853035033087588,0.850631724909462,0.848508891877777,0.847076506824983,0.845966739204213,0.846366213662453,0.846883428258014,0.84681967912096,0.847690209591045,0.848118598196468,0.848222613934099,0.84804118895815,0.847632398259811,0.847262074849037,0.849572568836087,0.851987621357058,0.85410545138108,0.8556260322738,0.856513022704632,0.856916932435404,0.856920336138506,0.856633645080545,0.855276304319871,0.854195451567339,0.853307349737226,0.851312098832585,0.84910170954639,0.848284212228248,0.846789456756024,0.846525418801291,0.84634058792971,0.845716322554276,0.845191150508077,0.844613441725906,0.845015478543066,0.844666333057194,0.846338265042306,0.847147541407881,0.847593093397384,0.847705637059234,0.847425234643355,0.846668960968432,0.845612138178399,0.844570970023684,0.843721825284321,0.843112802440708,0.842866719805716,0.84317866488594,0.844134225473395,0.845612884730702,0.847398998684139,0.849425192282161,0.85193428060445,0.855314919952874,0.859653821584356,0.86207441881335,0.864164742244296,0.865878655210778,0.868098749935041,0.870205169798165,0.87204991665435,0.872947762853223,0.877149928859658,0.879932155957459,0.881598248073091,0.882995304157144,0.883681351583006,0.884444193221254,0.884935074717864,0.885496610638629,0.885755796308601,0.885828197154612,0.885669060885961,0.885752640253006,0.885535347191019,0.886020602053703,0.886665578068333,0.888039131615691,0.889120883849329,0.890559737856248,0.892019679190754,0.892087237925974,0.894086628851665,0.897453980205992,0.905794500122481
1.37664,1.22711055581914,1.35876,1.22802599103094,1.36452000048647,1.37624919614058,1.42425,0.878378015776221,0.874278603154306,0.875935336243765,1.58389,0.993142434353963,0.871078934663409,0.87110806287982,1.35488,0.960912074966484,1.02634,0.864801364136114,0.862834234380388,0.862167080362211,0.00362303,0.865844956497921,0.866205060528615,0.865147981366667,0.863235471138295,0.864700075836262,0.865248718555284,0.865394981350471,0.865319150048633,0.868703551324328,1.27352,0.865309215530066,0.857137155761544,0.858246909242652,0.860673047555502,0.865327515770851,1.37437,0.867708468029904,0.863100896109306,0.862954386958232,0.863332208797785,0.861438418754545,0.850842020159972,0.852128387895046,0.854367141199429,0.854723163235399,0.856044718493022,0.858974966277994,0.859355368692593,0.858491265078032,0.857504645274945,0.85713779640533,0.856004069278715,0.856917066767052,0.857297076397725,0.860984333262652,0.864134755812699,0.862474416731666,0.860772969457698,0.857639852027602,0.854788476769823,0.855068439160487,0.855478957429611,0.856446390959282,0.857364828661937,0.8609533754829,0.862378827037196,0.862093013759846,0.860839669309164,0.862675047519892,0.863320657065716,0.864113617882258,0.0034436,0.865499353053063,0.863644431194278,0.864191205725367,0.862534513168581,0.861609644410722,0.858487996393828,0.857454844781059,0.855830128548903,0.856132382270972,0.855708457173625,0.854445154582243,0.853290589065935,0.852155697265991,0.85125264785669,0.848413906519837,0.847187145098256,0.847618279403509,0.849294603059509,0.851692408090647,0.854467648373548,0.856709278135564,0.856220478595812,0.858830342836957,0.859615601126569,0.859300675123329,0.857147961754002,0.858507109836335,0.857580651927583,0.859122531255434,0.859030132529669,0.858593135971898,0.85666004548401,0.857358254719191,0.857057233898235,0.856407329291467,0.856155819947402,0.856327863171425,0.855932577100226,0.850470544390699,0.847209773812367,0.847469920611557,0.848703812365214,0.852628291009135,0.855246137873204,0.850408178563035,0.845729205253861,0.845794733132793,0.846987583011263,0.849908170244428,0.85229798922252,0.853898060473728,0.853086947543039,0.853626891119642,0.853811328669073,0.856193523351938,0.858347009501409,0.859646893235443,1.71281,0.968356877164515,1.70999,0.967931314551335,2.30821,0.867837947968657,0.863117259116485,0.862718383882458,0.862195273298592,0.863001677340467,0.865103570408952,0.86691312652624,0.868721564722618,0.870843253894269,0.871808138355747,0.873562118192616,0.874010248496693,0.880619756373785,0.881428644879375,0.883012371581641,0.883846278782532,0.88455260759788,0.884442041238218,0.885515614966072,0.885693778614231,0.886289122724541,0.886550400676916,0.88662146394782,0.885459431735296,0.886780226926592,0.887280416876164,0.890076727567484,0.894198628375799,0.893589290634113,0.893463240948124,0.893286316865822,0.894689061041025,0.903239800864761,0.905840273763681
1.22771562366495,1.2274270264741,1.22761647082148,1.22786000510691,1.37624847588536,1.38213272167579,1.38805780910286,0.883643148510417,0.88110054010029,0.880806881286603,1.05899209779448,1.02408295306494,0.981468748555667,0.889008500050413,0.885523545727073,0.885078150950929,0.884257979211694,0.883847682693688,0.882531643406232,0.880651137157523,0.877641736228435,0.8741354217959,0.869354086379468,0.867872246998611,0.868282142909667,0.866986763342392,0.866531248752413,0.866312732523373,0.865608316475466,0.872048935099879,0.87889282308548,0.878804084197264,0.878182708126883,0.877413067545899,0.876618847162997,0.876341347423084,0.876015658906615,0.87535008165424,0.874506015995631,0.87287592366874,0.871338763438752,0.869807228489608,0.868436016756904,0.867350778797432,0.86645246791342,0.865408188977432,0.863705322226032,0.861029518691601,0.858973772530148,0.858372320552051,0.858134343655622,0.858826837076408,0.859798340946656,0.859941114477953,0.861178638839138,0.862811331594407,0.863950554201657,0.863825277220961,0.863933095505734,0.864828004112753,0.865613894560442,0.866065387450992,0.866073338660733,0.865652472690736,0.864846509795962,0.863746574900898,0.86312810938634,0.863064258449195,0.863265078726045,0.86393217515324,0.864864004674201,0.866060788726818,0.866781121866086,0.86672007075602,0.866402508575147,0.865864987041678,0.865106458534908,0.864661448087579,0.865646134257422,0.865356615853853,0.864267431385404,0.862203592158999,0.860616355576324,0.859777242566632,0.859681905167289,0.860060481444632,0.860505816253778,0.860753811737714,0.860793409131988,0.860677505722474,0.860340935808179,0.859680716905728,0.858722525942975,0.859081378093827,0.859364837315071,0.860202736016111,0.860700896349774,0.860655343928059,0.86013034736383,0.860428625679781,0.860369093290935,0.860586679608169,0.860501798168859,0.860036644831373,0.859382064584469,0.858930962608949,0.858388198046068,0.858190835407176,0.858170941453084,0.858417506676355,0.858774529983769,0.859601666053575,0.858565394181142,0.857442194807952,0.85637518861893,0.855394064893937,0.855507066642224,0.85475705995926,0.855556832560931,0.855740586993469,0.855756884263847,0.855689500785391,0.855355066692908,0.856504813971917,0.858917314542251,0.861396917370161,0.863943414608859,0.86647553501408,0.868795903414915,0.87078204736593,0.872741941474653,0.873018646638064,0.872562457945597,0.872845743454991,0.872597453934972,0.872664840360374,0.873407496292469,0.874278523208178,0.874444877805271,0.87410285637795,0.873260042885689,0.872445986254555,0.871918350185064,0.872716755700087,0.874042006835629,0.875641438604626,0.87796434860693,0.880308903095369,0.881858467873406,0.883291637214937,0.884308233912543,0.885116103572446,0.885895122144078,0.886172103210259,0.886696825522917,0.886891857783804,0.887554587463479,0.888614502549718,0.88924043981236,0.888422094280342,0.88948690812512,0.890942395172849,0.893656792100904,0.896082784502618,0.898693141456304,0.901230208858688,0.903723592006224,0.906222482833929,0.908198330743347
0.878182,0.952005524477899,0.877543,1.04932425430905,1.39522001390046,1.38938167618727,1.39590000337334,0.888017945166449,0.879314777085109,0.886039649367533,1.44342,1.05899211166085,1.44371,0.891326969569357,0.881732711132306,0.884829896793864,0.883309371561597,0.884221641216194,0.883270705214712,0.881266394083023,0.87828518510091,0.875250846284898,0.869259394018945,0.869013563999658,0.870269057350394,0.869420100837855,0.870635148674971,0.868190665362009,0.00386171,0.875206200974753,0.878105604633641,0.878626041925711,0.877860269473789,0.877081444308744,0.875812840170481,0.876200900977727,0.876364499882706,0.875747474116866,0.875562284210722,0.875050363220282,0.874498305597492,0.873492141066067,0.871966403686543,0.871045366222154,0.869625199826048,0.870704938261253,0.87024177068383,0.864792784294817,0.856787520482249,0.857664548715971,0.857719262506321,0.860269190757055,0.864224706020007,0.866292751621726,0.868287654519578,0.865369214622354,0.865144581453289,0.865075508263747,0.866338435059521,0.867993587133962,0.869621219549324,0.870187928786535,0.869796683047552,0.869529094527341,0.8685348397385,0.865202612418903,0.863320061708473,0.863867033180007,0.865371139177151,0.86509158073774,0.866217332398104,0.866492314580168,0.867231366778218,0.867741358758056,0.868918910620772,0.867677638519561,0.867153507256898,0.866153644971751,0.866617927936443,0.865816978395714,0.865191485594744,0.866210053098053,0.866723914424863,0.867807546992985,0.866929699243047,0.867509482162751,0.866686163623509,0.864963978429289,0.86254866110634,0.86467464198627,0.865763004728622,0.86424768432589,0.861063364674576,0.861434889774903,0.861201319005048,0.861780584659855,0.861559749969061,0.862281085290091,0.861606907516739,0.862544297587919,0.8624331046294,0.862350707308058,0.862147542588728,0.861726681870402,0.86181023751106,0.860595517422262,0.859355742129102,0.859881278149122,0.860075389595558,0.860560141413778,0.861236166386798,0.862372098692897,0.863834618705064,0.864346925065776,0.864268411478559,0.861019248920787,0.856671577570069,0.855851764620186,0.856344687179525,0.856004312288073,0.855977125911789,0.856162508431302,0.857017540948437,0.85744957079949,0.85893162867426,0.862246185344703,1.25442,0.963442977782239,1.25662,0.872402610879837,0.871460685458764,0.872732203336718,0.871053619944813,0.872866070874307,0.87212214224517,0.873146018441499,0.873048913588022,0.874405051747338,0.874399590995094,0.876095504896021,0.876604350209489,0.875900969891824,0.87425534684538,0.874302366044466,0.876369496871353,0.87728714385841,0.880308462693249,0.880843316742888,0.882216593756151,0.889537865763691,1.34092,0.909008722620608,0.914033567152207,0.898872163350961,0.897606876645082,0.897902257455192,0.897261137143995,0.892576540916953,0.890877071809388,0.896070716073322,1.13289,0.899311598541924,0.0038515,0.900924933991373,0.90581547617087,0.908391427074954,0.90944994662885,0.909484186815725,0.911292266570195
1.00822358963943,1.02258301292957,1.03565780904623,1.04630895464413,1.05321331062149,1.06176876028616,1.0901306499129,0.892510796989053,0.893669248031641,0.891839334375982,0.893132903266598,0.893362101503067,0.893047712021994,0.892445979377437,0.891350480928632,0.888853035525593,0.887963881318817,0.886164805158914,0.884085510088088,0.882572549563261,0.879054355326721,0.877840884205933,0.878940785089942,0.879917482123637,0.880504406588914,0.880902070140708,0.881366528930227,0.881062499669159,0.880572276649603,0.879879460177756,0.879147720262256,0.879372517917706,0.880065097935799,0.880070749846699,0.879292667814933,0.878038435968239,0.876705197642093,0.875875327935869,0.875445392162225,0.87501600509681,0.874506986187885,0.873936332185977,0.873759151371359,0.87292952856831,0.872560546180472,0.872234379160558,0.871485878164606,0.871694256269057,0.871756738915781,0.871548254983917,0.870999040832328,0.870190198188346,0.869399254129347,0.868995788750345,0.869218317649905,0.870047749306342,0.871224773893357,0.872402293484487,0.873258823390844,0.873527457704005,0.873102536145615,0.872380104947771,0.871928426498982,0.872611367970923,0.873715344890018,0.874936749690893,0.875622568869558,0.875259827990053,0.874705792059723,0.87424715260137,0.873873226421746,0.873436989892192,0.872669751578275,0.871377375268849,0.869734703574004,0.868804303363489,0.869028998700057,0.869238276695802,0.86930100825441,0.869302675961606,0.869348288182012,0.869334291169951,0.869085496315475,0.86924211534883,0.868527518697071,0.8683491733318,0.866284641734481,0.865211543775358,0.864415883230047,0.865123592612153,0.865454868036782,0.865166802753584,0.864140826397226,0.863439167663835,0.863057980892607,0.86317133367276,0.863561967010093,0.864407679508582,0.864598427794775,0.864984375925307,0.864957002209284,0.863833023464552,0.862937824072546,0.862743741707751,0.862794760951205,0.862224069302954,0.861881184477405,0.861970061305381,0.862455824887426,0.862652759427865,0.863188415466351,0.863652130515356,0.864097095391821,0.864816259528483,0.864570614331738,0.863220525918848,0.863321816084437,0.863745786359848,0.864398536364348,0.86523422427723,0.866232181969294,0.868216342146171,0.869989308726099,0.871333494542753,0.872110429084017,0.872694400699143,0.874609206046174,0.875397853321781,0.875035808961347,0.874510740283157,0.874384612603803,0.874855984885332,0.875545491970807,0.875261547707231,0.874165941258108,0.874914084447143,0.874879687135942,0.875728291329231,0.876657114274081,0.877386810366096,0.87816323074042,0.878831304780684,0.881219294039344,0.882585785734288,0.884791463982393,0.887875024468625,0.891386325498498,0.89420216184514,0.895755765109007,0.896594128315508,0.901860313287253,0.903709324330126,0.901896480268935,0.900181958303116,0.898814954932649,0.898904352435251,0.899789074699096,0.902938462822494,0.905333817765148,0.907412240768385,0.908506431545946,0.909079790323999,0.908997431442212,0.909588076996824,0.908678138663037,0.909762881540125,0.910142286136957,0.911061040092893,0.912072767471918
1.41498,1.04540434892218,1.4534,0.98104103780608,0.00384051,0.969747458778857,1.29624,0.895698292213164,0.896644276930728,0.894759467833491,0.894385531033269,0.893956374040282,0.00401839,0.893506887889761,0.894798654500969,0.891086030477269,0.890039423739382,0.888220651264119,0.888767036231084,0.885664873670498,0.877413337572547,0.878031223642685,0.878818123230999,0.881275095503238,0.882801128025921,0.883087684436035,0.882107648929451,0.885806942344245,0.88735090747836,0.888184243277174,0.888151472750158,0.889237496671152,0.889792978693382,0.889091355602037,0.888104221869055,0.888801258254414,0.88889876132648,0.889984797652616,0.898765923336725,0.89818390521026,0.901067175181616,0.881610122323692,0.876224344754212,0.877412768657238,0.878856435420461,0.874341797819484,0.871713746441256,0.878995035498872,1.37839,0.892858661153896,0.890965963125531,0.888968395683235,0.886398289853895,0.88466545124032,0.88038891908643,0.883818244743464,1.3855,0.88170580413909,0.876735233024157,0.876634446672009,0.876732503504088,0.877027767362863,0.877898340076364,0.878361267889986,0.878091704798407,0.877408834226703,0.876155310323337,0.878134258098787,0.879052594538335,0.880840003469127,0.880397957104055,0.881077731839195,0.879763970261533,0.881164853280159,0.880596935973484,0.881784361382486,0.880993264954642,0.882047702671824,0.881192182260519,0.880624777560188,0.877715770771522,0.874061515531395,0.870731577628703,0.871025702567603,0.872897895250755,0.87047161849605,0.864453556711671,0.864726237024733,0.864233327248889,0.865441279321243,0.864967282217662,0.866584265519862,0.865990208391703,0.865091686555305,0.863593911985802,0.864129652257389,0.864366200268327,0.867187028038641,0.868696150739465,0.867974104727729,0.86819433756031,0.865320167048661,0.86277995522055,0.863681950486287,0.864333032579354,0.863742480617092,0.863991181388681,0.863719560642985,0.865206313036311,0.864432773132851,0.865251731265487,0.86486255981494,0.863994461166637,0.86616939807737,0.865979325773059,0.870941583300079,0.874383535728368,0.874105128210398,0.872763409387478,0.869047289671784,0.865226821977411,0.869720961852849,0.885835888687041,0.875420199253052,0.871825125209708,0.872774221745001,0.87354141982249,0.876126171349565,0.874717180382551,0.875669197182345,0.876295541876066,0.876295275421164,0.877490466663349,0.878312194203677,0.882070170369737,0.877618733226569,0.875960946365595,0.876935468959914,0.8791955925315,0.878825191368654,0.880104012726245,0.880462960169029,0.882740414649247,0.887110842857701,0.89153054615719,0.893347431346852,0.892228789997302,0.895329846889525,0.896945717738305,0.898342887475814,0.900057491161335,0.902317154922842,0.901840409722651,0.90122715656159,0.898639416552006,0.899163352586301,0.899999597383828,0.903408315132224,0.907079202986949,0.908113413444924,0.908710730753294,0.909345757384298,0.90799635503998,0.910819687292031,0.912305156103535,0.91171668754469,0.910288085372518,0.912370763292474,0.91259906798046
1.04540295614289,1.0101463340142,0.978264355086134,0.947997854164585,0.900342856778972,0.900309958538186,0.899239360084225,0.897857533222384,0.897585892159928,0.896280762114694,0.894938796001031,0.894173706495511,0.893630211685554,0.893207346076561,0.892774653572556,0.890872631877888,0.889431861902007,0.888082391160839,0.887271506911727,0.885639051358645,0.884734963858294,0.884461005169317,0.884564570634437,0.884921082761434,0.885534346426289,0.886847394756121,0.887871390320073,0.887878650218544,0.888618660593488,0.889074006188945,0.889500331539984,0.889698113262777,0.889777361417223,0.889300867805689,0.888902941591515,0.889176773648534,0.889705444365682,0.891116686691477,0.894088322574183,0.894489800818568,0.893001283407834,0.889490829201668,0.888559551714318,0.887699610649991,0.886861419658195,0.887075900737982,0.887162896018917,0.888706601416455,0.896583996806219,0.894417805305925,0.89169260703079,0.889448960614185,0.887684627503549,0.887076919073706,0.887673247784484,0.887037267454684,0.887908842378378,0.887712102292591,0.887494264624211,0.886337880021868,0.884552880753131,0.882388783708382,0.880637865313054,0.880053843169061,0.881221407113301,0.882925424078628,0.883442265666359,0.883332922003922,0.882085158351098,0.882476330603999,0.882171252121896,0.882680808065396,0.882686530342003,0.88293403392732,0.882977981385888,0.883459101329324,0.882790625354983,0.88370705084409,0.883336185231521,0.88262634821326,0.881353944517523,0.880627482556883,0.879160852339818,0.877232302430361,0.875393836172995,0.876320165200171,0.875969003841906,0.875288453355019,0.873654448665727,0.871839080134211,0.870765466451235,0.869545239984999,0.869699113818461,0.869519449960746,0.870214921661931,0.87094934675826,0.871752498913265,0.870820600004208,0.870800348594461,0.869425258672615,0.868283106870831,0.866107246976798,0.864498629966211,0.864768340641642,0.865398206119367,0.864470301789127,0.863551214529912,0.863743481402853,0.864429962591048,0.864712289867238,0.86540704967171,0.866677719618964,0.868720160212671,0.869865962798043,0.87153592908914,0.873089581680049,0.874518825161304,0.874989412084279,0.875172216241878,0.876420800858125,0.877238880747063,0.879092490853599,0.881152718433816,0.879127309072585,0.880158797623904,0.88109924646695,0.88126654519539,0.880522971420187,0.881615919285248,0.882047300953898,0.883319841420589,0.884513332461153,0.885586414316584,0.885092913962513,0.884528165518489,0.886358061134067,0.888129947724131,0.889826176071249,0.89140595368169,0.892756041197351,0.893796140526698,0.894621228978784,0.895316955321179,0.895763400766448,0.894538234164616,0.895957577657442,0.897150103431834,0.897868605071809,0.898760281264833,0.900276908251253,0.902227100707837,0.903657468146978,0.904245458782076,0.904436823900803,0.906061440037282,0.906113393701615,0.906451046933744,0.907165415788862,0.908256255598012,0.909148907504565,0.910182922452098,0.911384671283311,0.913260720488773,0.913302766481761,0.914174635981869,0.914589727303739,0.916305521739282,0.916455110215005,0.918960987478116
1.41856,0.965672455952657,0.898503223254981,0.902326129974158,0.900245269807357,0.901257788848668,0.899576713691472,0.898974824274055,0.899638275785015,0.897919337755873,0.00391468,0.900757944020682,1.19589,0.907250787465909,0.9037414077071,0.906921995404748,1.53402,0.904443520659712,0.901490272447534,0.90561002152434,0.908037472319882,0.892994104930759,0.884542849287688,0.885620034044137,0.88759954327656,0.888012707051821,0.889612638597568,0.889241413064608,0.890207609472475,0.890094316139376,0.891144637264481,0.890353499361051,0.890380414942688,0.88949535611857,0.889009182800242,0.889261356811096,0.889690417067682,0.890842698362725,0.89203186894848,0.89263745886635,0.891396531913442,0.890024535325155,0.888266887900733,0.887827175266949,0.887172770434993,0.887468713190962,0.88602967684451,0.890963984819221,0.898403214138565,0.8961571072334,0.00367489,0.889354373006802,0.887674564545875,0.888117507240873,0.888579406029046,0.888590987104235,0.888971114136398,0.888816527325794,0.888173898118438,0.889828217226692,0.890014913432938,0.890893444287412,0.890513989482137,0.888804203101211,0.884004994035928,0.883971893818236,0.884876968569456,0.886008349101746,0.885596141804525,0.884327566788529,0.882709240672138,0.884619503797363,0.884998382629569,0.885091726876951,0.884535225022385,0.88629384574342,0.888387749869836,0.88663076005916,0.885232782263425,0.885069486942327,0.884403926293342,0.885685290932466,0.885757754187394,0.884304857146711,0.881348517971051,0.879264223408744,0.876054340976069,0.875636677374106,0.874829776625485,0.872811418230691,0.871846969279505,0.871406063826581,0.87275154435906,0.875154371413202,0.875457322757983,0.875281703090547,0.873500866342617,0.873849549661963,0.87380043280924,0.870847135537067,0.869070720968181,0.866494632261125,0.864255047761013,0.865684078151191,0.868101780775143,0.865425999785261,0.862080365737489,0.863301731925553,0.864095617179166,0.864639033217677,0.865189124607992,0.868017022589549,0.872465224286916,0.87311443736302,0.875974609228235,0.875130792509931,0.875371810380883,0.875967821233685,0.876335745466941,0.876579890514939,0.875861758340123,0.878562324282175,0.880516014201036,0.879904853566913,0.880270140571636,0.881624462633621,0.883482375879546,0.883184479638582,0.885371930143234,0.88587271096362,0.887189112430675,0.887319512315784,0.887812812441421,0.889025798224318,0.89052521608929,0.891352355456395,0.892083648095189,0.892771888979098,0.893539572978116,0.894138654884816,0.895020273337477,0.896158121403858,0.89652516285255,0.897042581914027,0.898811471324982,0.898475298362564,0.900358560592447,0.899974864986519,0.900029893743606,0.901746956402144,0.904910072360511,0.90553142717076,0.907091329742482,0.906400076918552,0.907916791155841,0.915451518610635,0.93125086538369,0.917274107047535,0.90976349312863,0.910092101490496,0.911433406795948,0.912635916085935,0.915042174841886,0.914975037841217,0.916667811526466,0.916441378500221,0.918354658924499,0.918021749349779,0.919798304741978
0.919464282003676,0.919028821234261,0.911362292804123,0.90829806470774,0.902612470013004,0.904822028989026,0.906226874949427,0.907734001740768,0.90950445674562,0.911378292137243,0.912855732210922,0.913587978621364,0.913807283456716,0.912940802098364,0.911843865480304,0.909725775148033,0.908563245572718,0.907152090013255,0.907596754297439,0.907291764290531,0.907710394584647,0.907796897425026,0.907260673350275,0.90612953975827,0.904949850713715,0.904355880180155,0.903336305022194,0.901956585604686,0.900485372469034,0.89924834258674,0.898487382741966,0.898251929425632,0.898353255135744,0.898433862751502,0.898184493655042,0.897570258407369,0.896726174864589,0.895621756735017,0.894194451246991,0.89269872097616,0.891537676542094,0.890639121356879,0.888464127060811,0.88804069685969,0.888256086122305,0.889615987050762,0.892433926119779,0.894245838106848,0.897111793502195,0.896163625820658,0.893949590616078,0.891059986312105,0.889278427949124,0.889002154071456,0.889278490116992,0.889548501149737,0.890035797316868,0.890402857783362,0.890660081729254,0.891275367411036,0.891705130508749,0.891988278981904,0.891887431583856,0.891675050528493,0.892104301122587,0.891397349832526,0.88991417187676,0.888998796002343,0.887669541843302,0.888388765265294,0.888062954522263,0.887745440593236,0.887543933390262,0.887462149285366,0.887780332637717,0.88828989050905,0.88914452564251,0.888601950445637,0.888232529704236,0.887203839205132,0.886392676449097,0.88650962947387,0.886275185603595,0.885529854600473,0.884317939084293,0.883545826230378,0.883502711834565,0.882690044740407,0.881016359559116,0.88031206428942,0.879930214023392,0.879654508492391,0.879642367226833,0.878564176702215,0.877959105498791,0.87778383826414,0.877318532796969,0.876868613410537,0.876759813511393,0.876266188303735,0.876320071526244,0.87682841596951,0.877474005371393,0.877921627343022,0.877955112058167,0.877521075309604,0.876749667723687,0.875860876887644,0.875056090430756,0.874478254127778,0.874138273922541,0.873921641091461,0.873719484119567,0.874232729567408,0.87546718878874,0.875965647810506,0.876680544372299,0.877045813269081,0.877450232532487,0.877643934031334,0.87868552246576,0.879681227019886,0.880697041489903,0.881985593794665,0.883520206413238,0.885354831633165,0.887260984827587,0.888836153154036,0.889883507864,0.890520193469813,0.890939250794285,0.891250810581474,0.891515832240877,0.891763474195946,0.891966217221231,0.892093606412963,0.892201815126586,0.892487989830238,0.893112885399174,0.894030744134524,0.895258989416057,0.896999424759668,0.896399517545783,0.896970015289996,0.89796011981715,0.898813107108445,0.900085398617181,0.901659588165373,0.903336631950496,0.905367269273064,0.90818875020416,0.912538518028442,0.917300178739128,0.921255378803105,0.924867729512478,0.927593719347601,0.92924719367582,0.929367480449749,0.929119291975841,0.928430798584863,0.927598543504611,0.926944472608453,0.926682701913708,0.926932559511888,0.92767745767601,0.928781842822196,0.930052781267087,0.931226170288006,0.931998516355736
0.00369728,0.9172961359849,0.914686185183695,0.911421276867468,0.00360352,0.909071783980391,0.913062634590922,0.913359931526847,0.91307541329051,0.969173602522563,1.26671,0.917317455077738,0.914919733801417,0.913532178025757,0.913051477022563,0.91141459928729,0.00360553,0.907783427176017,0.908283523488197,0.90824113966061,0.907654060703066,0.908254857280091,0.90767368965063,0.906004217459876,0.904127215075879,0.905939549109632,0.907866735913309,0.908982928627007,0.908699610497148,0.908624239721506,0.907292283670903,0.90761171252049,0.906053231168525,0.905155675979328,0.904239606594005,0.903895633355336,0.903609645271037,0.903997824177715,0.904358134187017,0.903433626743722,0.901796538311749,0.896824625426772,0.886694952757652,0.887629653887849,0.888084260419055,0.890434538925184,0.893610097348063,0.896906471097221,0.899734164565871,0.897487497261384,0.894719481981885,0.891693591743948,0.889445695122318,0.889411240066317,0.889859828789683,0.890205349716715,0.891130115847869,0.892226665946145,0.892808003122739,0.892933811030028,0.893533087952001,0.893338113340503,0.893223967062813,0.893657196269268,0.893786258919318,0.894378717685189,0.89396322072815,0.893506099472464,0.89392802077503,0.892806268624755,0.893311104369338,0.890979661281227,0.889560409238593,0.889933520931193,0.890189122101624,0.890405113435367,0.89060042418938,0.890850716075612,0.891081612925619,0.889488191552711,0.886916659227164,0.887923915871666,0.88701758693899,0.887546924325928,0.887138163420239,0.8861172866924,0.884846642143531,0.884686564308785,0.884366919240797,0.885127465453721,0.884437097948052,0.884044547164881,0.881784954059945,0.881927739161457,0.881853201014771,0.881062842956637,0.879704625240691,0.879885620328552,0.879974891498286,0.883903757300496,0.893462644372143,0.886121749328416,0.882445066465619,0.885604314334508,0.887676009650018,0.885207224678193,0.882654947963215,0.883684594103792,0.884911626437331,0.886697168014019,0.887503402082154,0.880952450467267,0.874308548242644,0.874724216442332,0.87581349983201,0.876642612522073,0.878303740825069,0.878022432900191,0.878680898444567,0.884754823582611,1.51734,0.932845801339542,0.892358375913571,0.892869581628406,0.893187279577064,0.894517794521656,0.895441320998042,0.897205944582618,0.897516091976874,0.899627466127313,0.900082843455389,0.902242461045699,0.90390451128421,0.904304475655685,0.904663009336129,0.904452497084092,0.90400745496538,0.904259648115932,0.904603129763966,0.904071673997863,0.904397500927797,0.900364855913624,0.895239591786519,0.896544264965092,0.897449808342707,0.898823163196949,0.899652907238782,0.904943115415301,0.912310205703452,0.912510622058197,0.914202100875661,0.915586267452707,0.9176345505028,0.92068197858326,0.925421175345687,0.928095185919749,0.928349055435266,0.929108768201397,0.928889774177867,0.933438879323184,0.949889907075738,0.935502149677546,0.932796283816599,0.934218964525936,0.933298355349117,0.932316825675052,0.930708074276687,0.931277715485157,0.931691535866726
0.922107753503666,0.922346078798867,0.922764428407894,0.923250044037203,0.923764407459598,0.924158183859857,0.924425397377233,0.931733447404998,0.981674961684482,1.01540533686117,1.05121573608488,0.929354342268678,0.927946819397244,0.926684645575376,0.924318436219608,0.921369872035538,0.918177287781932,0.915068353549569,0.912259874070247,0.909803163562086,0.909106167043335,0.909749365434741,0.91062056115882,0.911332046387241,0.911394966061963,0.910785839759222,0.909712274228044,0.910263211502142,0.909790564814809,0.909636152649663,0.909381063734523,0.909180782162263,0.908204718583923,0.907782899112715,0.906929371877604,0.905950211358083,0.905101710313549,0.904519786681188,0.904266160292253,0.904174433280926,0.905004134630215,0.904827513348472,0.904761401696521,0.904544537479697,0.903988067811554,0.903056765548183,0.901759543504139,0.900158470439758,0.900441955157592,0.899375277627162,0.900278850550941,0.900777355425049,0.900476127746086,0.899346222638757,0.897762920530282,0.896500646265622,0.896194539403892,0.894712268561837,0.894455512495408,0.894242319687544,0.894468764463424,0.894688363189514,0.895258588475249,0.895827021512146,0.895701943623684,0.896461663750463,0.896123396568964,0.895409125994064,0.894821857502262,0.894247670365896,0.894157890790975,0.893050774933016,0.892678125680159,0.891928230040443,0.891922069153702,0.891708297584321,0.892168848039817,0.892131773397238,0.892639054718151,0.892018398361282,0.891598450003027,0.891002728874866,0.88945394946664,0.88999050057968,0.889741171370519,0.888264488842257,0.887222786224144,0.886657933355181,0.886595283654948,0.886648438428646,0.886580237003673,0.886038185287379,0.885434939433047,0.884909696350249,0.884876206564826,0.884458415669456,0.885255351203664,0.885611369764951,0.887239833824054,0.887822124285683,0.890598042489424,0.889739600115465,0.890964456420172,0.891281178536303,0.890977382312198,0.891585426924045,0.891281478164495,0.890346440610122,0.889064713944543,0.887528862617677,0.886533480565949,0.884195443629138,0.881463175028731,0.878850535476067,0.876936169815291,0.882156705903083,0.888582312709657,0.895063471161762,0.90074343269385,0.904890992432229,0.972293979732444,0.952320765086617,0.929866739978687,0.910557398918844,0.905651851495596,0.904729171309327,0.903435600327634,0.90179540637143,0.900322524233977,0.900844573887729,0.901584153973697,0.902558127783195,0.903618542155365,0.904217575691776,0.904541495143567,0.904550492904032,0.904438119224327,0.904197283810602,0.90398848562897,0.903384441340151,0.902385439813921,0.899858125883375,0.897846111330803,0.896896877342309,0.89700469317642,0.899901594528907,0.902214457657617,0.905481087986166,0.909577480333695,0.91152400065242,0.913476357583287,0.915704576090498,0.918550086300518,0.921573232101515,0.92343803208759,0.93074323270694,0.93092046889212,0.933556263620833,0.935732384844641,0.936701570305108,0.938224349571725,0.938027270843827,0.938027221020532,0.936429957014937,0.935649697513694,0.937198611235452,0.938042487728736,0.938954887703334,0.939380164187455
0.922667972913922,0.922542507749808,0.92288904572471,0.923316622285854,0.923879562883896,0.924263164996852,0.924714159168201,0.933845257639149,1.47406,1.05121594893237,1.18847,0.930006146622742,0.927127658302124,0.927074998943925,0.926917596473065,0.927193934866506,0.92736966027237,0.927612696572894,0.927977086830402,0.91754168586156,0.909207397314931,0.910840492047706,0.913421747752826,0.915006335418379,0.916382386643411,0.916935232234738,0.916356666103204,0.912373936262111,0.910352551051137,0.910437924498148,0.911093710210904,0.911085414634175,0.912667109774941,0.914247289027638,0.915597155363294,0.916105236315255,0.915383086138665,0.917026057378275,0.917761432148391,0.913131620003405,0.907463356454217,0.908387153957373,0.909369807725177,0.908674089937083,0.908227208346741,0.905027285412407,0.901864905761563,0.90153620712821,0.902450933631238,0.906806739213283,0.910453165768337,0.908807305522702,0.903936913900946,0.90422541330757,0.904196091424131,0.901397680915321,0.898590198670182,0.896427851598464,0.896303132626897,0.895325579122972,0.895612542692857,0.895828733321351,0.897382059281742,0.898549268448343,0.900775613200809,0.899631996700747,0.899635972484339,0.897423621730134,0.895992037292831,0.895396026370052,0.896016388906519,0.894638771748606,0.895738916675884,0.893666214731793,0.893155731059956,0.892982317092757,0.89338510071664,0.893542755102983,0.894421650858185,0.89466529825637,0.896465128627929,0.895308457935057,0.896952999248321,0.893872206218077,0.892749943409976,0.890802860504518,0.888307211212477,0.888975433462625,0.888210819017008,0.889082813546214,0.888751551292717,0.888927114220691,0.88829369836782,0.888212201628832,0.888015044649861,0.887570938995529,0.887433362726894,0.887881941843028,0.888442576477394,0.889723937831371,0.891374674321358,0.891308902236408,0.892027787332342,0.892417115310082,0.893211797506948,0.895280766321647,0.896342796266891,0.897197582910174,0.895908715518382,0.894728679057146,0.893293591968012,0.89361438879335,0.893937886271002,0.887316170679123,0.00378637,0.898183011969922,0.909791158760334,0.908449123034873,0.905456346996824,0.908099858145959,1.00929999999997,0.97424687660288,1.01527999999999,0.913102755445863,0.904913783154824,0.904491257851927,0.903472507552398,0.902050358056306,0.900845818579673,0.901491109342176,0.902609466598573,0.905787767465814,1.30865,1.00845633941176,1.31233,0.922229088783388,0.916880766101423,0.915625687932698,0.914239058959459,0.91708168969918,0.919830840623182,0.917777391851801,0.915666893203135,0.908719054057204,0.00378345,0.920139778991427,0.925792993284146,0.926607222567311,0.924964195217555,0.92604914203673,0.92542434234191,0.925537737143426,0.925074735681637,0.923436526842923,0.00391372,0.932987307294616,0.935133861469591,0.935640256408144,0.937140295940053,0.93795662654976,0.940033842630673,0.94010289290041,0.940618589505258,0.937618264363343,0.935678849706513,0.938301635879281,0.941969982854859,0.941798058272667,0.941300381290792
0.939861618245352,0.93990692654146,0.939663932990517,0.940178075453537,0.940400518851496,0.941881264032426,0.942717086110797,0.943137526737284,0.942793246495181,0.94308175605814,0.942848022800578,0.938166265821203,0.933440610504643,0.930386107455607,0.9268744590916,0.926904584882774,0.927046579134879,0.927285544020388,0.927263500733443,0.926582373852509,0.925097187731962,0.923389341368262,0.921574255156888,0.919751212663785,0.917952205152192,0.917880577224099,0.916618356165032,0.915689763288159,0.915177203940496,0.915107561077074,0.915263714755093,0.915452864530834,0.915673010113992,0.91598952868472,0.91626443468537,0.916883736857566,0.91770655073281,0.917653202042596,0.917189291073376,0.916242389357173,0.916675694953328,0.915352561940882,0.914129507075154,0.91344687726442,0.913468048476023,0.914028909508234,0.914761676733363,0.915250011434455,0.915252892129041,0.914789925254726,0.912912648108996,0.911827010411275,0.911467568113283,0.911219545512547,0.908797868126337,0.908627462896215,0.907953526690126,0.906876162665737,0.905895118788813,0.905243945556212,0.90472146403418,0.904157147096679,0.90375838637803,0.903867123092282,0.903253970451511,0.901995383716129,0.900102841974467,0.898967072063957,0.897049584388857,0.895497551195096,0.894016383778243,0.893610170233055,0.893840389498455,0.893354653565586,0.893246243811011,0.892964192446559,0.893383727929368,0.893447659153006,0.894017510735865,0.89529493717321,0.896756352491736,0.896615244833736,0.896593112288184,0.895156019721336,0.894081508804031,0.892792433101018,0.892060472918411,0.891651517126546,0.891868284051654,0.891706575110346,0.891798232364354,0.891500315639847,0.891261237123544,0.890396809164971,0.890036601553547,0.889547478553371,0.889751525137207,0.8898432211523,0.890559990890053,0.891160477573737,0.892069964578524,0.892222567233355,0.892673883589635,0.893431056478235,0.894676449386842,0.896429809548152,0.897974530664986,0.899102504165298,0.899757055993437,0.902691772003727,0.904720932574809,0.906436455609163,0.907814954298293,0.908806315744292,0.909485273981144,0.910134903452415,0.910382980088011,0.910211894136077,0.910699466065949,0.910627236432151,0.917187679016556,0.918539942811137,0.919800688164633,0.921089661037349,0.921648847619429,0.922571399052957,0.922906113682821,0.923750918635299,0.924010734410907,0.924927106493352,0.92526974256487,0.926105577809076,0.928005741406681,0.930370291863092,0.931405636126511,0.932971289062194,0.933430831949625,0.933202925403414,0.932382327294486,0.932524804272087,0.932286536959227,0.931631107786466,0.930767337393956,0.92995139831938,0.92927647705005,0.929379158982729,0.928631360989427,0.92885981197559,0.928557353820323,0.929257821084287,0.929996824981234,0.931444696585167,0.932701369062217,0.933758227418873,0.934494381778327,0.934825897877512,0.935181696929328,0.935740282755273,0.936780224175312,0.938114462078346,0.939909881360558,0.941576238516222,0.944356636298477,0.946440113213268,0.947715078221556,0.948328327846899,0.948748166678226,0.949562782649497,0.949062197145034
0.938554281271692,0.939338422904836,0.938044306566218,0.939511434984017,0.938203727370669,0.941540252676003,0.942230114653574,0.943083681949855,0.941668299260491,0.943353327473737,0.942478076544477,0.946010867049002,0.94873638762265,0.937532176099927,0.924385768643216,0.925987823718207,0.926304537425346,0.926928153063869,0.926964315800469,0.927065332328935,0.927384329092064,0.928495070718379,0.929403283619601,0.921376264896175,0.917739364334166,0.919900849387097,0.923957520797546,0.937105208450629,0.948950689764725,0.947479489945516,0.947199165626303,0.93003046604155,0.922967592289861,0.923679691828659,0.923814843523374,0.922235700188224,0.920578139848553,0.918388421554373,0.916786403796081,0.917409279342656,0.918989821989436,0.921620622139466,0.921453396428973,0.922380483944561,0.922225589343831,0.920365805600693,0.917951834553679,0.918004254768798,0.917478025087548,0.915951144583521,0.914410508620805,0.914040510514737,0.914807347141729,0.913438173755188,0.913504591034747,0.914085262849092,0.913582798301754,0.914786838618443,0.914713912504643,0.91565909051658,0.920997106814323,0.909969610861989,0.909166368937188,0.906763148022987,0.906875598759927,0.905189361081175,0.906902266751453,0.901423101462531,0.897986567943715,0.89577594882882,0.891074451135732,0.892302739861854,0.892496831668146,0.893052844432751,0.893026205844016,0.892718768922218,0.893153176609281,0.893352945962966,0.892439256787428,0.896107177383669,0.898331162443602,0.898071091996656,0.897059926796049,0.896549580558556,0.894516802160693,0.894991423296406,0.894015065039389,0.894614026597967,0.894444372925891,0.894893247816912,0.895778585450751,0.894721444576427,0.895182883115208,0.892820921132107,0.891138810456099,0.891540478538711,0.891678778815022,0.891723097720291,0.892699709754711,0.892492674332841,0.893571759532714,0.892973866430878,0.893298266095114,0.894079961910968,0.895749417925777,0.897418539379563,0.899850802877343,0.901108534134803,0.901044721928032,0.904319729645687,0.905715115903419,0.907313984253477,0.907964475991796,0.908739692389375,0.909280403903566,0.910389803793199,0.911508683027285,0.911435783710114,0.911527269829929,0.913164513189412,0.915620114692019,0.918261432167725,0.919146276689113,0.920959279250922,0.920382516067902,0.922197183246479,0.921455662000277,0.923251950626025,0.922420356233585,0.924467314097843,0.923991267939344,0.926051375810411,0.925418922917607,0.931370704239892,0.930597017568788,0.933592411341515,0.942605891521357,0.934984026525505,0.931093169355344,0.93226662318564,0.933851358871555,0.934594184834925,0.933713315281036,0.932439279931406,0.928515511726091,0.930071354451663,0.930395010360661,0.93137429099512,0.932082259949851,0.931813684257144,0.93208987285691,0.932128753877568,0.93329129986298,0.934330478335281,0.934982470880612,0.938875379800062,0.947579848840161,0.950934991834078,0.952734111719658,0.952798777779416,0.951127411888872,0.952315489949843,0.951929875235728,0.953595707898294,0.953498995387432,0.952995839665831,0.951227103018356,0.95127835742901,0.952563428456509
0.941652669128502,0.940543719838911,0.94015934585597,0.941029838972703,0.942336757968328,0.943252926187672,0.943570190292234,0.944657650022835,0.944620167342681,0.946028559357981,0.946333485222371,0.946713757661393,0.94775605954709,0.947723778343335,0.947536090825563,0.947129267630843,0.946550109979236,0.94598399358677,0.945616921265596,0.945785606109873,0.946520739343867,0.948408305511489,0.94978317501132,0.950345147245151,0.950121448572317,0.949435549637403,0.948689713674325,0.9481283125447,0.947771655997474,0.946377401268917,0.944295210834558,0.941050732741155,0.939881436350323,0.937726507917328,0.935561139448845,0.93349537382693,0.931499542568368,0.929658257911743,0.928095099844902,0.926795564277129,0.925373885006888,0.924236317283516,0.923816296991233,0.923197143366154,0.922048509911179,0.920666070311789,0.918944724944448,0.918476130526286,0.917951762133887,0.917029337396722,0.916155796473201,0.915097729592892,0.914448624699584,0.914274545429331,0.91447411056171,0.915076681393753,0.915346594860398,0.915792297441845,0.915436304030328,0.914667875477473,0.91241230924253,0.910335250583793,0.908852264987157,0.907468684318468,0.906705804948596,0.905431097141622,0.904930862388737,0.902950326557824,0.895263148010901,0.894330237747169,0.892759691468368,0.892274447750419,0.892534931448192,0.893089923697064,0.892557866218483,0.891342414717394,0.892907238598986,0.894073632859668,0.896069673487655,0.898010473731269,0.89969654478224,0.899630426440773,0.899432368000612,0.898497203893556,0.898138474736771,0.897451453705342,0.897390571967151,0.897046577359704,0.897065371416479,0.896476683105488,0.896424140144693,0.895403712429152,0.894996961210348,0.893616632690032,0.893227748696214,0.89310678856156,0.893413363098048,0.892516796353307,0.892778028815358,0.893503357308976,0.895026907918321,0.897204492561746,0.899634085304148,0.90171643465074,0.903175661782151,0.904208963626039,0.90320341128922,0.904584016934046,0.90530014604286,0.906698458862844,0.907673173376894,0.9081057343,0.907984132694025,0.908818489649433,0.909227603670268,0.910719278971649,0.91176626007861,0.912708328176216,0.913566611116762,0.915016054540824,0.916814094453897,0.919525206685137,0.92146882433012,0.922676264516955,0.923122408994559,0.923806897692872,0.923905963835948,0.924810144418178,0.925093192505455,0.926077194888629,0.926477464006201,0.928410341982204,0.930089131006179,0.933055604319279,0.934993585858006,0.937067067389731,0.940022948442614,0.938981883202979,0.93918380965057,0.939005129988827,0.936424361378872,0.936254096825354,0.934917681358376,0.934819190543548,0.935718818651765,0.935015964301996,0.934015959346225,0.934170793090311,0.93422623773767,0.932565408662505,0.932050305181873,0.932259941622371,0.933476746587458,0.935621988466228,0.935109074258496,0.944857280827609,0.949889192046872,0.952441527059524,0.954050013626531,0.95435228494897,0.953160664691419,0.954002214401416,0.953698385476389,0.955254521963776,0.955206256264261,0.954088477694882,0.95215965284695,0.951925424417509,0.952680945695497
0.951865372317441,0.944727993999508,0.940745444212608,0.9417126616215,0.943114310050918,0.945110502165917,0.948700727680292,0.946742877419237,0.945751345793515,0.949638284002784,0.953511819042525,0.954521279031022,1.00814999999995,0.961259866806956,0.964280968926443,0.962498604264303,0.960983701117822,0.954625364436125,0.945312640712082,0.945411894517178,0.94530113464343,0.952770183546541,0.96434346009699,0.96417650967752,0.965968317486965,0.966482582116074,0.966959326627652,0.962882886818539,0.961052351281914,0.946096836790148,0.939780165277889,0.941436369145886,0.940638197690779,0.940564807045988,0.938837507525599,0.941272200258571,0.950576545974866,0.93334069672048,0.928626633012602,0.927944762890977,0.92651964399759,0.926058847057018,0.926140881728516,0.92434899485502,0.921795576604928,0.921042782316288,0.918484700356973,0.918885998861551,0.918747142157817,0.918026028839292,0.91806243444854,0.915712158687647,0.913632267987035,0.914658635868803,0.915044492967401,0.916121649219717,0.916795510806701,0.917147620912309,0.916193766914293,0.914508571910529,0.909963952396265,0.909637709967178,0.908287304029666,0.907700880135177,0.907447899431697,0.914324186109474,0.927919243196675,0.913260004086006,0.893957473606507,0.910021769210259,0.921748109257031,0.916495816890298,0.91569618170376,0.894399945949173,0.88495616756508,0.887317543363604,0.923224999697469,0.913920564378125,0.922482999730455,0.900263430080618,0.902417859329207,0.901414179995802,0.901945545869396,0.900016516569009,0.901293376429269,0.899754316836772,0.901366161611529,0.899846072157945,0.899166294604372,0.898243314268516,0.897140010545629,0.896029522859459,0.894952230864191,0.89390729054989,0.894359036827951,0.894600791427114,0.896092310261774,0.901704654950323,0.917396179918666,0.9106230697124,0.907826750313987,0.909669449561601,0.909304144719842,0.909855659133269,0.908928434404706,0.909003841441303,0.909622197009783,0.908621447966235,0.910289451311933,0.909353997227096,0.910456521964377,0.908998482139113,0.907210921775442,0.909035340731179,0.908185664487529,0.911364632478705,0.912290978143024,0.914084380600494,0.915170762611913,0.91657852570385,0.917087730394202,0.921457691205848,0.92424963219192,0.924913583663513,0.92524804083459,0.925608610917405,0.925212806950247,0.926395899953635,0.926836574837993,0.927645822674284,0.927369573358083,0.930518765939233,0.932895093928511,0.935514449621223,0.938520345843367,0.939469835079665,0.941641388195669,0.941538977403544,0.942967367044421,0.942224120461224,0.941955236092784,0.938902453667873,0.93461593788693,0.935769776186196,0.936938143154064,0.936908964815866,0.936529286924659,0.93699711451945,0.938280632923517,0.941315032643896,0.946672256753972,0.946385216177248,0.944840436776082,0.940086172977506,0.00380097,0.948730035308888,0.954586955749693,0.954927425239342,0.956479865492234,0.957309718783739,0.959663924799009,0.958840954170821,0.960261022469278,0.958502772978408,0.95863346001486,0.955893396211132,0.951407238219256,0.951789379855944,0.952272629374242
0.952112862823084,0.952286338661884,0.952557496002756,0.952813640779107,0.95285713935246,0.952587896214984,0.952087122289699,0.952933895235045,0.953568712403789,0.953033878025823,0.954283389299039,0.954927767824076,0.955682525588993,0.958110345653185,0.95979597287676,0.961980547036905,0.962162444067632,0.961661514064162,0.960885958341956,0.961480836434626,0.961825722798107,0.961831351790507,0.961381483873734,0.962021413143863,0.963133863636861,0.966357563947121,0.966805296318909,0.965156314702006,0.952156311140632,0.945944027388185,0.945449831726793,0.94401216626048,0.943683545152858,0.944481972090239,0.944950317410104,0.943883795678424,0.944636717895488,0.939496505724972,0.936184604910348,0.932309419410288,0.928227149298347,0.927168986948287,0.926985058279389,0.925975852475155,0.924711320084749,0.92294013584525,0.921358387845214,0.919740293958286,0.918925510902865,0.918181197076947,0.917465980690656,0.9160503772461,0.915258715235529,0.915722448506611,0.916553916856677,0.917433042665373,0.918190305223896,0.919616021822799,0.918973930002874,0.921045979293546,0.921390317208714,0.921856122081747,0.922546064604595,0.923565840782888,0.924792555984627,0.925943133831208,0.926525978811822,0.926141232408953,0.924395273338857,0.921861031002529,0.919878178952693,0.918077973099545,0.912485123075982,0.895770788272366,0.885229000311718,0.885768371972124,0.885118958733764,0.885063143475023,0.885775742285973,0.887316417043743,0.889580239943871,0.892333357651494,0.895223302727126,0.897911571585462,0.898234912374864,0.898316254779942,0.901105171894991,0.90088081082223,0.900505101502682,0.899268342299198,0.898783520407949,0.895812975671654,0.894443794710026,0.89209537762752,0.893361590928319,0.900809510002226,0.905267242576701,0.909936568241974,0.914916400733341,0.912788855799872,0.912478382404106,0.911457324057216,0.910981956660878,0.911078914073355,0.910778771614706,0.910666905937816,0.910586399847266,0.910237264997722,0.91024327559491,0.91042814569633,0.910623661394194,0.910652638110365,0.910521463726729,0.912049414702577,0.913482493587183,0.914288780109689,0.914978504150745,0.916367638535564,0.917232459870523,0.919023363831352,0.923001389778624,0.924681693561851,0.926218638257758,0.927185266533457,0.92793052354822,0.927898923074833,0.92766703457301,0.92856235799619,0.929225530747155,0.930338502062933,0.931435524998271,0.933640601373516,0.935778436392898,0.937970816517249,0.939706998843971,0.941042080827329,0.942039059326383,0.942798439283955,0.943386765345753,0.943626681533524,0.943497211736592,0.942641111329395,0.942397589258228,0.942203179217787,0.940112792290429,0.939098200848576,0.9387865498988,0.939146356080194,0.940532257950842,0.943013059229325,0.945888744989724,0.947352021387736,0.948065921005084,0.950165748892002,0.951397940922568,0.952215650259712,0.954620488351494,0.956035768878959,0.957566403577915,0.958497968420997,0.959695762758759,0.959587503845039,0.959813492971464,0.95973106000092,0.960127252212446,0.960960605508757,0.962986463291426,0.964778965263139,0.965550481729474
0.964215873567799,0.961259790043385,0.958376332766903,0.960514827536426,0.962734279509109,0.958377240104602,0.954067210465735,0.953854708249841,0.954690770942566,0.954411377443816,0.955314573051255,0.95475125160528,0.953701147671483,0.955509196215558,0.954605214818448,0.963060430148237,0.963739483097545,0.961638966322703,0.95929700513428,0.96151035702931,0.963641128080261,0.961922994046844,0.957054653396558,0.959075411017783,0.957898955399695,0.968713833598074,0.970020140008638,0.96618749345979,0.946380226854707,0.946178922184974,0.946169248616392,0.945300595901196,0.94559443456218,0.946515757905127,0.946702843282216,0.944812271728437,0.943110819333838,0.942094480265432,0.942757564076523,0.935996362473162,0.926836121432109,0.927482994975464,0.928463450593191,0.927714227919583,0.927856784392301,0.927227982913417,0.928177775955741,0.93401215842874,0.965158999921421,0.942119138732564,0.937550322152815,0.915656614972029,0.915618799827821,0.916228257452888,0.917897141344917,0.918364945337315,0.925789570575186,0.92377882627831,0.925917260689952,0.92568446313253,0.928530744115595,0.930807193270668,0.932347765287895,0.933504669816392,0.936080031885859,0.92620496182114,0.925777894230279,0.926911400074001,0.930000646046534,0.920910379693991,0.917918606938374,0.918710305659366,0.904177548192923,0.897224183027906,0.875897586812084,0.877154483826748,0.877453988098882,0.878604570009041,0.878984493531765,0.880308671949194,0.8806456187474,0.881574246494257,0.880934158584408,0.882598834537156,0.881988382225616,0.894238219887112,0.903373006693405,0.902201746647398,0.90203316683328,0.899781443941223,0.902307010805997,0.8941887749455,0.883911514038043,0.886772120320661,0.882692173591861,0.907672392820999,0.917854350053746,0.919107407574883,0.920133738673363,0.921474072224635,0.921766676706702,0.912127637676611,0.911924101544703,0.912190455519846,0.912611191972663,0.912019256970126,0.91220362637359,0.911178657023151,0.910403184657529,0.91105509258039,0.911524447141934,0.911961343965831,0.91205479761064,0.914603026334903,0.917640240403029,0.91702610214676,0.917026911785248,0.919274960760078,0.930688617397737,0.929262681790842,0.927688041765613,0.92772494251305,0.928328927031613,0.929682551871433,0.931108842218007,0.930294852186048,0.92881454621852,0.930674693004129,0.931173786171562,0.932725664621444,0.932950014918379,0.93647649856818,0.939585207870197,0.940413732842647,0.941865877554396,0.942462378701516,0.943234408295943,0.943839185303282,0.944346143529769,0.945063361550963,0.94571217885923,0.945606744466528,0.946132515331392,0.944748546058171,0.942184097364375,0.940576780881716,0.940512222816089,0.94030158075514,0.941453053067977,0.943629133003068,0.945970041099785,0.94877105763892,0.949654005602724,0.950900883278911,0.951794708102882,0.953359368898392,0.955606752976075,0.957126458505021,0.95890437599038,0.959504604146183,0.960761198494733,0.96020476939867,0.959460967242086,0.960639827682484,0.961011472656856,0.963267316219613,0.966378620625181,0.966568543676088,0.966446208173826
0.969509705876728,0.970520182369509,0.971548971321204,0.972469521978574,0.973181683933953,0.97356753186642,0.973478039155265,0.972790708625908,0.971497665898049,0.969745398002619,0.967792381886738,0.965922162968568,0.964370993503443,0.963297909962165,0.962787067341012,0.962858271579969,0.963264233352715,0.963380347282048,0.963656533715778,0.964038707524454,0.964459584334362,0.965018362014706,0.967099597218678,0.968347260653128,0.969157885520066,0.969441533751822,0.969377830319426,0.967588073936784,0.963473088457135,0.960812548050225,0.956620155957885,0.954415505272458,0.952691230769689,0.94994968680318,0.948520499053563,0.945635105380439,0.94380264165124,0.94278347100547,0.94250165203983,0.940142819403945,0.926854542644766,0.927360382455509,0.927949705141543,0.928187548135824,0.928414267929045,0.9346951025639,0.939942847838836,0.945174608220271,0.949859081074025,0.945917750181107,0.923049298390231,0.915346480875069,0.915629022742447,0.915640426266722,0.917711371326905,0.919405892680581,0.921714448730777,0.923539944813306,0.923793743528447,0.924585885855747,0.926394819802474,0.931501805492786,0.932000649527594,0.931902985648537,0.92981588824288,0.926564832783097,0.925194030044213,0.925466552598784,0.92554163205581,0.92266245536228,0.920903813519106,0.920507606610783,0.902273033188296,0.898704997582028,0.877031038632157,0.878224580656538,0.878338703051223,0.879374385090968,0.879920469444806,0.881320352819706,0.882734065249125,0.883228560570531,0.883545286485276,0.885023556019437,0.887127031819799,0.890288388454464,0.890407378243831,0.891294456450039,0.89302658066955,0.895306996545012,0.893690457221544,0.892633865853988,0.88954811653149,0.899092682328707,0.907078416214157,0.911286234023081,0.918633346329039,0.919406747915045,0.920610708201027,0.922367671005922,0.922205142573982,0.913011083750347,0.913115333402698,0.913285618201545,0.913129415991256,0.913077725254916,0.912773755111631,0.912387687875648,0.911676200137707,0.912423611220908,0.913145999359354,0.91395433939565,0.915345259424907,0.9166396475352,0.918730022747744,0.921983516750332,0.923096756274252,0.924635068813227,0.928354126960507,0.929167121641645,0.929249594033272,0.929788568818572,0.93080702710789,0.931804770335337,0.932979213299141,0.933213150918578,0.934274549029436,0.934129689450611,0.93437239047238,0.936552340894443,0.939312018805758,0.940057691902757,0.941762088777129,0.942863529829201,0.943722144488993,0.94448251304776,0.944789273209125,0.945534934287624,0.945895301405234,0.946789210121201,0.947417393520065,0.947945786802061,0.948418091847119,0.948587540336148,0.950276442896098,0.950968627652958,0.951473239440357,0.952033540889022,0.952325569849638,0.952744846570731,0.952553908850232,0.951992381409263,0.952540413531866,0.952680949563399,0.953399327489247,0.95400215775204,0.955678614117843,0.957859550325736,0.958563012297678,0.959494514214891,0.96026973476782,0.960720281160818,0.961157170715839,0.962082607669412,0.96315217930669,0.964604399266637,0.966433086071262,0.967375167318408,0.968285755736178
0.981502785900008,0.980781317095128,0.980121754722936,0.978431789427191,0.976792442450231,0.97936005550901,0.98197096872416,0.991491021841834,0.996894497014319,0.991501473545824,0.989114212445808,0.986771562254112,0.983559813449491,0.983960625167377,0.990463429068407,0.989000205385712,0.989436426633636,0.98795737667915,0.987167573928408,0.96888654610695,0.96517107581565,0.966704530176052,0.96828067470052,0.969247297780329,0.969942421175701,0.970451507702685,0.970451294088394,0.969485594403122,0.969468271466045,0.962045498766119,0.954740474492811,0.954303168294824,0.954056169376297,0.951931746349304,0.952016409031203,0.9542426047343,0.956570374580455,0.955742404873576,0.977605999862828,0.9427415082127,0.926312672978809,0.927079759084939,0.927486390240396,0.92828364484039,0.928778328844276,0.941143202601635,0.95432938675832,0.953839108625338,0.954778477513085,0.948542162735678,0.915478702447605,0.915173312574427,0.90647671826242,0.911591562078431,0.887833992375296,0.905966497931248,0.907066318970423,0.924623607945119,0.921176615892654,0.922740723280163,0.90207799999815,0.937269528583987,0.96718899976795,0.940551995364085,0.902154999997287,0.924721851699706,0.922789484770725,0.92406382577037,0.923887652861842,0.923062059459565,0.922469117974199,0.922024088343542,0.900145701465136,0.900176014605498,0.87094197778666,0.880471296794327,0.897485315594238,0.880600838905084,0.87994893749388,0.882353456121734,0.885788973102533,0.885242715499671,0.885078044318467,0.886932541418352,0.888969795594805,0.889724897659595,0.865441999996446,0.888962392367821,0.881271179986928,0.894941983301349,0.893350620303506,0.893212255590459,0.886447634481418,0.905723153734808,0.921785688593883,0.923220489495479,0.932252970560851,0.928763538472665,0.928280955907631,0.925059417165657,0.939663999606309,0.913843335789979,0.914371955499078,0.914142378438513,0.913720588584951,0.913837191735041,0.913746945792224,0.913461026253968,0.951003000001765,0.913487927811326,0.915069564449216,0.915151494492892,0.932165889932493,0.923253832635469,0.929077027127345,0.926369916172716,0.93034067859356,0.928027875036135,0.928886981886998,0.929757565192884,0.93009693881776,0.931463561139714,0.932983944317758,0.933972360108708,0.935550469688386,0.935548865964079,0.936687347066252,0.937199012273514,0.940118126776818,0.939705456724745,0.941945604265528,0.942495547578808,0.94518988174208,0.944996304671359,0.94653703200938,0.946336119132866,0.946628278842183,0.947144260724646,0.947352208094463,0.948501346315602,0.949352780424182,0.95025309507167,0.951046695868172,0.951247939600969,0.951780970549312,0.953078715651597,0.953282759269966,0.954119765773027,0.953914363934017,0.954125264001135,0.954790687263292,0.95460163321128,0.955699450917322,0.95860321856956,0.962267308716265,0.962739425924858,0.964247431649384,0.960500557662245,0.957912180209977,0.95979007948908,0.959920583638382,0.961537721499539,0.962153474037474,0.963640088631356,0.964710364357934,0.965726825695681,0.967308705975045,0.968258230669706,0.969898660210964
