0.817776, 0.818401, 0.832698, 0.816087, 0.824939, 0.819696, 0.819545, 0.81529, 0.821948, 0.815788, 0.817399, 0.819149, 0.819206, 0.815813, 0.811141, 0.813303, 0.809279, 0.808506, 0.812007, 0.79933, 0.812582, 0.81133, 0.806743, 0.80823, 0.817904, 0.808638, 0.808962, 0.808202, 0.818967, 0.817768, 0.809845, 0.810425, 0.810879, 0.810889, 0.834441, 0.815996, 0.815907, 0.82233, 0.812025, 0.809772, 0.810235, 0.80958, 0.809887, 0.810975, 0.808588, 0.807405, 0.804415, 0.803538, 0.802574, 0.801548, 0.798387, 0.801418, 0.801587, 0.80043, 0.816706, 0.804653, 0.79743, 0.811266, 0.798087, 0.799348, 0.801347, 0.804173, 0.803287, 0.803338, 0.804469, 0.805645, 0.804254, 0.80562, 0.807879, 0.804333, 0.805265, 0.815744, 0.804847, 0.807215, 0.80605, 0.805771, 0.805948, 0.811661, 0.805414, 0.80697, 0.806566, 0.806234, 0.806725, 0.835968, 0.932793, 0.933705, 0.934672, 0.934981, 0.935073, 0.937975, 0.805849, 0.805086, 0.806435, 0.806401, 0.832942, 0.804591, 0.803024, 0.802685, 0.801274, 0.800457, 0.800594, 0.800759, 0.802077, 0.803529, 0.803071, 0.803135, 0.801285, 0.800836, 0.80249, 0.800761, 0.799941, 0.79877, 0.796096, 0.794994, 0.795214, 0.794501, 0.794647, 0.807943, 0.796461, 0.795629, 0.796351, 0.814154, 0.798863, 0.793205, 0.797661, 0.794091, 0.798652, 0.801008, 0.798181, 0.801161, 0.79891, 0.798171, 0.807692, 0.808394, 0.808168, 0.798167, 0.806328, 0.810846, 0.811431, 0.811734, 0.79915, 0.804044, 0.825596, 0.797884, 0.796654, 0.797859, 0.797349, 0.797516, 0.805495, 0.797141, 0.800583, 0.801569, 0.809979, 0.800923, 0.800464, 0.797786, 0.796912, 0.798722, 0.805438, 0.797872, 0.798646, 0.796693, 0.794881, 0.794734, 0.807703, 0.794708, 0.801046, 0.801514, 0.794441, 0.797634, 0.798145, 0.798328, 0.795973, 0.801385, 0.794199, 0.80174, 0.793849, 0.794834, 0.793512, 0.797997, 0.798164, 0.798677, 0.796212, 0.804249, 0.805468, 0.804871, 0.802488, 0.795836, 0.805037, 0.794327, 0.794641, 0.805582, 0.79542, 0.801308, 0.801529, 0.811932, 0.79229, 0.791597, 0.794315, 0.798197, 0.801229, 0.793458, 0.801532, 0.811202, 0.802511, 0.805136, 0.801212, 0.798657, 0.813886, 0.815955, 0.804224, 0.802478, 0.80077, 0.798572, 0.797879, 0.80143, 0.798803, 0.805601, 0.804566, 0.805429, 0.805748, 0.821338, 0.808308, 0.808613, 0.80934, 0.809633, 0.809391, 0.801343, 0.803239, 0.803446, 0.800305, 0.799086, 0.791457, 0.800878, 0.791913, 0.788708, 0.789485, 0.788248, 0.786567, 0.78711, 0.785495, 0.784067, 0.782985, 0.768982, 0.768216, 0.763816, 0.746557, 0.752918, 0.746327, 0.748831, 0.755324, 0.766106, 0.763507, 0.751256, 0.769173, 0.768424, 0.784764, 0.787563, 0.787782, 0.787066, 0.801115, 0.863616, 0.858514, 0.858649, 0.859184, 0.844026, 1.24454, 1.27042, 1.22616, 1.23662, 1.23237, 1.27849, 0.946679, 0.946734, 0.933151, 0.901546, 0.922941, 0.832129, 0.833166, 0.853999, 0.809579, 0.807382, 0.791211, 0.789577, 0.779888, 0.778658, 0.787696, 0.789294, 0.78373, 0.77975, 0.779069, 0.787727, 0.789296, 0.790408, 0.791341, 0.788803, 0.787071, 0.805574, 0.793096, 0.792514, 0.788968, 0.789908, 0.790803
0.817709, 0.818076, 0.817579, 0.819405, 0.818085, 0.817633, 0.820625, 0.820815, 0.817582, 0.827708, 0.825649, 0.810752, 0.811657, 0.808781, 0.813438, 0.812744, 0.808014, 0.807902, 0.794577, 0.794445, 0.807696, 0.811951, 0.806556, 0.81479, 0.812348, 0.811716, 0.814066, 0.817945, 0.815092, 0.814615, 0.813296, 0.812649, 0.811669, 0.816327, 0.818434, 0.821226, 0.813843, 0.821342, 0.821576, 0.820161, 0.815511, 0.813271, 0.821508, 0.803833, 0.802389, 0.803998, 0.81254, 0.805386, 0.807622, 0.808517, 0.811694, 0.798046, 0.800015, 0.795285, 0.803298, 0.803504, 0.797988, 0.797735, 0.798376, 0.798637, 0.807913, 0.801592, 0.801414, 0.800908, 0.807483, 0.806682, 0.807678, 0.826222, 0.806913, 0.805333, 0.804984, 0.805203, 0.803743, 0.804848, 0.812963, 0.803766, 0.811619, 0.829216, 0.806261, 0.805061, 0.804565, 0.822086, 0.816003, 0.829696, 0.941365, 0.94241, 0.957178, 0.951096, 0.938552, 0.938552, 0.963838, 0.933212, 0.831936, 0.815379, 0.82098, 0.803347, 0.803849, 0.802206, 0.802336, 0.802385, 0.802124, 0.800877, 0.801229, 0.800983, 0.812587, 0.800457, 0.800577, 0.811297, 0.853144, 0.798748, 0.798882, 0.796563, 0.795142, 0.794505, 0.804361, 0.792624, 0.793567, 0.792871, 0.791815, 0.801005, 0.801454, 0.808323, 0.814731, 0.792777, 0.797078, 0.795592, 0.795962, 0.794107, 0.795927, 0.804268, 0.799249, 0.814416, 0.817426, 0.807045, 0.80087, 0.765422, 0.76567, 0.805335, 0.809768, 0.812268, 0.813003, 0.814674, 0.814835, 0.804549, 0.805158, 0.795418, 0.796271, 0.79631, 0.798425, 0.798477, 0.807646, 0.799901, 0.798254, 0.799481, 0.80017, 0.799281, 0.798949, 0.825972, 0.79832, 0.800669, 0.796519, 0.798281, 0.800505, 0.800811, 0.80477, 0.793898, 0.79435, 0.797808, 0.790043, 0.79245, 0.79557, 0.808108, 0.797405, 0.794906, 0.796439, 0.798133, 0.796536, 0.794907, 0.802134, 0.791696, 0.794153, 0.794329, 0.793248, 0.793764, 0.79553, 0.795986, 0.797103, 0.808587, 0.797841, 0.799763, 0.804655, 0.794932, 0.79335, 0.796139, 0.795916, 0.794794, 0.795134, 0.797975, 0.794971, 0.798956, 0.80123, 0.800543, 0.801386, 0.804825, 0.808077, 0.799817, 0.802377, 0.804719, 0.801839, 0.812679, 0.802392, 0.818432, 0.81651, 0.807145, 0.808833, 0.809616, 0.801251, 0.802076, 0.808214, 0.800803, 0.801143, 0.805132, 0.807603, 0.808432, 0.79989, 0.795417, 0.796385, 0.795999, 0.79853, 0.800241, 0.7957, 0.792687, 0.792712, 0.7935, 0.792505, 0.790413, 0.791933, 0.793196, 0.793757, 0.795823, 0.797334, 0.78786, 0.78573, 0.756759, 0.742315, 0.749846, 0.751052, 0.750872, 0.782481, 0.731618, 0.734852, 0.737823, 0.738979, 0.738175, 0.77108, 0.777588, 0.776132, 0.770542, 0.764177, 0.785306, 0.785358, 0.813122, 0.871514, 0.836654, 0.838347, 0.83157, 1.18492, 1.18493, 1.19588, 1.19522, 1.17744, 0.949881, 0.931779, 0.932457, 0.97444, 0.974314, 0.847362, 0.837881, 0.859172, 0.857623, 0.82005, 0.819977, 0.804863, 0.804493, 0.786929, 0.786869, 0.777054, 0.777906, 0.775992, 0.787373, 0.781529, 0.791408, 0.792397, 0.795882, 0.79204, 0.791075, 0.789835, 0.792402, 0.797797, 0.797634, 0.798194, 0.79986, 0.795881
0.822456, 0.829112, 0.820611, 0.818768, 0.819729, 0.821072, 0.843507, 0.815688, 0.814762, 0.814522, 0.811374, 0.818635, 0.818018, 0.817218, 0.824229, 0.81155, 0.812863, 0.815437, 0.81238, 0.811221, 0.793116, 0.812017, 0.829484, 0.817723, 0.811475, 0.807475, 0.825049, 0.826289, 0.818301, 0.821404, 0.808312, 0.810762, 0.814637, 0.811709, 0.812225, 0.813086, 0.816945, 0.824349, 0.82464, 0.81395, 0.812121, 0.816176, 0.804289, 0.807929, 0.80234, 0.806111, 0.804424, 0.800321, 0.802158, 0.801601, 0.797327, 0.802441, 0.798204, 0.803359, 0.794785, 0.796068, 0.796179, 0.798154, 0.798795, 0.799073, 0.800359, 0.804933, 0.805025, 0.807546, 0.802621, 0.809139, 0.808937, 0.811991, 0.80526, 0.805699, 0.804042, 0.803855, 0.804468, 0.805407, 0.802615, 0.802197, 0.802456, 0.803112, 0.806361, 0.80485, 0.804617, 0.806662, 0.845187, 0.805826, 0.805897, 0.806123, 0.807835, 0.826519, 0.827099, 0.828893, 0.828728, 0.819633, 0.808052, 0.804981, 0.803746, 0.803488, 0.803287, 0.83382, 0.803155, 0.802748, 0.803696, 0.804628, 0.811716, 0.805193, 0.804016, 0.804008, 0.794664, 0.794298, 0.797842, 0.796267, 0.795052, 0.79535, 0.80174, 0.790606, 0.794831, 0.802459, 0.792234, 0.795616, 0.795194, 0.795153, 0.795223, 0.794593, 0.795225, 0.796055, 0.805444, 0.803747, 0.795602, 0.795899, 0.802957, 0.821797, 0.798872, 0.800971, 0.799414, 0.804526, 0.736152, 0.736623, 0.737158, 0.771179, 0.771973, 0.771961, 0.812074, 0.811154, 0.80141, 0.800195, 0.797996, 0.7936, 0.793768, 0.80093, 0.796237, 0.798536, 0.797775, 0.798308, 0.800956, 0.796673, 0.796898, 0.798061, 0.798224, 0.809262, 0.795527, 0.797261, 0.797657, 0.800001, 0.801175, 0.802188, 0.80024, 0.792691, 0.793507, 0.792037, 0.794199, 0.803363, 0.795952, 0.805721, 0.793716, 0.794754, 0.797223, 0.800896, 0.798958, 0.794857, 0.795969, 0.795829, 0.794018, 0.797751, 0.79546, 0.793782, 0.797176, 0.792201, 0.801227, 0.80135, 0.800866, 0.804157, 0.80503, 0.800816, 0.800778, 0.793785, 0.800313, 0.818587, 0.807157, 0.806387, 0.804839, 0.803668, 0.809314, 0.807947, 0.799347, 0.799978, 0.803803, 0.800232, 0.803794, 0.80539, 0.802162, 0.801759, 0.811629, 0.812431, 0.812348, 0.814006, 0.804175, 0.803834, 0.815753, 0.804347, 0.802449, 0.812813, 0.815643, 0.798188, 0.798584, 0.797737, 0.797838, 0.796567, 0.804106, 0.818071, 0.79746, 0.797968, 0.799152, 0.79623, 0.794627, 0.793347, 0.79065, 0.789117, 0.786696, 0.787539, 0.787647, 0.792041, 0.784915, 0.785374, 0.784923, 0.760313, 0.759957, 0.740526, 0.747825, 0.743745, 0.753591, 0.741978, 0.742858, 0.744665, 0.744729, 0.7697, 0.763629, 0.763117, 0.74437, 0.74335, 0.773769, 0.774535, 0.77468, 0.809156, 0.831079, 0.831103, 0.831817, 1.25323, 1.2313, 1.17814, 1.1784, 1.17898, 1.18126, 1.18186, 0.97117, 0.936585, 0.937233, 0.914783, 0.856295, 0.828611, 0.829177, 0.820084, 0.813397, 0.809318, 0.802182, 0.778556, 0.777252, 0.773926, 0.770897, 0.764698, 0.794872, 0.787786, 0.781286, 0.781774, 0.790855, 0.788237, 0.790681, 0.789061, 0.788234, 0.789611, 0.792273, 0.794122, 0.788191, 0.788862, 0.787887
0.821507, 0.838075, 0.820899, 0.821456, 0.821313, 0.820024, 0.81953, 0.819164, 0.81539, 0.815741, 0.817167, 0.805182, 0.813214, 0.814685, 0.815061, 0.810095, 0.811548, 0.809269, 0.808605, 0.812154, 0.824896, 0.818187, 0.81752, 0.818153, 0.810866, 0.813448, 0.815812, 0.814938, 0.813944, 0.813317, 0.814913, 0.815884, 0.813604, 0.814236, 0.812196, 0.826946, 0.827441, 0.828204, 0.817803, 0.820027, 0.817053, 0.811393, 0.802118, 0.800918, 0.801111, 0.809639, 0.802564, 0.798733, 0.799042, 0.800332, 0.798897, 0.798917, 0.79828, 0.802405, 0.795596, 0.802823, 0.79532, 0.800242, 0.799404, 0.799832, 0.801369, 0.808295, 0.803381, 0.803046, 0.817299, 0.804464, 0.80465, 0.823386, 0.818441, 0.804522, 0.804406, 0.804253, 0.813345, 0.815625, 0.822992, 0.805629, 0.80429, 0.804274, 0.806964, 0.805232, 0.80485, 0.821646, 0.807516, 0.807014, 0.806651, 0.806397, 0.807065, 0.80688, 0.806796, 0.806264, 0.804913, 0.805491, 0.804943, 0.805193, 0.805311, 0.80801, 0.804963, 0.805141, 0.804835, 0.805805, 0.81529, 0.802356, 0.801244, 0.797885, 0.796266, 0.796409, 0.796336, 0.795095, 0.801979, 0.794563, 0.797773, 0.799124, 0.800313, 0.804194, 0.8018, 0.80443, 0.794941, 0.804241, 0.797555, 0.798602, 0.79484, 0.79626, 0.805018, 0.797054, 0.797329, 0.798882, 0.799072, 0.799241, 0.800649, 0.800106, 0.799671, 0.805196, 0.802509, 0.809004, 0.803253, 0.745297, 0.733389, 0.732186, 0.802237, 0.804228, 0.805317, 0.818235, 0.80842, 0.821978, 0.819636, 0.812888, 0.795535, 0.815737, 0.812608, 0.796326, 0.795388, 0.799468, 0.800745, 0.802963, 0.791546, 0.791987, 0.802728, 0.80109, 0.797838, 0.797497, 0.807365, 0.798177, 0.799517, 0.802455, 0.802195, 0.804584, 0.801008, 0.801948, 0.800312, 0.801726, 0.797221, 0.797055, 0.800202, 0.796254, 0.797147, 0.797437, 0.798206, 0.795241, 0.797317, 0.795662, 0.797519, 0.796606, 0.797209, 0.802983, 0.800501, 0.801162, 0.804822, 0.80099, 0.800886, 0.797113, 0.793925, 0.812193, 0.796878, 0.797929, 0.804804, 0.805589, 0.808364, 0.805857, 0.804553, 0.810988, 0.803731, 0.80236, 0.801621, 0.800077, 0.80876, 0.804348, 0.802969, 0.802037, 0.808354, 0.805389, 0.808186, 0.809094, 0.803323, 0.815484, 0.816093, 0.805185, 0.806177, 0.811747, 0.805051, 0.804064, 0.803619, 0.80405, 0.811973, 0.802389, 0.800972, 0.803825, 0.796112, 0.797943, 0.801686, 0.795814, 0.794813, 0.790971, 0.792842, 0.792296, 0.793357, 0.783315, 0.790849, 0.793197, 0.79111, 0.79116, 0.790809, 0.78154, 0.779906, 0.773803, 0.760298, 0.758556, 0.759191, 0.759958, 0.754803, 0.746335, 0.748614, 0.743735, 0.744164, 0.745486, 0.74626, 0.745883, 0.742056, 0.762944, 0.761754, 0.761424, 0.77735, 0.775606, 0.814305, 0.829807, 0.835666, 1.20943, 1.17859, 1.17134, 1.16986, 1.16226, 1.16468, 1.04208, 1.01139, 0.977053, 0.929667, 0.849693, 0.85701, 0.82214, 0.822176, 0.840138, 0.821822, 0.787848, 0.789156, 0.79039, 0.791036, 0.782381, 0.764673, 0.771378, 0.768335, 0.779912, 0.780809, 0.788372, 0.778196, 0.790666, 0.789906, 0.79109, 0.793014, 0.78867, 0.794689, 0.790566, 0.790539, 0.795142, 0.785973
0.845888, 0.835043, 0.834796, 0.822131, 0.831273, 0.833213, 0.81966, 0.81949, 0.815543, 0.814329, 0.811209, 0.826053, 0.81904, 0.821847, 0.812677, 0.818161, 0.815739, 0.809983, 0.81227, 0.813015, 0.817736, 0.826331, 0.81817, 0.818821, 0.811534, 0.812747, 0.814876, 0.814796, 0.818301, 0.813197, 0.815772, 0.816296, 0.816135, 0.819408, 0.816283, 0.815309, 0.815959, 0.819684, 0.811355, 0.811307, 0.811778, 0.804367, 0.802715, 0.80135, 0.802684, 0.808181, 0.800811, 0.798238, 0.796278, 0.79599, 0.797317, 0.816745, 0.800839, 0.796122, 0.797395, 0.797821, 0.797407, 0.798578, 0.798226, 0.80123, 0.798859, 0.804047, 0.80109, 0.816698, 0.815949, 0.798518, 0.802699, 0.805441, 0.80526, 0.804737, 0.805165, 0.804232, 0.80422, 0.804818, 0.826588, 0.80352, 0.811011, 0.806273, 0.806773, 0.806661, 0.806984, 0.807942, 0.806764, 0.806715, 0.807473, 0.820099, 0.805949, 0.805245, 0.809267, 0.808343, 0.807518, 0.806056, 0.805881, 0.805447, 0.804814, 0.805275, 0.806148, 0.808201, 0.804946, 0.805549, 0.802083, 0.800961, 0.79876, 0.799764, 0.803578, 0.794068, 0.803993, 0.804854, 0.796114, 0.794955, 0.79751, 0.799561, 0.799391, 0.803965, 0.799644, 0.80803, 0.800708, 0.808191, 0.808343, 0.807734, 0.807074, 0.798529, 0.798632, 0.79928, 0.801632, 0.801458, 0.801963, 0.800627, 0.800592, 0.800865, 0.815522, 0.806631, 0.807377, 0.806522, 0.802328, 0.812175, 0.810974, 0.805476, 0.805699, 0.807909, 0.811067, 0.813186, 0.800063, 0.804341, 0.802143, 0.802175, 0.802099, 0.798452, 0.796322, 0.796775, 0.79744, 0.797305, 0.799786, 0.800237, 0.800375, 0.800419, 0.795861, 0.796873, 0.801485, 0.799819, 0.82621, 0.800272, 0.800312, 0.815957, 0.79882, 0.79914, 0.800253, 0.799608, 0.801053, 0.796003, 0.796915, 0.800533, 0.801029, 0.796879, 0.804497, 0.804093, 0.805757, 0.798166, 0.794571, 0.79467, 0.787875, 0.786925, 0.801722, 0.802426, 0.794098, 0.795101, 0.797451, 0.797006, 0.792882, 0.806916, 0.803599, 0.802583, 0.812006, 0.813194, 0.814092, 0.810383, 0.814792, 0.81359, 0.815533, 0.813422, 0.815619, 0.819225, 0.821932, 0.814937, 0.802608, 0.804376, 0.803704, 0.817956, 0.812714, 0.806247, 0.807158, 0.809304, 0.809215, 0.809152, 0.809651, 0.810543, 0.812775, 0.815058, 0.799456, 0.798369, 0.803087, 0.802796, 0.815195, 0.804421, 0.804985, 0.807052, 0.817163, 0.801457, 0.801594, 0.793526, 0.795724, 0.793273, 0.795512, 0.787727, 0.789743, 0.785685, 0.791466, 0.788046, 0.786761, 0.783524, 0.779963, 0.781758, 0.764279, 0.766438, 0.765797, 0.751988, 0.766851, 0.746914, 0.758176, 0.749002, 0.749293, 0.765412, 0.747899, 0.738311, 0.738738, 0.746233, 0.746486, 0.745253, 0.752116, 0.753292, 0.760949, 0.753269, 0.774343, 0.77505, 0.787422, 0.832786, 1.27112, 1.27547, 1.27719, 1.21731, 1.21656, 1.04799, 1.05036, 0.907983, 0.909247, 0.842168, 0.860022, 0.809888, 0.815443, 0.80143, 0.800723, 0.815444, 0.805356, 0.783446, 0.791306, 0.768252, 0.7817, 0.786184, 0.78672, 0.775546, 0.794306, 0.794101, 0.791608, 0.791715, 0.798894, 0.791512, 0.794288, 0.792079, 0.791548, 0.790955, 0.794751, 0.796265, 0.792538
0.832789, 0.825002, 0.824346, 0.824342, 0.82272, 0.823325, 0.819716, 0.824602, 0.825209, 0.825772, 0.816139, 0.832742, 0.83296, 0.815216, 0.817439, 0.815025, 0.824755, 0.82108, 0.815963, 0.814726, 0.819092, 0.818269, 0.812201, 0.812252, 0.819798, 0.816014, 0.815544, 0.815721, 0.813397, 0.812236, 0.811183, 0.820043, 0.815285, 0.811049, 0.812541, 0.808904, 0.815242, 0.80789, 0.807532, 0.808131, 0.816179, 0.804446, 0.804999, 0.803556, 0.803859, 0.799246, 0.790742, 0.789603, 0.796387, 0.800223, 0.800771, 0.794034, 0.798468, 0.793163, 0.792023, 0.80074, 0.801066, 0.800867, 0.801537, 0.800367, 0.808254, 0.800448, 0.802101, 0.802049, 0.824291, 0.80697, 0.805915, 0.805059, 0.804516, 0.803885, 0.80412, 0.804397, 0.811889, 0.815265, 0.817911, 0.805709, 0.806573, 0.807428, 0.80514, 0.807328, 0.807154, 0.806998, 0.807105, 0.806796, 0.807534, 0.807925, 0.807614, 0.812145, 0.824702, 0.821349, 0.807495, 0.806045, 0.806202, 0.806246, 0.805365, 0.805393, 0.805364, 0.811923, 0.812961, 0.804293, 0.802892, 0.802916, 0.800278, 0.800048, 0.798349, 0.79956, 0.812671, 0.800927, 0.801891, 0.812182, 0.799419, 0.798985, 0.798324, 0.805298, 0.800775, 0.799371, 0.799878, 0.80345, 0.802069, 0.807966, 0.801625, 0.821159, 0.805146, 0.811955, 0.811862, 0.811384, 0.802914, 0.802191, 0.840513, 0.843184, 0.828544, 0.809336, 0.800669, 0.812178, 0.804407, 0.806118, 0.805597, 0.804947, 0.803644, 0.804077, 0.807039, 0.805214, 0.804802, 0.807346, 0.80924, 0.797168, 0.801302, 0.797369, 0.80703, 0.79524, 0.812464, 0.797585, 0.797072, 0.800021, 0.798599, 0.797664, 0.799047, 0.799283, 0.799597, 0.799483, 0.800462, 0.800505, 0.798729, 0.800557, 0.800517, 0.800482, 0.800446, 0.800653, 0.801104, 0.800579, 0.795742, 0.797942, 0.798454, 0.801304, 0.797403, 0.79661, 0.793551, 0.812088, 0.807446, 0.796776, 0.79853, 0.798109, 0.795517, 0.795013, 0.801254, 0.800206, 0.800761, 0.811501, 0.801988, 0.801499, 0.804359, 0.804332, 0.807335, 0.805614, 0.811833, 0.809663, 0.817219, 0.818365, 0.83119, 0.833215, 0.818041, 0.833543, 0.807426, 0.818512, 0.802683, 0.802258, 0.822656, 0.80321, 0.801103, 0.802046, 0.800609, 0.807336, 0.807714, 0.80234, 0.805344, 0.807808, 0.807431, 0.800646, 0.800496, 0.804279, 0.81465, 0.815538, 0.804232, 0.805427, 0.800745, 0.799774, 0.797872, 0.79953, 0.798258, 0.797166, 0.794848, 0.794114, 0.79127, 0.79378, 0.790903, 0.790925, 0.787557, 0.785801, 0.793709, 0.789276, 0.786821, 0.785249, 0.783838, 0.774675, 0.7678, 0.74735, 0.747013, 0.736596, 0.737017, 0.766644, 0.75451, 0.754089, 0.750525, 0.760243, 0.74662, 0.752968, 0.753136, 0.759847, 0.760416, 0.76543, 0.765979, 0.756678, 0.769737, 0.774571, 0.820328, 0.831803, 0.833974, 1.3063, 1.30614, 1.30682, 1.30653, 1.1508, 1.09367, 1.09243, 0.855506, 0.838469, 0.839787, 0.816305, 0.808167, 0.805361, 0.797846, 0.808988, 0.809267, 0.792292, 0.766448, 0.767274, 0.794757, 0.780685, 0.790632, 0.785115, 0.784458, 0.793943, 0.79732, 0.797437, 0.795998, 0.802109, 0.79454, 0.799468, 0.793748, 0.793585, 0.790727, 0.791376, 0.791725
0.822956, 0.825409, 0.826123, 0.826857, 0.822873, 0.821882, 0.83626, 0.836023, 0.82352, 0.823914, 0.823048, 0.822335, 0.836725, 0.817042, 0.816533, 0.815877, 0.815664, 0.813292, 0.81299, 0.812447, 0.813689, 0.813182, 0.818663, 0.812188, 0.825871, 0.817422, 0.818355, 0.808967, 0.81527, 0.825235, 0.812606, 0.811914, 0.811805, 0.811567, 0.813019, 0.812457, 0.811619, 0.808499, 0.805491, 0.805063, 0.806604, 0.806576, 0.806088, 0.798233, 0.805126, 0.803558, 0.800251, 0.798491, 0.797593, 0.797494, 0.796301, 0.796909, 0.79641, 0.796181, 0.796179, 0.795377, 0.795216, 0.791197, 0.795855, 0.800699, 0.804055, 0.773237, 0.776053, 0.80217, 0.802094, 0.799476, 0.803796, 0.801977, 0.803165, 0.803026, 0.803047, 0.804443, 0.804172, 0.803869, 0.804437, 0.805285, 0.808183, 0.806326, 0.809433, 0.808144, 0.807105, 0.815854, 0.808872, 0.807428, 0.807293, 0.804914, 0.804438, 0.815181, 0.806465, 0.828241, 0.806841, 0.805246, 0.806315, 0.819672, 0.807169, 0.807094, 0.805234, 0.807275, 0.807678, 0.80747, 0.806916, 0.802842, 0.803236, 0.804526, 0.798729, 0.798198, 0.798339, 0.797102, 0.8004, 0.800252, 0.799972, 0.809181, 0.800633, 0.801928, 0.804251, 0.80344, 0.803899, 0.804563, 0.799266, 0.79894, 0.799564, 0.802522, 0.801379, 0.809398, 0.809861, 0.810925, 0.828313, 0.819723, 0.813604, 0.81418, 0.826342, 0.829652, 0.818814, 0.829401, 0.8397, 0.810264, 0.811543, 0.81053, 0.811994, 0.810862, 0.818378, 0.81278, 0.813214, 0.812318, 0.797203, 0.797473, 0.798179, 0.804087, 0.799149, 0.799012, 0.800872, 0.829419, 0.799546, 0.821342, 0.799379, 0.798478, 0.80069, 0.799252, 0.817644, 0.79964, 0.799911, 0.800768, 0.800433, 0.801106, 0.800759, 0.80101, 0.81081, 0.80061, 0.800947, 0.80066, 0.812288, 0.80167, 0.8216, 0.80427, 0.806193, 0.80762, 0.807584, 0.795074, 0.795925, 0.796721, 0.79746, 0.79676, 0.801639, 0.796163, 0.805709, 0.801813, 0.806513, 0.807741, 0.814486, 0.808451, 0.804878, 0.809605, 0.812546, 0.810554, 0.805962, 0.821442, 0.821291, 0.820111, 0.825666, 0.828302, 0.804738, 0.819592, 0.8112, 0.804482, 0.804693, 0.803372, 0.802156, 0.814102, 0.81048, 0.811114, 0.808151, 0.811438, 0.801131, 0.803748, 0.819241, 0.818861, 0.807023, 0.808509, 0.805026, 0.800335, 0.800955, 0.800941, 0.800896, 0.807139, 0.807511, 0.800793, 0.807116, 0.804149, 0.802229, 0.796245, 0.795509, 0.784569, 0.785795, 0.786827, 0.788246, 0.789567, 0.793581, 0.784211, 0.788206, 0.791149, 0.78974, 0.790514, 0.783037, 0.755982, 0.756749, 0.765037, 0.732955, 0.747112, 0.746714, 0.77812, 0.759768, 0.768724, 0.756571, 0.750755, 0.749152, 0.756704, 0.756867, 0.770105, 0.783852, 0.784255, 0.75925, 0.766232, 0.775978, 0.772366, 0.790915, 0.819948, 0.843801, 1.27906, 1.3397, 1.33436, 1.33617, 1.23265, 1.23326, 0.852142, 0.852944, 0.852916, 0.827111, 0.81886, 0.818623, 0.808327, 0.812752, 0.803603, 0.793757, 0.775978, 0.773076, 0.773691, 0.767777, 0.774202, 0.787746, 0.790801, 0.791072, 0.794066, 0.79486, 0.795288, 0.801186, 0.793878, 0.794628, 0.794498, 0.796, 0.797508, 0.795588, 0.795533, 0.79497
0.824531, 0.837435, 0.822912, 0.823891, 0.824726, 0.827713, 0.825773, 0.826017, 0.825285, 0.826716, 0.838879, 0.825739, 0.825454, 0.8263, 0.82142, 0.822517, 0.823754, 0.814885, 0.828054, 0.818146, 0.821489, 0.816797, 0.814596, 0.814484, 0.814817, 0.815293, 0.815767, 0.815807, 0.81598, 0.818151, 0.828921, 0.813739, 0.812423, 0.811975, 0.811882, 0.811902, 0.808064, 0.807405, 0.807873, 0.80737, 0.808077, 0.806152, 0.812019, 0.805702, 0.807735, 0.80903, 0.798444, 0.797627, 0.802745, 0.802995, 0.795771, 0.804896, 0.797648, 0.795631, 0.795474, 0.799774, 0.797778, 0.792025, 0.790867, 0.791717, 0.794469, 0.804718, 0.805166, 0.798657, 0.80738, 0.807641, 0.798314, 0.802248, 0.799417, 0.798838, 0.801189, 0.799233, 0.799513, 0.807038, 0.807676, 0.807993, 0.807204, 0.808621, 0.81507, 0.814984, 0.818464, 0.807436, 0.807257, 0.807196, 0.807675, 0.807492, 0.807951, 0.807193, 0.807251, 0.807273, 0.818817, 0.807635, 0.807218, 0.806815, 0.809284, 0.809172, 0.807779, 0.831475, 0.807445, 0.806623, 0.805423, 0.810813, 0.801633, 0.800388, 0.802354, 0.80281, 0.800909, 0.80598, 0.805165, 0.807632, 0.801103, 0.800623, 0.800976, 0.809249, 0.799397, 0.798116, 0.799819, 0.806748, 0.806117, 0.811814, 0.801117, 0.802084, 0.804242, 0.820129, 0.81243, 0.844815, 0.819118, 0.852877, 0.819406, 0.816456, 0.815721, 0.815667, 0.816781, 0.816053, 0.831921, 0.832187, 0.831592, 0.823192, 0.815363, 0.814934, 0.813902, 0.817285, 0.816382, 0.814058, 0.801456, 0.799883, 0.798602, 0.798133, 0.817985, 0.816856, 0.799267, 0.813232, 0.799628, 0.79908, 0.822811, 0.800284, 0.799644, 0.80034, 0.800655, 0.800565, 0.801752, 0.811996, 0.811911, 0.798719, 0.801399, 0.814885, 0.802769, 0.802308, 0.801587, 0.803218, 0.804267, 0.804152, 0.822195, 0.812757, 0.82616, 0.817638, 0.813715, 0.798796, 0.799143, 0.804137, 0.802831, 0.801757, 0.79876, 0.797298, 0.804809, 0.79765, 0.804962, 0.803891, 0.811172, 0.805072, 0.805551, 0.81424, 0.808976, 0.81231, 0.813056, 0.832835, 0.835312, 0.812374, 0.821092, 0.826048, 0.819277, 0.802184, 0.80063, 0.800828, 0.813624, 0.800222, 0.799067, 0.799816, 0.802217, 0.805157, 0.802127, 0.799743, 0.800867, 0.803537, 0.802793, 0.806183, 0.797712, 0.797534, 0.797184, 0.803927, 0.79951, 0.798637, 0.79853, 0.805401, 0.802619, 0.80208, 0.797143, 0.797158, 0.801747, 0.801472, 0.794659, 0.794539, 0.791337, 0.789255, 0.789049, 0.801323, 0.793975, 0.787227, 0.78854, 0.800716, 0.788364, 0.788091, 0.786345, 0.77371, 0.760698, 0.745571, 0.746141, 0.734889, 0.727955, 0.721523, 0.73215, 0.729759, 0.719228, 0.720664, 0.730141, 0.751808, 0.753487, 0.790113, 0.761959, 0.774033, 0.779298, 0.778909, 0.787631, 0.794806, 0.794051, 0.812795, 0.817934, 1.29987, 1.32428, 1.33949, 1.33986, 1.22326, 1.21735, 0.860334, 0.878135, 0.870122, 0.827155, 0.867378, 0.860716, 0.816165, 0.815407, 0.784053, 0.76459, 0.766257, 0.773229, 0.773027, 0.771346, 0.773561, 0.77418, 0.779997, 0.788538, 0.790809, 0.798772, 0.795528, 0.79433, 0.801445, 0.800158, 0.803747, 0.804981, 0.79571, 0.795276, 0.795398, 0.798553
0.822927, 0.824134, 0.836711, 0.825722, 0.832031, 0.831896, 0.829112, 0.832166, 0.832408, 0.825807, 0.86112, 0.823868, 0.824996, 0.824622, 0.82383, 0.82331, 0.82492, 0.823704, 0.819974, 0.818627, 0.819579, 0.819455, 0.819064, 0.818849, 0.818748, 0.820023, 0.822868, 0.8163, 0.815835, 0.804192, 0.821477, 0.819786, 0.811791, 0.81601, 0.821601, 0.808166, 0.809004, 0.814149, 0.805115, 0.803021, 0.801885, 0.802026, 0.802307, 0.798607, 0.798635, 0.797437, 0.794734, 0.799788, 0.80863, 0.795895, 0.810186, 0.797538, 0.797892, 0.797607, 0.807761, 0.80071, 0.797927, 0.794653, 0.795782, 0.794814, 0.797276, 0.797799, 0.79439, 0.791881, 0.811061, 0.797293, 0.799668, 0.799962, 0.799383, 0.799854, 0.800806, 0.802493, 0.800339, 0.797547, 0.80873, 0.808412, 0.808475, 0.819115, 0.808059, 0.807601, 0.809822, 0.810216, 0.819718, 0.807636, 0.807708, 0.833819, 0.807187, 0.807337, 0.80798, 0.815182, 0.808428, 0.808228, 0.809378, 0.809067, 0.807803, 0.808222, 0.808761, 0.808256, 0.809055, 0.808032, 0.804878, 0.806541, 0.807019, 0.805454, 0.802335, 0.804764, 0.814385, 0.801528, 0.801771, 0.805555, 0.80482, 0.801924, 0.800695, 0.802367, 0.804767, 0.80718, 0.80726, 0.79834, 0.804783, 0.805114, 0.8043, 0.808425, 0.809074, 0.818346, 0.816459, 0.817209, 0.852751, 0.82734, 0.827766, 0.828502, 0.828269, 0.81911, 0.812377, 0.842427, 0.836719, 0.822066, 0.821562, 0.832726, 0.823151, 0.819815, 0.815927, 0.826688, 0.825206, 0.818862, 0.821347, 0.799385, 0.799768, 0.799265, 0.799484, 0.797341, 0.808675, 0.8331, 0.83492, 0.799149, 0.799214, 0.822276, 0.800299, 0.800428, 0.800355, 0.799855, 0.800265, 0.822861, 0.79868, 0.79968, 0.798682, 0.801787, 0.802932, 0.802554, 0.80289, 0.804367, 0.804613, 0.811225, 0.811599, 0.811544, 0.827433, 0.804968, 0.811778, 0.799082, 0.805572, 0.800916, 0.799764, 0.801333, 0.802177, 0.803565, 0.809635, 0.791229, 0.807836, 0.805918, 0.807979, 0.802208, 0.803021, 0.804464, 0.80482, 0.811758, 0.812402, 0.811553, 0.821377, 0.815247, 0.815638, 0.808523, 0.817757, 0.802818, 0.804743, 0.817414, 0.80819, 0.805806, 0.795813, 0.795869, 0.804515, 0.798706, 0.814364, 0.800682, 0.807281, 0.80036, 0.802029, 0.801461, 0.79872, 0.803711, 0.804723, 0.798479, 0.800446, 0.806216, 0.811887, 0.812073, 0.802437, 0.815083, 0.797689, 0.797283, 0.799924, 0.798041, 0.797966, 0.800262, 0.797966, 0.792887, 0.798868, 0.791024, 0.797252, 0.791934, 0.794381, 0.788757, 0.790125, 0.789336, 0.768305, 0.769975, 0.771596, 0.729197, 0.728175, 0.733519, 0.742473, 0.735673, 0.726594, 0.718277, 0.718776, 0.727672, 0.717736, 0.752969, 0.753397, 0.756668, 0.763965, 0.763636, 0.762135, 0.815792, 0.807909, 0.792822, 0.82545, 0.839036, 0.824177, 1.30929, 1.30987, 1.30992, 1.23748, 1.21889, 0.925992, 0.926842, 0.885701, 0.887669, 0.860841, 0.861467, 0.829663, 0.781248, 0.782952, 0.784592, 0.795408, 0.777556, 0.759668, 0.761415, 0.76364, 0.7661, 0.766907, 0.771167, 0.785615, 0.792894, 0.794821, 0.8004, 0.798024, 0.797016, 0.79798, 0.797255, 0.799364, 0.796454, 0.794361, 0.800445, 0.797771
0.823961, 0.832341, 0.826155, 0.827055, 0.8278, 0.827741, 0.828278, 0.826405, 0.838507, 0.846232, 0.826228, 0.835885, 0.828879, 0.827703, 0.826703, 0.826274, 0.826254, 0.825088, 0.827075, 0.826467, 0.826902, 0.831184, 0.821679, 0.822069, 0.821126, 0.819788, 0.820098, 0.820794, 0.82471, 0.815765, 0.818875, 0.818649, 0.812524, 0.813237, 0.811038, 0.810996, 0.809804, 0.807682, 0.808887, 0.816631, 0.808185, 0.802079, 0.800891, 0.800913, 0.799305, 0.800119, 0.810604, 0.797732, 0.797495, 0.797717, 0.795419, 0.78826, 0.796569, 0.797807, 0.797055, 0.797052, 0.797615, 0.797286, 0.797316, 0.799888, 0.790404, 0.7894, 0.792125, 0.791662, 0.79247, 0.800579, 0.795938, 0.801112, 0.80443, 0.800796, 0.796933, 0.800687, 0.801064, 0.799225, 0.798356, 0.798566, 0.818808, 0.810851, 0.808411, 0.808388, 0.808588, 0.807599, 0.806945, 0.807149, 0.807776, 0.80796, 0.807785, 0.808307, 0.80723, 0.807995, 0.8079, 0.809003, 0.809447, 0.808718, 0.806996, 0.831324, 0.818297, 0.810641, 0.808208, 0.814633, 0.806094, 0.806905, 0.806515, 0.802522, 0.804683, 0.804176, 0.803747, 0.802304, 0.802501, 0.801647, 0.800987, 0.804035, 0.802902, 0.799439, 0.798749, 0.79756, 0.79895, 0.805347, 0.805506, 0.811158, 0.812852, 0.80585, 0.817648, 0.816603, 0.813108, 0.848251, 0.824425, 0.811871, 0.811107, 0.811506, 0.847707, 0.84699, 0.835548, 0.827437, 0.813574, 0.815317, 0.83542, 0.836355, 0.836267, 0.822609, 0.817182, 0.832515, 0.833722, 0.84191, 0.810955, 0.83334, 0.80477, 0.8106, 0.810524, 0.812374, 0.798587, 0.825786, 0.799737, 0.800949, 0.799827, 0.832299, 0.818213, 0.800726, 0.800277, 0.80032, 0.801135, 0.800684, 0.799572, 0.802306, 0.80528, 0.805857, 0.803705, 0.803939, 0.804533, 0.805044, 0.854853, 0.814483, 0.849528, 0.849263, 0.82945, 0.811844, 0.81403, 0.795752, 0.80875, 0.799645, 0.804707, 0.800107, 0.808345, 0.809192, 0.797086, 0.804692, 0.814825, 0.806182, 0.802445, 0.80312, 0.80535, 0.804791, 0.803763, 0.803937, 0.803822, 0.804381, 0.80391, 0.811785, 0.803218, 0.80369, 0.805016, 0.808874, 0.800138, 0.801813, 0.808099, 0.808497, 0.798431, 0.796017, 0.795781, 0.796762, 0.800745, 0.799257, 0.797744, 0.79804, 0.800002, 0.798754, 0.797419, 0.825167, 0.79851, 0.798748, 0.803091, 0.801201, 0.799955, 0.801487, 0.801044, 0.800704, 0.801657, 0.799276, 0.7989, 0.804558, 0.80442, 0.815729, 0.798665, 0.798665, 0.798878, 0.798528, 0.793725, 0.795535, 0.795674, 0.795161, 0.78945, 0.788679, 0.788588, 0.781744, 0.782962, 0.756653, 0.75735, 0.756858, 0.729975, 0.732586, 0.724539, 0.724555, 0.732181, 0.732824, 0.732086, 0.76669, 0.747139, 0.762664, 0.776282, 0.77715, 0.769583, 0.785488, 0.784638, 0.821679, 0.824074, 0.898038, 0.904752, 0.904321, 1.33314, 1.31917, 1.26844, 1.245, 1.24478, 0.908551, 0.932401, 0.884958, 0.836923, 0.808148, 0.793969, 0.798313, 0.798042, 0.773547, 0.763799, 0.788378, 0.77359, 0.761728, 0.762918, 0.774574, 0.77318, 0.788277, 0.78786, 0.803568, 0.796041, 0.801696, 0.803124, 0.804642, 0.798536, 0.798847, 0.808554, 0.81112, 0.815564, 0.805218, 0.812448
0.828326, 0.829685, 0.8273, 0.827843, 0.827987, 0.828416, 0.827681, 0.827863, 0.82847, 0.82782, 0.827758, 0.826703, 0.826127, 0.827443, 0.827993, 0.826603, 0.825519, 0.82518, 0.824875, 0.825181, 0.824742, 0.847356, 0.823736, 0.823238, 0.822406, 0.820976, 0.820923, 0.821983, 0.818707, 0.818823, 0.818796, 0.841643, 0.818646, 0.817007, 0.814726, 0.811769, 0.809706, 0.809186, 0.807054, 0.80568, 0.801826, 0.802364, 0.801827, 0.81118, 0.797219, 0.79801, 0.798167, 0.796165, 0.794444, 0.795234, 0.794289, 0.791007, 0.792741, 0.790116, 0.794761, 0.794774, 0.79404, 0.798484, 0.79609, 0.795645, 0.8021, 0.802621, 0.794424, 0.79744, 0.805862, 0.803452, 0.797107, 0.798126, 0.804393, 0.796133, 0.795853, 0.798674, 0.796904, 0.80568, 0.79951, 0.798677, 0.809842, 0.814808, 0.807358, 0.80835, 0.809426, 0.80982, 0.828606, 0.808539, 0.807874, 0.80849, 0.808901, 0.84131, 0.809339, 0.809443, 0.809374, 0.809633, 0.810109, 0.810043, 0.809399, 0.809283, 0.808609, 0.81117, 0.810677, 0.808459, 0.814341, 0.801252, 0.817986, 0.817696, 0.808698, 0.803269, 0.802784, 0.802246, 0.811355, 0.805216, 0.804624, 0.80158, 0.802134, 0.802077, 0.809004, 0.800842, 0.801917, 0.801484, 0.800523, 0.805453, 0.812552, 0.808244, 0.808996, 0.812903, 0.84337, 0.83227, 0.851478, 0.862647, 0.856454, 0.856644, 0.836876, 0.824408, 0.825451, 0.826044, 0.825121, 0.81887, 0.809018, 0.847182, 0.805774, 0.806391, 0.850134, 0.827769, 0.82758, 0.808964, 0.810074, 0.81774, 0.816369, 0.800905, 0.801467, 0.801314, 0.826488, 0.800973, 0.800511, 0.811601, 0.800271, 0.800441, 0.800319, 0.801468, 0.800554, 0.803063, 0.801719, 0.812439, 0.811591, 0.804767, 0.80409, 0.8051, 0.804918, 0.818785, 0.805404, 0.805661, 0.804793, 0.805659, 0.824394, 0.821136, 0.822618, 0.800895, 0.801729, 0.800734, 0.81145, 0.797467, 0.806566, 0.810763, 0.80256, 0.808424, 0.808214, 0.803964, 0.803199, 0.804207, 0.804687, 0.804095, 0.802732, 0.805162, 0.804684, 0.805162, 0.805117, 0.803176, 0.818831, 0.801883, 0.802825, 0.802676, 0.801975, 0.803445, 0.805188, 0.805189, 0.804785, 0.797465, 0.807473, 0.800909, 0.797922, 0.79923, 0.801027, 0.801657, 0.800478, 0.796478, 0.8026, 0.799777, 0.798148, 0.79809, 0.800779, 0.808243, 0.801366, 0.800659, 0.803195, 0.800299, 0.80149, 0.801028, 0.801947, 0.808347, 0.821909, 0.814775, 0.814707, 0.801126, 0.799957, 0.801427, 0.794783, 0.790821, 0.793186, 0.79464, 0.794069, 0.790139, 0.793988, 0.787781, 0.789961, 0.779726, 0.774778, 0.754646, 0.752865, 0.746648, 0.751822, 0.751343, 0.73002, 0.744271, 0.736497, 0.73742, 0.735254, 0.738296, 0.753515, 0.763313, 0.763029, 0.778127, 0.778066, 0.7834, 0.819567, 0.830055, 0.923668, 0.924825, 0.921008, 1.28167, 1.28843, 1.26508, 1.2802, 1.28053, 0.977943, 0.978112, 0.848022, 0.829736, 0.836029, 0.79405, 0.795044, 0.777316, 0.782105, 0.778338, 0.792099, 0.761679, 0.762889, 0.77121, 0.770026, 0.78818, 0.794966, 0.79567, 0.810344, 0.810952, 0.811285, 0.835486, 0.80069, 0.802052, 0.801641, 0.798238, 0.803502, 0.798912, 0.801052, 0.799166, 0.798864
0.826286, 0.842808, 0.828738, 0.828674, 0.829768, 0.839368, 0.82959, 0.829942, 0.829117, 0.828492, 0.828479, 0.837044, 0.829593, 0.828773, 0.827073, 0.826841, 0.826482, 0.825589, 0.84712, 0.826136, 0.825386, 0.837518, 0.823057, 0.824289, 0.84047, 0.820876, 0.820941, 0.820125, 0.819298, 0.81951, 0.818702, 0.817893, 0.81793, 0.817213, 0.815565, 0.81427, 0.814637, 0.807774, 0.805985, 0.80758, 0.81599, 0.799746, 0.801219, 0.80168, 0.801676, 0.803749, 0.795335, 0.793181, 0.793232, 0.790553, 0.789663, 0.786993, 0.793151, 0.793953, 0.794945, 0.78796, 0.793358, 0.801967, 0.798493, 0.800492, 0.800428, 0.799481, 0.790569, 0.790943, 0.794862, 0.801463, 0.792482, 0.793624, 0.794316, 0.796929, 0.796933, 0.795778, 0.811901, 0.799033, 0.80115, 0.803686, 0.811764, 0.811569, 0.80611, 0.806585, 0.809368, 0.810642, 0.80897, 0.809664, 0.822106, 0.8106, 0.814353, 0.803014, 0.808789, 0.814393, 0.809402, 0.810418, 0.809903, 0.809489, 0.817617, 0.817927, 0.810036, 0.809195, 0.809422, 0.80962, 0.811606, 0.811701, 0.80416, 0.81066, 0.807784, 0.802866, 0.80167, 0.801575, 0.803665, 0.802992, 0.800902, 0.802718, 0.807514, 0.808679, 0.811862, 0.811031, 0.805648, 0.810898, 0.799503, 0.798915, 0.804625, 0.807169, 0.829557, 0.804161, 0.804696, 0.810604, 0.813483, 0.907283, 0.908252, 0.867333, 0.832448, 0.812602, 0.812698, 0.813781, 0.806511, 0.818873, 0.819289, 0.818037, 0.807383, 0.814259, 0.853865, 0.818709, 0.817136, 0.812614, 0.8114, 0.814322, 0.827332, 0.82444, 0.802871, 0.802436, 0.800295, 0.803741, 0.804293, 0.822875, 0.828293, 0.801891, 0.802012, 0.801684, 0.823062, 0.801122, 0.82115, 0.80346, 0.803724, 0.803943, 0.804129, 0.803763, 0.80435, 0.813671, 0.804708, 0.805167, 0.806317, 0.819414, 0.811941, 0.855388, 0.834454, 0.808856, 0.805542, 0.804895, 0.800922, 0.802372, 0.803344, 0.803944, 0.80346, 0.802306, 0.803042, 0.809624, 0.804749, 0.803139, 0.815459, 0.805547, 0.805488, 0.805357, 0.815809, 0.80628, 0.802022, 0.807684, 0.801575, 0.803739, 0.80416, 0.803839, 0.802251, 0.801362, 0.807568, 0.801285, 0.802653, 0.803488, 0.803542, 0.804494, 0.799437, 0.798375, 0.799633, 0.801998, 0.804524, 0.806143, 0.800754, 0.799016, 0.797689, 0.801014, 0.811916, 0.805226, 0.804754, 0.798969, 0.818242, 0.817258, 0.803717, 0.812352, 0.812182, 0.811319, 0.818421, 0.805977, 0.816597, 0.805849, 0.801911, 0.801782, 0.798308, 0.798142, 0.797865, 0.792134, 0.790868, 0.788925, 0.790397, 0.790949, 0.786617, 0.784034, 0.781389, 0.780556, 0.780093, 0.772319, 0.767734, 0.761093, 0.756901, 0.755778, 0.754939, 0.755546, 0.739968, 0.741671, 0.756659, 0.75776, 0.818695, 0.779635, 0.80064, 0.810115, 0.968546, 0.983009, 0.984448, 1.24334, 1.28276, 1.28232, 1.28507, 1.28546, 1.27102, 1.2379, 1.03019, 1.01156, 0.824986, 0.826237, 0.827245, 0.804316, 0.803888, 0.783445, 0.795498, 0.781795, 0.764143, 0.77102, 0.790462, 0.7645, 0.77362, 0.774749, 0.798932, 0.800612, 0.792911, 0.810242, 0.80506, 0.812132, 0.79979, 0.814197, 0.800163, 0.799109, 0.799035, 0.797576, 0.798904, 0.799685, 0.801086
0.825393, 0.826288, 0.827734, 0.833853, 0.838496, 0.828755, 0.827898, 0.826468, 0.841444, 0.828219, 0.828028, 0.82873, 0.829138, 0.829825, 0.82799, 0.826918, 0.826316, 0.826926, 0.827486, 0.82639, 0.825975, 0.823408, 0.825084, 0.839307, 0.830941, 0.821163, 0.821832, 0.836148, 0.837389, 0.817454, 0.825815, 0.817483, 0.817424, 0.815509, 0.815477, 0.814334, 0.815129, 0.811126, 0.811162, 0.809378, 0.808907, 0.804593, 0.798285, 0.798938, 0.811197, 0.795042, 0.798261, 0.801505, 0.800971, 0.793246, 0.792805, 0.790548, 0.791236, 0.788482, 0.795386, 0.790231, 0.793195, 0.797816, 0.797107, 0.794839, 0.803893, 0.804134, 0.793391, 0.788675, 0.788874, 0.788712, 0.790971, 0.79202, 0.793842, 0.794921, 0.793451, 0.795733, 0.799786, 0.797704, 0.797532, 0.80299, 0.801216, 0.810928, 0.802813, 0.814871, 0.817089, 0.80903, 0.808529, 0.808756, 0.809488, 0.809906, 0.809967, 0.810023, 0.8098, 0.8118, 0.812272, 0.809555, 0.808981, 0.81063, 0.811855, 0.812233, 0.810557, 0.810159, 0.810537, 0.807636, 0.808772, 0.806025, 0.804976, 0.804866, 0.804485, 0.805213, 0.808515, 0.802966, 0.803856, 0.803676, 0.80289, 0.802377, 0.80587, 0.805835, 0.80462, 0.804317, 0.811134, 0.810878, 0.812051, 0.802673, 0.814261, 0.811748, 0.814784, 0.814168, 0.813798, 0.831707, 0.808462, 0.808454, 0.821758, 0.809657, 0.811245, 0.811471, 0.83967, 0.811888, 0.81168, 0.801488, 0.801487, 0.840983, 0.834674, 0.834031, 0.833617, 0.811828, 0.860982, 0.862887, 0.863607, 0.826089, 0.826383, 0.808019, 0.810445, 0.811705, 0.811642, 0.808347, 0.806942, 0.80808, 0.808535, 0.803117, 0.804546, 0.802261, 0.803198, 0.803579, 0.815755, 0.815828, 0.823456, 0.806048, 0.847238, 0.804679, 0.804988, 0.819678, 0.804249, 0.804611, 0.812914, 0.818566, 0.805473, 0.804208, 0.832582, 0.804182, 0.804525, 0.804051, 0.80564, 0.804917, 0.80518, 0.804578, 0.804116, 0.805696, 0.804204, 0.803246, 0.802862, 0.80351, 0.805108, 0.805385, 0.804755, 0.806737, 0.805424, 0.804464, 0.807196, 0.804751, 0.803535, 0.803199, 0.80477, 0.814836, 0.801271, 0.808239, 0.808568, 0.804052, 0.802759, 0.800688, 0.801833, 0.801533, 0.803633, 0.811844, 0.797367, 0.807024, 0.804338, 0.804836, 0.806918, 0.801027, 0.801835, 0.801652, 0.802033, 0.801258, 0.801534, 0.798685, 0.802154, 0.802103, 0.805097, 0.805302, 0.80579, 0.810857, 0.824301, 0.805985, 0.804514, 0.805138, 0.804028, 0.804118, 0.804109, 0.801548, 0.799312, 0.797999, 0.798182, 0.798493, 0.787907, 0.794636, 0.788271, 0.787474, 0.777008, 0.778281, 0.779924, 0.784237, 0.784399, 0.752578, 0.766223, 0.765978, 0.781863, 0.766304, 0.763048, 0.762946, 0.762806, 0.786742, 0.81742, 0.832901, 0.83396, 0.88516, 1.07535, 1.06825, 1.24324, 1.24258, 1.25834, 1.28488, 1.29256, 1.28996, 1.29136, 1.04417, 1.04452, 0.998098, 0.874812, 0.81857, 0.827434, 0.819158, 0.822065, 0.814526, 0.794093, 0.808936, 0.787901, 0.800631, 0.776401, 0.774791, 0.78039, 0.783113, 0.783742, 0.815152, 0.808046, 0.805709, 0.823123, 0.810614, 0.802285, 0.804508, 0.806248, 0.806048, 0.804645, 0.819031, 0.802027, 0.807896, 0.801095
0.827844, 0.826435, 0.82521, 0.828307, 0.833392, 0.827386, 0.829399, 0.83034, 0.82973, 0.831252, 0.835356, 0.829698, 0.829574, 0.828366, 0.827936, 0.827001, 0.827393, 0.826315, 0.826598, 0.826502, 0.826066, 0.82552, 0.825273, 0.824671, 0.827913, 0.852777, 0.832641, 0.845914, 0.81838, 0.832158, 0.814473, 0.814901, 0.815883, 0.815945, 0.816428, 0.815892, 0.81164, 0.810089, 0.814388, 0.806375, 0.804835, 0.802702, 0.80466, 0.798154, 0.801966, 0.798265, 0.8058, 0.806443, 0.805991, 0.800601, 0.800637, 0.803178, 0.794947, 0.791912, 0.797258, 0.795898, 0.790441, 0.802201, 0.798647, 0.800045, 0.788987, 0.802152, 0.788464, 0.788792, 0.791667, 0.787326, 0.787744, 0.790226, 0.80098, 0.792178, 0.796219, 0.795625, 0.795281, 0.797511, 0.79835, 0.801229, 0.802311, 0.807838, 0.806482, 0.815122, 0.809005, 0.808881, 0.809226, 0.808636, 0.808842, 0.815629, 0.813697, 0.811634, 0.811802, 0.812269, 0.810564, 0.810619, 0.831785, 0.807535, 0.807355, 0.819661, 0.809627, 0.808144, 0.812671, 0.81323, 0.805916, 0.811925, 0.802722, 0.808171, 0.808203, 0.808211, 0.808432, 0.803608, 0.80528, 0.806384, 0.811024, 0.808752, 0.812327, 0.813403, 0.811607, 0.807634, 0.806528, 0.804844, 0.804434, 0.805218, 0.804357, 0.804197, 0.803159, 0.803677, 0.814476, 0.827951, 0.822218, 0.809816, 0.826873, 0.827085, 0.810142, 0.822036, 0.809257, 0.809441, 0.811835, 0.81273, 0.831388, 0.831157, 0.829654, 0.822066, 0.835448, 0.831989, 0.853501, 0.863666, 0.864267, 0.822578, 0.812006, 0.812021, 0.840087, 0.835396, 0.815782, 0.833031, 0.840217, 0.81057, 0.803773, 0.808622, 0.809497, 0.804375, 0.823259, 0.804922, 0.804859, 0.804593, 0.804435, 0.83114, 0.823708, 0.805446, 0.81874, 0.805078, 0.806104, 0.80536, 0.815126, 0.805652, 0.805443, 0.805634, 0.805873, 0.806457, 0.847573, 0.807018, 0.819055, 0.828573, 0.807473, 0.806991, 0.805645, 0.805239, 0.804018, 0.809915, 0.807905, 0.806847, 0.805497, 0.809243, 0.807116, 0.807377, 0.804673, 0.804776, 0.805226, 0.804548, 0.803703, 0.804242, 0.803621, 0.806665, 0.79927, 0.804515, 0.805461, 0.808451, 0.807853, 0.801752, 0.801935, 0.803734, 0.801962, 0.802085, 0.804299, 0.803109, 0.804462, 0.802348, 0.81742, 0.812637, 0.808127, 0.808735, 0.810041, 0.803971, 0.804064, 0.8002, 0.811697, 0.79843, 0.804106, 0.803413, 0.807205, 0.807397, 0.807067, 0.82143, 0.819896, 0.811362, 0.809297, 0.809521, 0.801664, 0.801444, 0.802059, 0.798811, 0.811363, 0.794423, 0.792323, 0.793646, 0.79291, 0.789901, 0.785016, 0.788246, 0.780217, 0.784793, 0.785222, 0.784149, 0.774481, 0.790207, 0.781175, 0.782259, 0.797658, 0.805594, 0.783906, 0.818282, 0.818957, 0.866793, 0.870977, 0.879593, 0.88826, 0.887245, 0.88524, 0.933456, 0.923757, 1.29511, 1.31623, 1.30176, 1.30158, 1.13894, 1.17398, 1.15628, 0.875159, 0.874669, 0.827019, 0.822553, 0.821761, 0.821592, 0.822769, 0.83753, 0.839469, 0.851397, 0.843701, 0.825045, 0.82492, 0.787505, 0.787973, 0.796139, 0.796726, 0.805011, 0.805676, 0.809347, 0.809202, 0.812081, 0.809421, 0.805969, 0.814557, 0.810169, 0.81075, 0.812404, 0.799103
0.825622, 0.82587, 0.829504, 0.829126, 0.82893, 0.829195, 0.82916, 0.83083, 0.829918, 0.830572, 0.83161, 0.832156, 0.830679, 0.82855, 0.828922, 0.827848, 0.827658, 0.827626, 0.827792, 0.826604, 0.827508, 0.829217, 0.830824, 0.836797, 0.822473, 0.822884, 0.822593, 0.835516, 0.835157, 0.830465, 0.815472, 0.828744, 0.832359, 0.823647, 0.814427, 0.83159, 0.815376, 0.821203, 0.808159, 0.803556, 0.805769, 0.801476, 0.800732, 0.801745, 0.804111, 0.79907, 0.800431, 0.798254, 0.800424, 0.805852, 0.804818, 0.803463, 0.790885, 0.790918, 0.801978, 0.793797, 0.797869, 0.7922, 0.790392, 0.790953, 0.790618, 0.790378, 0.788702, 0.794491, 0.794726, 0.790749, 0.791551, 0.791361, 0.803026, 0.804059, 0.797271, 0.804816, 0.798281, 0.798395, 0.799441, 0.799932, 0.80478, 0.807672, 0.806972, 0.808876, 0.808286, 0.809013, 0.810271, 0.810466, 0.809118, 0.818609, 0.812174, 0.811526, 0.809663, 0.80797, 0.808081, 0.825902, 0.809892, 0.809097, 0.808019, 0.809061, 0.807697, 0.807279, 0.805799, 0.805321, 0.806279, 0.809375, 0.810118, 0.810576, 0.806019, 0.805255, 0.804767, 0.806303, 0.806663, 0.801879, 0.809021, 0.808683, 0.809273, 0.809296, 0.808859, 0.808838, 0.80732, 0.806548, 0.806097, 0.805096, 0.806698, 0.807016, 0.806904, 0.807547, 0.811509, 0.811423, 0.81238, 0.81164, 0.810464, 0.810382, 0.810559, 0.843412, 0.809271, 0.810534, 0.832615, 0.821486, 0.832044, 0.832424, 0.842103, 0.84018, 0.840968, 0.841587, 0.813578, 0.81439, 0.814954, 0.815297, 0.815311, 0.815996, 0.815864, 0.825945, 0.823054, 0.822275, 0.822016, 0.81885, 0.819635, 0.803831, 0.814832, 0.821551, 0.805407, 0.822599, 0.806031, 0.843766, 0.80528, 0.804355, 0.854524, 0.805593, 0.805802, 0.806452, 0.826093, 0.819216, 0.808494, 0.807009, 0.806655, 0.829497, 0.822127, 0.808187, 0.80703, 0.809355, 0.80839, 0.810143, 0.832828, 0.825758, 0.833433, 0.832721, 0.824985, 0.824992, 0.80484, 0.805657, 0.80855, 0.809788, 0.805158, 0.804166, 0.804222, 0.805343, 0.807983, 0.808619, 0.809376, 0.803976, 0.810832, 0.80218, 0.809399, 0.808937, 0.805032, 0.81477, 0.802173, 0.802309, 0.807398, 0.805559, 0.800982, 0.800548, 0.812, 0.816016, 0.80153, 0.802154, 0.802276, 0.805311, 0.80319, 0.808043, 0.808302, 0.806013, 0.802569, 0.8078, 0.80139, 0.803029, 0.807636, 0.800922, 0.801629, 0.801301, 0.80222, 0.801184, 0.809814, 0.808273, 0.800439, 0.801817, 0.807468, 0.805747, 0.815198, 0.799527, 0.801322, 0.794446, 0.795233, 0.794411, 0.793007, 0.790406, 0.770714, 0.771657, 0.777711, 0.764653, 0.78506, 0.77668, 0.777613, 0.794889, 0.795813, 0.81211, 0.893687, 0.886048, 0.886664, 0.911063, 0.887474, 0.874293, 0.866945, 0.867592, 0.86803, 0.867891, 0.89218, 0.890815, 0.903739, 0.902145, 1.30893, 1.31921, 1.17128, 1.1817, 1.18159, 1.16842, 0.915883, 0.89098, 0.902602, 0.864549, 0.88587, 0.887697, 0.889404, 0.884929, 0.873557, 0.836663, 0.83558, 0.811426, 0.789685, 0.782383, 0.783298, 0.816447, 0.800317, 0.804863, 0.79947, 0.807029, 0.808229, 0.801937, 0.807634, 0.80673, 0.801264, 0.800469, 0.801003, 0.807606, 0.808791
0.832413, 0.822681, 0.832841, 0.831528, 0.829344, 0.827799, 0.827582, 0.84424, 0.828766, 0.846973, 0.848096, 0.827703, 0.828207, 0.828856, 0.827558, 0.826713, 0.829114, 0.834164, 0.825665, 0.826831, 0.827001, 0.826464, 0.825836, 0.824458, 0.824535, 0.83891, 0.821428, 0.825537, 0.846799, 0.844494, 0.835266, 0.834496, 0.835956, 0.819072, 0.826741, 0.814902, 0.812334, 0.81813, 0.807287, 0.805494, 0.804868, 0.804755, 0.807839, 0.808117, 0.809123, 0.81763, 0.794166, 0.80193, 0.801695, 0.804664, 0.798646, 0.807325, 0.798075, 0.799654, 0.801786, 0.801931, 0.793665, 0.788714, 0.800439, 0.794573, 0.802808, 0.795722, 0.807733, 0.794835, 0.794577, 0.8029, 0.802926, 0.795392, 0.801374, 0.801305, 0.80002, 0.809266, 0.808776, 0.808897, 0.800998, 0.783677, 0.781791, 0.804937, 0.807541, 0.809128, 0.808998, 0.80835, 0.809039, 0.813229, 0.829635, 0.808741, 0.812148, 0.809907, 0.809611, 0.815044, 0.809049, 0.808865, 0.810869, 0.81086, 0.808975, 0.805068, 0.805071, 0.805523, 0.806194, 0.807873, 0.815439, 0.811801, 0.811506, 0.811958, 0.812484, 0.82577, 0.81623, 0.819444, 0.810633, 0.812357, 0.817322, 0.80962, 0.811896, 0.812212, 0.822412, 0.808067, 0.808177, 0.80788, 0.807989, 0.808049, 0.809413, 0.80475, 0.80976, 0.81845, 0.808993, 0.809905, 0.810971, 0.810947, 0.810722, 0.822924, 0.828545, 0.835061, 0.821916, 0.822574, 0.828441, 0.818947, 0.826063, 0.836918, 0.823385, 0.822144, 0.841695, 0.816063, 0.816466, 0.815931, 0.816071, 0.816218, 0.816601, 0.817243, 0.817467, 0.818904, 0.829345, 0.824636, 0.825136, 0.829672, 0.839936, 0.808113, 0.807389, 0.8285, 0.855968, 0.807974, 0.807617, 0.806971, 0.805911, 0.805656, 0.805495, 0.806833, 0.806545, 0.825093, 0.810975, 0.806716, 0.807173, 0.808059, 0.832246, 0.830005, 0.808347, 0.808222, 0.821956, 0.809738, 0.80931, 0.831937, 0.825074, 0.818763, 0.842339, 0.860863, 0.84963, 0.84997, 0.867973, 0.836303, 0.830309, 0.827797, 0.804015, 0.804379, 0.804893, 0.804642, 0.805086, 0.80455, 0.813158, 0.806604, 0.803084, 0.80406, 0.812217, 0.805112, 0.806592, 0.805362, 0.811849, 0.808258, 0.804206, 0.804266, 0.811762, 0.81241, 0.804499, 0.803813, 0.803261, 0.809078, 0.803017, 0.808275, 0.800868, 0.807913, 0.803254, 0.805525, 0.802367, 0.800523, 0.801795, 0.801455, 0.81113, 0.801562, 0.802002, 0.803269, 0.80339, 0.804365, 0.803543, 0.804303, 0.803685, 0.801163, 0.802224, 0.812678, 0.803599, 0.8027, 0.803624, 0.797417, 0.79816, 0.804402, 0.794245, 0.787759, 0.775223, 0.774081, 0.768252, 0.777884, 0.776452, 0.77511, 0.782176, 0.7941, 0.79307, 0.829254, 0.900497, 0.892707, 0.905553, 0.905182, 0.904256, 0.883851, 0.883999, 0.894061, 0.871593, 0.877801, 0.886658, 0.889601, 0.902165, 0.891907, 0.909538, 0.909223, 1.19616, 1.20539, 1.20151, 1.20116, 0.909193, 0.918779, 0.933885, 0.926424, 0.917833, 0.913105, 0.902688, 0.888449, 0.889138, 0.825897, 0.833132, 0.799805, 0.782423, 0.781558, 0.815077, 0.801409, 0.789701, 0.790802, 0.791993, 0.818932, 0.804889, 0.80214, 0.800792, 0.800858, 0.80448, 0.804997, 0.808874, 0.809785, 0.814914
0.825095, 0.825323, 0.825502, 0.828093, 0.828354, 0.828552, 0.829609, 0.828886, 0.825872, 0.825959, 0.828586, 0.82605, 0.828619, 0.834799, 0.828716, 0.829364, 0.82683, 0.826282, 0.825362, 0.826303, 0.82499, 0.829089, 0.829162, 0.82261, 0.822406, 0.82285, 0.822199, 0.829523, 0.826103, 0.825057, 0.829656, 0.829618, 0.832472, 0.833128, 0.822502, 0.822179, 0.81167, 0.812995, 0.812766, 0.814304, 0.807683, 0.803066, 0.805894, 0.806152, 0.797203, 0.797778, 0.79752, 0.797796, 0.796654, 0.796814, 0.798804, 0.802078, 0.798462, 0.804728, 0.803089, 0.817672, 0.812502, 0.79167, 0.803602, 0.793188, 0.79219, 0.79269, 0.799469, 0.797239, 0.795844, 0.801356, 0.798868, 0.796743, 0.796874, 0.799169, 0.806486, 0.807745, 0.807898, 0.800841, 0.801791, 0.780749, 0.782622, 0.812243, 0.829785, 0.807753, 0.808785, 0.80883, 0.807975, 0.810533, 0.810507, 0.809807, 0.809853, 0.809831, 0.808397, 0.808413, 0.810945, 0.80962, 0.815416, 0.808276, 0.807513, 0.804198, 0.804066, 0.803908, 0.812141, 0.811423, 0.818145, 0.806032, 0.806084, 0.805617, 0.806368, 0.828318, 0.806714, 0.806485, 0.825007, 0.807947, 0.804794, 0.810339, 0.816791, 0.811084, 0.809795, 0.808973, 0.815257, 0.809253, 0.810617, 0.809232, 0.806471, 0.800743, 0.80316, 0.802618, 0.809146, 0.818983, 0.83302, 0.835918, 0.811882, 0.811824, 0.840261, 0.838719, 0.839072, 0.830106, 0.836509, 0.834833, 0.844842, 0.820458, 0.849691, 0.849914, 0.83637, 0.846745, 0.847623, 0.81752, 0.816695, 0.835466, 0.854497, 0.83039, 0.83315, 0.816773, 0.817587, 0.812141, 0.823102, 0.809101, 0.826473, 0.82645, 0.807611, 0.808829, 0.808187, 0.808139, 0.808249, 0.807835, 0.807107, 0.807671, 0.807253, 0.807295, 0.806794, 0.823141, 0.808816, 0.808842, 0.807408, 0.807527, 0.807074, 0.8073, 0.807319, 0.807384, 0.80809, 0.808305, 0.81898, 0.835448, 0.835515, 0.83328, 0.815181, 0.814319, 0.81464, 0.83506, 0.825609, 0.865705, 0.82165, 0.823973, 0.825315, 0.82219, 0.823183, 0.80198, 0.801516, 0.801446, 0.805361, 0.808362, 0.801928, 0.802879, 0.803561, 0.80443, 0.808624, 0.809466, 0.811917, 0.801765, 0.808072, 0.805718, 0.808937, 0.808807, 0.819689, 0.814339, 0.815679, 0.803227, 0.81283, 0.819151, 0.817963, 0.79864, 0.810408, 0.801669, 0.806743, 0.804185, 0.811962, 0.806114, 0.807523, 0.80474, 0.80569, 0.80805, 0.808194, 0.804362, 0.804397, 0.804201, 0.804763, 0.808727, 0.80152, 0.801234, 0.801844, 0.802482, 0.797301, 0.798321, 0.801091, 0.795016, 0.791583, 0.785551, 0.770442, 0.770099, 0.76849, 0.770286, 0.770302, 0.772282, 0.786689, 0.786934, 0.786786, 0.801855, 0.804705, 0.805357, 0.876803, 0.875628, 0.896087, 0.883286, 0.880509, 0.878318, 0.891177, 0.904274, 0.904377, 0.891024, 0.885221, 0.902258, 0.901269, 1.20626, 1.20523, 1.22284, 1.19972, 1.18722, 0.991591, 0.953162, 0.952127, 0.965929, 0.968043, 0.799585, 0.798269, 0.801889, 0.776996, 0.795405, 0.777059, 0.778112, 0.779747, 0.777422, 0.775926, 0.788859, 0.79405, 0.783019, 0.799219, 0.802295, 0.801872, 0.801897, 0.802216, 0.797664, 0.797914, 0.81121, 0.828593, 0.801395, 0.800662
0.828398, 0.826743, 0.833119, 0.826528, 0.831401, 0.83278, 0.82957, 0.833839, 0.824283, 0.836164, 0.835693, 0.830616, 0.826759, 0.826358, 0.826554, 0.832773, 0.825604, 0.825961, 0.825261, 0.823522, 0.83469, 0.831591, 0.823081, 0.824002, 0.844677, 0.822082, 0.821141, 0.83534, 0.829744, 0.828633, 0.828741, 0.822093, 0.822413, 0.822313, 0.818003, 0.815689, 0.814769, 0.814021, 0.808527, 0.8214, 0.807745, 0.80758, 0.800597, 0.800339, 0.800487, 0.801163, 0.801944, 0.80405, 0.804564, 0.794839, 0.796078, 0.794655, 0.809438, 0.791191, 0.791623, 0.797217, 0.798572, 0.798188, 0.801399, 0.801261, 0.801224, 0.801303, 0.80795, 0.79538, 0.795826, 0.798862, 0.799353, 0.796841, 0.796703, 0.800547, 0.801045, 0.810797, 0.803544, 0.800834, 0.803307, 0.811037, 0.796237, 0.784488, 0.825217, 0.825941, 0.809326, 0.808826, 0.808301, 0.832023, 0.808319, 0.814333, 0.815656, 0.813668, 0.813149, 0.80891, 0.808008, 0.806954, 0.818311, 0.800652, 0.821409, 0.808035, 0.808205, 0.827513, 0.821823, 0.816033, 0.814979, 0.807906, 0.806962, 0.805674, 0.813028, 0.807457, 0.807861, 0.813858, 0.81251, 0.809405, 0.80976, 0.810851, 0.812991, 0.815621, 0.812039, 0.811258, 0.811964, 0.821502, 0.821606, 0.821877, 0.815693, 0.808828, 0.809918, 0.809345, 0.810025, 0.813996, 0.813813, 0.813951, 0.852648, 0.814854, 0.814497, 0.846807, 0.813872, 0.834473, 0.83523, 0.818767, 0.819082, 0.820326, 0.822035, 0.82323, 0.834492, 0.824538, 0.827937, 0.827326, 0.830269, 0.840308, 0.838385, 0.84966, 0.830125, 0.831453, 0.824508, 0.825377, 0.810984, 0.809608, 0.810368, 0.810575, 0.809725, 0.809326, 0.809624, 0.826421, 0.816654, 0.809453, 0.808147, 0.807786, 0.807649, 0.80711, 0.807218, 0.807568, 0.805848, 0.807045, 0.80721, 0.806629, 0.808767, 0.809217, 0.808853, 0.808742, 0.808535, 0.811234, 0.824996, 0.826307, 0.814815, 0.815132, 0.816913, 0.825663, 0.82225, 0.832894, 0.843436, 0.825997, 0.840143, 0.818108, 0.835643, 0.819262, 0.818619, 0.806846, 0.804395, 0.802936, 0.802873, 0.80568, 0.802345, 0.811065, 0.809129, 0.802252, 0.802595, 0.802614, 0.802851, 0.807384, 0.802371, 0.80409, 0.809, 0.802542, 0.801872, 0.805693, 0.803653, 0.804401, 0.802757, 0.803165, 0.798974, 0.799459, 0.804335, 0.809464, 0.808953, 0.811074, 0.805318, 0.804373, 0.804669, 0.811109, 0.80161, 0.802261, 0.812189, 0.811764, 0.805073, 0.811805, 0.812456, 0.815718, 0.804113, 0.81547, 0.808809, 0.809862, 0.810458, 0.811436, 0.799129, 0.797957, 0.786539, 0.787369, 0.785126, 0.773739, 0.773643, 0.772765, 0.807304, 0.786832, 0.788503, 0.78877, 0.804303, 0.797513, 0.798603, 0.822256, 0.86811, 0.8685, 0.868513, 0.876193, 0.888637, 0.88952, 0.890285, 0.897068, 0.902178, 0.914654, 0.935297, 0.908565, 0.906518, 1.23971, 1.23417, 1.25096, 1.22009, 1.21581, 1.04124, 1.00029, 1.00128, 0.820704, 0.812013, 0.774113, 0.775072, 0.77595, 0.781027, 0.764646, 0.773197, 0.774308, 0.781542, 0.773706, 0.778678, 0.777016, 0.790985, 0.777542, 0.784461, 0.803562, 0.801793, 0.802628, 0.803274, 0.811561, 0.810653, 0.800915, 0.80192, 0.81201, 0.804976
0.831284, 0.849757, 0.848022, 0.827688, 0.827014, 0.826893, 0.829717, 0.829324, 0.825492, 0.83264, 0.827997, 0.826274, 0.826755, 0.825286, 0.825907, 0.823964, 0.824499, 0.8279, 0.827127, 0.829031, 0.822498, 0.821925, 0.824136, 0.819742, 0.821058, 0.821252, 0.820804, 0.820053, 0.819435, 0.824687, 0.819263, 0.819196, 0.816171, 0.815439, 0.815991, 0.815961, 0.817836, 0.814356, 0.81354, 0.807558, 0.808392, 0.806609, 0.806188, 0.802689, 0.812051, 0.798117, 0.808883, 0.798417, 0.798923, 0.794425, 0.793423, 0.793238, 0.792822, 0.793245, 0.792765, 0.794263, 0.797827, 0.796892, 0.795578, 0.796749, 0.797662, 0.797208, 0.801457, 0.802065, 0.801985, 0.799218, 0.802935, 0.795815, 0.796485, 0.79565, 0.801477, 0.800828, 0.80049, 0.801512, 0.802795, 0.805376, 0.807, 0.825829, 0.827352, 0.808828, 0.818393, 0.829982, 0.809465, 0.809276, 0.810056, 0.808898, 0.811335, 0.810558, 0.818492, 0.810349, 0.809084, 0.812994, 0.808479, 0.81263, 0.811234, 0.808949, 0.817328, 0.819616, 0.809208, 0.811847, 0.805447, 0.81242, 0.811164, 0.809842, 0.80594, 0.808517, 0.815884, 0.813212, 0.809358, 0.811085, 0.813685, 0.815492, 0.814794, 0.813409, 0.814444, 0.812193, 0.812358, 0.810398, 0.809758, 0.812133, 0.815828, 0.810251, 0.807781, 0.818329, 0.810111, 0.810318, 0.814022, 0.815327, 0.81499, 0.814167, 0.824611, 0.856698, 0.814187, 0.814068, 0.841983, 0.818762, 0.838792, 0.836574, 0.835336, 0.837203, 0.825016, 0.825339, 0.828275, 0.835939, 0.819473, 0.820714, 0.823641, 0.825429, 0.82639, 0.828496, 0.811865, 0.853126, 0.811758, 0.811098, 0.811168, 0.810156, 0.81003, 0.810776, 0.810167, 0.841808, 0.836686, 0.836921, 0.808953, 0.809056, 0.809633, 0.809253, 0.807773, 0.808946, 0.806727, 0.82414, 0.808057, 0.825004, 0.807959, 0.807913, 0.808999, 0.810062, 0.813947, 0.823303, 0.829581, 0.801103, 0.817876, 0.818737, 0.803002, 0.806931, 0.813171, 0.835318, 0.81431, 0.812007, 0.811823, 0.811049, 0.812813, 0.81843, 0.809998, 0.804197, 0.8059, 0.810825, 0.805499, 0.80648, 0.813938, 0.813816, 0.803986, 0.802229, 0.803956, 0.804478, 0.80477, 0.804763, 0.804702, 0.805649, 0.815104, 0.8026, 0.814566, 0.807615, 0.808274, 0.811977, 0.811557, 0.804926, 0.802022, 0.800989, 0.799802, 0.816254, 0.80313, 0.803227, 0.808735, 0.81056, 0.804291, 0.804767, 0.805184, 0.805397, 0.80497, 0.811659, 0.805465, 0.805735, 0.80488, 0.805013, 0.811949, 0.804252, 0.803636, 0.811737, 0.813263, 0.800852, 0.800148, 0.800712, 0.801242, 0.788485, 0.783181, 0.774271, 0.774673, 0.80138, 0.800976, 0.801624, 0.791398, 0.797714, 0.806168, 0.809616, 0.808928, 0.808186, 0.867345, 0.855687, 0.859642, 0.854014, 0.876002, 0.879833, 0.929344, 0.933445, 0.936346, 0.92943, 0.929115, 1.24403, 1.25494, 1.23717, 1.25103, 1.23088, 1.23603, 1.20487, 1.05304, 1.05405, 0.80297, 0.790052, 0.789577, 0.778052, 0.778281, 0.77777, 0.797903, 0.78043, 0.766457, 0.781427, 0.782003, 0.788014, 0.789301, 0.805101, 0.782923, 0.78256, 0.808726, 0.812526, 0.79841, 0.79848, 0.807386, 0.800933, 0.802402, 0.803518, 0.801932, 0.804848, 0.807836
0.836542, 0.82487, 0.824703, 0.82842, 0.826682, 0.826176, 0.825415, 0.825767, 0.824865, 0.823766, 0.825192, 0.822378, 0.828835, 0.828277, 0.828273, 0.825268, 0.821658, 0.829554, 0.829453, 0.821838, 0.822271, 0.819385, 0.820148, 0.819153, 0.818673, 0.817232, 0.829425, 0.817172, 0.815828, 0.8162, 0.821432, 0.821661, 0.81547, 0.825351, 0.813281, 0.829214, 0.817907, 0.818677, 0.81204, 0.818353, 0.803982, 0.804948, 0.801016, 0.805495, 0.797956, 0.797663, 0.804892, 0.798012, 0.795271, 0.795589, 0.796574, 0.796345, 0.79517, 0.794967, 0.800861, 0.797504, 0.808269, 0.798398, 0.800492, 0.801061, 0.803529, 0.79814, 0.811113, 0.801469, 0.801902, 0.803867, 0.802672, 0.801309, 0.79961, 0.798642, 0.803822, 0.803304, 0.802897, 0.808381, 0.806588, 0.805672, 0.811071, 0.820186, 0.810595, 0.81054, 0.810543, 0.82481, 0.822159, 0.81075, 0.81151, 0.810982, 0.818802, 0.819324, 0.822783, 0.809765, 0.810107, 0.808451, 0.813155, 0.812412, 0.811149, 0.810885, 0.817622, 0.816777, 0.815122, 0.807083, 0.805096, 0.816606, 0.817709, 0.816324, 0.808363, 0.80854, 0.809765, 0.809463, 0.814233, 0.814591, 0.81433, 0.818876, 0.818471, 0.812999, 0.813104, 0.812879, 0.813341, 0.811108, 0.810707, 0.813774, 0.808946, 0.812312, 0.818406, 0.810634, 0.81217, 0.814641, 0.815403, 0.839873, 0.815572, 0.813986, 0.814319, 0.815181, 0.815037, 0.817706, 0.815591, 0.817805, 0.836972, 0.824749, 0.835769, 0.834011, 0.831944, 0.833586, 0.818287, 0.827179, 0.813969, 0.811584, 0.811951, 0.860919, 0.831205, 0.831825, 0.833075, 0.811581, 0.820875, 0.811816, 0.830081, 0.810952, 0.811418, 0.812423, 0.835935, 0.823887, 0.818156, 0.817595, 0.809478, 0.809035, 0.808712, 0.822074, 0.832357, 0.830352, 0.825891, 0.808278, 0.807641, 0.808152, 0.808065, 0.83336, 0.812536, 0.810682, 0.809402, 0.814969, 0.816429, 0.808782, 0.804075, 0.808744, 0.808339, 0.808446, 0.809841, 0.810727, 0.810239, 0.810438, 0.803936, 0.804837, 0.804738, 0.812011, 0.805283, 0.806128, 0.806031, 0.813238, 0.803648, 0.805571, 0.81861, 0.805087, 0.805215, 0.810166, 0.806791, 0.807622, 0.802784, 0.814087, 0.806224, 0.805431, 0.803184, 0.803003, 0.806618, 0.80729, 0.806856, 0.80856, 0.810383, 0.808869, 0.809687, 0.81183, 0.805391, 0.804893, 0.809876, 0.804261, 0.803531, 0.801545, 0.803091, 0.805105, 0.805026, 0.810319, 0.807842, 0.814541, 0.810316, 0.807832, 0.814003, 0.806161, 0.808472, 0.813157, 0.815169, 0.80383, 0.804924, 0.809993, 0.802553, 0.811299, 0.800749, 0.798163, 0.796678, 0.780937, 0.779729, 0.779088, 0.780097, 0.805851, 0.798319, 0.797769, 0.799018, 0.809438, 0.826563, 0.841658, 0.877494, 0.879798, 0.921398, 0.908952, 0.918587, 0.926145, 0.926498, 0.954337, 1.23582, 1.258, 1.2572, 1.25896, 1.25842, 1.27834, 1.25507, 1.26355, 1.26363, 1.26421, 1.08555, 0.857681, 0.843543, 0.836921, 0.802603, 0.789086, 0.80197, 0.808293, 0.795571, 0.782028, 0.78089, 0.787748, 0.78972, 0.797609, 0.791959, 0.787859, 0.791391, 0.792123, 0.793464, 0.797623, 0.798798, 0.80123, 0.819098, 0.810703, 0.814418, 0.801557, 0.802025, 0.80038, 0.800197
0.835445, 0.826385, 0.828432, 0.829344, 0.830731, 0.824978, 0.82559, 0.826439, 0.824887, 0.82517, 0.82591, 0.826981, 0.820167, 0.828106, 0.82603, 0.825751, 0.833374, 0.822479, 0.820297, 0.827104, 0.822121, 0.821205, 0.820837, 0.818551, 0.818804, 0.816222, 0.814902, 0.816522, 0.825797, 0.82267, 0.822637, 0.820322, 0.822016, 0.82104, 0.839503, 0.821592, 0.819464, 0.811805, 0.807616, 0.804149, 0.804912, 0.81924, 0.808346, 0.795306, 0.792994, 0.798978, 0.798423, 0.800981, 0.800237, 0.79915, 0.801212, 0.796583, 0.803762, 0.804599, 0.798585, 0.79806, 0.798582, 0.798221, 0.802638, 0.796241, 0.794624, 0.792908, 0.79387, 0.800265, 0.798548, 0.797174, 0.801071, 0.812155, 0.800827, 0.800603, 0.801728, 0.801582, 0.803412, 0.803969, 0.809708, 0.811465, 0.822453, 0.810828, 0.811008, 0.812171, 0.825467, 0.810862, 0.812424, 0.812793, 0.812198, 0.812367, 0.811325, 0.820029, 0.811056, 0.822453, 0.807845, 0.811623, 0.811989, 0.813794, 0.813689, 0.814208, 0.813625, 0.814753, 0.810036, 0.808669, 0.807288, 0.810015, 0.810911, 0.812085, 0.810457, 0.80714, 0.809386, 0.811404, 0.811781, 0.815745, 0.816994, 0.81858, 0.813475, 0.814159, 0.811454, 0.812575, 0.813044, 0.812168, 0.810946, 0.810807, 0.811391, 0.811596, 0.814883, 0.812905, 0.815994, 0.814871, 0.814792, 0.814881, 0.81522, 0.814983, 0.822129, 0.814519, 0.849778, 0.850089, 0.815589, 0.815686, 0.8139, 0.813299, 0.813139, 0.81303, 0.813954, 0.812094, 0.826055, 0.813287, 0.812159, 0.812189, 0.812171, 0.813171, 0.81253, 0.829552, 0.811744, 0.830369, 0.84133, 0.811259, 0.810918, 0.810951, 0.810932, 0.840415, 0.812142, 0.812128, 0.811675, 0.811186, 0.811148, 0.810531, 0.810564, 0.824975, 0.825107, 0.80746, 0.807434, 0.809034, 0.811077, 0.822258, 0.809275, 0.809472, 0.837534, 0.809621, 0.809508, 0.809191, 0.808495, 0.807601, 0.806745, 0.811764, 0.808793, 0.808776, 0.808396, 0.808495, 0.805327, 0.805952, 0.806697, 0.809269, 0.805546, 0.806978, 0.806529, 0.803835, 0.804024, 0.801531, 0.808891, 0.804155, 0.804369, 0.809297, 0.813038, 0.813272, 0.807745, 0.807478, 0.808112, 0.811611, 0.801352, 0.802672, 0.80445, 0.804389, 0.811865, 0.813476, 0.809043, 0.808197, 0.804626, 0.811996, 0.812225, 0.805655, 0.811315, 0.812917, 0.802116, 0.801889, 0.803549, 0.80304, 0.804049, 0.806453, 0.808738, 0.809745, 0.809881, 0.808955, 0.805729, 0.806875, 0.80679, 0.806912, 0.818612, 0.81763, 0.819454, 0.808158, 0.805198, 0.806258, 0.814725, 0.807842, 0.794422, 0.795022, 0.796266, 0.796088, 0.801055, 0.786188, 0.797875, 0.7982, 0.79784, 0.81275, 0.820123, 0.819242, 0.821761, 0.823451, 0.836864, 0.8489, 0.880652, 0.881337, 0.897562, 0.941077, 0.926856, 0.936371, 1.23932, 1.23945, 1.28541, 1.28139, 1.27986, 1.26312, 1.25379, 1.25359, 1.25468, 1.14487, 0.857968, 0.85666, 0.865188, 0.86417, 0.80699, 0.792254, 0.802802, 0.80386, 0.790454, 0.790189, 0.791468, 0.777574, 0.77574, 0.797519, 0.811234, 0.779574, 0.781947, 0.808594, 0.795525, 0.808225, 0.802704, 0.823653, 0.801289, 0.801072, 0.800126, 0.809995, 0.800663, 0.79909, 0.805001
0.825782, 0.827239, 0.825447, 0.827086, 0.825466, 0.826166, 0.82894, 0.824327, 0.823355, 0.825882, 0.825017, 0.837369, 0.823445, 0.82825, 0.828429, 0.830253, 0.820054, 0.832402, 0.832171, 0.821377, 0.820878, 0.824237, 0.822402, 0.818689, 0.822677, 0.817498, 0.817696, 0.816961, 0.816688, 0.821605, 0.815792, 0.82211, 0.821326, 0.812452, 0.811558, 0.811265, 0.823667, 0.824145, 0.818312, 0.811012, 0.80981, 0.809448, 0.808861, 0.802628, 0.801138, 0.801638, 0.802467, 0.803645, 0.803734, 0.809649, 0.801525, 0.802711, 0.8037, 0.800151, 0.798123, 0.798303, 0.794182, 0.812363, 0.793615, 0.796884, 0.794012, 0.797799, 0.798671, 0.797248, 0.797917, 0.79779, 0.8083, 0.797439, 0.798949, 0.803764, 0.810442, 0.80952, 0.808259, 0.804624, 0.823158, 0.811942, 0.810196, 0.809327, 0.815104, 0.849187, 0.813531, 0.813969, 0.814293, 0.814527, 0.816156, 0.81874, 0.815084, 0.833172, 0.823392, 0.821258, 0.821086, 0.81515, 0.818538, 0.820786, 0.811378, 0.81578, 0.81566, 0.809099, 0.808741, 0.808238, 0.811669, 0.813263, 0.81562, 0.819094, 0.817775, 0.816886, 0.813022, 0.811046, 0.811524, 0.817608, 0.815224, 0.81573, 0.812663, 0.813054, 0.812955, 0.814159, 0.813976, 0.812673, 0.808125, 0.810987, 0.810693, 0.811156, 0.828873, 0.821358, 0.812516, 0.812657, 0.814915, 0.815986, 0.816393, 0.815576, 0.814913, 0.814248, 0.816033, 0.816072, 0.815179, 0.830872, 0.812736, 0.819106, 0.813218, 0.813129, 0.813384, 0.823032, 0.822835, 0.813141, 0.813385, 0.812748, 0.811888, 0.814839, 0.829688, 0.806259, 0.832671, 0.81178, 0.811803, 0.81242, 0.80953, 0.810908, 0.810759, 0.811265, 0.830042, 0.838823, 0.872194, 0.810752, 0.810485, 0.810354, 0.808881, 0.808943, 0.808469, 0.809521, 0.808881, 0.808257, 0.808502, 0.819735, 0.830046, 0.829754, 0.80962, 0.810661, 0.812385, 0.81383, 0.805358, 0.803332, 0.802381, 0.801404, 0.799499, 0.80719, 0.805323, 0.805705, 0.806538, 0.807174, 0.804539, 0.802214, 0.802243, 0.80341, 0.803937, 0.811269, 0.81031, 0.815989, 0.805471, 0.804933, 0.804608, 0.80519, 0.805815, 0.805206, 0.807175, 0.807032, 0.808901, 0.814773, 0.805125, 0.812289, 0.824933, 0.814683, 0.815626, 0.807268, 0.807244, 0.806093, 0.805856, 0.810625, 0.8057, 0.804949, 0.804513, 0.805357, 0.807037, 0.8124, 0.806402, 0.804565, 0.804672, 0.8047, 0.814821, 0.805633, 0.812045, 0.811263, 0.805437, 0.831735, 0.832888, 0.806126, 0.823105, 0.813135, 0.811374, 0.81832, 0.80431, 0.804396, 0.805321, 0.813969, 0.814648, 0.816121, 0.804389, 0.787318, 0.797451, 0.811241, 0.787107, 0.795595, 0.804999, 0.83996, 0.839147, 0.837452, 0.834819, 0.833966, 0.834425, 0.828137, 0.843374, 0.877608, 0.877548, 0.916314, 0.916127, 0.964225, 1.15331, 1.15482, 1.26295, 1.26477, 1.2856, 1.33692, 1.33711, 1.34474, 1.16181, 1.16161, 0.840875, 0.841362, 0.857101, 0.860188, 0.816775, 0.79982, 0.800625, 0.79473, 0.793134, 0.800213, 0.793979, 0.777919, 0.781063, 0.781148, 0.773173, 0.786915, 0.786642, 0.788019, 0.787971, 0.795212, 0.809056, 0.808274, 0.799223, 0.805233, 0.803686, 0.799081, 0.799335, 0.801364, 0.796157
0.823995, 0.823399, 0.829457, 0.827512, 0.834402, 0.834095, 0.827987, 0.828368, 0.828627, 0.828435, 0.825706, 0.839725, 0.821575, 0.82183, 0.822242, 0.82439, 0.825664, 0.825043, 0.82404, 0.823884, 0.818066, 0.81874, 0.82168, 0.822704, 0.822889, 0.8359, 0.827174, 0.826639, 0.821833, 0.821312, 0.816027, 0.813712, 0.814829, 0.814618, 0.812581, 0.810652, 0.828724, 0.822438, 0.811673, 0.815137, 0.813129, 0.807712, 0.80828, 0.807417, 0.806791, 0.806843, 0.802907, 0.811793, 0.801588, 0.801855, 0.809003, 0.797991, 0.801505, 0.800581, 0.80019, 0.803127, 0.807206, 0.795271, 0.798296, 0.802396, 0.797823, 0.797401, 0.799907, 0.800755, 0.802986, 0.802234, 0.800558, 0.801043, 0.800794, 0.798659, 0.798674, 0.802288, 0.806128, 0.804254, 0.813394, 0.812651, 0.815456, 0.812569, 0.819195, 0.818801, 0.819004, 0.82537, 0.835514, 0.816886, 0.815887, 0.816064, 0.812745, 0.813273, 0.815361, 0.816505, 0.811334, 0.811158, 0.812307, 0.818813, 0.820381, 0.82195, 0.810551, 0.812206, 0.814488, 0.809538, 0.821269, 0.810949, 0.811144, 0.810573, 0.808563, 0.822937, 0.811896, 0.811706, 0.81367, 0.821082, 0.810626, 0.813794, 0.813033, 0.813887, 0.814439, 0.812338, 0.811032, 0.810767, 0.81253, 0.810887, 0.818524, 0.812727, 0.81433, 0.815482, 0.818434, 0.817977, 0.81309, 0.820765, 0.817728, 0.81492, 0.817799, 0.8145, 0.814654, 0.814966, 0.814948, 0.814245, 0.813519, 0.813633, 0.81365, 0.814269, 0.846375, 0.850499, 0.812131, 0.81356, 0.821985, 0.823355, 0.810382, 0.810564, 0.809986, 0.810088, 0.810976, 0.810979, 0.81182, 0.812137, 0.811728, 0.811889, 0.808033, 0.823098, 0.832363, 0.810772, 0.81167, 0.823185, 0.824102, 0.839553, 0.824906, 0.82574, 0.818918, 0.853663, 0.809329, 0.809048, 0.80791, 0.820933, 0.812066, 0.811624, 0.809557, 0.808575, 0.807902, 0.812082, 0.804454, 0.801988, 0.801165, 0.799542, 0.798624, 0.803906, 0.807144, 0.818942, 0.805822, 0.80377, 0.80396, 0.809147, 0.809576, 0.806647, 0.80733, 0.82242, 0.832074, 0.800519, 0.820207, 0.807202, 0.808488, 0.808058, 0.804719, 0.802929, 0.804535, 0.811351, 0.809271, 0.808224, 0.808521, 0.809221, 0.808817, 0.807458, 0.808828, 0.803792, 0.809923, 0.801887, 0.807396, 0.808124, 0.805263, 0.811804, 0.804825, 0.812164, 0.812263, 0.815445, 0.807911, 0.808506, 0.811369, 0.811938, 0.802657, 0.806067, 0.807559, 0.815881, 0.813716, 0.806702, 0.806409, 0.806312, 0.804791, 0.811816, 0.812591, 0.803636, 0.804148, 0.804013, 0.848796, 0.807361, 0.800981, 0.812871, 0.81956, 0.819106, 0.800641, 0.797789, 0.814684, 0.801376, 0.828122, 0.860667, 0.846715, 0.849115, 0.84876, 0.848165, 0.857386, 0.848533, 0.844221, 0.867642, 0.867389, 0.895991, 0.911151, 0.920082, 0.963781, 1.33326, 1.34332, 1.36758, 1.33953, 1.32505, 1.36444, 1.36612, 1.17806, 1.17853, 1.17929, 0.853316, 0.863684, 0.833153, 0.832989, 0.811607, 0.810659, 0.825956, 0.82703, 0.809943, 0.792005, 0.769717, 0.769568, 0.784024, 0.786143, 0.786145, 0.793885, 0.791347, 0.790819, 0.791082, 0.797085, 0.808536, 0.801167, 0.795735, 0.802822, 0.798531, 0.800549, 0.79812, 0.801153
0.828583, 0.832392, 0.832118, 0.834972, 0.826571, 0.829268, 0.8474, 0.828499, 0.827513, 0.82687, 0.827197, 0.823932, 0.823237, 0.824454, 0.825495, 0.821807, 0.83314, 0.836072, 0.823076, 0.828575, 0.845839, 0.821289, 0.817851, 0.830147, 0.834741, 0.836512, 0.838959, 0.836119, 0.832444, 0.826004, 0.818222, 0.8156, 0.814531, 0.814554, 0.814258, 0.82212, 0.808774, 0.812675, 0.811234, 0.808938, 0.814912, 0.820011, 0.821152, 0.80947, 0.808499, 0.80193, 0.8022, 0.811666, 0.801913, 0.801144, 0.798507, 0.806418, 0.800954, 0.802412, 0.803665, 0.800317, 0.809416, 0.804935, 0.796872, 0.799109, 0.795582, 0.795032, 0.807578, 0.807505, 0.796066, 0.795856, 0.802186, 0.802393, 0.803813, 0.804748, 0.804323, 0.800858, 0.817615, 0.806536, 0.808895, 0.808532, 0.819437, 0.812551, 0.814658, 0.816043, 0.816754, 0.817408, 0.830057, 0.815478, 0.828811, 0.822181, 0.817097, 0.815927, 0.815809, 0.81468, 0.816701, 0.818453, 0.823517, 0.820822, 0.818285, 0.818747, 0.811971, 0.81088, 0.809337, 0.810682, 0.810698, 0.825359, 0.811264, 0.812509, 0.81071, 0.811599, 0.812817, 0.812793, 0.817719, 0.81803, 0.815058, 0.813434, 0.81856, 0.816784, 0.816621, 0.811406, 0.815147, 0.808365, 0.815457, 0.811458, 0.81648, 0.815758, 0.813895, 0.811354, 0.814622, 0.818368, 0.817899, 0.8103, 0.810446, 0.825375, 0.809271, 0.812123, 0.813733, 0.815497, 0.81448, 0.814394, 0.825279, 0.814426, 0.814264, 0.82519, 0.825316, 0.811754, 0.811665, 0.81273, 0.81261, 0.810763, 0.811329, 0.81123, 0.809513, 0.815875, 0.812996, 0.82217, 0.810213, 0.808726, 0.808691, 0.808473, 0.808968, 0.808827, 0.809403, 0.808396, 0.809432, 0.830115, 0.833963, 0.83374, 0.826387, 0.825329, 0.809617, 0.809284, 0.80852, 0.808196, 0.823658, 0.80765, 0.80761, 0.819309, 0.808217, 0.808443, 0.805956, 0.805088, 0.806973, 0.808006, 0.802779, 0.810531, 0.810935, 0.805501, 0.804274, 0.807584, 0.80858, 0.808682, 0.804416, 0.803574, 0.802816, 0.805487, 0.803917, 0.802952, 0.802365, 0.803591, 0.807334, 0.806425, 0.806404, 0.805746, 0.807311, 0.809717, 0.808484, 0.805188, 0.824354, 0.807307, 0.808057, 0.805665, 0.806848, 0.80736, 0.814077, 0.806363, 0.805072, 0.81084, 0.802549, 0.802685, 0.804395, 0.806236, 0.807471, 0.807271, 0.803628, 0.803742, 0.803933, 0.804384, 0.804848, 0.80667, 0.80676, 0.80376, 0.804822, 0.82106, 0.815671, 0.822209, 0.804487, 0.804225, 0.803838, 0.805421, 0.804616, 0.80453, 0.805221, 0.805719, 0.806638, 0.81577, 0.801823, 0.804536, 0.793532, 0.804574, 0.805282, 0.803128, 0.795859, 0.807313, 0.819348, 0.86054, 0.897286, 0.873679, 0.85789, 0.860471, 0.880163, 0.896599, 0.864329, 0.882047, 0.884186, 0.884106, 0.909241, 0.964064, 0.96397, 1.35283, 1.34412, 1.35471, 1.37809, 1.35469, 1.35584, 1.36455, 1.18406, 1.18511, 1.18583, 0.877505, 0.857601, 0.869879, 0.849091, 0.854906, 0.842147, 0.843421, 0.841555, 0.784671, 0.785341, 0.78468, 0.759583, 0.761674, 0.761398, 0.773032, 0.79125, 0.788472, 0.787262, 0.791384, 0.79214, 0.799812, 0.807715, 0.797171, 0.797234, 0.79746, 0.798528, 0.796895, 0.795808
0.828516, 0.82902, 0.828062, 0.827033, 0.836559, 0.833802, 0.832466, 0.825023, 0.831134, 0.8231, 0.821913, 0.829744, 0.822019, 0.822187, 0.82259, 0.835894, 0.82097, 0.820926, 0.822319, 0.825817, 0.819336, 0.847007, 0.839179, 0.829934, 0.83198, 0.836052, 0.835442, 0.833214, 0.832424, 0.821401, 0.82409, 0.824699, 0.818848, 0.817752, 0.814353, 0.814651, 0.814639, 0.814545, 0.812425, 0.81545, 0.818385, 0.814414, 0.813017, 0.815588, 0.80921, 0.810066, 0.805107, 0.803472, 0.800484, 0.795937, 0.795628, 0.803055, 0.799307, 0.801716, 0.803105, 0.799352, 0.799778, 0.80738, 0.804496, 0.80199, 0.800613, 0.807095, 0.803146, 0.805087, 0.805131, 0.804922, 0.811678, 0.807706, 0.808853, 0.811042, 0.814294, 0.815808, 0.807856, 0.806332, 0.808322, 0.81226, 0.817871, 0.815534, 0.817365, 0.818424, 0.81804, 0.81925, 0.818124, 0.828946, 0.817103, 0.822308, 0.825809, 0.817192, 0.819012, 0.818236, 0.822482, 0.822609, 0.809017, 0.809727, 0.814289, 0.815233, 0.812601, 0.811483, 0.812247, 0.814949, 0.822393, 0.812454, 0.816087, 0.812307, 0.818042, 0.81667, 0.814912, 0.815208, 0.816051, 0.818039, 0.814059, 0.815378, 0.814855, 0.819816, 0.81989, 0.809818, 0.80874, 0.81274, 0.822545, 0.808186, 0.809034, 0.807083, 0.817699, 0.811257, 0.801635, 0.818773, 0.80752, 0.807018, 0.808551, 0.808125, 0.808213, 0.80987, 0.810333, 0.811479, 0.811618, 0.811179, 0.812467, 0.823128, 0.811922, 0.81244, 0.813096, 0.809528, 0.810338, 0.811768, 0.812003, 0.810393, 0.809726, 0.846889, 0.809285, 0.809745, 0.810379, 0.810428, 0.81192, 0.825343, 0.809848, 0.809559, 0.810009, 0.808112, 0.80962, 0.810145, 0.809666, 0.808415, 0.809366, 0.808908, 0.808645, 0.808461, 0.807893, 0.807708, 0.808185, 0.807382, 0.807154, 0.804928, 0.807994, 0.81532, 0.806366, 0.822814, 0.819726, 0.821745, 0.785628, 0.812701, 0.812075, 0.810922, 0.812394, 0.811589, 0.811587, 0.812046, 0.803668, 0.806171, 0.805044, 0.807013, 0.81871, 0.804212, 0.811714, 0.804619, 0.806331, 0.810704, 0.809293, 0.812047, 0.812922, 0.814563, 0.806463, 0.804198, 0.786605, 0.788137, 0.803247, 0.803705, 0.803131, 0.815687, 0.801751, 0.811767, 0.81113, 0.810244, 0.810878, 0.805628, 0.80825, 0.802446, 0.807118, 0.807603, 0.812237, 0.812979, 0.79888, 0.801163, 0.807878, 0.805159, 0.805249, 0.804548, 0.801382, 0.803666, 0.804454, 0.804936, 0.803041, 0.803205, 0.804573, 0.804331, 0.816128, 0.81406, 0.806433, 0.825443, 0.80528, 0.805969, 0.806376, 0.811837, 0.815646, 0.804736, 0.798175, 0.798458, 0.798102, 0.796001, 0.793812, 0.852098, 0.854018, 0.877538, 0.877712, 0.877952, 0.87863, 0.884275, 0.893014, 0.894267, 0.917104, 0.952218, 0.97026, 1.1397, 1.14337, 1.35429, 1.348, 1.34749, 1.35955, 1.36118, 1.36229, 1.36448, 1.36446, 1.36899, 1.36926, 1.37833, 1.19459, 0.894529, 0.889209, 0.891094, 0.874434, 0.873636, 0.866879, 0.800475, 0.798101, 0.797224, 0.799785, 0.764127, 0.757546, 0.754374, 0.750206, 0.76516, 0.782687, 0.783201, 0.7868, 0.791284, 0.792122, 0.808963, 0.808296, 0.807864, 0.806098, 0.807904, 0.794457, 0.799081, 0.80175
0.825173, 0.825267, 0.840088, 0.826836, 0.83571, 0.826209, 0.825822, 0.848031, 0.826666, 0.838543, 0.830663, 0.829805, 0.823356, 0.840987, 0.822644, 0.822606, 0.822883, 0.856828, 0.821333, 0.825455, 0.833122, 0.822727, 0.83044, 0.839702, 0.846578, 0.83706, 0.839347, 0.828668, 0.823521, 0.82287, 0.83492, 0.818607, 0.816234, 0.830049, 0.81675, 0.81674, 0.817209, 0.815766, 0.811178, 0.812258, 0.811598, 0.81164, 0.806476, 0.807102, 0.806731, 0.805121, 0.811053, 0.808, 0.801605, 0.80187, 0.801896, 0.802415, 0.802932, 0.808342, 0.811154, 0.806901, 0.802396, 0.801604, 0.810763, 0.811558, 0.802217, 0.800635, 0.807874, 0.806306, 0.806872, 0.815715, 0.805636, 0.810838, 0.808617, 0.817288, 0.819594, 0.824879, 0.813385, 0.806491, 0.819543, 0.818506, 0.8217, 0.814864, 0.816457, 0.81679, 0.815093, 0.817703, 0.824695, 0.818985, 0.820167, 0.819075, 0.818484, 0.81943, 0.818994, 0.819246, 0.817091, 0.818433, 0.820441, 0.814279, 0.81451, 0.815632, 0.816175, 0.814517, 0.814987, 0.809938, 0.811188, 0.817165, 0.816001, 0.813989, 0.813932, 0.817022, 0.817641, 0.825947, 0.814791, 0.816062, 0.81912, 0.816974, 0.818379, 0.815121, 0.813274, 0.832219, 0.815404, 0.80904, 0.80806, 0.810683, 0.809908, 0.822198, 0.822519, 0.806162, 0.807768, 0.804696, 0.804722, 0.811299, 0.804701, 0.807995, 0.80811, 0.808635, 0.808595, 0.814765, 0.813331, 0.863919, 0.864175, 0.863369, 0.817224, 0.811101, 0.81156, 0.811626, 0.812606, 0.811719, 0.81144, 0.811276, 0.810385, 0.809913, 0.80872, 0.823763, 0.807137, 0.805879, 0.810391, 0.805411, 0.809347, 0.80951, 0.809543, 0.809367, 0.810653, 0.810572, 0.810483, 0.81073, 0.810423, 0.810249, 0.838098, 0.809466, 0.810121, 0.81081, 0.850354, 0.820086, 0.832186, 0.812412, 0.836209, 0.835931, 0.864066, 0.816371, 0.815429, 0.808027, 0.80451, 0.786463, 0.807572, 0.807434, 0.816771, 0.817295, 0.81601, 0.806699, 0.805639, 0.819123, 0.808364, 0.806062, 0.805196, 0.816484, 0.811306, 0.804901, 0.812464, 0.810929, 0.813306, 0.813189, 0.80909, 0.806182, 0.801514, 0.801963, 0.805037, 0.80407, 0.802181, 0.833783, 0.802154, 0.804596, 0.803953, 0.812446, 0.800842, 0.800646, 0.811101, 0.805211, 0.805092, 0.803158, 0.805136, 0.802583, 0.800852, 0.800505, 0.801589, 0.802959, 0.803342, 0.801875, 0.801864, 0.802233, 0.801081, 0.802204, 0.801004, 0.801036, 0.801328, 0.809339, 0.805383, 0.805362, 0.806539, 0.81053, 0.811506, 0.822277, 0.825474, 0.807665, 0.807037, 0.806082, 0.825451, 0.80385, 0.806798, 0.790144, 0.790482, 0.79196, 0.798542, 0.807819, 0.806724, 0.823148, 0.873918, 0.892012, 0.868815, 0.889541, 0.896562, 0.935587, 0.949237, 1.03583, 1.06344, 1.13381, 1.23459, 1.27825, 1.33824, 1.34893, 1.3449, 1.3566, 1.37545, 1.35991, 1.3787, 1.38473, 1.37528, 1.37338, 1.16052, 1.16018, 1.13629, 0.913619, 0.911901, 0.817675, 0.817545, 0.798481, 0.798532, 0.788048, 0.790873, 0.770894, 0.772812, 0.765698, 0.783267, 0.772949, 0.773875, 0.774761, 0.786087, 0.783058, 0.783836, 0.794005, 0.793848, 0.793508, 0.793296, 0.793213, 0.793116, 0.792434, 0.793557
0.825651, 0.82527, 0.825083, 0.825883, 0.847279, 0.83918, 0.826841, 0.833011, 0.821957, 0.821539, 0.830907, 0.832638, 0.831977, 0.834103, 0.834984, 0.85908, 0.857477, 0.851174, 0.847184, 0.829054, 0.832023, 0.825375, 0.824995, 0.823891, 0.822113, 0.822511, 0.831857, 0.831749, 0.82158, 0.821301, 0.82004, 0.818849, 0.821099, 0.816676, 0.81224, 0.812114, 0.812322, 0.812653, 0.805328, 0.806646, 0.818501, 0.81641, 0.807387, 0.806405, 0.807436, 0.807142, 0.804085, 0.803432, 0.804477, 0.804532, 0.804035, 0.809289, 0.799496, 0.800506, 0.811207, 0.811652, 0.808777, 0.807656, 0.814496, 0.811919, 0.802533, 0.807262, 0.806088, 0.804108, 0.814502, 0.815362, 0.80448, 0.806289, 0.808537, 0.813044, 0.815008, 0.810148, 0.809902, 0.811179, 0.816458, 0.817585, 0.818496, 0.813314, 0.813878, 0.815516, 0.81619, 0.816061, 0.816916, 0.824019, 0.819081, 0.820881, 0.821647, 0.820459, 0.820934, 0.819941, 0.82511, 0.816628, 0.817606, 0.816234, 0.814043, 0.814798, 0.814426, 0.816362, 0.813005, 0.819313, 0.817621, 0.808632, 0.809022, 0.811034, 0.814517, 0.813381, 0.814986, 0.815615, 0.829023, 0.81583, 0.814761, 0.814037, 0.81866, 0.814438, 0.815298, 0.811289, 0.81763, 0.812323, 0.810742, 0.810062, 0.81102, 0.81131, 0.818903, 0.818233, 0.815138, 0.805976, 0.81537, 0.812388, 0.812633, 0.818748, 0.812022, 0.810577, 0.812166, 0.811215, 0.811206, 0.811786, 0.871412, 0.813555, 0.813654, 0.812524, 0.811784, 0.813538, 0.813293, 0.812771, 0.812257, 0.812083, 0.811847, 0.811045, 0.810802, 0.828972, 0.808141, 0.805821, 0.804405, 0.818865, 0.810679, 0.830507, 0.811249, 0.84255, 0.810987, 0.810778, 0.810189, 0.808897, 0.808673, 0.825603, 0.808887, 0.808123, 0.816212, 0.816229, 0.848717, 0.822432, 0.83246, 0.833963, 0.825984, 0.838664, 0.840017, 0.840566, 0.835703, 0.804771, 0.800829, 0.801537, 0.804757, 0.805376, 0.814562, 0.805496, 0.815564, 0.819699, 0.813004, 0.810795, 0.812007, 0.826243, 0.819772, 0.822111, 0.839151, 0.842837, 0.843727, 0.819692, 0.826635, 0.810104, 0.811184, 0.812945, 0.801969, 0.802446, 0.81119, 0.799089, 0.800091, 0.802699, 0.807773, 0.800806, 0.800972, 0.797924, 0.798162, 0.804406, 0.8031, 0.80195, 0.803485, 0.809217, 0.808026, 0.798947, 0.799882, 0.800359, 0.800796, 0.804466, 0.798785, 0.822023, 0.810786, 0.811109, 0.80952, 0.804648, 0.804115, 0.804208, 0.819234, 0.817339, 0.835547, 0.834805, 0.80521, 0.805727, 0.8054, 0.81472, 0.807998, 0.807719, 0.807036, 0.807739, 0.803616, 0.803921, 0.805655, 0.793657, 0.802964, 0.801083, 0.793154, 0.798377, 0.793297, 0.805383, 0.801182, 0.884384, 0.937834, 0.939694, 1.01357, 1.03004, 1.05561, 1.05295, 1.04707, 1.07787, 1.23062, 1.23052, 1.34123, 1.34422, 1.369, 1.34745, 1.38629, 1.38126, 1.36953, 1.3775, 1.40974, 1.36819, 1.16024, 1.15958, 1.1602, 0.842307, 0.841042, 0.842735, 0.848848, 0.811, 0.811604, 0.804704, 0.785299, 0.764829, 0.764546, 0.76593, 0.775342, 0.78714, 0.789421, 0.781043, 0.791635, 0.79352, 0.801076, 0.802844, 0.800231, 0.80483, 0.80509, 0.794894, 0.793736, 0.793584, 0.793771
0.825512, 0.825702, 0.826228, 0.829725, 0.825897, 0.837118, 0.82431, 0.819846, 0.82373, 0.82366, 0.834059, 0.825937, 0.825136, 0.82531, 0.830692, 0.831718, 0.8303, 0.846675, 0.832474, 0.826277, 0.827029, 0.821, 0.820232, 0.819219, 0.819694, 0.821063, 0.820885, 0.81651, 0.816496, 0.815933, 0.815089, 0.81786, 0.812724, 0.814503, 0.815327, 0.808169, 0.816095, 0.807678, 0.816273, 0.816697, 0.81534, 0.807773, 0.811137, 0.810425, 0.8086, 0.804948, 0.807058, 0.806297, 0.809885, 0.812437, 0.801966, 0.796772, 0.799815, 0.802701, 0.803508, 0.812799, 0.79956, 0.808724, 0.807027, 0.80724, 0.822556, 0.802699, 0.801586, 0.804032, 0.805244, 0.800871, 0.804038, 0.802487, 0.806053, 0.818727, 0.810547, 0.822149, 0.809838, 0.812175, 0.814013, 0.809364, 0.818239, 0.814159, 0.82315, 0.815452, 0.815961, 0.821924, 0.821621, 0.819778, 0.81973, 0.821504, 0.821505, 0.822395, 0.82204, 0.820712, 0.820958, 0.81948, 0.81863, 0.816885, 0.813421, 0.812849, 0.819045, 0.82945, 0.817065, 0.803684, 0.805303, 0.811008, 0.809446, 0.826618, 0.811919, 0.824898, 0.823462, 0.819039, 0.818591, 0.81573, 0.816093, 0.815165, 0.828846, 0.814985, 0.821422, 0.812913, 0.815749, 0.81327, 0.813091, 0.811321, 0.812674, 0.818487, 0.808491, 0.815401, 0.815789, 0.808285, 0.807616, 0.814421, 0.8143, 0.814672, 0.811577, 0.819401, 0.811767, 0.810526, 0.810033, 0.811639, 0.811482, 0.812028, 0.814502, 0.811692, 0.811672, 0.814616, 0.839161, 0.81195, 0.811287, 0.811598, 0.810845, 0.809011, 0.811422, 0.80752, 0.828789, 0.829341, 0.802877, 0.806305, 0.827069, 0.80771, 0.807793, 0.808738, 0.810343, 0.809111, 0.809548, 0.810542, 0.806723, 0.807766, 0.840412, 0.829111, 0.810017, 0.815141, 0.816742, 0.815965, 0.843774, 0.824594, 0.818306, 0.825437, 0.832435, 0.813415, 0.839548, 0.798273, 0.800826, 0.802488, 0.811347, 0.800755, 0.805284, 0.803705, 0.802424, 0.809788, 0.81611, 0.812542, 0.810673, 0.802432, 0.814707, 0.810252, 0.835374, 0.839176, 0.811622, 0.819798, 0.805622, 0.806308, 0.809212, 0.801422, 0.801337, 0.802426, 0.798036, 0.795881, 0.796155, 0.795721, 0.798256, 0.797156, 0.796248, 0.800896, 0.799253, 0.801441, 0.799535, 0.8042, 0.808008, 0.805096, 0.798527, 0.800288, 0.804495, 0.800969, 0.8084, 0.813661, 0.812418, 0.81236, 0.82349, 0.802514, 0.801511, 0.801468, 0.802599, 0.805846, 0.807467, 0.80495, 0.807265, 0.815757, 0.803671, 0.804222, 0.814452, 0.80489, 0.808222, 0.808611, 0.811302, 0.810289, 0.804571, 0.804524, 0.80397, 0.804534, 0.791204, 0.791243, 0.774389, 0.773012, 0.785772, 0.784679, 0.795201, 0.830802, 0.87977, 0.928043, 0.965823, 1.02938, 1.04154, 1.05994, 1.06074, 1.0714, 1.21392, 1.22785, 1.22742, 1.37425, 1.37233, 1.40326, 1.40321, 1.39564, 1.40649, 1.39592, 1.39556, 1.38747, 1.38638, 1.18287, 1.16681, 0.927866, 0.852496, 0.852079, 0.86004, 0.824139, 0.802486, 0.80085, 0.793488, 0.771118, 0.770602, 0.781251, 0.779442, 0.798224, 0.796889, 0.805215, 0.791767, 0.792003, 0.795454, 0.795336, 0.798959, 0.809575, 0.809197, 0.798396, 0.797673, 0.793078, 0.790854
0.823101, 0.836642, 0.823558, 0.823461, 0.821852, 0.820815, 0.830279, 0.829647, 0.829575, 0.826393, 0.824461, 0.824495, 0.825035, 0.822948, 0.822321, 0.835656, 0.829571, 0.842685, 0.843625, 0.830003, 0.828828, 0.825441, 0.816508, 0.827785, 0.818302, 0.821701, 0.815117, 0.816149, 0.816518, 0.819106, 0.811387, 0.811039, 0.810016, 0.81884, 0.817542, 0.812365, 0.811781, 0.811233, 0.808779, 0.809195, 0.809732, 0.81378, 0.810185, 0.812975, 0.810838, 0.80184, 0.804607, 0.81207, 0.809277, 0.81287, 0.804218, 0.803023, 0.802279, 0.802577, 0.804365, 0.806771, 0.80403, 0.810999, 0.817713, 0.808121, 0.811588, 0.811186, 0.813023, 0.813797, 0.815426, 0.815555, 0.805749, 0.811093, 0.819295, 0.803382, 0.808757, 0.825471, 0.814423, 0.821487, 0.815924, 0.813827, 0.812791, 0.81459, 0.816091, 0.815117, 0.823359, 0.818111, 0.819707, 0.820368, 0.818686, 0.817729, 0.818405, 0.818491, 0.824286, 0.822688, 0.821902, 0.820603, 0.819878, 0.824005, 0.8174, 0.816104, 0.814505, 0.817716, 0.81933, 0.82827, 0.832752, 0.815511, 0.813731, 0.824051, 0.814972, 0.822252, 0.814746, 0.81426, 0.823209, 0.816079, 0.821798, 0.815984, 0.8219, 0.81875, 0.819052, 0.81881, 0.817167, 0.814674, 0.813563, 0.812127, 0.812529, 0.813344, 0.814486, 0.809569, 0.808678, 0.809432, 0.815932, 0.815147, 0.811828, 0.811127, 0.81463, 0.809764, 0.810852, 0.810858, 0.811048, 0.811383, 0.810641, 0.809869, 0.810586, 0.810883, 0.810848, 0.809659, 0.808681, 0.816928, 0.810478, 0.810722, 0.809386, 0.808159, 0.80799, 0.807156, 0.809429, 0.809137, 0.807165, 0.807651, 0.807204, 0.808072, 0.816351, 0.815518, 0.808718, 0.807777, 0.828493, 0.806246, 0.807491, 0.807562, 0.820523, 0.833069, 0.836153, 0.816638, 0.811923, 0.823261, 0.823459, 0.818261, 0.815312, 0.814611, 0.829175, 0.826119, 0.823686, 0.784744, 0.797686, 0.801676, 0.799281, 0.797771, 0.800801, 0.800621, 0.800757, 0.800448, 0.815277, 0.799254, 0.798115, 0.805499, 0.827912, 0.806163, 0.814661, 0.81087, 0.810069, 0.829035, 0.80184, 0.807777, 0.797978, 0.798234, 0.814454, 0.79737, 0.795024, 0.799116, 0.798678, 0.800058, 0.804767, 0.802651, 0.801628, 0.784703, 0.78455, 0.784543, 0.795039, 0.798057, 0.797984, 0.798355, 0.798431, 0.798081, 0.798514, 0.801103, 0.800842, 0.801407, 0.801439, 0.803879, 0.806238, 0.803882, 0.800214, 0.802515, 0.807128, 0.801665, 0.801483, 0.801104, 0.802625, 0.802098, 0.805124, 0.804603, 0.814897, 0.804182, 0.803632, 0.805814, 0.807747, 0.81404, 0.817079, 0.819165, 0.796372, 0.816496, 0.815961, 0.799374, 0.800369, 0.773589, 0.772078, 0.783245, 0.781447, 0.788578, 0.788849, 0.956279, 0.957745, 1.01256, 1.07031, 1.06866, 1.07442, 1.10088, 1.09933, 1.105, 1.2324, 1.24423, 1.27885, 1.3859, 1.41365, 1.40398, 1.4028, 1.41853, 1.37559, 1.37682, 1.38613, 1.38612, 1.15438, 1.16153, 1.12312, 0.926911, 0.8212, 0.822734, 0.82206, 0.784397, 0.784011, 0.784665, 0.773943, 0.77714, 0.782746, 0.793198, 0.794181, 0.790149, 0.788689, 0.804564, 0.80393, 0.803493, 0.793178, 0.800495, 0.794674, 0.793963, 0.798267, 0.79423, 0.79372
0.82181, 0.819237, 0.815878, 0.816689, 0.819033, 0.819596, 0.824496, 0.821432, 0.832317, 0.824226, 0.831603, 0.821072, 0.829859, 0.822287, 0.820581, 0.81907, 0.818271, 0.816339, 0.814943, 0.822993, 0.822395, 0.822819, 0.829326, 0.822005, 0.818584, 0.818358, 0.828959, 0.815475, 0.822151, 0.818585, 0.816056, 0.823242, 0.822088, 0.812766, 0.812228, 0.808679, 0.813874, 0.808447, 0.807498, 0.808143, 0.813635, 0.808544, 0.814927, 0.810855, 0.811882, 0.806086, 0.805906, 0.807228, 0.80651, 0.803978, 0.802482, 0.808181, 0.810809, 0.805483, 0.805907, 0.805357, 0.810503, 0.811347, 0.804572, 0.815029, 0.812646, 0.810229, 0.808399, 0.81382, 0.814401, 0.813857, 0.809307, 0.811375, 0.812303, 0.810937, 0.819235, 0.807833, 0.813012, 0.81752, 0.816236, 0.82198, 0.824811, 0.825495, 0.825392, 0.816635, 0.822904, 0.828879, 0.828121, 0.826238, 0.828633, 0.828895, 0.820015, 0.820165, 0.822346, 0.818099, 0.81921, 0.831645, 0.820438, 0.822884, 0.823865, 0.82229, 0.819032, 0.823283, 0.813314, 0.812804, 0.825855, 0.824651, 0.822057, 0.825536, 0.815253, 0.813208, 0.816896, 0.818607, 0.828827, 0.815704, 0.816971, 0.816544, 0.821196, 0.821711, 0.818141, 0.813985, 0.814516, 0.814808, 0.812927, 0.814563, 0.816441, 0.809549, 0.809201, 0.809422, 0.811205, 0.81158, 0.809002, 0.81599, 0.81626, 0.81116, 0.810781, 0.810488, 0.810756, 0.811697, 0.810405, 0.810167, 0.80823, 0.808972, 0.809353, 0.81014, 0.808808, 0.807894, 0.808089, 0.80832, 0.809278, 0.805975, 0.814882, 0.80828, 0.832877, 0.804729, 0.807835, 0.806363, 0.811743, 0.806741, 0.817815, 0.805003, 0.808177, 0.806543, 0.805813, 0.808023, 0.8069, 0.810222, 0.812192, 0.805343, 0.807824, 0.806694, 0.807407, 0.849365, 0.832302, 0.832287, 0.843966, 0.819659, 0.827216, 0.823596, 0.828971, 0.843791, 0.821831, 0.823501, 0.798055, 0.79745, 0.797784, 0.798516, 0.7987, 0.800511, 0.799864, 0.802007, 0.796258, 0.804968, 0.804837, 0.804495, 0.804102, 0.799024, 0.796885, 0.797712, 0.795489, 0.821133, 0.796773, 0.797557, 0.797363, 0.795966, 0.796586, 0.804683, 0.79518, 0.795717, 0.798209, 0.807995, 0.805659, 0.8056, 0.789453, 0.795075, 0.794784, 0.794753, 0.794585, 0.793672, 0.803834, 0.796962, 0.796259, 0.80015, 0.800351, 0.801022, 0.806496, 0.800524, 0.801061, 0.801239, 0.802727, 0.802787, 0.801312, 0.798395, 0.801121, 0.806989, 0.806338, 0.80619, 0.801275, 0.801003, 0.802608, 0.802168, 0.804597, 0.805008, 0.801391, 0.802289, 0.808657, 0.806423, 0.805354, 0.799749, 0.799482, 0.795535, 0.794796, 0.781174, 0.807271, 0.775387, 0.767741, 0.775728, 0.777365, 0.777455, 0.777497, 0.778012, 1.01123, 1.01292, 1.04932, 1.0798, 1.10231, 1.08767, 1.09583, 1.09609, 1.10602, 1.27598, 1.27586, 1.41192, 1.41596, 1.44348, 1.42519, 1.44136, 1.41748, 1.41565, 1.38824, 1.09421, 1.09516, 1.10243, 0.986179, 0.845208, 0.863781, 0.794874, 0.81124, 0.796039, 0.781175, 0.78762, 0.787106, 0.784163, 0.783971, 0.790325, 0.791629, 0.792354, 0.791455, 0.79514, 0.794606, 0.795914, 0.791238, 0.790752, 0.790672, 0.792723, 0.792393, 0.793892, 0.804943
0.819301, 0.822064, 0.821344, 0.816201, 0.81578, 0.825427, 0.823937, 0.821919, 0.836589, 0.820123, 0.827581, 0.822513, 0.822608, 0.821854, 0.822289, 0.821604, 0.814928, 0.815259, 0.828199, 0.805451, 0.816746, 0.816756, 0.817451, 0.814315, 0.819839, 0.819119, 0.828786, 0.815192, 0.828864, 0.818344, 0.812469, 0.813399, 0.811863, 0.812483, 0.813725, 0.816334, 0.818486, 0.817589, 0.814091, 0.814905, 0.814846, 0.809389, 0.81917, 0.808742, 0.808959, 0.819491, 0.815387, 0.809389, 0.806797, 0.807851, 0.818993, 0.807445, 0.805578, 0.80492, 0.80639, 0.80437, 0.804478, 0.806403, 0.807331, 0.815969, 0.816631, 0.814002, 0.814904, 0.823304, 0.809209, 0.812062, 0.811857, 0.818168, 0.81614, 0.813295, 0.812653, 0.812546, 0.812637, 0.817119, 0.820361, 0.821682, 0.821019, 0.819715, 0.816043, 0.816474, 0.816148, 0.830238, 0.826873, 0.828479, 0.822215, 0.822281, 0.828395, 0.829785, 0.820003, 0.822529, 0.819015, 0.829255, 0.821575, 0.820957, 0.8256, 0.820137, 0.819484, 0.817028, 0.826037, 0.822551, 0.823381, 0.815979, 0.819184, 0.815913, 0.815838, 0.814753, 0.818503, 0.812638, 0.829418, 0.824405, 0.822406, 0.817769, 0.811821, 0.81195, 0.812073, 0.813222, 0.812801, 0.817439, 0.814801, 0.816888, 0.81186, 0.811271, 0.822483, 0.810636, 0.810268, 0.810082, 0.810958, 0.825487, 0.811839, 0.810805, 0.81038, 0.810061, 0.810255, 0.809787, 0.829228, 0.809184, 0.835805, 0.825033, 0.824978, 0.805533, 0.807551, 0.807159, 0.808037, 0.806371, 0.807322, 0.80758, 0.823981, 0.80526, 0.806058, 0.805679, 0.80492, 0.806965, 0.817849, 0.803974, 0.802665, 0.805463, 0.804049, 0.807001, 0.804759, 0.803663, 0.802046, 0.806084, 0.805764, 0.803683, 0.807062, 0.80653, 0.836439, 0.810825, 0.810562, 0.799865, 0.815652, 0.809113, 0.80066, 0.799429, 0.826228, 0.800843, 0.815495, 0.796568, 0.79658, 0.801151, 0.804197, 0.803586, 0.799238, 0.798634, 0.804972, 0.799608, 0.801258, 0.799556, 0.800243, 0.801534, 0.80126, 0.800361, 0.795218, 0.797067, 0.795333, 0.793982, 0.794768, 0.792916, 0.796649, 0.79414, 0.797221, 0.797139, 0.803825, 0.804999, 0.802324, 0.796998, 0.78813, 0.787952, 0.796725, 0.789116, 0.797788, 0.792426, 0.791243, 0.790603, 0.796954, 0.796004, 0.795476, 0.796636, 0.798478, 0.798874, 0.796921, 0.804591, 0.797591, 0.797917, 0.807518, 0.802196, 0.802954, 0.797882, 0.798881, 0.80178, 0.801165, 0.802971, 0.799494, 0.799459, 0.803352, 0.80369, 0.800548, 0.800462, 0.80574, 0.805539, 0.80777, 0.815908, 0.79866, 0.800362, 0.798472, 0.783701, 0.780691, 0.780662, 0.773385, 0.776669, 0.763198, 0.777714, 0.766171, 0.775089, 0.780215, 0.779644, 0.779814, 1.01101, 1.01305, 1.10163, 1.09811, 1.10843, 1.09836, 1.10816, 1.13026, 1.25811, 1.43313, 1.43326, 1.44796, 1.44226, 1.44378, 1.42647, 1.16971, 1.1703, 1.1038, 1.10569, 1.0946, 1.10945, 0.892291, 0.810948, 0.804886, 0.783564, 0.795105, 0.777193, 0.78441, 0.776553, 0.787791, 0.794619, 0.78665, 0.784982, 0.790864, 0.793854, 0.794158, 0.791205, 0.791545, 0.790343, 0.794544, 0.792326, 0.79301, 0.795302, 0.794735, 0.795633, 0.804447
0.818572, 0.815084, 0.836013, 0.830594, 0.815973, 0.814809, 0.815956, 0.81727, 0.82862, 0.81964, 0.819797, 0.825117, 0.819312, 0.815544, 0.823736, 0.822299, 0.825143, 0.779539, 0.777846, 0.77823, 0.781085, 0.792719, 0.782034, 0.827077, 0.812163, 0.813025, 0.81441, 0.812527, 0.819363, 0.826057, 0.819551, 0.812128, 0.813856, 0.826411, 0.811302, 0.8115, 0.810706, 0.81413, 0.812743, 0.812607, 0.809683, 0.821313, 0.810209, 0.81004, 0.81118, 0.81881, 0.818275, 0.819157, 0.817496, 0.811851, 0.811365, 0.809457, 0.807983, 0.809301, 0.809759, 0.80826, 0.80885, 0.814642, 0.808993, 0.809807, 0.812346, 0.811064, 0.811347, 0.813174, 0.81773, 0.813396, 0.813002, 0.811377, 0.811203, 0.812946, 0.813186, 0.813827, 0.813555, 0.820069, 0.814569, 0.814569, 0.824984, 0.818011, 0.818256, 0.816945, 0.815248, 0.815998, 0.815481, 0.815919, 0.815927, 0.827986, 0.828624, 0.817609, 0.818696, 0.828956, 0.828938, 0.821483, 0.821623, 0.81559, 0.815897, 0.832424, 0.821553, 0.818814, 0.818419, 0.818319, 0.815301, 0.814854, 0.814763, 0.831133, 0.816094, 0.815989, 0.817616, 0.814335, 0.81464, 0.832855, 0.816706, 0.814787, 0.819352, 0.819154, 0.81574, 0.817098, 0.809683, 0.810194, 0.80898, 0.807518, 0.807908, 0.820199, 0.808895, 0.815626, 0.808217, 0.809317, 0.808759, 0.808387, 0.80647, 0.806012, 0.80789, 0.827106, 0.807093, 0.808163, 0.808039, 0.807403, 0.819639, 0.821055, 0.806292, 0.807008, 0.807176, 0.807713, 0.808482, 0.806135, 0.804946, 0.832208, 0.823632, 0.822459, 0.806548, 0.80714, 0.804813, 0.803785, 0.804999, 0.806758, 0.807773, 0.80441, 0.803898, 0.803719, 0.804151, 0.803884, 0.802638, 0.800605, 0.799038, 0.807722, 0.797008, 0.800957, 0.795449, 0.808206, 0.807884, 0.795977, 0.797059, 0.804435, 0.80437, 0.804155, 0.799539, 0.800538, 0.79942, 0.797709, 0.803974, 0.79921, 0.798941, 0.79544, 0.801872, 0.801727, 0.80059, 0.815426, 0.80114, 0.801072, 0.799957, 0.800537, 0.810672, 0.798311, 0.798514, 0.822236, 0.806047, 0.794624, 0.795749, 0.795661, 0.800032, 0.800791, 0.80132, 0.803349, 0.803964, 0.803892, 0.790841, 0.789319, 0.78833, 0.793603, 0.792296, 0.791075, 0.804647, 0.806099, 0.790364, 0.788996, 0.792931, 0.791782, 0.788885, 0.798653, 0.798251, 0.797902, 0.804407, 0.800272, 0.807904, 0.800707, 0.800741, 0.800684, 0.803987, 0.802873, 0.801308, 0.801008, 0.797851, 0.806024, 0.79977, 0.802397, 0.803537, 0.803291, 0.803564, 0.802524, 0.808466, 0.804406, 0.804979, 0.812623, 0.803175, 0.801838, 0.798017, 0.794232, 0.794201, 0.793163, 0.769446, 0.776958, 0.773776, 0.776492, 0.763518, 0.77334, 0.78911, 0.790157, 0.788451, 0.849988, 1.06001, 1.09398, 1.09239, 1.10666, 1.09974, 1.12968, 1.13292, 1.28093, 1.28143, 1.39801, 1.4032, 1.40458, 1.45086, 1.45182, 1.17156, 1.11412, 1.11226, 1.115, 0.940778, 0.849043, 0.842121, 0.843512, 0.805622, 0.794525, 0.781367, 0.780847, 0.778861, 0.788428, 0.785374, 0.780472, 0.786697, 0.786927, 0.786944, 0.796677, 0.793992, 0.794538, 0.794372, 0.790432, 0.79101, 0.797233, 0.79745, 0.798266, 0.801853, 0.791945, 0.8014
