0.00377258, 1.30863, 0.00348342, 0.851214, 0.00361147, 0.00343874, 0.00369336, 0.871978, 0.00410664, 1.30232, 0.00391047, 0.0034123, 1.18716, 0.00400553, 0.908918, 0.91307, 0.00377339, 0.00360116, 0.00388094, 1.19474, 0.00365216, 1.56053, 0.935739, 0.938782, 0.938695, 1.24391, 1.24295, 0.94482, 0.94687, 0.949471, 0.949619, 0.950057, 0.950345, 0.952276, 0.951374, 1.31167, 0.950594, 0.952478, 0.952509, 0.95248, 0.954574, 1.05064, 1.30181, 0.963264, 0.00376291, 0.00396237, 1.02529, 1.0229, 0.00395732, 1.01318, 0.00349043, 0.987845, 0.00356501, 0.993554, 0.994571, 0.995587, 0.998164, 0.999291, 1.00101, 1.35747, 1.01187, 1.14732, 1.05446, 1.01934, 1.02286, 1.03093, 1.03948, 1.03429, 1.03703, 1.04926, 1.03993, 1.03553, 1.03516, 1.03562, 1.03764, 1.04372, 1.0605, 1.14257, 1.06567, 1.06982, 1.01835, 1.02045, 1.03573, 1.07551, 1.05076, 1.04332, 1.06406, 1.07204, 1.07073, 1.07189, 1.09328, 1.16343, 1.17473, 1.19079, 1.22559, 1.20146, 1.20306, 1.28335, 1.24078, 1.24172, 1.19319, 1.19448, 1.20666, 1.22003, 1.26524, 1.26692, 1.30444, 1.30077, 1.26574, 1.26449, 1.25073, 1.28642, 1.28652, 1.26466, 1.26496, 1.27633, 1.29664, 1.30377, 1.30604, 1.2924, 1.29512, 1.30657, 1.33316, 1.28909, 1.29944, 1.28853, 1.30182, 1.28108, 1.28131, 1.26707, 1.2584, 1.28298, 1.24695, 1.24143, 1.27238, 1.27588, 1.33433, 1.33272, 1.33358, 1.30873, 1.30008, 1.30193, 1.32611, 1.27079, 1.23742, 1.26372, 1.26296, 1.23177, 1.22866, 1.23066, 1.28077, 1.27865, 1.29099, 1.26392, 1.31703, 1.31299, 1.31214, 1.41333, 1.4473, 1.57103, 0.00382261, 1.36447, 1.36418, 1.37192, 1.37083, 1.65014, 0.00411396, 1.40227, 0.00335585, 1.55068, 1.43727, 1.42757, 0.00350422, 1.47519, 0.00447102, 0.00417934, 0.00361646, 1.4331, 1.43287, 1.43261, 0.00392338, 0.00385002, 1.42811, 1.4278, 1.42366, 1.41903, 1.4193, 1.41698, 1.41548, 1.41683, 0.00377975, 1.44819, 1.62099, 1.48515, 1.41172, 1.41016, 1.41068, 1.46217, 1.41928, 0.00370641, 1.43225, 1.49952, 0.0038611, 1.56099, 0.00409417, 1.84146, 1.56136, 1.63873, 1.42501, 1.43279, 1.43311, 1.4354, 1.44016, 1.44553, 0.00370846, 1.45092, 0.00394981, 0.00355374, 0.00349762, 0.00378008, 0.00368745, 1.62185, 0.00389155, 1.4699, 1.47194, 1.47459, 0.00350485, 0.00367728, 1.54416, 1.65031, 0.00372057, 0.00431267, 0.00358839, 1.55287, 1.55145, 1.50963, 1.51283, 0.0038648, 1.5241, 1.5238, 0.00329666, 0.00402072, 0.00384248, 0.00397196, 0.00369622, 0.0036812, 0.00392535, 0.00407724, 0.00368782, 1.58086, 1.5766, 1.58275, 1.58387, 0.00375956, 0.00375129, 0.00384625, 0.00329061, 1.61431, 0.00397585, 1.6128, 1.61039, 0.00353921, 0.00341957, 0.00395853, 0.00367383, 1.64141, 0.00383571, 0.00401605, 0.00362229, 0.00381366, 1.66275, 1.66193, 0.00392638, 0.00406794, 0.00399822, 0.00389614, 0.00350496, 0.00381251, 0.00367778, 0.00398249, 0.00386957, 0.00380267, 0.00360037, 1.70687, 0.00355534, 0.00412657, 0.00326707
0.00354697, 0.00362425, 0.00388012, 0.00359014, 0.00341592, 0.866663, 0.909004, 0.886767, 0.882318, 0.00366108, 1.14774, 0.00357496, 1.30614, 0.00387408, 0.00375298, 0.00383113, 0.00381743, 1.29922, 0.929391, 0.931888, 0.932428, 1.54701, 0.935098, 0.935104, 0.936116, 0.937598, 1.12077, 0.0036459, 0.945241, 0.94731, 0.947502, 0.948994, 0.949485, 0.949005, 0.947943, 0.94883, 0.948692, 0.950776, 0.949848, 0.951812, 0.952968, 0.955735, 0.953295, 1.15731, 1.10579, 0.00356353, 1.04316, 0.0034916, 0.983898, 0.98489, 0.98641, 0.987305, 0.988478, 0.991282, 0.991921, 0.00349981, 1.27569, 1.5439, 1.00468, 1.01212, 1.02112, 1.55826, 1.01916, 1.02587, 1.02862, 1.02872, 1.03642, 1.03533, 1.03352, 1.02664, 1.0255, 1.02287, 1.02475, 1.02563, 1.02934, 1.0527, 1.05426, 1.03753, 1.07444, 1.03396, 1.06994, 1.07048, 1.07058, 1.07115, 1.07311, 1.07107, 1.06945, 1.08182, 1.08412, 1.09197, 1.1172, 1.15183, 1.16729, 1.21471, 1.23221, 1.19189, 1.20606, 1.19923, 1.20039, 1.20164, 1.21913, 1.22333, 1.20496, 1.2035, 1.20423, 1.27632, 1.27648, 1.26043, 1.26939, 1.28845, 1.28924, 1.28565, 1.28325, 1.29716, 1.42119, 1.31872, 1.31625, 1.31703, 1.31936, 1.31823, 1.32488, 1.32702, 1.32031, 1.32187, 1.3231, 1.31146, 1.3075, 1.29484, 1.29487, 1.29749, 1.30924, 1.29677, 1.29894, 1.30504, 1.29918, 1.31919, 1.31964, 1.34703, 1.37557, 1.37298, 1.33568, 1.29828, 1.29976, 1.30657, 1.30882, 1.27757, 1.29135, 1.28575, 1.28288, 1.29122, 1.27576, 1.24862, 1.26035, 1.26205, 1.27166, 1.27281, 1.27417, 1.28389, 1.28447, 1.36634, 1.45259, 1.36553, 1.36531, 1.34272, 1.37395, 1.69292, 1.6233, 1.37756, 1.49428, 0.00374149, 1.57276, 1.45002, 0.0034163, 0.00336815, 0.00438616, 0.00362243, 0.00339008, 0.00398213, 1.60018, 0.00345437, 1.42568, 1.47728, 1.42675, 1.42496, 1.423, 1.41958, 1.41386, 1.57593, 1.42742, 0.00365737, 1.40463, 1.4049, 1.65736, 0.00353822, 1.40402, 1.40483, 1.41583, 0.00392624, 1.46652, 1.53753, 1.43367, 1.49255, 1.79011, 0.0039373, 1.41509, 1.41571, 1.41635, 0.00349555, 1.48488, 1.47476, 0.00407858, 1.52978, 1.57951, 0.00340973, 0.00397151, 0.00395169, 1.71694, 0.00349057, 0.0033807, 1.45531, 1.45611, 0.00365486, 0.00371152, 0.00353236, 1.46794, 1.46841, 1.46948, 1.46812, 1.4685, 1.68003, 1.68128, 1.49843, 0.0102678, 0.00380227, 0.00424945, 0.00340162, 1.51339, 1.51546, 0.00419951, 0.00363882, 1.64611, 1.72667, 0.00383377, 0.0035894, 0.00361416, 0.0038245, 0.00422132, 1.56841, 1.56751, 1.57204, 1.57787, 1.57557, 1.5797, 0.00373393, 1.58286, 0.00333376, 1.59543, 1.59379, 0.00343304, 0.00366301, 0.010707, 0.00344082, 0.00373155, 0.00355652, 0.00399724, 0.00357586, 0.00401046, 0.00339719, 0.00428072, 0.00371364, 0.00418801, 0.00344987, 0.0109329, 0.00385007, 1.68947, 1.68064, 1.68056, 1.68009, 1.67816, 0.00394067, 0.00412323, 0.00316964, 1.6988, 1.69505, 1.69632, 1.69548, 1.69539
0.00401981, 0.856271, 0.853874, 0.00436414, 0.00392203, 1.03651, 1.03665, 1.06083, 0.890591, 0.8946, 0.00371894, 0.00367279, 0.0039286, 1.29572, 0.00377018, 1.02345, 0.00369127, 0.00366069, 0.0038805, 0.931057, 0.935482, 0.933534, 0.935676, 0.928321, 0.928533, 0.930432, 0.931351, 1.11626, 1.31995, 0.94536, 0.946758, 0.948851, 0.9502, 0.949944, 0.948616, 0.949164, 0.949275, 0.948285, 0.949729, 0.950719, 0.953136, 0.949915, 0.952788, 0.955034, 1.20261, 1.14854, 1.13371, 1.0803, 1.05109, 1.08435, 0.00368662, 0.991409, 0.994027, 1.30576, 1.35143, 0.998815, 1.00158, 1.00261, 1.0059, 1.03249, 1.01836, 1.0146, 1.01668, 1.01988, 1.02259, 1.02385, 1.02733, 1.02651, 1.02619, 1.02671, 1.02617, 1.08046, 0.997575, 0.998407, 1.0272, 1.02854, 1.02998, 1.04161, 1.0423, 1.08103, 1.08, 1.07948, 1.09622, 1.09773, 1.07496, 1.07516, 1.078, 1.099, 1.12236, 1.13454, 1.17067, 1.15788, 1.18859, 1.23837, 1.21553, 1.2373, 1.23899, 1.25032, 1.22613, 1.23384, 1.22945, 1.22721, 1.21963, 1.2258, 1.26202, 1.2626, 1.27611, 1.29145, 1.34315, 1.34314, 1.34258, 1.3398, 1.33962, 1.36069, 1.42458, 1.37086, 1.37033, 1.45487, 1.40775, 1.40776, 1.38063, 1.38498, 1.36815, 1.36043, 1.34077, 1.33608, 1.34286, 1.33403, 1.33383, 1.34772, 1.33407, 1.33008, 1.33893, 1.33657, 1.33861, 1.33516, 1.31637, 1.33809, 1.32914, 1.33236, 1.31274, 1.31301, 1.30342, 1.30428, 1.31718, 1.35972, 1.29785, 1.30485, 1.31429, 1.28166, 1.28157, 1.33025, 1.23789, 1.23802, 1.26468, 1.27723, 1.26254, 1.26962, 1.27847, 1.28502, 1.34727, 1.39327, 1.42331, 1.37077, 1.36183, 1.36104, 1.36931, 1.37177, 1.37222, 1.37891, 1.53806, 0.00346306, 1.39875, 1.46097, 0.00356888, 0.00399282, 0.00317014, 0.00389542, 0.00364901, 1.47799, 1.46388, 1.41709, 1.42323, 1.41645, 1.49221, 0.0037235, 1.41057, 1.40226, 1.60387, 1.43196, 1.59983, 1.6099, 1.56782, 1.63666, 0.00396356, 1.41669, 0.00331256, 1.46153, 1.45163, 1.48225, 0.0035716, 1.40965, 0.00361606, 0.00399128, 1.41389, 1.4128, 1.4197, 1.42045, 1.43084, 1.43029, 1.42771, 1.42519, 0.00387465, 0.00425142, 0.00363994, 1.6695, 0.00391645, 0.00367004, 0.00335721, 0.00382325, 0.0038955, 1.45627, 0.00362045, 1.45848, 1.45839, 1.46073, 1.46375, 1.79034, 0.00358586, 1.55506, 0.00380183, 0.00417911, 0.00376763, 0.00381943, 0.00380544, 0.0037117, 1.49913, 1.74749, 0.00377179, 1.51188, 0.00375607, 1.64861, 0.003792, 0.00405867, 0.00360796, 1.56202, 1.56207, 1.56151, 1.56772, 1.57195, 1.57017, 1.57262, 0.00392988, 0.00404842, 0.00371153, 1.61019, 0.00355118, 1.59316, 0.00396189, 1.59859, 1.60224, 1.60564, 0.00384106, 1.60987, 0.00392652, 0.00379351, 0.00367045, 1.66294, 0.00399726, 0.00376763, 0.00379333, 0.00391573, 0.00357391, 0.0111682, 0.00320157, 0.0041173, 1.6761, 1.67562, 1.67592, 1.67489, 1.6761, 1.67764, 1.6851, 1.69431, 1.69365, 1.69911, 1.69967
0.00372026, 0.0040909, 0.0111044, 1.19548, 0.982206, 0.00370356, 0.880485, 1.02308, 0.893109, 0.89758, 0.899737, 0.901466, 0.902751, 0.903945, 1.12653, 0.00347908, 0.00395435, 0.00366803, 1.44475, 1.45766, 0.929481, 0.93149, 0.932209, 0.932295, 0.929374, 0.929575, 1.19812, 1.55477, 0.943492, 0.945426, 0.947751, 0.949014, 0.949258, 0.950045, 0.948959, 0.948882, 0.948355, 0.952411, 0.951111, 0.948929, 0.947762, 0.949269, 0.951402, 1.07572, 1.07088, 0.00371551, 1.00583, 0.00368225, 1.00574, 0.986293, 0.9886, 0.00372451, 0.00365224, 1.01149, 1.01156, 1.00483, 1.22748, 1.00414, 1.00547, 0.00357639, 1.01174, 1.01289, 1.01994, 1.01957, 1.02249, 1.02437, 1.02335, 1.02404, 1.02468, 1.02916, 1.01282, 1.00512, 0.989583, 1.00194, 0.996329, 0.99235, 0.991925, 0.992852, 1.00744, 0.997391, 1.02147, 1.02246, 1.05306, 1.07933, 1.08595, 1.08088, 1.11343, 1.10691, 1.15884, 1.1606, 1.18316, 1.19151, 1.22504, 1.23093, 1.23339, 1.23798, 1.24434, 1.23926, 1.23943, 1.26031, 1.25493, 1.24695, 1.24898, 1.26956, 1.25373, 1.27695, 1.28523, 1.29873, 1.3057, 1.28765, 1.30229, 1.34534, 1.3332, 1.36729, 1.35419, 1.38132, 1.36821, 1.3697, 1.36898, 1.39506, 1.3821, 1.35565, 1.35635, 1.35579, 1.35467, 1.36014, 1.36536, 1.37194, 1.35723, 1.35658, 1.36597, 1.38601, 1.36912, 1.37052, 1.37, 1.34569, 1.34384, 1.34219, 1.33356, 1.31898, 1.31409, 1.31517, 1.32357, 1.34571, 1.34519, 1.33623, 1.32902, 1.32333, 1.29829, 1.29862, 1.29472, 1.33081, 1.26304, 1.26608, 1.2639, 1.30157, 1.30338, 1.32325, 1.28675, 1.27227, 1.2723, 1.38657, 1.38873, 1.38674, 1.39312, 0.00375363, 1.38545, 1.36801, 1.37863, 1.37482, 0.00381714, 0.00378074, 0.00357051, 1.37802, 1.37964, 0.00366962, 0.0037278, 1.38849, 1.47644, 1.47556, 0.00388677, 0.00375323, 0.00384318, 0.00356367, 0.00384712, 0.00390404, 1.49475, 1.38782, 1.38267, 1.38435, 1.38313, 1.38354, 1.38512, 1.38492, 1.38791, 1.38903, 0.0040349, 1.57251, 1.60276, 1.48021, 1.67237, 1.40524, 1.4028, 1.40442, 1.40575, 1.41229, 1.41499, 1.41644, 1.41795, 1.41442, 1.41643, 0.00377334, 1.57458, 0.00360069, 1.4144, 1.41421, 1.53466, 0.00355873, 0.00395508, 0.00394553, 0.00355917, 0.00366588, 1.47835, 0.00407739, 1.46117, 0.00360368, 0.00350719, 0.00385044, 1.4804, 0.00368775, 0.00347248, 0.00361902, 1.4887, 1.49187, 1.48998, 1.49427, 1.49528, 1.49579, 1.93522, 1.59664, 1.6787, 0.0037659, 0.00405003, 0.00364486, 0.00395819, 0.00352095, 1.5614, 1.56315, 1.56921, 1.56852, 1.57204, 1.5707, 1.57507, 0.00377465, 0.0033879, 0.00347228, 0.00343115, 0.00379662, 0.00392209, 0.00397614, 0.00372555, 0.0039799, 2.19841, 0.00337933, 0.0036426, 0.00385435, 1.89795, 0.00389876, 1.70927, 0.00397284, 1.87561, 0.00371445, 0.00338941, 0.00343646, 1.75997, 0.00379398, 0.00375339, 0.00356808, 1.67358, 1.6726, 1.67692, 1.67432, 1.68579, 0.00361676, 1.69331, 0.00369006, 1.70073
1.04354, 0.00360763, 0.00333564, 0.004079, 0.00341522, 0.0040113, 0.886914, 0.917586, 0.892566, 0.896528, 0.89836, 0.900994, 0.89997, 0.904174, 0.904482, 1.14426, 0.00378055, 0.00347976, 1.40967, 1.42215, 0.928794, 0.927431, 0.929937, 1.48733, 0.00358789, 0.937552, 1.52421, 1.54061, 0.946418, 0.948027, 0.947702, 0.949963, 0.951815, 0.952452, 0.952418, 0.949756, 0.948516, 0.948918, 0.949427, 0.946174, 0.946812, 0.947473, 0.00324566, 0.00318357, 0.00372462, 0.971211, 0.00319135, 0.986459, 0.98767, 1.0247, 0.00363794, 1.07793, 0.00356249, 1.0012, 1.00459, 1.2577, 0.00370035, 1.23657, 1.01693, 1.0184, 1.01936, 1.02438, 1.40625, 1.01866, 1.01677, 1.01816, 1.01911, 1.02043, 1.01985, 1.0158, 1.00863, 1.00402, 0.997144, 0.988557, 0.981694, 0.975168, 0.972979, 0.979022, 0.990431, 1.02579, 1.0326, 1.03574, 1.05993, 1.08112, 1.10278, 1.10476, 1.11951, 1.25189, 1.1435, 1.20676, 1.20665, 1.22618, 1.22989, 1.25046, 1.24385, 1.24049, 1.24724, 1.24729, 1.30359, 1.2499, 1.25666, 1.26679, 1.27436, 1.26213, 1.2718, 1.2712, 1.37621, 1.3078, 1.3066, 1.30417, 1.30718, 1.30819, 1.33166, 1.3311, 1.33978, 1.36509, 1.36469, 1.36366, 1.36151, 1.37007, 1.36945, 1.3513, 1.35011, 1.35038, 1.34907, 1.36114, 1.36127, 1.36, 1.36156, 1.36103, 1.36797, 1.3925, 1.38495, 1.36975, 1.37083, 1.38426, 1.38343, 1.38124, 1.34624, 1.33743, 1.38891, 1.3875, 1.38906, 1.3372, 1.3304, 1.36728, 1.33884, 1.31878, 1.27929, 1.2787, 1.29985, 1.30664, 1.30681, 1.32293, 1.33391, 1.29195, 1.29541, 1.28873, 1.27857, 1.28097, 1.25007, 1.27971, 1.28004, 1.28349, 1.34634, 1.30554, 1.34253, 1.3525, 1.39148, 1.39291, 1.37815, 1.37419, 0.00377762, 1.41326, 1.38398, 1.37629, 0.00331782, 1.38248, 1.38341, 1.4271, 1.38502, 1.38819, 1.39153, 1.45732, 0.00375535, 1.51365, 0.00348292, 1.37791, 1.37579, 1.37603, 1.377, 1.44746, 1.38007, 1.38185, 1.3858, 1.38523, 1.38688, 1.38758, 1.3902, 1.39352, 1.39663, 0.00354515, 1.39946, 1.40533, 1.4052, 1.41007, 1.40929, 1.40964, 1.41416, 1.41463, 1.41315, 1.41062, 1.40952, 1.40764, 1.40991, 1.40746, 1.4094, 1.41412, 1.57262, 1.67631, 0.00383958, 1.43291, 0.00386006, 1.45237, 0.00355111, 1.46941, 1.47286, 1.47323, 0.0040209, 1.48288, 1.48201, 1.48591, 1.48429, 1.48439, 0.00321697, 1.50419, 1.49982, 1.50426, 1.50493, 1.50927, 0.00365175, 0.00367144, 1.53042, 1.53697, 0.00375376, 1.54761, 0.00366771, 0.00414562, 0.00346868, 0.00391414, 0.00351888, 1.57112, 0.0034448, 0.00357489, 0.00370324, 0.00384615, 0.00395167, 0.00374666, 0.00352027, 0.00388012, 0.00332138, 0.00400198, 0.00382892, 1.62012, 0.00347305, 1.7838, 0.00349289, 0.00389004, 0.00367285, 0.00398758, 0.0035612, 0.0101369, 0.00349521, 0.0038686, 0.00367332, 0.00400005, 0.00362612, 1.67146, 0.00375976, 0.00383587, 0.00338427, 1.81636, 0.00339983, 0.00399884, 0.00405199, 0.0106273, 0.00416126
0.870094, 0.911282, 0.00400069, 0.00380063, 0.86833, 0.870645, 0.883755, 0.913258, 0.88761, 0.892822, 0.895984, 0.0037997, 0.902213, 0.904144, 0.00351668, 0.00353223, 0.0033665, 1.43413, 1.43394, 0.924166, 0.925247, 0.926992, 0.928801, 0.930752, 1.4707, 0.937735, 0.938936, 1.48261, 0.944357, 1.54591, 0.94603, 0.948602, 0.949681, 0.94577, 0.946477, 0.947735, 0.948654, 0.948784, 0.949964, 0.949557, 0.949433, 0.948652, 0.954617, 0.957175, 1.23406, 0.00364202, 0.00393903, 0.97454, 0.975152, 1.51106, 1.49419, 0.0035033, 0.00343916, 0.00392378, 1.14424, 0.00358909, 1.01247, 1.01281, 1.0147, 1.01712, 1.02029, 1.0374, 1.00773, 1.00875, 1.0081, 1.01213, 1.01532, 1.01608, 1.00535, 1.0028, 1.00201, 1.00371, 1.00918, 1.02417, 0.983447, 1.00744, 0.991818, 1.00433, 1.04215, 1.03546, 1.06304, 1.06262, 1.05642, 1.13864, 1.15782, 1.15732, 1.1747, 1.17599, 1.17976, 1.19043, 1.19552, 1.24001, 1.2258, 1.22181, 1.24903, 1.23385, 1.26169, 1.25419, 1.27227, 1.28214, 1.26025, 1.25657, 1.37476, 1.373, 1.37632, 1.27888, 1.30252, 1.36983, 1.36968, 1.30462, 1.37149, 1.3658, 1.36841, 1.43877, 1.41315, 1.32135, 1.37407, 1.37153, 1.38268, 1.37663, 1.36574, 1.3623, 1.35819, 1.36781, 1.35944, 1.35616, 1.35915, 1.3559, 1.35908, 1.36217, 1.36253, 1.36319, 1.35456, 1.35842, 1.35933, 1.36491, 1.36329, 1.37055, 1.36952, 1.3698, 1.36713, 1.37469, 1.35019, 1.37034, 1.33291, 1.33207, 1.33006, 1.32371, 1.30777, 1.31349, 1.28068, 1.31793, 1.31672, 1.31611, 1.32722, 1.34797, 1.34863, 1.32945, 1.25659, 1.25703, 1.25079, 1.26334, 1.26664, 1.26749, 1.30827, 1.30742, 1.32021, 1.31989, 1.3471, 1.40303, 1.44096, 0.0038618, 0.00380347, 1.36585, 1.3693, 1.37531, 1.37572, 1.38094, 1.38171, 0.00364002, 1.37717, 1.37733, 1.38178, 0.00362242, 0.00383994, 0.00339855, 1.38941, 0.00376143, 1.38672, 1.37665, 1.37571, 1.37998, 0.00379796, 0.0037153, 1.4849, 0.00372658, 1.4781, 1.38902, 1.51322, 1.39108, 1.48217, 1.48331, 1.50935, 1.4095, 1.40775, 1.40806, 1.40806, 1.40948, 1.41183, 1.41187, 1.41151, 1.40651, 1.40856, 1.40687, 1.40708, 1.41011, 1.4677, 0.00371844, 1.544, 1.44273, 0.00406048, 1.43777, 1.44232, 0.00368156, 1.63669, 0.00395344, 1.48628, 0.00369476, 1.47754, 1.476, 1.48006, 1.47847, 1.48285, 1.49667, 1.49703, 0.00369074, 1.50636, 1.50714, 1.50428, 0.00345646, 1.52253, 1.54515, 1.52785, 0.00367252, 1.58562, 0.00369722, 0.00396555, 0.00355633, 0.00390689, 0.00339344, 1.54771, 0.00386318, 2.17008, 0.00342442, 1.54863, 1.55701, 1.55512, 0.00373585, 0.00435908, 0.00325942, 0.00386323, 0.00339189, 0.0032272, 0.00359621, 0.00426221, 0.00383157, 0.00388441, 0.00365896, 0.00381149, 0.00362232, 0.00421322, 0.00374735, 0.00416088, 0.00356393, 1.79404, 0.00401955, 1.81059, 1.80799, 1.81604, 0.00376866, 0.003606, 0.00361371, 0.00414142, 0.00353575, 0.00438761, 0.00375882, 0.00408654
0.00400958, 0.00391572, 0.00352655, 0.00367354, 0.857889, 0.859742, 0.917654, 0.87802, 0.0036876, 0.00342738, 0.00355347, 0.0035614, 0.00358348, 0.0034395, 0.0037997, 1.39508, 1.39202, 1.37087, 0.00388658, 0.00375096, 1.4093, 0.925852, 0.927959, 0.928096, 0.928163, 1.45987, 0.00356085, 0.939047, 0.940226, 0.00357672, 0.944785, 1.24121, 1.18108, 0.943858, 0.945615, 0.944462, 0.946496, 0.948484, 0.949045, 0.946356, 0.94301, 0.943626, 0.947951, 0.951175, 0.952765, 0.00382434, 0.00375561, 1.27183, 1.29531, 1.2995, 1.31612, 1.20275, 0.00371817, 1.22884, 0.00322438, 1.11517, 0.00361247, 1.01626, 0.00384708, 1.11028, 1.11009, 0.997708, 0.999196, 1.00993, 1.0055, 1.01745, 1.02753, 1.01518, 1.00508, 1.03943, 0.99397, 0.993791, 0.988726, 1.02296, 0.965305, 1.00138, 0.996026, 1.00751, 1.01576, 1.01674, 1.0244, 1.08892, 1.08376, 1.08649, 1.11246, 1.17981, 1.18261, 1.18176, 1.1753, 1.18431, 1.20324, 1.29403, 1.22086, 1.21789, 1.24943, 1.22811, 1.2476, 1.27846, 1.30094, 1.2494, 1.26137, 1.26713, 1.26743, 1.28909, 1.3019, 1.30376, 1.29579, 1.34817, 1.34579, 1.3548, 1.32356, 1.34813, 1.34318, 1.3717, 1.36474, 1.36344, 1.35749, 1.35698, 1.3842, 1.34748, 1.34692, 1.34612, 1.36255, 1.36681, 1.36618, 1.42862, 1.35951, 1.42266, 1.42255, 1.35201, 1.35059, 1.34967, 1.35018, 1.37058, 1.36081, 1.39602, 1.39914, 1.3703, 1.36805, 1.35827, 1.36068, 1.37242, 1.36329, 1.40934, 1.38563, 1.32876, 1.34813, 1.35951, 1.34796, 1.34163, 1.316, 1.30956, 1.38244, 1.31416, 1.31934, 1.28705, 1.27514, 1.27696, 1.30818, 1.30836, 1.30654, 1.26392, 1.34086, 1.3158, 1.31353, 1.31498, 1.31599, 1.32788, 1.3277, 1.34128, 0.00375151, 1.38615, 0.00366993, 1.35415, 0.00346092, 1.36011, 1.35733, 1.35873, 1.45472, 1.35764, 0.00378357, 1.77769, 1.43375, 0.00374769, 1.57269, 1.36322, 0.00333339, 1.3654, 1.36838, 1.52859, 0.00378665, 1.47133, 0.00375307, 1.37823, 1.37548, 1.50347, 1.38443, 1.38335, 0.0040737, 1.50526, 0.00371316, 1.45799, 0.00371414, 1.59137, 0.00377356, 1.49271, 1.40949, 1.40777, 1.4129, 0.00375599, 1.4573, 1.45812, 0.00365988, 1.40868, 0.00395794, 0.0039569, 0.0036812, 0.00348001, 0.00363678, 1.44405, 0.00358172, 1.45054, 1.44994, 1.44734, 1.44871, 0.00352221, 0.00387274, 1.46906, 1.46878, 1.47648, 1.47559, 1.47601, 0.0038198, 1.54083, 0.0033267, 0.00361168, 1.50613, 1.50701, 0.00320943, 1.51655, 1.54151, 1.52478, 1.52206, 1.52333, 1.52616, 1.53404, 1.53396, 1.53982, 1.53814, 1.54479, 1.54313, 1.55, 1.54573, 1.54592, 1.55324, 1.55471, 1.55705, 1.55145, 1.55214, 1.56432, 0.00325772, 1.56417, 0.00373153, 1.72367, 0.00372676, 1.5731, 0.00361768, 0.00342203, 0.00346991, 0.00394827, 0.00384588, 0.00386952, 0.0035416, 1.77946, 0.00383832, 1.63252, 1.63072, 1.62797, 1.62848, 1.76885, 1.78346, 0.00386994, 0.00348523, 0.00362421, 0.00392795, 0.00345288, 0.0034539
0.00381302, 0.0038113, 0.994224, 1.0465, 0.854735, 0.00361923, 0.859568, 0.901863, 0.875094, 0.00353962, 0.00347011, 1.17905, 1.26022, 0.00332395, 1.36925, 1.38293, 1.37976, 1.38164, 1.37217, 0.00351048, 1.02916, 0.924833, 0.923528, 0.924364, 0.926268, 0.928094, 1.1574, 0.00326258, 0.936642, 1.52566, 0.938806, 0.939009, 0.941078, 0.940184, 0.942677, 0.00393856, 0.00415464, 0.00380993, 0.941255, 0.941775, 0.937334, 0.938374, 0.939124, 0.00379335, 1.2272, 0.00362071, 1.05765, 0.00388588, 1.15647, 0.963571, 0.964177, 0.990596, 0.991993, 0.00372716, 0.00362369, 0.00356153, 0.00389753, 1.07118, 1.11839, 1.07039, 1.06984, 1.02756, 1.04312, 0.961044, 1.03612, 0.943896, 0.97413, 0.984836, 0.971258, 0.971451, 0.97351, 1.00211, 0.963477, 0.985071, 0.96035, 0.978809, 0.985122, 1.00141, 1.02389, 1.03218, 1.05107, 1.10239, 1.14043, 1.1306, 1.12774, 1.16407, 1.19684, 1.19255, 1.19813, 1.19791, 1.25408, 1.27593, 1.25178, 1.24352, 1.24328, 1.24171, 1.24755, 1.31846, 1.3173, 1.26101, 1.26737, 1.27769, 1.28363, 1.29228, 1.30521, 1.30488, 1.34538, 1.34449, 1.31241, 1.32423, 1.32225, 1.30925, 1.30952, 1.31389, 1.31839, 1.40315, 1.34712, 1.34634, 1.35232, 1.35291, 1.34572, 1.34469, 1.34319, 1.36448, 1.35933, 1.36385, 1.41188, 1.40965, 1.41278, 1.41292, 1.41653, 1.43991, 1.48055, 1.41032, 1.40967, 1.3715, 1.39192, 1.38896, 1.36022, 1.35921, 1.36066, 1.36163, 1.36605, 1.39827, 1.37137, 1.35605, 1.35806, 1.37855, 1.41125, 1.41511, 1.33933, 1.37248, 1.30362, 1.3025, 1.32784, 1.32265, 1.31256, 1.29367, 1.30115, 1.29264, 1.29584, 1.34549, 1.31833, 1.30865, 1.30727, 1.32774, 1.3271, 1.30543, 1.3291, 1.38637, 1.36852, 1.39189, 1.34679, 0.00400349, 1.35733, 0.00354559, 0.00373336, 0.00368065, 1.34814, 0.00339724, 1.35055, 0.00368151, 1.74597, 1.43349, 0.0041127, 0.00371897, 1.39538, 1.41646, 1.39999, 0.00378034, 1.385, 0.00364529, 1.37145, 0.00384316, 0.00362284, 0.00364483, 1.37025, 1.36797, 1.37365, 0.0037627, 0.00373819, 0.00376688, 1.39637, 0.00362503, 1.40071, 0.00364322, 1.47925, 1.41872, 1.42222, 0.00345269, 1.39809, 1.38365, 1.38576, 1.43084, 0.00337619, 0.00376351, 1.44749, 0.0032368, 0.00382626, 0.00393386, 0.00379828, 1.44982, 1.45168, 1.44991, 1.45091, 0.00338832, 1.602, 0.00336614, 1.47304, 1.47256, 1.47558, 0.00355915, 1.49746, 0.00352653, 1.4953, 1.5031, 1.49993, 1.50259, 2.36324, 0.00365344, 1.59657, 0.00366481, 1.65169, 0.00357679, 1.53378, 1.53739, 1.53775, 1.53785, 0.00367236, 0.00352976, 0.00384064, 0.00362155, 1.54808, 1.54822, 1.55076, 1.5515, 1.54808, 1.54708, 1.56195, 1.5541, 1.66714, 1.6822, 1.55183, 1.57224, 1.61293, 0.00368336, 1.56818, 1.57574, 0.00399179, 0.00371468, 0.00398278, 0.0032975, 1.61495, 0.00388517, 0.00371342, 0.0034491, 0.00345469, 1.62968, 1.62737, 1.62496, 1.63337, 0.00345745, 1.79708, 0.00344114, 1.63185, 1.63709, 1.63552
1.01849, 1.03145, 1.06384, 1.08323, 1.11239, 1.15811, 0.00362863, 0.00412538, 0.00372595, 0.00347972, 0.00366512, 0.00395515, 0.00375038, 1.22547, 0.0036823, 1.09202, 1.38229, 1.38441, 1.37626, 0.912435, 1.01313, 0.919132, 1.07979, 0.922769, 0.92501, 0.927912, 1.29907, 0.932477, 0.932157, 0.935005, 0.935574, 0.935794, 0.937166, 1.17802, 0.00381648, 1.06808, 1.28633, 0.935387, 0.930487, 0.932117, 0.932147, 0.933247, 0.936428, 0.938773, 0.00360715, 0.942033, 0.00354297, 1.15097, 0.00339987, 0.965672, 0.974243, 0.973942, 0.0037319, 0.00332722, 1.03865, 1.04664, 0.989944, 0.989667, 0.99172, 0.998656, 0.997761, 0.933093, 0.949287, 0.944361, 0.936218, 0.918362, 0.942551, 0.942812, 0.942439, 0.9776, 0.966972, 0.968462, 0.952248, 0.954769, 0.963546, 0.964428, 0.965415, 0.981277, 1.00025, 1.03098, 1.08243, 1.10351, 1.14294, 1.13714, 1.16721, 1.16837, 1.2054, 1.19475, 1.19321, 1.21219, 1.21236, 1.20874, 1.27898, 1.22746, 1.23048, 1.28791, 1.24489, 1.26071, 1.27075, 1.27028, 1.26778, 1.26992, 1.28031, 1.28061, 1.25635, 1.27816, 1.28174, 1.29295, 1.30014, 1.30056, 1.30041, 1.31258, 1.32955, 1.32237, 1.32913, 1.33708, 1.33593, 1.33463, 1.34131, 1.34542, 1.30743, 1.31044, 1.39104, 1.3901, 1.3885, 1.39286, 1.37533, 1.41113, 1.41332, 1.50366, 1.51012, 1.50405, 1.45184, 1.45265, 1.52033, 1.48767, 1.45409, 1.37598, 1.362, 1.36101, 1.36203, 1.36704, 1.36596, 1.38912, 1.39487, 1.38468, 1.38531, 1.36378, 1.36674, 1.36553, 1.38735, 1.3642, 1.36417, 1.30667, 1.32518, 1.32249, 1.31215, 1.31972, 1.3222, 1.29835, 1.30279, 1.28545, 1.27622, 1.26976, 1.27084, 1.23814, 1.23721, 1.28441, 1.24419, 1.33722, 1.31959, 1.28928, 1.31074, 1.31295, 0.00365839, 1.40234, 0.00380632, 0.00332762, 1.34091, 1.33992, 1.33371, 1.33584, 0.00399624, 0.00351451, 0.00363321, 1.35006, 0.00365074, 0.00372848, 0.00349311, 1.34784, 0.00372619, 1.52692, 0.00348138, 1.35438, 0.00392742, 0.00393858, 1.42174, 1.57121, 1.41728, 1.45467, 0.00393673, 1.47559, 0.00363195, 1.39183, 1.39154, 1.63749, 1.56517, 0.00368629, 0.00334185, 0.00429178, 1.53738, 0.00398156, 0.00387184, 0.00384779, 0.00355425, 0.00358808, 0.00369941, 1.42813, 0.0035649, 0.00410402, 0.00382971, 0.00353978, 0.00366951, 1.45513, 1.45499, 1.45877, 1.46184, 1.47203, 1.47102, 0.00372948, 0.00391828, 1.48288, 1.48809, 1.49629, 0.00370944, 1.50465, 1.50498, 1.50394, 0.0040939, 0.00358991, 0.00376958, 0.00391088, 0.00352754, 0.00406836, 0.00358455, 1.53582, 1.53597, 0.00380174, 0.00350281, 0.00386874, 0.00370719, 0.00350845, 0.00358567, 0.00364708, 0.00331926, 1.54664, 0.00350614, 1.54481, 0.00380678, 1.53703, 1.5404, 1.53946, 1.54497, 1.54311, 1.54724, 1.54389, 0.0036612, 0.00355067, 0.00363474, 1.69905, 0.00362121, 1.77848, 0.00360874, 1.724, 1.72751, 1.80074, 1.79311, 1.71077, 1.70646, 1.62677, 0.00388116, 0.00383004, 0.00352311, 0.00370761, 1.62659, 1.6339, 0.00362878
0.00377602, 0.00358539, 0.00369413, 0.00382556, 1.09805, 0.00358226, 0.828668, 1.06443, 1.00276, 0.00315886, 0.00339471, 0.00342145, 0.00381486, 0.00352065, 1.38176, 0.00358521, 1.36125, 1.36935, 0.00379046, 1.37859, 1.38838, 1.38955, 1.39462, 1.42001, 1.37542, 0.00357206, 0.929642, 0.931995, 0.929525, 0.933775, 0.931138, 0.932841, 0.00396624, 0.00364147, 0.00369055, 0.00342321, 0.928593, 0.927704, 0.930572, 0.932393, 0.933092, 1.64561, 0.935849, 0.00352236, 0.00374992, 0.00374861, 0.937635, 0.939508, 0.00361659, 0.0040418, 0.957156, 0.959558, 0.00404589, 0.00384091, 1.00472, 1.03057, 1.02549, 0.97508, 0.993748, 0.950867, 0.953088, 1.02101, 0.911305, 1.00602, 0.916226, 0.918466, 0.920788, 0.939333, 0.924986, 0.923234, 0.939098, 0.938654, 0.946842, 0.966932, 0.965507, 0.969642, 0.970516, 1.01961, 1.03246, 1.11553, 1.11561, 1.12756, 1.14641, 1.15512, 1.16564, 1.17632, 1.19612, 1.20396, 1.2668, 1.25852, 1.25836, 1.26276, 1.26257, 1.26351, 1.2559, 1.25017, 1.25993, 1.26031, 1.27431, 1.27137, 1.25609, 1.28077, 1.24986, 1.25577, 1.24449, 1.29892, 1.30235, 1.32514, 1.32324, 1.32142, 1.31916, 1.32758, 1.33264, 1.33211, 1.33398, 1.33857, 1.33881, 1.33495, 1.33686, 1.34117, 1.32731, 1.31923, 1.32953, 1.33147, 1.37948, 1.34271, 1.35342, 1.35596, 1.38863, 1.42639, 1.50528, 1.51412, 1.53658, 1.55504, 1.50713, 1.44154, 1.46051, 1.46008, 1.3896, 1.38311, 1.39108, 1.3933, 1.38297, 1.37505, 1.37398, 1.37533, 1.3757, 1.36394, 1.36343, 1.36194, 1.3604, 1.36066, 1.36709, 1.38117, 1.31273, 1.32645, 1.3195, 1.33071, 1.33228, 1.30946, 1.2978, 1.2978, 1.25985, 1.25647, 1.23686, 1.24675, 1.22329, 1.23024, 1.25026, 1.25078, 1.2991, 1.25857, 1.30272, 1.32995, 1.33624, 0.003567, 1.41262, 0.00354011, 0.00349411, 0.00355682, 1.51398, 0.00387218, 0.00363258, 0.0036745, 0.00411619, 0.00361551, 0.00367634, 0.003671, 0.0035108, 1.33727, 0.00380119, 1.35465, 1.35456, 0.00361582, 0.00367996, 0.00352106, 1.34653, 1.34669, 0.0035381, 0.00357666, 1.37503, 1.37623, 1.38212, 0.00344685, 0.00397315, 1.38546, 1.38048, 0.00372513, 1.52292, 0.00370678, 1.36673, 0.00339341, 1.82137, 0.00376575, 0.00388572, 0.00402192, 0.00377172, 0.00380186, 1.65118, 0.00369683, 1.50875, 0.00376417, 0.00376813, 0.00350014, 0.00371968, 0.00353319, 0.00388499, 0.00367757, 0.00381626, 0.00360286, 0.00344802, 0.00342565, 0.00359216, 0.00365934, 0.00351351, 0.00362773, 1.62121, 0.00352534, 0.00357429, 1.51503, 1.514, 0.00369093, 0.00433086, 0.00348955, 0.00351212, 0.00385936, 1.5294, 1.53142, 1.665, 1.532, 1.54001, 1.53843, 0.00358277, 1.53124, 1.53276, 1.52986, 1.53075, 1.53393, 1.53373, 1.53638, 1.54085, 1.53974, 1.54335, 1.54698, 1.54708, 1.54548, 1.54533, 0.00399496, 1.55331, 0.00379319, 0.0040191, 0.0035986, 0.0036148, 0.00357287, 0.0036082, 0.00367807, 0.0037626, 1.639, 1.63613, 1.61051, 1.61211, 0.00376515, 1.61131, 1.61047, 0.00385262, 0.00365101, 0.00362877
0.843484, 0.810074, 0.00334757, 0.00392869, 0.993785, 0.00388958, 0.00332756, 0.00344493, 0.00360049, 0.00330678, 0.00356815, 0.00432247, 0.00353638, 1.38679, 1.3852, 0.00388011, 1.38151, 0.00379596, 0.00351635, 0.00990567, 0.00367276, 0.00427149, 0.00364897, 0.00352978, 0.00363003, 0.0041193, 0.927795, 0.92838, 0.00368327, 0.00390272, 0.0036136, 0.940202, 0.00372403, 0.988123, 0.922297, 1.07488, 1.08048, 1.06127, 0.928332, 0.932059, 0.932396, 0.932341, 0.93355, 0.93575, 0.936351, 0.932041, 0.00369611, 0.92855, 0.931094, 0.931951, 0.956985, 0.956068, 0.00340131, 1.21084, 0.00366852, 0.970659, 0.972501, 0.972695, 0.969828, 0.929316, 0.931778, 0.923837, 0.935428, 0.917116, 0.917144, 0.917315, 0.976626, 0.963159, 0.957071, 0.956053, 0.957803, 0.98495, 1.00228, 1.00267, 0.973086, 0.999178, 1.01648, 1.08802, 1.11155, 1.14615, 1.16273, 1.17206, 1.1649, 1.16642, 1.20587, 1.1881, 1.1883, 1.20636, 1.24891, 1.25678, 1.26483, 1.265, 1.24741, 1.25673, 1.25554, 1.25668, 1.26149, 1.25216, 1.25126, 1.26452, 1.26622, 1.27757, 1.364, 1.28074, 1.28754, 1.31233, 1.31086, 1.31724, 1.31444, 1.46811, 1.45354, 1.452, 1.49888, 1.34977, 1.36239, 1.3498, 1.35326, 1.33997, 1.31973, 1.31908, 1.39774, 1.39787, 1.32742, 1.323, 1.34773, 1.34243, 1.35688, 1.36908, 1.36946, 1.41424, 1.55425, 1.55505, 1.5164, 1.51765, 1.51954, 1.51678, 1.51785, 1.41556, 1.35224, 1.35025, 1.35511, 1.39604, 1.37486, 1.36893, 1.36765, 1.36502, 1.42036, 1.36705, 1.36262, 1.36412, 1.35477, 1.35457, 1.3706, 1.35512, 1.33202, 1.32915, 1.3401, 1.3673, 1.32232, 1.29847, 1.29609, 1.2961, 1.29756, 1.27496, 1.24002, 1.24028, 1.21785, 1.19064, 1.19552, 1.24363, 1.23724, 1.24133, 1.28902, 1.28797, 1.2881, 1.30927, 0.00368005, 0.00387085, 0.00352389, 1.37433, 0.00358161, 1.30649, 0.00367461, 1.38541, 0.0032598, 0.00390223, 0.00331275, 1.32549, 0.00341, 1.32858, 1.37869, 1.40292, 1.40211, 0.00349776, 0.00355974, 1.47414, 0.00351757, 0.00380231, 0.00381385, 0.00421959, 0.00382248, 0.00371742, 1.47895, 0.00385669, 0.00376578, 1.51774, 0.00390424, 1.36816, 0.00362391, 1.5468, 1.47155, 1.55727, 0.00337854, 1.47191, 0.00350156, 0.00393519, 0.00363321, 0.00392777, 0.00368101, 0.0105318, 1.90093, 1.43984, 1.44082, 0.0039715, 0.00356149, 1.44848, 0.00355953, 1.62193, 0.00373893, 0.00440027, 0.00364119, 1.51608, 0.00365607, 1.69352, 0.00353166, 0.00352892, 1.49934, 1.49861, 0.003538, 1.5053, 1.50986, 0.00401367, 0.00363512, 1.5273, 1.52515, 1.52624, 1.52449, 1.52298, 1.52621, 1.52583, 0.00361717, 1.53262, 1.53037, 1.53107, 1.52961, 1.527, 1.53026, 1.53044, 1.53065, 1.53313, 1.53758, 1.53789, 1.54404, 1.542, 1.54056, 1.54131, 1.5446, 0.00342459, 0.00350722, 0.00460513, 0.00346828, 1.59105, 0.00363627, 0.0109215, 0.00337841, 1.66564, 1.7236, 0.0035178, 0.00363773, 1.65365, 0.00369442, 0.00380477, 0.00402735, 0.00411985, 0.00363478, 0.00366838, 0.00319329
0.800616, 0.801675, 0.0037471, 0.7991, 1.01354, 0.00350111, 0.00357111, 0.00370388, 0.00356058, 0.00348947, 0.855139, 0.00392094, 0.00395204, 0.00372447, 0.00381831, 0.00331814, 0.00363224, 1.08434, 1.26757, 0.0036417, 0.00352827, 0.00394929, 0.0036653, 1.05831, 0.00371054, 0.00342677, 0.00368147, 0.00380458, 0.91988, 0.921943, 0.926165, 1.52416, 1.52628, 0.00354447, 1.10811, 0.914053, 1.05768, 1.08175, 1.09364, 1.10166, 1.10543, 1.14008, 1.13184, 0.00360023, 0.00349133, 0.00322009, 1.32305, 0.920737, 1.0857, 0.00364064, 0.939337, 0.996125, 1.00072, 1.24857, 0.971618, 1.05975, 0.989453, 0.966111, 0.96728, 0.967061, 0.923076, 0.935773, 0.93271, 0.929333, 0.939271, 0.939325, 0.971508, 0.994449, 0.975057, 0.988274, 0.984252, 0.981371, 0.991642, 0.993798, 0.991414, 0.998217, 1.06103, 1.13051, 1.14688, 1.2026, 1.17979, 1.18081, 1.1801, 1.19181, 1.22978, 1.25071, 1.25013, 1.26317, 1.2587, 1.25495, 1.21951, 1.2481, 1.23628, 1.23777, 1.25475, 1.25892, 1.25926, 1.26307, 1.27275, 1.279, 1.27191, 1.30447, 1.30594, 1.30449, 1.30621, 1.34112, 1.33024, 1.3292, 1.38367, 1.45761, 1.45525, 1.49402, 1.45151, 1.4577, 1.37024, 1.39192, 1.3784, 1.3567, 1.35518, 1.35661, 1.35749, 1.35851, 1.37835, 1.37187, 1.37743, 1.36147, 1.37296, 1.371, 1.38824, 1.38573, 1.39932, 1.3828, 1.40066, 1.37006, 1.38775, 1.52681, 1.41836, 1.36438, 1.39996, 1.38801, 1.42695, 1.36034, 1.35954, 1.36839, 1.37101, 1.38132, 1.37891, 1.36439, 1.36597, 1.36773, 1.40216, 1.36449, 1.33318, 1.32926, 1.32531, 1.381, 1.38164, 1.31669, 1.31663, 1.30856, 1.29425, 1.30361, 1.30445, 1.27648, 1.27373, 1.27556, 1.18214, 1.18961, 1.19372, 1.20303, 1.26294, 1.26302, 1.26317, 1.26299, 1.30568, 1.30009, 1.34047, 1.34066, 1.31308, 0.00369303, 1.29952, 1.2943, 1.44353, 1.29137, 1.36307, 1.364, 1.37388, 0.00347743, 0.0035946, 0.00344959, 1.41619, 1.31106, 1.3105, 0.00337623, 1.46627, 0.0035931, 0.00382165, 1.39238, 0.00362473, 0.00395104, 0.00344907, 0.00360029, 1.42716, 0.00369446, 0.00387814, 0.00369392, 1.36518, 1.35537, 0.00393629, 1.35327, 1.35353, 0.00362974, 1.74252, 1.56862, 0.00372203, 0.00347274, 0.00357123, 0.0034992, 0.00379851, 0.0038014, 0.00391936, 0.00378819, 0.00390127, 0.0038525, 1.43839, 1.43898, 1.44431, 0.0039382, 0.00371237, 0.00372044, 1.81337, 0.00364022, 0.00384657, 0.00368159, 0.00376396, 0.00359923, 0.00381534, 0.00360682, 0.00426975, 0.00383535, 0.00400405, 0.00342974, 0.00358667, 1.52496, 1.52463, 1.52378, 1.5224, 1.52271, 1.52239, 1.52356, 1.52708, 1.5269, 1.52808, 1.52756, 1.52649, 1.52374, 1.52449, 1.52958, 1.53034, 1.52983, 1.53325, 0.00366882, 0.00365808, 1.54532, 1.54422, 1.54207, 1.5401, 1.53813, 1.54534, 0.00359144, 0.00402578, 0.00391634, 0.00352893, 0.00376825, 1.73317, 0.00367714, 1.69536, 1.5662, 1.56635, 0.00370438, 1.64485, 1.64706, 1.77564, 1.59571, 1.59521, 0.00344962, 1.60607
0.79434, 0.795681, 0.797055, 0.797113, 0.00360883, 0.816286, 0.817861, 0.894951, 0.00339113, 0.00367568, 0.00375296, 0.0105949, 0.00362335, 0.00383072, 0.00368604, 0.00381896, 0.875903, 0.878181, 0.881828, 0.00370871, 0.00328332, 0.00373793, 0.00352027, 0.00343105, 0.00338292, 0.00376608, 0.00371698, 0.00398539, 0.0037215, 0.00393104, 0.911715, 0.00397326, 0.908881, 0.907107, 0.908299, 0.908595, 0.00375279, 0.00385751, 0.00359104, 0.916859, 0.00366555, 1.289, 1.19734, 1.28922, 0.903194, 0.904899, 0.904307, 1.14047, 1.72146, 0.00365926, 1.05843, 0.00352056, 0.0037821, 1.19613, 0.957622, 0.978054, 0.960061, 0.958985, 0.960552, 0.96052, 0.960165, 1.05817, 0.98345, 0.985059, 0.995718, 0.998086, 1.00132, 0.967685, 0.972985, 1.02013, 1.02138, 1.00854, 1.0037, 1.0157, 1.02744, 1.02933, 1.11612, 1.13299, 1.15623, 1.15982, 1.15669, 1.22317, 1.17371, 1.25764, 1.2272, 1.19373, 1.19443, 1.2247, 1.20002, 1.20279, 1.21928, 1.22353, 1.24752, 1.23254, 1.23148, 1.26242, 1.26519, 1.29197, 1.29609, 1.30113, 1.31761, 1.35552, 1.34591, 1.35172, 1.37833, 1.3822, 1.36051, 1.36838, 1.36586, 1.40129, 1.43419, 1.43579, 1.43396, 1.41845, 1.39592, 1.39164, 1.38409, 1.41793, 1.42486, 1.39446, 1.40239, 1.39011, 1.39202, 1.40292, 1.39584, 1.40202, 1.38508, 1.38094, 1.40297, 1.39575, 1.39058, 1.39584, 1.40492, 1.40295, 1.40169, 1.36055, 1.3676, 1.3845, 1.38512, 1.38702, 1.39458, 1.3924, 1.38203, 1.39418, 1.39324, 1.37946, 1.3692, 1.3673, 1.36751, 1.35859, 1.37879, 1.37767, 1.33788, 1.33751, 1.29938, 1.29865, 1.29975, 1.29707, 1.29825, 1.29468, 1.3446, 1.31221, 1.28801, 1.2903, 1.28142, 1.28057, 1.25095, 1.25336, 1.26218, 1.24587, 1.26892, 1.28069, 1.28117, 1.26156, 1.26297, 1.26375, 1.3549, 1.31952, 1.30539, 1.29549, 1.29619, 1.32407, 0.00361903, 1.28489, 1.28086, 1.28211, 1.2821, 1.43671, 1.37811, 1.43982, 0.00366933, 1.30386, 1.44428, 1.30913, 1.30909, 1.43912, 0.00390106, 1.4345, 1.43689, 0.00347524, 0.0033215, 1.84381, 1.40429, 1.35409, 0.00349401, 0.00346208, 0.00367376, 1.3538, 1.34973, 1.34708, 1.35106, 1.35746, 1.74532, 0.00395276, 0.00370065, 0.00369921, 0.00378083, 0.00293933, 0.00382291, 1.4168, 0.00353452, 1.42879, 1.42975, 0.00369036, 1.43686, 1.44168, 0.00381043, 1.47888, 1.4859, 1.50216, 1.50064, 0.00358259, 0.00364737, 0.00345662, 0.00365992, 0.00372812, 0.00391994, 0.00329845, 0.00372459, 0.00362032, 0.00352903, 0.0038683, 0.00356874, 1.52366, 1.52137, 1.51996, 0.00375019, 0.00363087, 0.00359758, 0.00374509, 1.52503, 1.52039, 1.5234, 1.52629, 1.52548, 0.00372194, 1.52701, 1.52359, 1.52454, 1.52635, 1.53073, 0.00382022, 1.53926, 1.53895, 1.5431, 1.54139, 1.54756, 1.54563, 1.54631, 1.54588, 1.53866, 1.54306, 1.53924, 1.54039, 0.00382807, 0.00365581, 0.00342384, 0.00393939, 0.00390735, 0.00371355, 0.00363818, 1.58091, 0.00365101, 1.587, 0.00378708, 0.0037447, 0.00365408
1.18905, 0.00343654, 0.00383772, 0.00349028, 0.0036003, 0.00357835, 0.00378083, 0.00360429, 0.00363152, 0.00319192, 1.14643, 0.003396, 0.00394517, 0.00335925, 1.12192, 0.00347664, 0.00374547, 0.00357797, 0.0042633, 0.00349106, 0.00425026, 0.00326911, 0.00359739, 1.0704, 0.00348026, 0.00361456, 0.00390758, 0.00339716, 0.00402187, 0.00349009, 1.14978, 0.00349509, 0.90438, 0.906617, 0.00424298, 0.00355322, 0.00399981, 1.16723, 0.00346859, 0.00378491, 0.00368228, 0.0033867, 0.904024, 0.902249, 0.901874, 0.90337, 0.904304, 0.00385338, 1.79232, 0.00343748, 1.22386, 1.22719, 1.27138, 0.0036542, 1.12758, 0.953262, 0.954706, 0.956992, 0.965666, 0.966551, 1.02501, 0.986399, 0.988084, 0.985908, 1.0129, 0.965008, 0.967135, 0.962736, 0.961944, 1.0231, 1.02345, 1.02589, 1.00624, 1.03589, 1.0738, 1.0949, 1.11167, 1.14478, 1.15653, 1.15924, 1.17455, 1.20284, 1.18891, 1.22076, 1.2229, 1.26473, 1.23663, 1.19512, 1.19295, 1.2088, 1.20797, 1.22802, 1.28433, 1.28463, 1.26539, 1.28866, 1.29208, 1.33652, 1.33959, 1.33751, 1.3522, 1.35444, 1.35028, 1.3496, 1.3471, 1.37579, 1.36472, 1.39154, 1.37486, 1.4049, 1.43412, 1.4312, 1.42915, 1.43038, 1.44406, 1.41953, 1.46872, 1.41584, 1.41201, 1.41259, 1.41612, 1.42764, 1.41209, 1.40298, 1.39683, 1.39809, 1.40914, 1.42473, 1.41193, 1.41541, 1.39595, 1.39363, 1.39712, 1.39619, 1.39349, 1.34965, 1.347, 1.38068, 1.37748, 1.3743, 1.37428, 1.39984, 1.40558, 1.39958, 1.38468, 1.3675, 1.37006, 1.37106, 1.35992, 1.36073, 1.36601, 1.33321, 1.33222, 1.3417, 1.37772, 1.31013, 1.29236, 1.29213, 1.29274, 1.28996, 1.33241, 1.26598, 1.2676, 1.26435, 1.26543, 1.28509, 1.26814, 1.25424, 1.23783, 1.24203, 1.23086, 1.24154, 1.254, 1.21954, 1.24304, 1.24421, 1.28934, 1.30938, 1.30901, 1.30961, 1.34791, 0.00373858, 1.48322, 1.27532, 1.51992, 1.27737, 0.0039122, 1.39886, 0.00351297, 0.00352078, 1.40196, 1.42, 1.46664, 1.2979, 1.4372, 1.45758, 1.42103, 0.0034547, 1.39796, 0.00343676, 0.00358121, 1.35733, 0.00401065, 0.00362621, 1.33721, 0.00383557, 1.48798, 0.00320297, 1.50566, 1.34632, 1.35084, 0.00325579, 0.0108628, 0.00364348, 0.00358206, 0.00322408, 0.00383706, 0.0032605, 0.00365967, 1.41423, 1.41642, 0.00361549, 1.54766, 0.00338144, 0.0039512, 0.00382624, 0.00396558, 1.45759, 1.45869, 0.00371416, 1.5909, 0.00349146, 0.00353619, 0.00368563, 0.00380287, 0.0034541, 0.0037829, 0.00317604, 1.64943, 0.00356812, 0.00398455, 0.00330501, 0.00384427, 0.00351489, 0.00353603, 0.00376803, 0.00392211, 1.51224, 1.68874, 0.00319355, 0.00379526, 0.00366404, 1.62606, 1.51634, 1.52239, 1.51804, 1.52035, 1.52156, 1.52646, 0.00330467, 1.53378, 1.53221, 1.53385, 0.00370129, 0.00350205, 0.00331794, 1.54966, 1.54938, 1.55044, 1.54534, 1.54349, 1.54126, 1.54039, 1.54156, 1.54494, 0.00352927, 1.55538, 0.00339566, 1.56861, 0.00329315, 1.5754, 1.57556, 0.00361394, 0.00373263, 0.00359966, 0.0038013, 0.0039749
0.0034632, 0.0039535, 0.00349189, 0.00383402, 0.00359548, 0.00383459, 0.801773, 0.802651, 0.00373067, 0.00379628, 0.00371385, 0.00362566, 0.00356575, 0.852026, 0.0035588, 0.00384206, 0.00359971, 0.00367955, 0.0035696, 0.851289, 0.853759, 0.854583, 1.23397, 0.00371792, 0.00343265, 0.00386031, 0.0038019, 0.00324371, 0.00324863, 0.00343935, 0.00366099, 1.07118, 0.00355684, 0.00356783, 0.0036394, 1.51074, 0.00390637, 0.00330782, 0.00353414, 0.00381665, 0.00374777, 0.902737, 0.898803, 0.899022, 0.898938, 0.900255, 0.899718, 1.17498, 1.20556, 1.16429, 1.18999, 1.22286, 1.22312, 1.36123, 0.00360497, 0.956831, 0.97129, 0.967978, 0.969645, 0.970673, 0.98266, 1.02538, 0.987443, 0.991541, 0.989785, 0.989319, 0.990465, 0.975828, 0.975663, 0.967208, 0.988818, 0.9936, 1.04016, 1.03358, 1.09151, 1.12599, 1.13303, 1.1533, 1.158, 1.2065, 1.18182, 1.18493, 1.22668, 1.22619, 1.19938, 1.19959, 1.26294, 1.20548, 1.20261, 1.20313, 1.22905, 1.27927, 1.27385, 1.32127, 1.30206, 1.31249, 1.31339, 1.33472, 1.34519, 1.38676, 1.3867, 1.43423, 1.40645, 1.41362, 1.39396, 1.3954, 1.40702, 1.40992, 1.41867, 1.43171, 1.44067, 1.44175, 1.453, 1.4549, 1.44004, 1.44932, 1.44294, 1.442, 1.45853, 1.43694, 1.45108, 1.46173, 1.44646, 1.52998, 1.44469, 1.43811, 1.4412, 1.42505, 1.43344, 1.43467, 1.41235, 1.39184, 1.38604, 1.37508, 1.37064, 1.36718, 1.36814, 1.3699, 1.36703, 1.39062, 1.36259, 1.396, 1.40604, 1.47123, 1.38285, 1.36693, 1.36752, 1.35454, 1.36282, 1.33361, 1.33311, 1.33614, 1.34312, 1.34314, 1.33111, 1.33169, 1.35603, 1.29971, 1.29977, 1.30878, 1.34532, 1.27927, 1.27957, 1.28363, 1.28839, 1.27513, 1.27496, 1.3121, 1.30416, 1.30582, 1.2223, 1.29864, 1.25345, 1.2749, 1.23915, 1.24095, 1.30293, 1.28336, 1.29935, 1.30798, 0.00375222, 1.28079, 0.00324103, 1.26489, 0.0036298, 1.96403, 0.00369713, 1.37316, 0.00348222, 0.00386356, 0.00369487, 1.40662, 1.45934, 1.46021, 0.00337343, 1.2854, 1.28612, 0.00347772, 0.00358764, 1.39031, 0.00359664, 1.30523, 0.00337798, 0.00374346, 1.47562, 1.36489, 0.00350514, 0.00327104, 0.00355054, 1.33739, 0.00385115, 1.34883, 0.00370982, 1.39311, 0.00335333, 0.00359057, 0.00368919, 0.0110098, 0.00359485, 1.51596, 0.00354792, 0.00395337, 0.00341613, 1.66787, 0.00352466, 0.00426293, 0.00374899, 0.00340439, 1.6053, 1.55159, 0.00363388, 1.73841, 0.00357054, 0.00410714, 1.48418, 1.49621, 1.55163, 0.00362385, 0.00348559, 0.0038005, 0.00361051, 1.69945, 1.69521, 1.50211, 1.50349, 1.50108, 1.5037, 1.50349, 1.50204, 1.50536, 1.50268, 1.50638, 1.50552, 0.00398626, 0.00335519, 1.51536, 0.00370661, 0.00371476, 0.00337613, 0.00356875, 1.53161, 1.52937, 1.52841, 1.53072, 0.00377079, 0.0035294, 1.54001, 1.54157, 1.54634, 1.5428, 1.54334, 1.54142, 1.54853, 1.54679, 1.55409, 1.5537, 1.55415, 1.56253, 1.56847, 1.56751, 1.56842, 1.56923, 0.0035133, 0.00383123, 0.00351582, 0.00376122, 0.00323319
0.00366957, 0.00344381, 0.78731, 1.23629, 1.18953, 0.801307, 0.802532, 0.802954, 0.803686, 0.00354879, 0.0037273, 0.0037052, 0.00377645, 0.00347682, 1.36062, 0.00362461, 0.00372024, 0.00364439, 0.00354525, 0.855194, 0.854273, 0.855778, 0.855793, 0.00356325, 0.0042976, 0.00344716, 0.00377107, 1.09396, 1.00965, 0.00419587, 0.00378524, 0.00380451, 0.00375555, 0.00342599, 0.00378643, 0.95075, 0.00340286, 0.00340079, 0.00380636, 0.00358741, 0.00361855, 0.00345878, 1.04329, 0.892675, 0.893074, 0.890655, 0.891046, 0.00367812, 1.16267, 1.16556, 0.917993, 1.22984, 0.940596, 0.948739, 1.18957, 0.965251, 0.969421, 0.970284, 0.971007, 0.971584, 0.974055, 1.00757, 0.985251, 0.986701, 0.991266, 1.03097, 0.982661, 0.981363, 0.983212, 0.988111, 0.985311, 0.998505, 1.02899, 1.09676, 1.10853, 1.18282, 1.14652, 1.16135, 1.16029, 1.19038, 1.1993, 1.21899, 1.28127, 1.20213, 1.20328, 1.18556, 1.20071, 1.22072, 1.20163, 1.24751, 1.24025, 1.30784, 1.30984, 1.32421, 1.33771, 1.33494, 1.3499, 1.38069, 1.40864, 1.40254, 1.44685, 1.44122, 1.4575, 1.44716, 1.44683, 1.53259, 1.52279, 1.46216, 1.46703, 1.4664, 1.54601, 1.50718, 1.51973, 1.5083, 1.48582, 1.53747, 1.53107, 1.50604, 1.49693, 1.49972, 1.46568, 1.48212, 1.46539, 1.47566, 1.45834, 1.45049, 1.43932, 1.44136, 1.42523, 1.4348, 1.46, 1.41292, 1.41371, 1.41347, 1.40625, 1.40936, 1.39371, 1.38632, 1.38484, 1.37498, 1.37624, 1.37871, 1.43456, 1.39281, 1.41845, 1.39989, 1.41429, 1.41331, 1.36903, 1.36884, 1.34787, 1.34702, 1.32848, 1.32914, 1.32437, 1.32519, 1.33531, 1.28784, 1.29891, 1.31497, 1.31544, 1.30427, 1.30234, 1.30326, 1.2674, 1.2814, 1.28273, 1.30509, 1.31798, 1.28105, 1.2265, 1.25071, 1.26801, 1.24646, 1.24264, 1.26528, 1.20279, 1.20352, 1.28456, 1.32642, 1.32632, 1.27095, 1.25464, 1.25626, 1.25716, 1.26059, 1.26022, 0.00352273, 0.00327326, 1.26172, 1.26085, 1.26346, 1.26577, 1.2679, 0.0036396, 0.00346892, 1.27778, 1.28264, 1.28531, 0.00380428, 0.00339598, 0.00359531, 1.30185, 1.30756, 0.00371232, 0.00376938, 0.00351035, 0.00333864, 1.38482, 0.00367649, 0.00352489, 0.00340664, 0.00344595, 1.40815, 1.43977, 0.00378014, 1.53386, 0.00359199, 0.00354956, 0.00366518, 1.42652, 0.00357348, 0.00357912, 0.00355714, 1.42696, 0.00384516, 0.00382024, 0.00375381, 1.45866, 0.00325471, 0.00389058, 0.00372426, 0.00355469, 0.00341127, 1.49491, 0.00351278, 0.00370269, 0.00363198, 0.00381086, 0.00340008, 1.49512, 0.00334448, 1.50221, 1.50111, 1.50421, 1.5034, 1.50102, 1.50047, 1.50198, 1.50132, 1.49885, 1.49793, 1.71179, 1.50385, 1.50901, 1.50658, 1.5061, 1.51678, 0.00390752, 0.00363523, 1.51995, 1.52277, 1.52424, 1.53033, 1.53009, 0.0034852, 1.53887, 1.54739, 1.5443, 1.54217, 1.54074, 1.54152, 1.54564, 1.54285, 1.54917, 1.55405, 1.55595, 1.56415, 1.56179, 0.00338642, 0.0038006, 0.00336463, 0.00384722, 0.0038328, 0.00375005, 0.00373823, 0.00386185
0.00352578, 0.00403447, 0.00365659, 0.788713, 0.00339418, 0.00403283, 0.00355761, 0.00380252, 0.00354523, 0.00385004, 0.00375512, 0.00428101, 0.00322386, 0.00412789, 0.00338131, 0.00362009, 0.00348159, 0.00362501, 0.00360526, 0.00345701, 0.00376505, 0.00386412, 0.00366773, 1.48515, 0.00327262, 0.00383327, 0.856538, 0.858935, 0.860348, 0.869739, 0.871735, 0.877256, 0.00369305, 0.879534, 0.880343, 0.881203, 0.881461, 0.885063, 0.00354547, 0.0035327, 0.00351652, 0.887964, 0.889035, 0.888694, 0.888174, 0.890611, 0.892298, 0.893951, 1.07753, 0.00356593, 0.00338258, 1.03254, 1.15767, 0.946754, 0.954202, 0.966979, 0.96805, 0.970311, 0.973531, 0.974204, 0.970906, 0.949744, 0.942405, 0.94163, 0.983141, 0.954742, 0.964186, 0.985966, 0.987816, 1.01715, 1.01954, 1.02094, 1.02946, 1.06481, 1.1224, 1.1507, 1.19295, 1.19514, 1.20668, 1.22029, 1.24039, 1.20705, 1.21151, 1.19785, 1.19738, 1.20908, 1.20766, 1.20962, 1.24833, 1.24747, 1.29642, 1.31323, 1.30361, 1.32663, 1.32731, 1.3482, 1.41365, 1.41382, 1.45575, 1.46115, 1.48402, 1.48037, 1.48885, 1.51966, 1.51389, 1.51345, 1.51324, 1.53715, 1.53415, 1.60023, 1.55803, 1.54752, 1.54834, 1.53829, 1.53751, 1.52841, 1.52381, 1.52309, 1.52416, 1.52655, 1.52056, 1.4866, 1.49264, 1.48264, 1.46118, 1.44228, 1.44064, 1.44062, 1.43521, 1.42842, 1.42559, 1.41529, 1.43167, 1.40342, 1.41344, 1.41257, 1.39902, 1.38594, 1.38308, 1.37201, 1.37199, 1.3593, 1.36201, 1.36947, 1.36603, 1.36665, 1.41274, 1.36169, 1.40752, 1.44418, 1.3593, 1.35322, 1.35459, 1.33169, 1.33131, 1.35113, 1.31638, 1.31429, 1.36128, 1.33501, 1.30971, 1.28142, 1.28112, 1.3196, 1.31796, 1.38525, 1.40179, 1.28834, 1.27354, 1.30164, 1.25717, 1.2135, 1.20526, 1.21267, 1.21802, 1.19446, 1.1955, 1.19527, 1.20483, 1.26055, 1.25697, 1.36836, 1.36945, 0.00360601, 1.24842, 1.24966, 1.25097, 1.25133, 1.25347, 1.25441, 0.00338521, 1.26385, 1.26507, 1.2671, 1.26933, 1.26947, 1.27344, 1.27443, 1.27468, 1.31551, 0.00391262, 1.28335, 0.0035997, 1.28581, 1.28806, 1.30707, 0.00368497, 1.41184, 0.00363896, 1.44734, 0.00334493, 1.4195, 0.00357661, 0.0038385, 0.00357297, 1.44164, 0.00341522, 1.47091, 0.00361472, 0.00353952, 0.00343683, 1.41331, 1.41758, 1.41779, 0.00365031, 1.58663, 0.00339065, 0.00392203, 0.00356464, 1.44833, 1.44801, 1.44903, 0.00357897, 0.00379727, 0.00370963, 1.51393, 0.00327269, 1.47239, 0.0037916, 0.00387231, 0.00335589, 1.64935, 1.64682, 1.49712, 1.49931, 0.00382568, 0.00329617, 0.00377571, 1.49985, 1.49887, 1.49815, 1.4955, 1.71823, 1.502, 1.50095, 1.50115, 1.50281, 1.50716, 1.51264, 1.5126, 1.51682, 0.00367092, 0.00353579, 0.00356258, 0.0037285, 0.00354363, 1.54395, 1.54284, 1.54573, 1.54679, 1.53752, 1.53846, 1.54319, 1.54444, 0.00356325, 0.00377207, 0.00330454, 1.561, 1.56225, 1.56253, 0.00354006, 0.00374742, 0.00351024, 0.0036072, 0.00323142, 0.00385808, 0.00348821
0.00375342, 0.00344745, 0.00390832, 0.00352662, 0.00392635, 0.00345354, 0.0039797, 0.00335102, 0.00359789, 0.00349139, 0.00348747, 0.00341935, 0.00355183, 0.00370105, 0.0038026, 0.00357348, 0.0036358, 0.00357383, 0.00356982, 0.00370013, 0.00405337, 0.00338736, 1.54855, 1.31238, 0.00360098, 0.00347106, 0.854326, 0.858897, 0.00347781, 0.00354419, 0.0038326, 0.00330274, 0.877781, 0.87977, 0.878828, 0.00376293, 0.873623, 0.873406, 0.873585, 0.00365636, 0.884254, 0.887232, 0.887739, 0.00389745, 0.890226, 0.892648, 1.04711, 1.11844, 1.37926, 1.13289, 0.00390427, 0.940415, 0.93994, 0.00347532, 0.968595, 0.966554, 0.96453, 0.964365, 0.961059, 0.962996, 1.03613, 1.02317, 1.03611, 0.912346, 0.910766, 0.901819, 0.914851, 0.945683, 0.949121, 0.954066, 1.01063, 1.01555, 1.03885, 1.10649, 1.1253, 1.16497, 1.22559, 1.22496, 1.21685, 1.3268, 1.29272, 1.22406, 1.27442, 1.20732, 1.21002, 1.21484, 1.21203, 1.24407, 1.26175, 1.28187, 1.29219, 1.32026, 1.31976, 1.31913, 1.34922, 1.39671, 1.39743, 1.49749, 1.4957, 1.55954, 1.55805, 1.63847, 1.5757, 1.57507, 1.57184, 1.56886, 1.56651, 1.57411, 1.57272, 1.57029, 1.56539, 1.57247, 1.56199, 1.56105, 1.57264, 1.54601, 1.55619, 1.54013, 1.53764, 1.51853, 1.51907, 1.51573, 1.51926, 1.47582, 1.45687, 1.45533, 1.45942, 1.44987, 1.45856, 1.45165, 1.45438, 1.44895, 1.42037, 1.41494, 1.43057, 1.46103, 1.42014, 1.40389, 1.38308, 1.38505, 1.37493, 1.35772, 1.36036, 1.37237, 1.37945, 1.37396, 1.35201, 1.35773, 1.35231, 1.35011, 1.34893, 1.34978, 1.39204, 1.33049, 1.33273, 1.33343, 1.33663, 1.33643, 1.32943, 1.30199, 1.2938, 1.29233, 1.33007, 1.30107, 1.29504, 1.28996, 1.28722, 1.28915, 1.25466, 1.25545, 1.29493, 1.23038, 1.23608, 1.2044, 1.20331, 1.19818, 1.19474, 1.21693, 1.22007, 1.2215, 1.22889, 1.21879, 1.33963, 0.00354699, 1.26465, 0.0035501, 1.3888, 0.00406351, 0.00334105, 0.00351893, 1.45538, 1.36508, 1.51577, 1.42876, 0.00349733, 0.00355267, 1.27077, 1.27155, 1.26953, 1.27082, 1.27261, 1.27596, 1.27649, 1.27755, 1.27842, 1.27888, 1.27949, 1.28222, 0.00409031, 0.0035509, 1.47416, 0.00361082, 0.0036722, 0.00353142, 0.00360461, 0.00338639, 1.39551, 0.00382362, 1.52005, 0.00371252, 0.00367247, 0.00366521, 1.49253, 0.00367009, 1.44636, 0.00316933, 0.00390821, 0.00381998, 0.0038109, 0.00409649, 1.44609, 1.44902, 1.45063, 1.45081, 0.00385818, 0.00381031, 1.46366, 0.00360095, 1.69568, 0.00365729, 1.48267, 0.00350945, 1.47848, 1.47857, 0.00378805, 0.00374316, 0.00389959, 0.00357487, 0.0032889, 0.00381158, 1.49139, 1.48971, 1.4936, 1.49848, 1.50183, 1.50204, 0.00370329, 1.51078, 1.51025, 1.50962, 1.51282, 1.5147, 0.00378377, 0.00332502, 0.00382205, 0.00377872, 0.0034736, 1.54123, 1.53933, 1.54055, 1.53943, 1.53919, 1.53824, 0.0038919, 1.54887, 1.55288, 0.00364802, 0.00366403, 0.00385997, 0.00339461, 0.00337819, 0.00377847, 0.00331843, 0.00356004, 0.00375974, 0.00329912, 0.00370012
0.00354667, 0.00370877, 0.00360658, 0.00373129, 0.00353052, 1.20841, 0.00334927, 1.07538, 0.00360095, 0.00327821, 0.793578, 0.793837, 0.00363259, 0.992033, 0.991346, 1.0112, 0.00344051, 0.003797, 0.00336848, 0.00357166, 0.00367223, 1.56072, 0.00339626, 1.26504, 1.57708, 0.00368853, 0.00355523, 0.00348603, 0.00335514, 0.003967, 0.00375719, 0.00367823, 0.00344533, 0.00366106, 0.875545, 0.874376, 0.874135, 0.876088, 0.876574, 0.877802, 0.880388, 0.882358, 0.00357381, 0.00353488, 0.00375265, 0.00379017, 0.00307785, 0.00331107, 1.14279, 0.00378603, 0.00341331, 0.00387393, 0.00348082, 0.962607, 0.964044, 0.967072, 0.969914, 0.970005, 0.994528, 0.946396, 0.929367, 0.928902, 0.922762, 1.07615, 0.897877, 1.03456, 0.892852, 0.903732, 0.925132, 0.915308, 0.918337, 1.04205, 1.04627, 1.11258, 1.12561, 1.15362, 1.17898, 1.20794, 1.24843, 1.21269, 1.2167, 1.21322, 1.2124, 1.19181, 1.19541, 1.20103, 1.22323, 1.25685, 1.28193, 1.28609, 1.30209, 1.32529, 1.38143, 1.36302, 1.36654, 1.4336, 1.4702, 1.5634, 1.56039, 1.55839, 1.56804, 1.58689, 1.5864, 1.59914, 1.58028, 1.59176, 1.59881, 1.57799, 1.5779, 1.58065, 1.58436, 1.57529, 1.57834, 1.5757, 1.57496, 1.57246, 1.55833, 1.5579, 1.54658, 1.53032, 1.51645, 1.51456, 1.52009, 1.49609, 1.46343, 1.46162, 1.4535, 1.47405, 1.44786, 1.44917, 1.446, 1.44076, 1.43294, 1.43141, 1.43802, 1.44018, 1.42073, 1.46774, 1.44856, 1.38538, 1.38626, 1.3636, 1.3677, 1.38601, 1.36201, 1.36164, 1.35881, 1.35469, 1.34994, 1.34445, 1.33846, 1.33765, 1.33654, 1.34419, 1.34165, 1.34163, 1.32873, 1.32191, 1.3231, 1.33685, 1.29711, 1.29689, 1.31188, 1.33644, 1.30767, 1.2803, 1.28174, 1.27238, 1.25444, 1.25359, 1.23009, 1.254, 1.25592, 1.2253, 1.22602, 1.16673, 1.16773, 1.20994, 1.24473, 1.22329, 1.22839, 1.22771, 1.21479, 1.27158, 1.23236, 1.28221, 1.23239, 1.23407, 1.26996, 1.26786, 0.00341969, 0.00402967, 0.00368752, 1.4498, 0.00357602, 1.25724, 0.00358188, 0.00409214, 0.0036368, 1.29625, 1.297, 1.27816, 1.27841, 1.2787, 1.27412, 1.27446, 1.27375, 1.27851, 1.58092, 1.46102, 1.4309, 0.00339056, 0.00386084, 0.0036455, 1.4101, 1.3956, 0.00360644, 1.39782, 0.00343447, 0.00353017, 0.00345272, 0.00386623, 0.00339748, 0.00375256, 1.66743, 0.00326832, 0.00359064, 1.48899, 0.0035198, 1.43932, 0.00339675, 0.00356283, 0.00360457, 1.57325, 0.00333072, 0.00336229, 0.00362453, 1.46317, 0.00355115, 0.00360221, 0.00353888, 0.00390107, 0.0035677, 0.00364781, 0.0035004, 0.00379549, 0.00345166, 0.00347674, 1.48129, 1.48563, 1.48466, 0.00332512, 0.00353615, 0.00390725, 0.00322581, 0.00354346, 0.00356386, 0.00408721, 0.00351266, 0.00400712, 0.00355091, 1.52291, 0.00358312, 0.00374775, 0.00375719, 0.00353521, 1.53572, 1.53716, 1.53665, 1.53658, 1.53562, 1.5419, 0.00388656, 0.00357906, 1.55393, 1.55995, 1.55771, 1.55766, 1.5645, 1.75753, 0.00369197, 0.00392005, 0.00328707, 0.00386639, 1.60611, 0.00363813, 0.00333956
0.00377732, 0.0036274, 0.00375764, 0.00356227, 0.00409023, 0.0034811, 1.11125, 0.00355519, 0.00408554, 0.00356221, 0.784689, 0.785467, 0.00407012, 1.17445, 0.00374274, 0.00370312, 0.0036055, 0.00360481, 0.00392331, 0.00312266, 1.03419, 0.00308465, 0.00367219, 0.00351624, 0.00399665, 0.00347228, 0.00404302, 0.00377724, 0.00386355, 0.00373577, 0.00359867, 0.00349836, 0.00390587, 0.00348431, 0.00361662, 0.00362555, 0.871793, 0.873287, 0.873489, 0.00351303, 0.0035373, 0.0033772, 0.00381331, 0.00351018, 0.00393804, 0.0036227, 0.00359079, 0.00365082, 0.00352977, 0.00347358, 0.0033894, 0.00344867, 1.33915, 1.14968, 0.964152, 0.966522, 0.970013, 0.970695, 1.02895, 0.970639, 0.928658, 0.925699, 0.9256, 0.919214, 0.919086, 0.920588, 0.919371, 0.920962, 0.921649, 0.932871, 0.947166, 0.995879, 1.00319, 1.15288, 1.12821, 1.14393, 1.22264, 1.20617, 1.20659, 1.22095, 1.19817, 1.18382, 1.16978, 1.18174, 1.1933, 1.207, 1.25014, 1.25879, 1.31116, 1.2928, 1.29465, 1.33677, 1.33725, 1.39949, 1.45196, 1.46629, 1.46616, 1.55817, 1.5567, 1.55726, 1.56819, 1.57515, 1.59117, 1.59082, 1.59146, 1.59086, 1.59163, 1.59136, 1.58733, 1.58552, 1.58842, 1.5891, 1.58723, 1.57602, 1.5504, 1.54125, 1.56537, 1.55973, 1.56174, 1.56254, 1.51734, 1.50494, 1.51612, 1.49707, 1.48267, 1.48393, 1.48463, 1.48366, 1.47842, 1.47644, 1.46655, 1.45616, 1.47024, 1.45738, 1.45987, 1.40976, 1.40867, 1.41369, 1.38544, 1.38441, 1.37731, 1.36897, 1.36875, 1.37533, 1.35565, 1.40046, 1.39627, 1.39363, 1.3442, 1.38478, 1.34333, 1.33372, 1.33205, 1.33349, 1.33861, 1.32686, 1.32567, 1.32535, 1.3251, 1.38464, 1.31308, 1.3122, 1.2875, 1.28792, 1.27105, 1.26999, 1.2668, 1.24919, 1.27666, 1.23729, 1.22654, 1.21852, 1.23638, 1.2027, 1.17925, 1.17302, 1.17514, 1.16625, 1.16718, 1.17469, 1.24529, 1.24384, 1.20235, 1.27354, 1.27239, 1.22124, 1.29623, 0.00341453, 0.00378839, 0.0039537, 0.00373265, 1.22966, 1.23077, 1.27992, 1.28172, 0.00345397, 0.00357267, 0.00368633, 1.24814, 1.24972, 0.00400723, 0.00342403, 0.00357829, 1.27685, 1.27619, 1.27316, 1.27517, 1.30826, 1.28096, 0.00351129, 1.48828, 1.48787, 0.0038476, 0.00356412, 0.00348864, 1.57812, 0.00412306, 0.00344182, 1.37698, 0.00381605, 0.00366647, 0.00352499, 0.00373946, 0.00333177, 0.00378844, 0.00370852, 0.00353912, 0.00374211, 0.00347353, 0.003477, 1.62456, 1.54751, 1.58564, 1.60647, 0.00368565, 0.00385809, 0.00360595, 0.00352106, 0.00390798, 0.00380268, 1.47701, 0.0032634, 0.00359787, 0.00341963, 0.00379535, 0.00339111, 1.47196, 0.00350095, 0.00371345, 0.00351226, 1.48567, 0.003375, 1.49102, 1.49128, 1.49203, 1.50153, 1.49743, 1.50312, 0.00388036, 0.00346441, 0.00366815, 0.00344515, 1.5226, 0.0035578, 0.00391328, 1.52412, 1.52388, 0.00377711, 0.00354442, 0.00358142, 0.00395171, 0.00344321, 0.00352127, 0.00368454, 0.00367543, 0.00334889, 1.70556, 0.00338566, 0.00351748, 0.00328446, 0.00358319, 0.00333975, 0.00365064, 0.0035071, 0.0036465, 0.00337185, 0.00356104
0.00330771, 0.00339241, 0.00344471, 0.00385878, 0.00329811, 0.00375338, 0.00378507, 0.00388716, 0.00343961, 0.00350655, 0.0034352, 0.00353527, 0.00344609, 0.00372802, 0.00343248, 0.00385095, 1.01175, 0.973579, 0.00365596, 0.00377833, 0.00347564, 0.00396029, 0.00355573, 0.00400014, 0.00369716, 0.00376078, 0.00361899, 0.00385938, 0.00348357, 0.00368291, 0.00338298, 0.00413421, 0.00352647, 0.00338906, 0.00360924, 0.00381808, 0.00333459, 0.00393762, 0.00337744, 0.00373056, 0.00352083, 0.00364325, 0.00362864, 0.00389218, 0.00317328, 0.908604, 0.00378515, 0.00368258, 0.00340408, 1.06734, 0.00358013, 0.0037767, 0.00331644, 0.00349867, 1.05033, 0.983956, 0.970663, 0.971315, 0.953878, 1.01435, 0.939568, 0.937153, 0.92138, 0.922508, 0.952449, 0.956874, 0.919878, 0.92221, 0.939704, 0.939892, 0.938646, 1.00066, 1.00053, 1.01634, 1.15764, 1.18905, 1.22299, 1.22371, 1.27395, 1.27133, 1.23094, 1.20119, 1.17102, 1.19233, 1.22076, 1.21268, 1.24424, 1.26028, 1.26951, 1.28801, 1.31771, 1.32961, 1.40355, 1.42679, 1.42952, 1.46467, 1.46846, 1.47271, 1.50816, 1.55582, 1.63155, 1.578, 1.57796, 1.60315, 1.59485, 1.59763, 1.59409, 1.58851, 1.61653, 1.61408, 1.58874, 1.56546, 1.57236, 1.57404, 1.54881, 1.55805, 1.55515, 1.56887, 1.55488, 1.55627, 1.55999, 1.54123, 1.54091, 1.53582, 1.49332, 1.48329, 1.48834, 1.46704, 1.46062, 1.46499, 1.4822, 1.48147, 1.44831, 1.43428, 1.43494, 1.42933, 1.42918, 1.4304, 1.38789, 1.37881, 1.37873, 1.38419, 1.367, 1.37427, 1.36291, 1.35823, 1.35425, 1.37129, 1.35086, 1.36934, 1.34026, 1.33735, 1.34267, 1.34301, 1.34394, 1.33756, 1.33287, 1.3182, 1.32768, 1.32966, 1.32657, 1.31036, 1.30613, 1.28908, 1.27833, 1.37203, 1.24822, 1.24836, 1.25106, 1.24404, 1.2475, 1.23929, 1.22085, 1.22796, 1.20445, 1.19914, 1.1748, 1.22962, 1.16039, 1.16659, 1.17065, 1.18353, 1.22996, 1.27549, 1.27347, 1.27787, 1.35157, 1.36853, 1.23203, 1.29187, 0.00338177, 0.00363343, 0.00368863, 0.00366408, 0.00379052, 0.00391248, 0.00334265, 0.00359133, 0.00329982, 0.00357292, 0.00363491, 0.00350968, 0.00340703, 0.00366096, 0.00340321, 0.00352855, 0.00359931, 0.00329846, 0.00353465, 0.00357025, 0.00368712, 0.00353251, 0.00380335, 1.53969, 1.55213, 1.57265, 0.00349096, 0.00338873, 0.00359666, 0.00394197, 0.00368576, 0.00335991, 0.00360457, 0.00381658, 0.00339179, 0.00355915, 0.00361052, 0.00386004, 0.00306995, 0.00377789, 0.00367175, 0.00369027, 0.00356492, 0.00360696, 0.00353384, 1.54005, 0.00344847, 1.5242, 0.00366663, 0.00412551, 0.00381758, 0.00357535, 0.00376662, 1.45689, 0.00356875, 0.00358451, 0.00345511, 0.00371054, 0.00346313, 0.00387571, 1.48609, 1.48865, 1.49178, 1.49177, 1.49192, 1.5027, 1.50641, 1.50077, 0.00365377, 1.50563, 1.50887, 0.0036464, 0.00328265, 0.00339327, 0.00323301, 0.00352689, 0.00375439, 1.52313, 0.00359414, 1.64455, 0.00339955, 0.00352461, 0.00315698, 1.55698, 1.55214, 1.55768, 0.00357773, 0.00351697, 1.7025, 0.00356738, 0.00364993, 0.00389979, 0.00347823, 0.00350613, 0.00359664, 1.61189, 1.61331
0.00346731, 0.00357721, 0.00375691, 0.00344726, 0.00346301, 0.00363189, 0.0034787, 0.00346461, 0.00363849, 0.00334016, 0.0039447, 0.00350155, 0.00349626, 0.773526, 0.772891, 0.771904, 0.772892, 0.00370898, 0.00382348, 0.00328365, 0.791966, 0.00347497, 0.00376933, 0.0036111, 0.00379974, 0.00377159, 0.00376656, 0.00353088, 0.922933, 0.00352586, 0.00342675, 0.00328409, 0.00330555, 0.00355704, 0.00354631, 0.00337152, 0.00366712, 0.00363241, 0.00362515, 0.0038465, 0.00361533, 0.00354437, 0.00371455, 0.003353, 0.88671, 0.00373932, 1.10222, 0.00382974, 1.10485, 0.00374847, 0.00378857, 0.00364048, 0.00372981, 0.00348082, 0.974452, 0.971703, 0.973921, 0.975365, 1.16874, 1.0278, 0.976324, 0.977446, 0.939597, 0.939833, 1.02864, 0.934615, 0.939271, 0.939253, 0.94311, 0.928774, 0.937531, 0.947057, 0.977921, 0.980037, 1.17977, 1.17444, 1.21452, 1.27158, 1.26339, 1.19844, 1.18274, 1.16817, 1.2173, 1.22012, 1.20334, 1.20322, 1.29219, 1.27123, 1.29037, 1.29156, 1.32717, 1.34392, 1.44444, 1.45985, 1.45968, 1.45184, 1.51245, 1.46263, 1.46295, 1.49142, 1.56452, 1.57386, 1.57027, 1.58124, 1.66381, 1.58915, 1.60338, 1.60356, 1.59981, 1.6015, 1.59864, 1.59316, 1.57795, 1.57673, 1.56506, 1.56226, 1.54804, 1.5655, 1.56517, 1.54102, 1.53917, 1.51618, 1.52037, 1.52491, 1.52642, 1.49354, 1.49685, 1.48285, 1.47903, 1.45696, 1.45635, 1.45397, 1.43838, 1.44027, 1.43632, 1.41516, 1.4445, 1.4507, 1.41069, 1.38364, 1.38066, 1.38123, 1.38605, 1.37824, 1.37039, 1.35061, 1.35358, 1.36445, 1.35736, 1.35823, 1.34304, 1.34418, 1.34795, 1.33933, 1.33393, 1.33055, 1.32576, 1.335, 1.33432, 1.33294, 1.32294, 1.38367, 1.38306, 1.29174, 1.29532, 1.29483, 1.24721, 1.27913, 1.25157, 1.30327, 1.22135, 1.20308, 1.20214, 1.20349, 1.17562, 1.17837, 1.19201, 1.17174, 1.17395, 1.17399, 1.17707, 1.17743, 1.18655, 1.19122, 1.1941, 1.19667, 1.19898, 1.19806, 1.20528, 1.20549, 1.20385, 0.00342143, 1.33255, 0.00365655, 1.21419, 1.21552, 0.00363135, 0.0033385, 0.00367545, 1.43712, 0.00362956, 0.00359417, 1.44922, 0.0034659, 0.00350637, 0.00350484, 1.39884, 0.00353288, 0.00345543, 0.00345064, 0.00357737, 0.00352394, 0.00373171, 0.00375483, 0.00348812, 0.00334441, 0.00365015, 0.00378988, 1.32415, 0.00356528, 0.00367726, 0.00344408, 1.57629, 0.00356528, 1.37292, 0.00344465, 0.00369434, 0.00379933, 0.00380908, 0.00327513, 1.96306, 0.00361524, 0.00370734, 0.00349069, 0.0038898, 0.00358752, 1.46834, 0.00365137, 1.45018, 1.44131, 0.00360522, 0.00337205, 1.45095, 0.00356648, 1.45425, 0.00342075, 1.46423, 0.00354532, 1.47607, 0.00360213, 0.00365679, 0.00377333, 0.00346721, 1.49027, 1.49355, 0.00333009, 0.00348371, 0.00363965, 1.50098, 1.5006, 1.5096, 1.50396, 1.50583, 1.50417, 1.50937, 0.00347662, 0.00362989, 0.00342969, 0.00361436, 0.00399951, 1.5402, 0.00376337, 1.55239, 1.55201, 1.55285, 1.55296, 0.0037399, 0.00343259, 0.00383054, 0.003848, 1.74901, 0.00368251, 0.0034417, 0.00358554, 0.00354583, 1.614, 1.61341
0.00337581, 0.00367894, 0.00333156, 0.00341943, 0.00361672, 1.36178, 0.00369493, 0.00365842, 0.00362479, 0.00373402, 0.00349502, 0.765907, 0.00376542, 0.00367754, 0.767943, 0.770195, 0.770814, 0.00376505, 0.00351317, 0.00359968, 0.00355897, 0.00402186, 0.00351588, 0.00344179, 0.00340689, 0.00347638, 0.00351373, 0.00354112, 0.00353008, 0.00371403, 0.00364396, 0.819589, 0.821076, 0.003553, 0.00353222, 0.00380756, 0.00309196, 0.00362309, 0.00329151, 0.00388945, 0.00349572, 0.00359865, 0.878046, 0.00392408, 0.00345425, 0.00360353, 0.950063, 0.00329892, 1.2093, 0.00375793, 0.00318151, 0.00377579, 0.00316735, 0.956781, 0.967117, 0.973761, 0.982274, 0.991538, 0.987346, 1.03032, 0.966643, 0.93299, 0.934237, 0.934449, 0.94119, 0.940634, 0.934644, 0.938848, 0.938985, 0.943047, 0.932014, 0.953092, 0.950241, 0.963803, 0.983373, 1.18173, 1.24003, 1.19749, 1.19739, 1.19312, 1.18256, 1.18462, 1.1795, 1.21243, 1.24837, 1.25455, 1.27694, 1.29822, 1.32333, 1.3431, 1.4079, 1.42781, 1.42751, 1.45127, 1.45025, 1.53181, 1.47651, 1.46513, 1.46593, 1.51566, 1.50312, 1.57215, 1.59255, 1.59148, 1.57603, 1.57199, 1.60657, 1.60166, 1.65, 1.64674, 1.57634, 1.57748, 1.57943, 1.57783, 1.56847, 1.56102, 1.55913, 1.57453, 1.54734, 1.57103, 1.55378, 1.50417, 1.49892, 1.50593, 1.50818, 1.52057, 1.50253, 1.49621, 1.48955, 1.47358, 1.46469, 1.44823, 1.44125, 1.43962, 1.43421, 1.40705, 1.40812, 1.39586, 1.38449, 1.39442, 1.39312, 1.38796, 1.38272, 1.38631, 1.38086, 1.36398, 1.36453, 1.3661, 1.40346, 1.33327, 1.33314, 1.33947, 1.34343, 1.331, 1.33282, 1.3401, 1.33696, 1.32539, 1.32439, 1.327, 1.3232, 1.2864, 1.27636, 1.27594, 1.28796, 1.2455, 1.25386, 1.24007, 1.24484, 1.23788, 1.20966, 1.21077, 1.20487, 1.23021, 1.18026, 1.17863, 1.23744, 1.18848, 1.17184, 1.18172, 1.18139, 1.1946, 1.18729, 1.1909, 1.19, 1.18899, 1.19217, 1.1932, 1.19481, 1.19559, 1.19511, 1.19707, 0.00349377, 1.20562, 0.00349433, 0.00327924, 0.00352047, 1.34158, 0.00346597, 1.30198, 0.00348228, 1.23054, 1.23313, 1.57391, 1.38496, 1.40336, 1.45142, 0.0038157, 0.00331608, 0.00400602, 0.00346441, 0.00366218, 0.00380599, 1.50861, 1.46765, 1.48193, 0.00326916, 0.00368077, 0.00355906, 0.00433264, 0.00360526, 0.00370374, 0.00365966, 0.00359758, 0.00336463, 0.00344172, 0.00329583, 0.00385669, 0.00341126, 0.00366737, 1.9273, 0.00384679, 0.00350207, 1.65519, 0.00332668, 0.00360968, 0.00349337, 0.00376432, 0.00372095, 1.43581, 0.00350382, 1.44455, 1.44388, 0.00354209, 0.00349165, 0.00401377, 0.00332103, 0.00356441, 0.00348621, 0.003518, 0.00321146, 0.00398634, 1.77519, 1.48764, 1.48846, 1.48878, 1.48894, 0.00360401, 1.50092, 1.4999, 0.00323314, 0.00356527, 1.50704, 1.50536, 0.0035541, 1.5149, 0.00365744, 0.00401934, 0.00370239, 1.53819, 0.00360549, 0.00364577, 0.00346234, 1.55738, 1.55551, 1.56453, 0.00368702, 0.00363712, 0.0033765, 1.58627, 0.0032882, 1.91718, 1.59944, 0.00375423, 0.00343329, 0.00353832, 0.00341752
0.0036662, 0.00381797, 0.00399424, 0.945942, 1.05738, 1.01225, 0.00406524, 0.0035422, 0.00372617, 0.00346081, 0.0038446, 0.00350978, 0.00339824, 0.00326333, 0.00359453, 0.00356615, 0.00323708, 0.00330501, 0.00360989, 0.772055, 0.772733, 0.773988, 0.77513, 0.776199, 0.769903, 0.769602, 0.00413289, 0.00355436, 0.00340572, 0.00372221, 0.00385362, 0.00362723, 0.00379904, 0.00335654, 0.00376258, 0.00332059, 0.00332481, 0.00332592, 0.00346068, 0.00368208, 0.850125, 0.00349366, 0.00366649, 0.00377547, 1.11845, 0.00335691, 0.0036054, 1.23762, 1.20135, 0.00343788, 0.00347576, 0.00322729, 0.00377203, 0.00359578, 1.30913, 0.00340776, 0.991546, 0.973691, 0.981608, 0.986457, 0.981373, 0.988746, 1.01135, 0.937126, 0.939258, 0.934081, 0.937039, 0.931812, 0.961267, 0.964127, 0.948642, 0.951158, 0.927296, 0.93276, 0.981719, 1.02034, 1.02191, 1.19133, 1.18513, 1.15781, 1.15871, 1.1634, 1.20216, 1.20514, 1.25858, 1.27129, 1.32071, 1.32623, 1.34376, 1.37374, 1.38839, 1.43366, 1.44179, 1.45314, 1.4507, 1.48914, 1.48666, 1.46277, 1.46883, 1.46949, 1.47747, 1.50917, 1.49868, 1.51207, 1.53366, 1.61368, 1.6128, 1.60481, 1.57099, 1.57719, 1.58099, 1.59198, 1.58818, 1.57521, 1.55929, 1.55697, 1.54223, 1.54084, 1.54375, 1.54476, 1.54306, 1.49882, 1.4982, 1.55743, 1.56063, 1.49566, 1.50311, 1.50254, 1.49967, 1.49251, 1.44979, 1.45784, 1.44969, 1.44631, 1.42937, 1.43321, 1.41902, 1.39306, 1.41066, 1.4096, 1.38904, 1.3881, 1.38344, 1.3996, 1.37755, 1.36219, 1.34076, 1.36935, 1.41735, 1.35371, 1.33931, 1.32906, 1.33027, 1.32574, 1.32284, 1.32441, 1.32482, 1.32645, 1.32063, 1.30203, 1.30724, 1.28289, 1.28141, 1.28882, 1.28058, 1.24403, 1.23183, 1.24984, 1.22851, 1.24579, 1.28195, 1.20841, 1.20741, 1.22998, 1.23467, 1.22974, 1.18461, 1.17788, 1.14109, 1.14279, 1.16121, 1.16118, 1.19766, 1.17982, 1.25451, 1.18467, 1.24971, 1.18868, 1.18868, 1.194, 0.00375729, 0.00345332, 1.34081, 0.00335077, 1.26381, 0.00348473, 1.30503, 0.00361703, 0.00329136, 0.00336288, 1.37339, 0.00338679, 1.36233, 0.00343275, 0.00361857, 1.34023, 0.00359982, 0.00356714, 0.00354804, 0.00347376, 0.00349327, 1.39527, 0.00353689, 0.00328331, 1.49221, 0.0036464, 1.79878, 0.00354256, 0.00361306, 0.00350881, 0.00368664, 0.0037346, 0.00362413, 0.00334016, 1.33784, 0.00348843, 0.00408586, 0.00345407, 0.00340717, 0.00361436, 0.00352408, 0.00348405, 0.00397019, 0.00339109, 0.00390812, 1.45742, 0.00356313, 0.00345187, 0.00357523, 0.00351707, 1.43483, 1.43314, 0.0036287, 0.00360276, 0.00357544, 0.00307971, 0.0036951, 0.00360703, 0.00364257, 0.00364381, 0.00373862, 0.00359532, 0.00382363, 0.00339455, 0.00347896, 0.00364802, 0.00378829, 0.00378377, 0.00378818, 0.00359624, 0.00401063, 0.00349128, 1.51427, 1.51207, 1.51601, 0.0035708, 1.52409, 0.00332527, 1.53381, 1.54409, 0.00354949, 0.00333931, 0.00364375, 0.00362266, 0.00380547, 1.56568, 0.00344812, 0.00351454, 0.00358124, 0.00360889, 0.00345075, 0.00344538, 0.00346898, 0.00358232, 1.6049, 1.60783, 0.00358277
0.988253, 0.988993, 0.00389275, 1.09467, 0.00343397, 0.00362453, 0.003123, 0.00367049, 0.00350084, 0.0034926, 0.00370868, 0.00358151, 0.00351272, 1.1618, 0.00349654, 0.00384189, 0.0037083, 0.00364421, 0.0034083, 0.00356514, 0.00371908, 0.771132, 0.00391871, 0.003637, 0.00381029, 0.784787, 1.13937, 0.791686, 0.793576, 0.004297, 0.00364356, 0.00368299, 0.00363398, 0.820836, 0.00381395, 0.00374859, 0.00369101, 0.00370815, 0.00317809, 0.00361233, 0.00368246, 0.00357581, 0.0036377, 0.00393196, 0.868605, 0.867813, 0.00367972, 0.00359439, 0.00362419, 0.00368554, 0.00361461, 0.00365303, 0.00337746, 0.00335767, 0.00369992, 0.953234, 0.00369361, 1.08496, 0.969571, 0.96971, 1.00561, 1.04767, 0.944466, 0.939392, 0.941405, 0.933394, 0.930671, 0.930515, 0.932779, 0.958013, 0.947457, 0.949833, 0.931942, 0.926442, 0.974516, 0.985719, 0.98843, 1.06991, 1.12929, 1.13313, 1.14807, 1.15478, 1.16679, 1.19118, 1.25872, 1.28056, 1.3288, 1.34883, 1.35176, 1.38466, 1.38988, 1.43681, 1.50299, 1.51377, 1.44694, 1.45193, 1.49266, 1.49022, 1.49123, 1.46807, 1.46732, 1.59541, 1.55683, 1.48919, 1.4986, 1.51634, 1.53133, 1.60323, 1.59747, 1.61539, 1.61173, 1.57673, 1.58277, 1.57874, 1.60813, 1.59307, 1.57224, 1.56816, 1.53564, 1.54669, 1.53699, 1.53256, 1.55476, 1.5334, 1.55569, 1.52166, 1.50961, 1.51579, 1.51395, 1.5022, 1.48944, 1.49595, 1.4754, 1.47437, 1.466, 1.46829, 1.41553, 1.42641, 1.41579, 1.40166, 1.40989, 1.38466, 1.38514, 1.39032, 1.38086, 1.38086, 1.33992, 1.36132, 1.34527, 1.34799, 1.34999, 1.33255, 1.33923, 1.32891, 1.33453, 1.36152, 1.36349, 1.37337, 1.33059, 1.31068, 1.3083, 1.26416, 1.26482, 1.24808, 1.24758, 1.24703, 1.23837, 1.28147, 1.3327, 1.24175, 1.24414, 1.23566, 1.23003, 1.19346, 1.17414, 1.17457, 1.18494, 1.14626, 1.20827, 1.12826, 1.14019, 1.12071, 1.12299, 1.16491, 1.16665, 1.26446, 1.23581, 1.18487, 1.1883, 1.18536, 0.00359755, 0.00405347, 0.00350565, 0.00359409, 0.0035001, 0.00371986, 0.00356352, 1.29253, 1.68111, 1.19671, 1.30975, 0.00372035, 0.00369664, 0.00353978, 0.00359755, 0.00381306, 0.00336743, 0.00368152, 0.00359473, 0.0035484, 0.00325175, 0.00344247, 1.575, 1.5176, 0.00340212, 0.00375269, 0.0035792, 1.42925, 0.00360411, 0.00364543, 1.4722, 0.00354643, 0.003561, 1.35136, 0.00339923, 0.00358591, 0.00357486, 0.00349707, 1.35265, 1.62679, 0.00365266, 0.00387496, 0.00365636, 0.00329364, 0.00385938, 0.00392728, 0.00338208, 0.003812, 0.00368582, 0.00340681, 0.00349571, 0.00363243, 0.00357719, 0.00347456, 0.00359326, 0.00387781, 0.00370081, 0.00372121, 0.00353584, 0.0038367, 0.00341928, 0.00362685, 0.00345486, 0.00383414, 0.00338499, 0.00376511, 0.00371187, 0.00361886, 0.00349294, 0.00390685, 0.0032906, 0.0032219, 1.51336, 1.52395, 0.00338012, 0.00332893, 0.00325455, 0.00356383, 0.00333813, 0.00341014, 0.0034984, 1.55126, 0.00398039, 0.00350051, 0.00315586, 0.0034402, 1.58849, 0.00360465, 0.00359184, 0.00365464, 0.00325567, 0.00370737, 0.00386879, 0.00386363, 1.60964, 0.00370996, 1.61416
0.00377666, 0.00338876, 0.00395461, 0.00356324, 0.00359407, 0.00365682, 0.909079, 0.00328278, 0.00305256, 0.0037764, 0.00393163, 0.00345746, 1.29265, 0.00344735, 0.00347908, 0.00338167, 0.00377073, 0.809352, 0.81144, 0.00387315, 0.766598, 0.00330004, 0.00392975, 0.00338204, 0.00377417, 0.00347231, 0.00414676, 0.00340378, 0.00350868, 0.00351902, 0.00368819, 0.79456, 0.842287, 0.00320885, 0.00347432, 0.00344989, 0.00390357, 0.00323716, 1.2728, 0.835571, 0.00356109, 0.00359797, 0.00354278, 0.00343202, 0.00381706, 0.00358759, 0.00379913, 0.00367809, 0.0037171, 0.00351039, 0.00364924, 0.00327737, 0.00351127, 0.00350724, 0.94221, 0.956069, 1.04074, 1.04076, 1.04726, 1.08586, 0.936614, 0.926554, 0.925437, 0.950697, 0.940698, 0.926641, 0.936326, 0.921285, 0.921821, 0.919782, 0.920158, 0.98105, 0.946195, 0.957373, 0.981813, 0.983148, 0.992117, 1.13492, 1.13762, 1.11914, 1.12073, 1.11894, 1.15836, 1.19889, 1.23099, 1.22293, 1.28028, 1.27453, 1.38966, 1.39843, 1.43069, 1.4296, 1.44004, 1.42419, 1.45236, 1.45684, 1.4448, 1.44435, 1.47196, 1.4924, 1.4401, 1.44034, 1.47443, 1.48243, 1.47744, 1.5048, 1.50297, 1.49626, 1.54378, 1.56207, 1.57349, 1.57466, 1.57577, 1.57236, 1.56884, 1.57337, 1.5708, 1.55416, 1.55412, 1.55197, 1.52521, 1.53963, 1.5241, 1.52433, 1.52913, 1.53274, 1.51833, 1.50677, 1.48972, 1.48441, 1.49306, 1.4745, 1.47872, 1.473, 1.46372, 1.45489, 1.43703, 1.42914, 1.42287, 1.43598, 1.43472, 1.40784, 1.39596, 1.40391, 1.45107, 1.41694, 1.35864, 1.37434, 1.34718, 1.34165, 1.34396, 1.34436, 1.3391, 1.33657, 1.33962, 1.30765, 1.30839, 1.33479, 1.31219, 1.32644, 1.28529, 1.26712, 1.25858, 1.25191, 1.25416, 1.25689, 1.2536, 1.25166, 1.2309, 1.21549, 1.1929, 1.18082, 1.1808, 1.18107, 1.22758, 1.22855, 1.16332, 1.1508, 1.0887, 1.08717, 1.10428, 1.1058, 1.108, 1.1413, 1.15187, 1.15281, 1.15011, 1.15127, 1.16136, 0.00311909, 0.00363452, 0.00325097, 1.16413, 1.1654, 1.16623, 0.00370308, 0.0035829, 1.28297, 1.42914, 0.00361827, 1.30574, 1.30026, 0.00365754, 0.00324791, 0.00367081, 0.00322686, 1.23769, 0.00360955, 1.2995, 0.00363893, 1.51703, 0.00348658, 0.00357441, 0.00349009, 1.28819, 0.00347695, 0.00362086, 1.26448, 1.45385, 1.27299, 1.27449, 1.46241, 1.49237, 0.00342358, 0.003963, 0.00345961, 0.00371197, 0.00361605, 1.36868, 0.00322731, 0.00353749, 0.003287, 0.00384113, 0.00370451, 1.43385, 0.00346347, 1.39996, 0.00339817, 0.00349934, 0.00360209, 1.67771, 0.00340934, 0.00360354, 0.0034428, 0.00367363, 1.52423, 0.00364218, 0.00364367, 0.00367285, 0.00392971, 0.00337887, 0.00337992, 0.00375531, 0.00350395, 0.00366174, 0.00360946, 0.00349512, 0.00338891, 0.00387569, 0.00325474, 0.00382168, 0.00339493, 0.00387462, 0.00316886, 0.00341351, 0.00379845, 0.00368325, 0.0034154, 0.0040648, 0.00343483, 0.00371222, 0.00326829, 0.00397726, 0.00323147, 0.00399908, 0.00338707, 1.57633, 1.58885, 1.59605, 0.0033671, 0.00378513, 0.00339072, 0.00407158, 0.00324703, 1.61304, 0.0032495, 1.61417
0.00357601, 0.00329496, 0.0036709, 0.00345278, 0.00347403, 0.00398359, 0.00352527, 0.00363082, 0.00338748, 0.00343866, 0.00360557, 0.00368558, 0.00340358, 0.00376642, 0.00370691, 0.00387716, 0.00340462, 0.872178, 0.873563, 0.0037701, 0.00336432, 0.00391016, 0.00374208, 0.010851, 0.00361436, 0.0035247, 0.00347248, 0.00366983, 0.787171, 0.788831, 0.7914, 0.792312, 0.00339553, 0.00346263, 0.802878, 0.80475, 0.806712, 0.807322, 0.00338133, 0.0039448, 0.00367454, 0.00348044, 0.00329186, 0.00363478, 0.00378841, 0.00372598, 0.00343043, 0.00362703, 0.00360721, 0.00343193, 0.00354061, 1.19525, 1.14816, 0.00368659, 0.977893, 0.979276, 0.00369915, 1.07534, 1.11988, 1.15021, 0.917368, 0.906302, 0.908078, 0.917089, 0.921609, 0.911201, 0.922299, 0.93073, 0.905385, 0.92317, 0.916515, 0.933291, 0.9328, 0.939393, 0.98868, 0.987502, 0.987939, 1.12153, 1.09598, 1.09488, 1.10682, 1.12552, 1.12404, 1.19938, 1.21586, 1.27195, 1.26935, 1.33937, 1.3004, 1.3499, 1.4132, 1.38592, 1.38529, 1.40302, 1.40464, 1.41294, 1.41192, 1.45585, 1.45176, 1.45108, 1.46608, 1.44801, 1.44687, 1.47786, 1.4776, 1.50345, 1.51337, 1.5132, 1.57069, 1.56405, 1.54974, 1.58174, 1.57179, 1.58479, 1.57638, 1.55484, 1.56119, 1.55217, 1.53676, 1.5376, 1.53578, 1.51399, 1.58789, 1.49846, 1.49937, 1.50428, 1.51471, 1.51393, 1.52687, 1.51188, 1.49986, 1.46392, 1.4715, 1.45882, 1.50007, 1.46788, 1.46562, 1.44089, 1.44393, 1.42, 1.42303, 1.406, 1.40788, 1.39887, 1.38761, 1.39138, 1.39319, 1.4042, 1.40554, 1.35711, 1.33918, 1.33833, 1.34203, 1.34786, 1.33841, 1.31683, 1.30372, 1.32343, 1.27631, 1.34469, 1.25321, 1.2436, 1.23678, 1.24817, 1.23278, 1.27214, 1.27335, 1.21687, 1.21822, 1.19598, 1.19739, 1.19867, 1.21847, 1.21976, 1.12678, 1.12791, 1.14095, 1.14114, 1.13977, 1.1111, 1.11317, 1.11624, 1.13592, 1.13753, 1.18527, 1.16027, 1.15265, 1.15327, 1.14639, 1.14652, 1.15016, 1.15066, 1.14714, 1.151, 0.00368555, 1.28769, 1.15635, 1.15736, 0.00335322, 0.00360658, 0.00369916, 1.16967, 0.00357103, 1.27811, 0.00356044, 0.00362056, 0.00337141, 1.44524, 0.00342864, 1.4913, 0.00351233, 1.49982, 1.43817, 1.29126, 1.28522, 1.59955, 1.59279, 0.00367159, 0.00323279, 0.00377, 1.27236, 1.27537, 1.27899, 0.00352946, 0.00340666, 1.38152, 0.00351966, 0.00355313, 0.00337094, 0.00354102, 0.00346549, 1.39262, 0.00339247, 0.00359873, 0.00348194, 0.00354336, 1.4196, 0.00360908, 0.00358108, 0.00350339, 0.00341255, 1.64674, 0.00312921, 0.00346307, 0.0034596, 0.00344354, 0.00377385, 0.00371013, 0.0035608, 1.51258, 1.5192, 0.00378584, 0.00320279, 0.0033871, 0.00353993, 0.00325344, 0.00346562, 0.00353743, 0.00399689, 0.00353649, 0.00362785, 0.00403247, 0.00348263, 0.0035452, 0.00365122, 0.00353305, 0.00343548, 0.00370751, 0.00351123, 0.00390725, 0.00351093, 0.00378848, 0.00358699, 1.55385, 0.00343145, 0.00377385, 0.00338167, 0.00402112, 0.00345871, 0.00382821, 0.00396433, 0.00346793, 0.00366844, 1.61044, 1.60882, 0.0038299, 0.0036551
0.648168, 0.00339231, 0.00351573, 0.00350616, 0.00363085, 0.00343727, 0.00331168, 0.00355013, 0.00383505, 0.00346102, 0.00367787, 0.00373391, 0.00373523, 0.00352888, 0.00338532, 0.00339897, 0.00372077, 0.00360977, 0.00322246, 0.0034443, 0.00360337, 0.00374544, 0.00369866, 0.00320347, 0.00348003, 0.00342435, 0.00387327, 0.00354569, 0.00373629, 0.00341291, 0.78756, 0.789344, 0.791075, 0.79435, 0.00354918, 0.00372827, 0.00365893, 0.00365442, 0.810524, 0.811044, 0.00346712, 0.00354652, 0.00338102, 0.00367354, 0.00374192, 0.00356774, 0.00346734, 0.00364427, 0.00363193, 0.00381573, 0.00369985, 0.00404389, 0.00386683, 0.00361881, 0.970367, 0.912875, 0.898918, 0.90154, 0.903622, 0.909036, 0.911645, 0.905183, 0.906358, 0.933774, 0.934522, 0.907312, 0.917073, 0.932249, 0.897979, 0.896543, 0.904642, 0.910903, 0.929346, 0.917392, 0.917613, 0.985819, 0.985221, 1.11501, 1.11624, 1.08429, 1.10178, 1.11947, 1.19976, 1.20204, 1.23076, 1.22534, 1.24672, 1.31822, 1.32853, 1.31722, 1.3165, 1.37769, 1.406, 1.42873, 1.4295, 1.4033, 1.40035, 1.40959, 1.419, 1.3953, 1.44049, 1.45399, 1.45412, 1.4581, 1.45909, 1.47581, 1.5204, 1.53096, 1.52517, 1.52688, 1.55588, 1.55792, 1.55603, 1.57274, 1.55113, 1.54815, 1.53298, 1.53236, 1.51796, 1.509, 1.50577, 1.50427, 1.49523, 1.49524, 1.50515, 1.5083, 1.51899, 1.52448, 1.48138, 1.48331, 1.49731, 1.50223, 1.47796, 1.51164, 1.48452, 1.4461, 1.43121, 1.42738, 1.43242, 1.42787, 1.42352, 1.4172, 1.44349, 1.37451, 1.38223, 1.36437, 1.36769, 1.38446, 1.49192, 1.41162, 1.33226, 1.33302, 1.3284, 1.33265, 1.31346, 1.30303, 1.34234, 1.28213, 1.26884, 1.27265, 1.24464, 1.23317, 1.23962, 1.22247, 1.21558, 1.20808, 1.19923, 1.2084, 1.24602, 1.20635, 1.21303, 1.17152, 1.1387, 1.13571, 1.14126, 1.14678, 1.14659, 1.11909, 1.12293, 1.11027, 1.11317, 1.10737, 1.08925, 1.1679, 1.14692, 1.17046, 1.14164, 1.18216, 0.00355216, 1.14512, 1.14483, 1.14252, 1.14752, 1.1441, 1.14289, 0.00333298, 0.00370439, 0.00370762, 0.00348539, 0.00374442, 1.14915, 0.00347468, 0.00349166, 0.00338798, 0.00368853, 0.0033682, 0.00374325, 0.00350217, 0.00377059, 1.49559, 1.39012, 0.00358481, 1.44756, 0.00369607, 0.00375246, 1.45813, 1.45542, 0.00363057, 0.0036914, 0.00343598, 0.0038056, 0.00345542, 0.00372961, 0.00349112, 1.28203, 1.28467, 1.28956, 0.00372196, 0.00369469, 0.00339476, 0.00335484, 0.00354573, 0.00358312, 0.00338856, 0.00362949, 0.00354812, 0.00349867, 0.00370773, 0.00345482, 0.00347083, 0.00397297, 0.00360049, 1.55341, 0.00365975, 0.00360433, 0.00355744, 0.00386267, 0.00357722, 0.00322609, 0.00356469, 0.00359881, 0.00362995, 0.00387717, 1.44363, 0.00327714, 0.00374713, 0.00347235, 0.00356593, 1.6067, 0.00343141, 0.0037088, 0.00368326, 0.00356177, 0.00353446, 0.00320791, 0.00348351, 0.00349972, 0.00329828, 0.00347352, 0.00337535, 0.00369797, 0.0034634, 0.00369756, 0.00347152, 0.0040047, 0.00313936, 1.56936, 0.0032949, 1.94879, 0.00360327, 0.00396381, 0.00348339, 0.00356873, 0.00340904, 0.00375501, 0.00351818, 0.00369091
0.00363181, 0.00383237, 0.00338869, 0.00400689, 0.0036353, 0.00381484, 0.00358204, 0.00391283, 0.00336881, 0.00409444, 0.00347921, 0.00366967, 0.0033884, 0.00346918, 0.00368829, 0.00357145, 0.00356611, 0.00359465, 0.00341867, 1.2088, 0.00337914, 0.00338543, 0.00352206, 0.00388996, 0.00350257, 0.00384477, 0.00353608, 1.03341, 0.00354884, 0.00343619, 0.00348109, 0.00343782, 0.00342309, 0.00408506, 0.00369509, 0.00335731, 0.810989, 0.00354596, 0.80778, 0.809974, 0.811883, 0.00344576, 0.00323701, 0.00380687, 0.00372029, 0.828368, 0.829442, 0.980728, 0.97035, 0.98419, 0.00349768, 0.866883, 0.00374318, 0.00350854, 0.97935, 0.897613, 0.898763, 0.897981, 0.897647, 0.900073, 0.90112, 0.901828, 0.900761, 0.981795, 0.906827, 0.908792, 0.909204, 0.890821, 0.889123, 0.899748, 0.900675, 0.898878, 0.90606, 0.918577, 0.932658, 0.964212, 0.967232, 0.98174, 1.08833, 1.28578, 1.32886, 1.16854, 1.17084, 1.17383, 1.17116, 1.20221, 1.21703, 1.22044, 1.23128, 1.27661, 1.2799, 1.31213, 1.4873, 1.51909, 1.3776, 1.37854, 1.38143, 1.37675, 1.37674, 1.37756, 1.40182, 1.43876, 1.44569, 1.45458, 1.45425, 1.46487, 1.47207, 1.4897, 1.52084, 1.51385, 1.51386, 1.51435, 1.52571, 1.5271, 1.51538, 1.50797, 1.54413, 1.49989, 1.50584, 1.4952, 1.50067, 1.50203, 1.50958, 1.51356, 1.50039, 1.4965, 1.48829, 1.45722, 1.47076, 1.47684, 1.50634, 1.47473, 1.47114, 1.46097, 1.45575, 1.46799, 1.46819, 1.43436, 1.40697, 1.4078, 1.40083, 1.41157, 1.35278, 1.34694, 1.35413, 1.34974, 1.34873, 1.34735, 1.35195, 1.39235, 1.33995, 1.34339, 1.31251, 1.30929, 1.31159, 1.29229, 1.28055, 1.26538, 1.25782, 1.23345, 1.24088, 1.24168, 1.22322, 1.19775, 1.18498, 1.18945, 1.18926, 1.17564, 1.16209, 1.14431, 1.11262, 1.10552, 1.11549, 1.14676, 1.1132, 1.12134, 1.04613, 1.05384, 1.05838, 1.07834, 1.10866, 1.08127, 1.08077, 1.08192, 1.14111, 1.1677, 1.15965, 1.13054, 1.13237, 1.14614, 1.13922, 1.13691, 1.13568, 1.13548, 0.00348764, 1.13268, 1.13494, 1.24104, 0.00344831, 1.13832, 0.00356063, 0.00353455, 0.00318887, 1.35353, 0.00344956, 0.00374316, 0.00337376, 0.00367939, 0.00353589, 0.00361399, 0.00351809, 0.00403799, 1.38875, 1.40598, 0.00362657, 0.00360525, 0.00355862, 1.48212, 0.00349733, 0.00361731, 0.00353247, 0.00414156, 0.00356161, 0.00355535, 0.00351058, 0.0039112, 0.00371897, 0.00352112, 0.00343645, 0.00364257, 0.00350126, 0.00387993, 0.00355433, 0.00394639, 0.00331748, 0.00337431, 1.57786, 0.00368423, 0.00369979, 0.00362956, 0.00328408, 0.00380041, 0.00327879, 0.00391064, 0.00370929, 0.0036098, 0.00338465, 0.00371609, 0.003475, 0.00361787, 0.00345156, 0.00348883, 1.49569, 1.48935, 0.00364176, 1.5852, 0.00343532, 0.00358111, 0.00348042, 1.45342, 0.00377597, 0.00376139, 0.00315871, 1.46501, 0.00356256, 0.00398918, 0.00362745, 0.0037894, 0.0033502, 0.00362012, 0.00337723, 0.0038351, 0.00330498, 0.00394923, 0.00344827, 0.0038535, 0.00349548, 0.00364957, 0.00323485, 0.0036318, 0.00333844, 0.00342259, 0.00361013, 0.00381692, 0.00328241, 0.00336655, 0.00350901
0.00360026, 0.00347792, 0.00331125, 0.00351312, 0.00365679, 0.00371357, 0.00359023, 0.00354979, 0.00378316, 0.0032641, 0.00367001, 0.0035842, 0.736163, 0.00335229, 0.00375083, 0.00364023, 0.926728, 0.926131, 0.0035891, 0.00349336, 0.00364564, 0.00347215, 0.00361315, 0.00351015, 0.00358017, 0.00336201, 0.00347616, 0.766277, 0.00370248, 0.00357941, 0.00357094, 0.00346458, 0.00370152, 0.00342422, 0.00403974, 0.00346671, 0.00384189, 0.0034564, 0.00352643, 0.00325929, 0.00374691, 0.00348587, 0.00351848, 0.00341622, 0.00340394, 0.82813, 0.829771, 0.00357657, 0.0033123, 0.00359859, 0.00351264, 0.00369352, 0.00340901, 0.00348695, 0.00341943, 0.987871, 0.999045, 0.894918, 0.897891, 0.898489, 0.900764, 0.90119, 0.899347, 0.899861, 0.906207, 0.906741, 0.907152, 0.887457, 0.888811, 0.889447, 0.871685, 0.873272, 0.877936, 0.878022, 0.90874, 0.950392, 0.955429, 1.02644, 1.08938, 1.33959, 1.29892, 1.33324, 1.33221, 1.19127, 1.17917, 1.15829, 1.16879, 1.1914, 1.21251, 1.25724, 1.26459, 1.29427, 1.30529, 1.34581, 1.34863, 1.35877, 1.36469, 1.38295, 1.3868, 1.48852, 1.40592, 1.45991, 1.44364, 1.42632, 1.46526, 1.46187, 1.46828, 1.47026, 1.51918, 1.51629, 1.50917, 1.51041, 1.49958, 1.50619, 1.50549, 1.48201, 1.48315, 1.48694, 1.48611, 1.49529, 1.49645, 1.5059, 1.50832, 1.50256, 1.48591, 1.50629, 1.46538, 1.46689, 1.46796, 1.45963, 1.46309, 1.46854, 1.48913, 1.48203, 1.44053, 1.44981, 1.43006, 1.41356, 1.40417, 1.39834, 1.3925, 1.38072, 1.36028, 1.37147, 1.36397, 1.33301, 1.32494, 1.33717, 1.31889, 1.30892, 1.30726, 1.31792, 1.29042, 1.2893, 1.28885, 1.29139, 1.28853, 1.26798, 1.2545, 1.24324, 1.20987, 1.21578, 1.24459, 1.1828, 1.17404, 1.15805, 1.15418, 1.14172, 1.14432, 1.11856, 1.10103, 1.1093, 1.10995, 1.08203, 1.08389, 1.08124, 1.03901, 1.05516, 1.06619, 1.06891, 1.1053, 1.10322, 1.10092, 1.10627, 1.11185, 1.13213, 1.12182, 1.12546, 1.13585, 0.00328176, 1.136, 0.0031586, 1.12977, 1.12854, 1.12241, 0.00342197, 0.00332247, 0.00341103, 1.13088, 1.1312, 1.13066, 0.00361565, 1.12944, 0.00369058, 0.00392137, 0.00345482, 0.00380351, 1.15448, 0.00359075, 0.00368472, 0.00382236, 0.00355503, 0.00378228, 0.00336262, 1.36785, 1.38896, 0.00353069, 0.0031298, 0.00328531, 1.38715, 0.00353166, 0.0034421, 0.00344688, 0.00336876, 0.00342285, 0.00331786, 0.00362055, 0.00366249, 1.45759, 0.00333959, 0.0037447, 0.00311402, 0.00352795, 0.00347829, 0.00373079, 0.0034529, 0.00340382, 0.00349405, 0.00352366, 1.35471, 0.00356024, 1.36724, 0.0038233, 0.00344788, 0.0033283, 0.0033297, 0.00395195, 0.00352259, 0.00358941, 0.0032291, 0.00323813, 0.00360575, 0.00336517, 0.00359431, 0.00374014, 0.00322222, 0.00364403, 0.00347449, 0.00340826, 0.00331585, 0.00353847, 0.00334956, 0.00336413, 0.00340651, 1.45786, 0.00310469, 0.00387928, 0.00352676, 0.003505, 0.00357408, 0.00345726, 0.00350958, 1.74784, 0.00334787, 0.00356852, 0.00348013, 0.00343022, 0.00326836, 0.00376039, 0.00351257, 0.00347604, 0.00356437, 0.00334904, 0.00360327, 0.00398031, 0.00340942, 0.00376714
0.00320738, 0.00361211, 0.00341716, 0.00327174, 0.00355667, 0.00355712, 0.00371648, 0.00326643, 0.644967, 0.00339482, 0.00332053, 0.00370354, 0.00323631, 0.00337392, 0.00352667, 0.00328937, 0.00347878, 0.00319177, 0.00344993, 0.00363503, 0.00356419, 0.00381532, 0.00361044, 0.00350926, 0.00374572, 0.00369836, 0.003365, 0.00379328, 0.00356271, 0.00342043, 0.00365333, 0.00357204, 0.00338908, 0.00350684, 0.00340033, 0.00372834, 0.00351822, 0.00328936, 0.00348299, 0.00368739, 0.00372293, 0.00358598, 0.0036111, 0.00355005, 0.00341924, 0.825906, 0.827956, 0.00384866, 0.00341259, 0.00361865, 0.00356138, 0.0035315, 0.00388918, 0.863385, 0.866519, 0.866587, 0.00345571, 0.981509, 0.99026, 0.894529, 0.897396, 0.899405, 0.898213, 0.899085, 0.900782, 0.901462, 0.888497, 0.899189, 0.881329, 0.902969, 0.900989, 0.902403, 0.874967, 0.871542, 0.875314, 0.918781, 0.9334, 0.997571, 0.998029, 0.983776, 1.28257, 1.25379, 1.24863, 1.17011, 1.17012, 1.18725, 1.17422, 1.16175, 1.17231, 1.19118, 1.19558, 1.27232, 1.29573, 1.26443, 1.28416, 1.33368, 1.3659, 1.36443, 1.40178, 1.39956, 1.36274, 1.51074, 1.48099, 1.44024, 1.46344, 1.4536, 1.44555, 1.45571, 1.44998, 1.48835, 1.49745, 1.54425, 1.54282, 1.5077, 1.50305, 1.5025, 1.50233, 1.49946, 1.49444, 1.47842, 1.47945, 1.49193, 1.55556, 1.46764, 1.48841, 1.46839, 1.46149, 1.49618, 1.49569, 1.45299, 1.44908, 1.45342, 1.46823, 1.44112, 1.44304, 1.44905, 1.44651, 1.39071, 1.40427, 1.39603, 1.40037, 1.37371, 1.39183, 1.35426, 1.35499, 1.34482, 1.30653, 1.34052, 1.31829, 1.31584, 1.31301, 1.29373, 1.29348, 1.2926, 1.30259, 1.2877, 1.2888, 1.29475, 1.23975, 1.222, 1.20344, 1.2412, 1.19504, 1.17104, 1.14707, 1.1436, 1.14291, 1.15451, 1.1438, 1.10203, 1.10484, 1.10573, 1.11446, 1.08214, 1.06359, 1.06162, 1.06188, 1.07036, 1.09845, 1.05037, 1.052, 1.08915, 1.08976, 1.17741, 1.11238, 1.13369, 1.12317, 1.13682, 0.00363278, 0.0038582, 1.12677, 0.0032872, 0.00349932, 1.11897, 0.00354459, 1.30751, 1.33842, 0.00396139, 0.00331903, 0.00345216, 1.12368, 1.12388, 1.12542, 1.12578, 1.12788, 0.00351539, 0.00335181, 0.00358195, 0.00350647, 0.00369838, 0.00357937, 0.00358565, 0.00357146, 0.00360624, 1.17536, 1.39431, 0.00340973, 0.00342727, 1.45029, 1.40526, 0.00350882, 0.00358518, 0.00360374, 0.00300426, 0.00345736, 0.00394304, 0.00338096, 0.00379673, 0.00336202, 0.00361407, 0.00337899, 1.35688, 0.00345332, 0.00361344, 0.0035172, 0.00374455, 0.0037128, 0.00364235, 0.00334623, 0.00344004, 0.00344489, 0.0037208, 0.00351446, 1.68185, 1.3769, 1.37808, 0.00354056, 0.00318771, 0.00337376, 0.00339286, 0.00339528, 1.58548, 0.00362291, 1.42438, 1.42617, 0.00368508, 0.00342892, 1.55928, 0.00338134, 0.00360052, 0.00352308, 0.00350647, 0.0036601, 1.45078, 0.00359677, 0.00336291, 0.00352261, 0.0036371, 1.47295, 1.76138, 0.00344367, 0.00344175, 0.00342601, 0.00369979, 0.00372227, 0.00341164, 0.00341469, 0.00359818, 0.00368881, 0.00378303, 0.0032662, 0.00344367, 0.0033726, 0.00373495, 0.00364771, 1.68945, 0.00343822
0.00354961, 0.00339609, 0.00356053, 0.0035111, 0.00349039, 0.00365167, 0.00367325, 0.00341257, 0.00362169, 0.00352789, 0.00343595, 0.00373661, 0.899246, 0.00339378, 0.00351015, 0.00352781, 0.00368782, 0.00353579, 0.00363361, 0.00326276, 0.00352673, 0.00345073, 0.00367447, 0.0031573, 0.00346135, 0.00332106, 0.742134, 0.00344532, 0.00325567, 0.00350631, 0.00364067, 0.00342064, 0.00341703, 0.00331272, 0.00363115, 0.00340278, 0.00338592, 0.00320302, 0.00389492, 0.00362897, 0.00376303, 0.0034722, 1.04328, 0.00349293, 0.00354262, 0.00364256, 0.823344, 0.00330697, 1.14088, 0.00353412, 0.00349731, 0.00332534, 0.00364394, 0.00345627, 0.861605, 0.00362787, 1.05681, 0.947946, 0.977417, 0.00335939, 0.987002, 0.899414, 0.901253, 0.903893, 0.901319, 0.90426, 0.888146, 0.914066, 0.892562, 0.903318, 0.881273, 0.880516, 0.876726, 0.870345, 0.882095, 0.878569, 0.910181, 0.898593, 0.925585, 0.942539, 1.17292, 1.17323, 1.15851, 1.15965, 1.25114, 1.19506, 1.0948, 1.08481, 1.09035, 1.09291, 1.10085, 1.24375, 1.24603, 1.29571, 1.27693, 1.28696, 1.31056, 1.31998, 1.33329, 1.33387, 1.34726, 1.35081, 1.42907, 1.42132, 1.41973, 1.51324, 1.50985, 1.46828, 1.46011, 1.4783, 1.47954, 1.49497, 1.49236, 1.49133, 1.49906, 1.49819, 1.49152, 1.49207, 1.50636, 1.46529, 1.45283, 1.46395, 1.44731, 1.47144, 1.45134, 1.48509, 1.47053, 1.44275, 1.42154, 1.42114, 1.41601, 1.41214, 1.41449, 1.42007, 1.42083, 1.42692, 1.40912, 1.40864, 1.37452, 1.37578, 1.36614, 1.36136, 1.36033, 1.34695, 1.34049, 1.3402, 1.29599, 1.30399, 1.32377, 1.29626, 1.3477, 1.30335, 1.30564, 1.29836, 1.28405, 1.27819, 1.27799, 1.23364, 1.24278, 1.19764, 1.19613, 1.18168, 1.16358, 1.1606, 1.15987, 1.14948, 1.13678, 1.13955, 1.10662, 1.12182, 1.13084, 1.11807, 1.06055, 1.06204, 1.06804, 1.07019, 1.07404, 1.04653, 1.04467, 1.04661, 1.0845, 1.08293, 1.08458, 1.07775, 1.0804, 1.12467, 1.16822, 0.00347639, 0.00391784, 0.00355643, 0.00373534, 0.00343675, 0.0035183, 0.0036361, 0.00398204, 0.00354329, 1.10784, 1.10812, 0.00362401, 0.00341435, 1.11398, 1.11909, 1.12174, 1.12437, 1.12411, 0.00349483, 0.00367654, 0.00341288, 0.00386197, 0.00361182, 0.00342581, 0.00325072, 0.00404583, 0.00335038, 1.17025, 0.00353204, 0.00400032, 0.00326123, 0.00367093, 0.00361334, 0.00394214, 0.00362868, 1.21521, 0.00351285, 1.45285, 0.00336176, 0.00336341, 0.00301962, 0.00382923, 1.25231, 1.25542, 1.25721, 1.27004, 0.00337808, 0.00355186, 0.00330288, 0.00360484, 0.0034049, 0.003596, 0.00352077, 0.00358111, 0.00360846, 0.00357179, 0.00328904, 0.00384188, 0.00372456, 0.00349148, 0.00352612, 0.00379226, 0.00357796, 0.00382405, 0.0033861, 1.58537, 0.00341945, 0.00356342, 0.00324947, 0.00383081, 0.00346899, 0.00331746, 0.00328066, 0.00337865, 0.00312448, 0.00363096, 0.00333167, 0.00378038, 0.00336484, 0.00376705, 0.00364663, 0.00368439, 0.00323075, 0.00362789, 0.0034856, 0.00344064, 0.0036934, 0.00340637, 0.00341409, 0.00358524, 0.00314692, 0.00367746, 0.00339294, 0.00370252, 0.0035637, 0.00385678, 0.00323189, 0.00392541, 0.00359111, 0.00357561
