0.934435363248541,0.932907642971826,0.931949130684136,0.93087880783023,0.929811019498483,0.928706704907116,0.927133599701784,0.925635693019444,0.924409651893222,0.923518018187789,0.923290053135463,0.923249309577633,0.923321014015163,0.921652235003219,0.917925091358322,0.917128959455272,0.919297966967593,0.921395248502807,0.923140810947386,0.92448440173843,0.925425626180815,0.926488181405627,0.927850560840735,0.929512289664602,0.931046534949938,0.932933211799207,0.93321669088309,0.932729534698514,0.932180801505874,0.93240229641518,0.931936732279255,0.946461494543867,0.944737346784059,0.94347538169875,0.94266222556271,0.942237384324718,0.934545959630122,0.930686196101293,0.927318068290547,0.918709652640595,0.916276835916142,0.914464798279353,0.915299239581931,0.916129832126739,0.916228631643298,0.916095924364243,0.915169718325781,0.914495073648432,0.913802375694034,0.91362100749721,0.91287173681113,0.912571893711248,0.912485922270654,0.912473353220161,0.91129394207678,0.910402223243633,0.909473682876541,0.90809406230754,0.920439087663234,0.933150681720205,0.933945686262298,0.933764380557866,0.933245933237522,0.932999151076951,0.933799656513364,0.9331494142391,0.933938386879566,0.934198625783743,0.962166180055636,0.984415302745241,0.984590969164442,0.983911599350121,0.983047120798628,0.981770474251747,0.980695348937452,0.980056144315468,0.980860964576728,0.981944882243606,0.98310186820084,0.982980792917072,0.982363794502876,0.981269303581853,0.979719317112628,0.977563501656773,0.975997783580095,0.973676176008604,0.971443938302743,0.969339003902925,0.968834993867995,0.968714901113998,0.969041403471186,0.969765561947849,0.971131325099875,0.972985047946697,0.97942182271146,0.978056937165717,0.977340776708728,0.97466445276185,0.973111740666845,0.971594281330829,0.970546058440516,0.965952941283041,0.965127058281301,0.963718968537611,0.963330401168002,0.962749386453372,0.9620146448244,0.960901152311309,0.960443425486427,0.959746545685972,0.959865383741363,0.959770031393214,0.958841007788693,0.957795659823719,0.956518676684221,0.955314300381875,0.954489465305098,0.953731435872587,0.952964147431665,0.952136813879517,0.950883410601425,0.949902932436551,0.95105625629082,0.952489385355716,0.953702622804669,0.954857596548259,0.956290360046825,0.957558985627542,0.959208246038776,0.960781851613747,0.961558900430321,0.962406197323998,0.963067814322338,0.963925750293223,0.96466522421366,0.965896475300181,0.967473536281463,0.959524333893665,0.959259664640905,0.959494083061356,0.960794655630078,0.962246661605404,0.962847507614647,0.963270595733597,0.963646303419377,0.963877437119395,0.963543600022306,0.962886911119213,0.961200379389919,0.959193450059066,0.958943911102634,0.958950342144364,0.959893167516451,0.960666823127371,0.967707757473939,0.978864683238725,0.980045799331671,0.981910649508691,0.983161112350047,0.984754734193092,0.983170154590908,0.981407890541099,0.98055555208073,0.979661033525961,0.979469264249593,0.973588066165571,0.974220818475918,0.975908714989254
0.93423261833204,0.933018983325118,0.931970746349328,0.931305370873155,0.930124691262812,0.929497576645745,0.92771026008695,0.925983088098515,0.925064599329382,0.923850293100841,0.923873097013758,0.923385193095976,0.924461703533024,0.914798927510163,0.915775521740815,0.915488888233802,0.921846061381752,0.926250936694467,0.928581180981584,0.92925172530478,0.931166352474547,0.93602687589308,0.936253456950106,0.936167037704464,0.935780846232009,0.934914941371761,0.934506635125666,0.933081109323786,0.933317907339207,0.933290146257011,0.932818342774914,0.945915236462419,0.944384446765223,0.941571779083395,0.941282591684288,0.941030992801728,0.933000524415785,0.925879601290512,0.926487120962118,0.919953054527338,0.913636798501623,0.911941667478973,0.917269458543823,0.917690393509219,0.917573615802667,0.916801512604539,0.915678154564775,0.913632870466591,0.914293409675308,0.914279373377816,0.913964904374954,0.912954084630701,0.913192030332055,0.912765286950516,0.9114583661992,0.91016356713198,0.908609230971729,0.906156302883529,0.924168792378297,0.931542823073239,0.93322001349309,0.933390677133511,0.93276082264886,0.931858202009503,0.932319624738041,0.932306955712328,0.933846804107749,0.934121549615113,0.970745557993532,0.983033069407125,0.984319993816421,0.985993316993597,0.98433086229005,0.980683261196592,0.980839891487637,0.979725706306468,0.980690966168201,0.986965859121335,0.984429838054918,0.983615834451283,0.982175882515727,0.981075554489597,0.978646082443957,0.97651389865037,0.972106028044169,0.968140463922511,0.967652284572758,0.968362606317099,0.967511174151969,0.968347741389754,0.967608876028446,0.967419347270528,0.970217689177053,0.969045441984516,0.978909075465931,0.97840437697026,0.977177728498923,0.975240162261792,0.974058473041768,0.971911692787579,0.969580900112508,0.96734433873335,0.965979219508788,0.962346060764915,0.963962970646455,0.963735993128986,0.962687990294799,0.962274778649695,0.960856832585381,0.959956805969235,0.960254589172152,0.961078446321147,0.958838080898107,0.956752877163473,0.956047347814209,0.954501833643499,0.954429933971621,0.953500461726532,0.953136525707577,0.952227831519916,0.950892176742286,0.948923725454068,0.950932018236786,0.952195830814376,0.953414851203767,0.953846785104829,0.95680474710661,0.958068695646491,0.959651094532992,0.961344852250883,0.961555683895913,0.962122589248509,0.962803815894568,0.963762170928587,0.964596188353028,0.965437343120787,0.965999614224381,0.956980120214947,0.958799974153737,0.9584129197387,0.960672668285026,0.96207272932056,0.96276885052324,0.963434117681685,0.964618335205004,0.966016778735116,0.965389153276898,0.965548827121083,0.961964737373916,0.958060598334398,0.958951877292577,0.957696424282942,0.960323935517976,0.96070884215663,0.971359419020231,0.979760755343061,0.980866532803395,0.982091604129327,0.983710061272472,0.986396882371994,0.982305440688873,0.980644847569035,0.978867964650825,0.977389748137508,0.976672948205752,0.973763502944177,0.974571456399583,0.976290273540946
0.934285460462892,0.932972050645351,0.93213878783941,0.930967018580447,0.930209083114509,0.929508370338272,0.928315332898583,0.927274423784873,0.926050861401059,0.924541213212676,0.924875933825461,0.923811442738809,0.925574542459681,0.913539929378868,0.915659581332409,0.916572567581473,0.928247429844545,0.937424082040428,0.937604027170929,0.937710354191649,0.93940624695691,0.940990781345009,0.94062821745452,0.940876075022256,0.94059422985804,0.941013652433954,0.935047832667458,0.93453745330925,0.934559604101614,0.934991140842162,0.935223005348659,0.944790227068305,0.943494440452842,0.941468584182553,0.938150389544537,0.933501299747977,0.93094656334804,0.925304167252556,0.925755374272469,0.911019010921486,0.911675384225756,0.910508587665798,0.91908960127479,0.920060813809815,0.918607391122601,0.918495908565835,0.916010527665955,0.915332764873008,0.914313606839364,0.914406313095476,0.915203935217552,0.916754751793667,0.914631993783989,0.91529654926026,0.914919282194565,0.914149610111057,0.916410276544985,1.02864336159094,0.951620654736261,0.963626640673267,0.936382227981652,0.933770088586714,0.932622255503759,0.931049208918546,0.93121631226697,0.930461804647418,0.958945110680262,0.974250755747298,0.98049736070325,0.982743238918022,0.984702043258433,0.984952971440884,0.984057790398833,0.982416808781356,0.981559414699947,0.979820504651666,0.981282427487007,0.986605186206356,0.983889527879298,0.982339289795347,0.981839029441364,0.97936579323654,0.974212031563987,0.969847407136333,0.968086398171801,0.967196255076988,0.968067657584985,0.967460507988371,0.965789369483546,0.964179469272302,0.965590903195329,0.965567605127353,0.971031206232374,0.978160765166965,0.978828636741826,0.978504463951098,0.977679611500504,0.976772770917924,0.976187928639074,0.96991786888569,0.96962094291707,0.968402208130401,0.967164459413182,0.96723627613884,0.965389086552325,0.964890906129071,0.963609913775075,0.961639246994021,0.961523106430173,0.960689414830504,0.960457938891074,0.96055328403068,0.958565769483774,0.957337288631236,0.955885370628123,0.955242075947416,0.954468179514141,0.954285089681341,0.95312331101978,0.952612828969749,0.950953086073663,0.949986002815065,0.950924895639184,0.952112945269692,0.952905899290847,0.958777027354628,0.958044531342217,0.959307208835364,0.959610107762402,0.960398827538389,0.96082978153871,0.961230534718355,0.962416682312155,0.963397245632558,0.964171938198671,0.964877573719239,0.965359207105469,0.961186599306513,0.960149371478608,0.960243317773996,0.960479422645669,0.961311316396731,0.962559117288651,0.96169469747849,0.966140863871067,0.967599363935425,0.966387445507743,0.966604523539029,0.961801866814413,0.960854314450922,0.960433989654673,0.961172677181354,0.960871939076444,0.967836814309537,0.974932965593809,0.978664403560931,0.980742163677406,0.982220128724086,0.983513760194683,0.984003644275454,0.984182477579708,0.978121511562904,0.977622970910379,0.977444523149284,0.976465157081749,0.973789911014728,0.977472953416297,0.982062400125854
0.934196535448837,0.933806238987188,0.931958888348191,0.931319481107723,0.929753071445454,0.929056561186763,0.928529542207169,0.928285204132599,0.927103447654046,0.925350898664839,0.926236800339868,0.927162703971617,0.926592562498694,0.915077062088787,0.920162315020256,1.07991976083323,0.947655444419318,0.94604662002571,0.947611874760723,0.947346149380513,0.946830324085593,0.946029146965414,0.94614010364827,0.945803219878716,0.941419008802365,0.934216247180199,0.935532341527357,0.934994218102058,0.935819260769738,0.937823268280604,0.937957575999509,0.944308414755104,0.943422163051759,0.94153371248826,0.935091104169187,0.933725778927387,0.928678063451039,0.924331085401071,0.924962713087373,0.91642754751468,0.918773631115221,0.920494507521816,0.920766475069155,0.920745365632389,0.919044396160578,0.916916497261397,0.91550211426716,0.915288000736058,0.914254774070482,0.914989700618714,0.916051441594164,0.918444858019439,0.920687606476185,0.922427560285016,0.921850892145699,0.921872303641995,0.921407346230336,0.921081400131405,0.947046065826134,0.949874370879657,0.94847695967827,0.948728807663395,0.947698280757135,0.946375778230666,0.963401848198364,1.14182567730476,0.987355455088314,0.985571007996508,0.986740267292046,0.9872972282412,0.985921091738034,0.986073689954016,0.985469591779448,0.981297433523368,0.982869684254907,0.983789292494782,0.98290031355398,0.982353999758631,0.983179725879859,0.982901606754551,0.974145891259989,0.969254801878873,0.967023169461341,0.966874166081725,0.964560307021285,0.963866157305173,0.961962666801021,0.962358202191757,0.963065396070283,0.963975531745452,0.964675273180551,0.965245225692436,0.971728843880479,0.979711794615635,0.979642107081677,0.979909363459181,0.978720167428377,0.976922389999359,0.97722178886518,0.970047365715694,0.969972193225611,0.968845821305085,0.968448757302048,0.967843019426137,0.966323793358823,0.964501739743604,0.964491910262498,0.963695445477516,0.962272563539107,0.961408652580961,0.95976729241828,0.959226989128247,0.957795762761267,0.956424668849822,0.955868981232516,0.955227644128405,0.955225289862388,0.955263031760903,0.953655266124884,0.951339590963282,0.951316485259278,0.950427839081743,0.951554672456426,0.952034782156086,0.954301000068183,0.956504450028772,0.958199730337162,0.95972392963414,0.95962900790605,0.958962326205146,0.960413594248338,0.96092513568415,0.962209152331158,0.963833052478306,0.968605097364801,0.973994874242632,0.97558407522083,0.974723460684054,0.971600732534446,0.96564343766249,0.963441484093496,0.962132900601045,0.963810605628402,0.964802206101842,0.966351364308083,0.967885369127114,0.966546825058248,0.963933147692508,0.963401014991016,0.962157282565311,0.962122470421447,0.962394003447883,0.962049020633588,0.968504651260222,0.977700304689037,0.97811661369807,0.981699051522907,0.982232233230505,0.984002515562518,0.984011366955561,0.984666874798268,0.97188760716873,0.976026370453989,0.977628782342586,0.978088455007288,0.977964388502054,0.982574389248928,0.988065757746222
0.934052817425591,0.934146785835783,0.930705661497996,0.928840990186553,0.928952090211652,0.928012126096867,0.928687482962072,0.929264239670418,0.929068778190179,0.929707316120893,0.928960422041086,0.927128310683579,0.927521347353228,0.925904953513055,0.929974829600484,0.947723341885269,0.947794010749043,0.947271001635396,0.949028425516041,0.950971586768769,0.951500572132376,0.950911645146651,0.951159167267165,0.950064033622044,0.943096914021892,0.93547737187026,0.936181358229167,0.93616637379192,0.936277655269879,0.943711688423071,0.941183635505167,0.944304230177732,0.943443464080948,0.943363703250321,0.932947634298675,0.926371708986537,0.926222084423549,0.926198133939551,0.924091487891671,0.920563318052483,0.921451480003167,0.921637227924178,0.921884061679617,0.922424954246863,0.91947587123783,0.914090257062179,0.913787720200182,0.913018613378499,0.91255053784555,0.910993424464634,0.915774942359159,0.918733662810638,0.921322387461364,0.930615472119186,0.929766337579884,0.927270040295195,0.927484661358881,0.926239328233395,0.94551948932771,0.947824750503519,0.947653681168669,0.946868070169611,0.950267584892077,0.985476659665422,0.982864618475484,0.982815701957089,0.986645010424909,0.965384864337928,0.986879851362718,0.986350521988154,0.986675435285542,0.986958861816439,0.987419125602276,0.989033367623412,0.983289443095202,0.982858233429917,0.982118107060437,0.982265778617054,0.982907252617344,0.98338933370113,0.970408116968179,0.96589465413851,0.966140860006608,0.966116757530514,0.964954402896399,0.962356691006755,0.961462203452838,0.961268633579013,0.961522622635609,0.96108383572579,0.964645867137329,0.965014759757823,0.971921181233333,0.978985789094805,0.979713781881089,0.980204171624117,0.979402216861999,0.980125683153829,0.97713163849748,0.975204386467088,0.972420457159937,0.970619559299045,0.9693330998266,0.968327480418919,0.966941046598987,0.965764805760328,0.965812111092767,0.96561605792366,0.962627785393414,0.958572808971842,0.958472457686324,0.957575520490431,0.956580301932822,0.955841398091263,0.954894884509618,0.955330918559138,0.95445140110513,0.955548992422308,0.953355762445275,0.953124234870582,0.951196668276846,0.95067001197235,0.951525377698644,0.953455219775356,0.954590723022486,0.957077949271028,0.957752556677185,0.959629612216727,0.960010500650558,0.960416741493,0.960389927023364,0.960287545839118,0.961850040698943,1.14015042620227,0.978286953280475,0.977284508942815,0.976924256809324,0.976644117202924,0.974178721193666,0.971002827465222,0.964876518219746,0.964608562493268,0.965290487658949,0.966515615171387,0.966995745190118,0.968810661709464,0.966635650842607,0.966843052352393,0.963732700306302,0.963111042336778,0.962691723446009,0.963314633346875,0.963436193122994,0.968879841895663,0.979542508529284,0.980495703273946,0.98115802900585,0.987051931375489,0.98534734256601,0.983935939135815,0.984865150434105,0.971197238356001,0.974488431997167,0.974980773302158,0.980608813230143,0.981316128028665,0.9856666729772,0.994230457949062
0.932743252183999,0.931658153536996,0.930120760418765,0.928890936336348,0.928763406338834,0.928433033081389,0.928979294757887,0.930197123751911,0.930020105691059,0.93083813423431,0.930819774794531,0.931778573449632,0.932974040320936,0.933377363910284,0.934314666688806,0.933861936719887,0.947660365103436,0.946984642433264,0.949878964013572,0.950665579099479,0.951532186744758,0.950990215112247,0.950879212659287,0.950416411847601,0.945302929283328,0.937091992628594,0.937571727945222,0.937881876673527,0.937941813867738,0.937822726312835,0.940244838796433,0.939998332338906,0.940448164216397,0.932214029800601,0.931012899997011,0.924773077173089,0.925565101930536,0.92026590446275,0.922388884016536,0.921475935871976,0.921784605169469,0.923421643934446,0.92259812114463,0.918570932962226,0.91937453111633,0.912841294099961,0.91237804984929,0.911430582651877,0.912054651362846,0.911908014566007,0.914869750026053,0.919077894035198,0.921517519212016,0.930728549907744,0.931211756603871,0.93196590989027,0.935027579821589,0.93620899816969,0.939086129578161,0.9403152432929,0.94661470156635,0.944412520041542,0.955749711544031,0.986679859258909,0.982842161325974,0.968552451851396,0.987034872391121,1.06942739866501,0.986124513229769,0.985362122178373,0.986812150796474,0.987950829866649,0.988459880947925,0.989601560038422,0.985033938622974,0.983933080552184,0.980567537734544,0.978604427089079,0.972982052268669,0.966296423847606,0.964885081837205,0.965782243569048,0.962944436410187,0.959635426739692,0.95877112954986,0.958732955907074,0.958998212669473,0.957708493387822,0.959850156427808,0.960366496535459,0.963720380681552,0.971290586776725,0.972005082560898,0.979068888076966,0.979466656356524,0.979514344097092,0.979679471597071,0.978936942571126,0.978294345739848,0.976454536250021,0.973850559408684,0.972637348580303,0.970578539087474,0.968836760044889,0.968292253976392,0.970426567177182,0.967814280242379,0.96317629675111,0.962861813442728,0.958143569170986,0.958280322539527,0.957054821850389,0.955669611951086,0.953895396447284,0.953195395309428,0.951478951653044,0.952914269449525,0.953244564912663,0.952824300105063,0.951486750101791,0.951251740186063,0.95023449208684,0.951755308962162,0.952871886076943,0.954114834131938,0.955118587822531,0.955760919466762,0.961561623869931,0.959781506439308,0.959112896582043,0.960279296843739,0.961295860075023,0.961419086339175,0.974881155668168,0.977275580768302,0.978598840589336,0.978210236502069,0.977276392473995,0.978389601141982,0.97663554420546,0.966197449731903,0.96745676783594,0.966305406143048,0.966581711969826,0.966802320878608,0.966996921111637,0.965969443166249,0.961652080559891,0.96265570680892,0.961892373695966,0.962382028191491,0.963040371168918,0.964411728797684,0.979371014460763,0.980351637437719,0.981356992826155,0.981963959045612,0.987285111107294,0.986249537042022,0.984748583919541,0.985510578824239,0.973578803395365,0.97386105041456,0.976196765054017,0.981822244859152,0.98780925752743,0.988757309258141,0.995851476884446
0.931471853099433,0.929239935186438,0.929231392671446,0.9281169227292,0.92897611801943,0.928758554291528,0.929080371917013,0.930812079000917,0.930463781810545,0.931934441649426,0.932482388132243,0.932518159171832,0.933395342627546,0.933573419964349,0.934362622032638,0.934272123944069,0.946954594017146,0.944297940207262,0.951092554303851,0.952447312946477,0.952528684920652,0.958366076697702,0.950670033039957,0.947355917233673,0.946770156285552,0.940150897053991,0.938743725239256,0.938925402674481,0.938228284682123,0.937940244734386,0.938448171413498,0.939369435232817,0.939718474330541,0.929572208003381,0.928514573042762,0.926623588521481,0.926175275274947,0.92047776454657,0.926112383666111,0.930784568233382,0.931712597589014,0.930922809017002,0.926230477329446,0.920317603269354,0.919878684717515,0.911486187872886,0.911745045311909,0.912726519799028,0.912133974677085,0.912202582313965,0.912913049358567,0.912413953681797,0.922483883297315,0.928374943370785,0.931700663123865,0.935679700227854,0.936035316426868,0.936815379837311,0.938417173191295,0.938707577796638,0.954306122522217,0.962015093589221,0.963522171674682,0.967556527021978,0.982361424431378,0.979187594673905,0.984956174266122,0.983175483321744,0.98552945013765,0.984910054233829,0.987365580067136,0.988199740082581,0.988837332365417,0.988852783725046,0.987981960922041,0.982483937754178,0.975169776777469,0.972083183995855,0.967418422860112,0.964761766461921,0.963640800266322,0.963009941694853,0.961245376021342,0.959542132962321,0.958483958716107,0.958128260822157,0.958025236365322,0.956993339096795,0.96092454666392,0.961389716785242,0.963339913541054,0.970773383338916,0.972226141994449,0.978003129732825,0.980182211140296,0.979838401626163,0.980827564654658,0.97991364486765,0.979501445626431,0.978319938795097,0.973560885282051,0.971296824830951,0.971956597608066,0.97305492567824,0.974391115045633,0.974792922657473,0.96836416014326,0.962837860240209,0.961975247433129,0.960239493835053,0.958804742654926,0.956710315813745,0.954840219911983,0.95342480959947,0.951907278314998,0.95069850306972,0.951441712699398,0.952103704150498,0.951337683002231,0.951554372513551,0.950442566893272,0.950554755934937,0.951043916128904,0.952630084819386,0.95313631862256,0.953674667936322,0.95528323567586,0.95661190242459,0.958151355450154,0.958549605082196,0.959952895075887,0.961564946254685,0.96148001271181,0.967795146102101,0.977612977180838,0.980435335782551,0.979124856864865,0.982300075773792,0.978730105194285,0.978139440776181,0.967379036848473,0.967289750233763,0.966531164674855,0.96582040719451,0.966232941661618,0.965743190264264,0.964728536747177,0.963474616438992,0.96203566742745,0.96143760347851,0.961645902685747,0.963272543767179,0.965022197041734,0.980692853955175,0.981001369070207,0.983321149622538,0.984129233669862,0.986337333246307,0.986386759712641,0.986640688992638,0.985850792349632,0.978852953511474,0.980597962295317,0.982175279961605,0.983306990598593,0.986626922950064,0.989146102792579,0.997153957444406
0.930411394118125,0.928694000687367,0.929076243041837,0.928881131490151,0.930329854901563,0.933011533957475,0.935460181206947,0.937847666365055,0.938799767810665,0.937828403462035,0.934131957961827,0.932757132544305,0.934018533803462,0.934325282606042,0.934846700899269,0.934185335978564,0.94791106391091,0.94977109917505,0.95128024254119,0.951105450509199,0.954451630164942,0.958575603684232,0.950871016968708,0.95157193019631,0.947119850281461,0.947624610422088,0.939528747759141,0.939881510434902,0.938367977090981,0.936632549800617,0.936969153796063,0.935133096210502,0.937635669226152,0.925736106769649,0.927257434601841,0.926799032775531,0.927136145687314,0.926969881693101,0.929552613199021,0.931083668048294,0.932061515545869,0.932300444918564,0.932775169483485,0.932470162130268,0.921583686404063,0.921491322053059,0.916211294225628,0.912535021366115,0.912610550561186,0.912884159418675,0.918277869919281,0.92435458000995,0.924963091347866,0.930765851804004,0.93168495847459,0.935390639022891,0.936387121284105,0.938134233861887,0.938213071021619,0.93817395250573,0.959988441828885,0.965322701009899,0.965253026745668,0.967221618369386,0.983049888102244,0.981891383027178,0.983826134142256,0.985088194861539,0.986886689364939,0.989020656946333,0.988631097779181,0.988895078895528,0.989061403210596,0.989789546837016,0.988438587787524,0.987852796409574,0.971730636040514,0.965702696889509,0.964644265186262,0.963910364505847,0.961471080765606,0.959928651950099,0.959119624563941,0.957507401358579,0.957898796676837,0.956669669150063,0.957920830604865,0.957350663653946,0.962195218974071,0.963238650144684,0.963581482061801,0.972501215601728,0.97300197736458,0.975001009884605,0.981711615444422,0.984439078271818,0.983429653998476,0.982331633088501,0.981274431113437,0.974068839873892,0.973271066609337,0.972619188684887,0.973294912152463,0.976455301970733,0.97574305328622,0.975316837685045,0.968286070189343,0.964862815337795,0.963318609662854,0.964119832562984,0.960470943447181,0.956949397859145,0.953536614030046,0.951352641815391,0.951279247365582,0.949669811911328,0.950937035414094,0.95093285570879,0.949994800430754,0.948808121959538,0.94966256596951,0.948815019648055,0.95056315888348,0.951614133290653,0.952614360936255,0.953031609993225,0.954917490933989,0.956335336108654,0.95750204489122,0.957578761532966,0.959785713163261,0.961210537663897,0.961971532951547,0.963374716280637,0.976180760162483,0.974613772653416,0.976638683964447,0.982209727856596,0.979205594806275,0.978580510530674,0.968978856081684,0.966653725210439,0.966806128122985,0.966645312098143,0.966811812576186,0.966371755978506,0.965403039784634,0.962230286122248,0.961509779981352,0.960442489124967,0.960537599696044,0.955751732095796,0.965937933265441,0.974996624392715,0.981159912389899,0.983488137654929,0.984360586424256,0.986007776038999,0.986163443251037,0.986070876426227,0.985282417056396,0.98381974144465,0.983649440047648,0.983859257969446,0.984457543632353,0.987319927195879,0.99030739461564,1.00107985408397
0.929875037913368,0.928352068224293,0.929525432184,0.930588433702031,0.930205858497044,0.938356939644127,0.941646327366926,0.943294268404116,0.939268321407206,0.939999075720598,0.934367815361563,0.933918045562182,0.935051954121467,0.936004202452663,0.93570345525431,0.934331086557953,0.947332387873393,0.947260383876028,0.951240999769907,0.953554767022386,0.955808704474634,0.962737318100033,0.951388357934514,0.952998044319404,0.947204293706721,0.948020313495061,0.94075346458464,0.94281066680149,0.938145031439302,0.939291000953485,0.935723604131999,0.934219819714296,0.935696619622876,0.925539569196813,0.927181735905822,0.927129779445974,0.928918340389382,0.930863000177747,0.930585353574999,0.931644538814765,0.932112038413325,0.932671085728062,0.932800057378402,0.932906537341512,0.921982550066474,0.922814760532016,0.9190914827611,0.915668599331023,0.91365720139723,0.913184833333002,0.922546135223407,0.924621593775757,0.927796413100881,0.930973846310983,0.93236832720817,0.933610427126998,0.936369331082987,0.936199133868549,0.950970589652785,0.981051160862013,0.969713135033629,0.968607621508612,0.97216759256216,0.97497005480884,0.984056635014996,0.982731018486607,0.984079029352102,0.983718020690209,0.988519521512197,0.991191004005173,0.98954987538665,0.988558738604393,0.988708784312563,0.987862141719111,0.987511933684095,0.986308204774044,0.969265809625267,0.960964805512466,0.959398319594725,0.959520489933441,0.95926314419513,0.958359301296675,0.957722315645436,0.956886569311058,0.957418184337759,0.957857903077457,0.958364994749122,0.963479757968344,0.963123666805198,0.96373343662995,0.964210135131426,0.973475548791456,0.972833150929492,0.982042366922708,0.982666617807013,0.987652821748745,0.986480422243259,0.987155964629416,0.983379177164295,0.980765686242308,0.980915728857738,0.980161294693512,0.980742491300514,0.980674360892548,0.981979001796481,0.983536208436256,0.969135251051355,0.969498361836318,0.970677536064659,0.969048416159365,0.962548289846307,0.964472912539358,0.952206443118942,0.950862799831552,0.950922149105061,0.942120892774897,0.943980468844819,0.946494972186683,0.948722109949155,0.948471478401674,0.948860731852276,0.948600623711943,0.94972647227136,0.951085412980798,0.952050441591701,0.953048024564688,0.955140775249086,0.956819600821405,0.958166656656936,0.959251944071263,0.959910478959899,0.960959800185766,0.961495671979683,0.96307428275647,0.974694510905186,0.973389405515095,0.975956054016641,0.977056529712395,0.977102236336829,0.976523417909239,0.970835491164171,0.967291837392237,0.967812408514493,0.967662355403396,0.967958106934648,0.967160824462828,0.966679638325828,0.961879530210603,0.960998509595366,0.961033851790402,0.959917898099415,0.959483679077939,0.967612599646869,0.977980811883238,0.980512469964462,0.981515304951969,0.983084861887621,0.987009833640749,0.98559748038404,0.985586413562239,0.98443167547335,0.98370736430318,0.983255686440468,0.992171021015728,0.993491957607118,0.993273019170195,0.992895293672821,1.00215352814572
0.929853783178978,0.929774132981226,0.930018889837933,0.930265089694951,0.930636089933737,0.946510952570096,0.944189164105625,0.942943222955851,0.939640581128404,0.934021009121694,0.934988044492168,0.934781486906311,0.936381012981397,0.937260082970137,0.936364675626129,0.937391850251392,0.945964333148221,0.950942282842103,0.950234745991743,0.960250413990349,0.958637892979983,0.960180022533406,0.950954187112057,0.952314494928081,0.946566290246556,0.946998855696918,0.940740589619364,0.94158251396483,0.938436986290105,0.935249178651956,0.93554221330616,0.933675115096922,0.93428716937714,0.932708894399043,0.931030305947968,0.931111862712019,0.930532440463676,0.931575730500663,0.931023457898394,0.93087339178285,0.931836445205669,0.932688000596395,0.932350681767662,0.932144239944653,0.923105565459734,0.922735637151239,0.922462738775424,0.921523092903425,0.922582741137715,0.923119471039624,0.925030127939019,0.92641999168324,0.929023437978784,0.930658815816368,0.932279414446374,0.932387588186687,0.945865526502094,0.958097907132882,0.962290058866414,0.965578709462505,0.970499161296304,0.969961858218665,0.974263364702713,0.982804074269333,0.984250951797222,0.98454056508323,0.984934380764789,0.98973459981428,0.989942543791327,0.991099240875374,0.989926453918535,0.989349798342411,0.988712434724779,0.987545549500407,0.978995761528102,0.969518679978281,0.966634102291195,0.959511840811224,0.958605314734874,0.958387913587444,0.957906050647668,0.956911353954069,0.957364867604652,0.956716971585139,0.958095106007869,0.958863351768029,0.959988545588274,0.961723724662488,0.963296197889904,0.964938614312345,0.965101379590469,0.966689931494263,0.972143874253784,0.983737854258855,0.98290484568835,0.986315708006541,0.985930006470792,0.987204510425929,0.985708420580657,0.985336436834086,0.987353454294115,0.987698949469775,0.989140039400897,0.989317319024017,0.991396184089343,0.991572308894866,0.969868010775586,0.972588548523512,0.972027375005435,0.973451316864221,0.962646938582665,0.958195847062019,0.950927362672429,0.948593313343569,0.950032160124141,0.941367834084012,0.942676403187519,0.943381870766271,0.943075060528011,0.932200089165661,0.943543852998427,0.94350172309595,0.949436375432985,0.950448705856101,0.952097770476973,0.953452674295953,0.955809963681146,0.958014435860921,0.959304619042063,0.960887819854138,0.960054597598467,0.959542609167177,0.960354386011969,0.961174042834514,0.973774152433207,0.976209514414082,0.975889928675797,0.975763713562101,0.975869423267493,0.97466396536126,0.973006862832073,0.972284126849831,0.969981397058576,0.968873781045324,0.969498318951432,0.971877936877616,0.973109647799846,0.973685531449032,0.96037190502478,0.960801561029532,0.959998654374203,0.960510248797158,0.96983080222222,0.97561495196113,0.981200311136812,0.981271550793482,0.983019150156471,0.984252314334668,0.984690595918678,0.984467161161989,0.984470312569428,0.983662528876207,0.983793599766175,0.993415997196429,0.993434924053268,0.993262148957691,0.995456614162707,1.00220396850271
0.930130310668242,0.930267324496821,0.93081054216288,0.932956257134959,0.931813387430185,0.944871305296521,0.943197804945163,0.941758061948995,0.939299430292982,0.936356927728837,0.935918994562301,0.936314635629196,0.938610864044367,0.93873277090504,0.942134486833793,0.9430644260617,0.945391539001909,0.948959158428609,0.948694271590804,0.957596960467351,0.957502702493969,0.956526835386721,0.949477534571635,0.950297626853047,0.946358308709684,0.946624717889806,0.940582084900923,0.938863893383596,0.93784552151045,0.936364395041622,0.935466983921622,0.934617710117305,0.934077547534116,0.932641995965902,0.931532046442616,0.930644211983945,0.930706826441985,0.930955017690754,0.930849513742387,0.930833784823988,0.931290120037265,0.931662071852091,0.931132170623178,0.930248350330541,0.925282730340294,0.924162521029078,0.92373107101079,0.924889010189848,0.925688289564627,0.926280706987494,0.926402256312056,0.927481326179065,0.929652357084586,0.931399856037202,0.932548877200801,0.932749303190589,0.951693203481205,0.963073273338892,0.964023710843707,0.966510605526915,0.973731838496363,0.975124080767901,0.977532530922463,0.984108359753101,0.98527430657536,0.985968717668853,0.987020862292639,0.988947636308132,0.989700472280087,0.990374487962644,0.989119640825193,0.988347979523267,0.982070138229076,0.976648221228529,0.972653508351976,0.965877059691239,0.965231009319801,0.958203832133089,0.9577775218778,0.957389719014737,0.957453168922392,0.957162652290765,0.957471950376121,0.957725188506991,0.958410687485892,0.95931532581082,0.960095490998844,0.960767478109103,0.964272087617713,0.965101952618587,0.965613141770093,0.966265364304657,0.971766859492984,0.978841565272597,0.980663409400695,0.985079586872178,0.984927875961063,0.986353839276625,0.987743986217279,0.98788427454683,0.988509617109956,0.988802184169717,0.989764166448664,0.990390035058152,0.991551200156321,0.991527893101627,0.969243267367737,0.970637114692029,0.971193428195699,0.96520786491036,0.962593129763274,0.953164311020151,0.950154140023785,0.949258737079042,0.949404153747038,0.941415833172341,0.94241500619459,0.942988289952582,0.942560408290289,0.941567026942564,0.944424581556416,0.94459899858506,0.947725180318645,0.948320655561984,0.952902546043235,0.952696721921645,0.957063187527932,0.959028494662989,0.959833899319219,0.960616106958851,0.959828124589914,0.959263290200236,0.959683328167681,0.960168697251679,0.972830399901034,0.975570096604156,0.975538355423341,0.975378233008775,0.975103013904827,0.97458586018009,0.97315242317363,0.972033303269665,0.970557238177975,0.969707386147607,0.970118388842538,0.971282413670919,0.972881840210569,0.97404510863392,0.960295163476422,0.959957303526777,0.959490346136058,0.959187385311519,0.971770276199627,0.973822599012036,0.982462740521959,0.982185366812309,0.983024871888674,0.983428800143407,0.98389211187492,0.984205248053788,0.984559169440564,0.984510807983146,0.985064122106057,0.992599551757219,0.993757357003011,0.993345397409753,0.998736214772507,1.00334983358875
0.930137398864248,0.930601158925178,0.930265186093759,0.935996256714076,0.933141937125543,0.948669248519374,0.941345930017552,0.940876244459257,0.939980141518557,0.934513507666863,0.936528069159935,0.93574245786451,0.942419000442471,0.944162701971506,0.943868749390847,0.943725791217825,0.945842169425621,0.947757126786809,0.947670398402177,0.956831911966988,0.957606650755482,0.956824489283826,0.94886455456543,0.9485004337275,0.946793908616756,0.945438764214399,0.939695790882476,0.93712634999667,0.93693955287948,0.935605665369858,0.935671159969828,0.934812548651939,0.934545149968286,0.93258839581925,0.932171473838625,0.929903600584551,0.93040961321697,0.9307254155632,0.930600383354721,0.930103023373596,0.93074226120007,0.93139421485539,0.930774961506373,0.929759373304275,0.928198100479377,0.924855886041981,0.924675473092346,0.925431719896073,0.925951306194283,0.926735631350723,0.928815574718595,0.934160256465916,0.932531934332606,0.931826554173751,0.932578138504712,0.932389929271841,0.956039689880735,0.963833170548129,0.96547684375187,0.968754164184618,0.975752424905548,0.979630851110437,0.98157644779641,0.982963700232505,0.985581401228086,0.987407794438507,0.987719585619857,0.988770154025929,0.989179238925159,0.990893022327666,0.987165889805341,0.985787142338911,0.97937836734911,0.971211785823824,0.965870847558465,0.964625896408565,0.963739142857966,0.957783545162002,0.957318425675631,0.956475825782252,0.957021389744251,0.956788611928447,0.957663709029014,0.957918884656408,0.958951529430754,0.959070184691061,0.960286477424459,0.958837419446337,0.965997096187783,0.966403436479308,0.966868623449292,0.967789240056042,0.9714563971823,0.976006535710171,0.979690319430337,0.984319489694846,0.982824815259068,0.991741509118551,0.989915159327992,0.989224764939229,0.989150301212312,0.988359697310688,0.989848271699366,0.989586548935464,0.990971351215232,0.990280384349201,0.968474954397761,0.970310141201136,0.970429420979384,0.961378839523761,0.962469532918019,0.951152794286901,0.950179855815885,0.949770621487083,0.948411082622523,0.941143535683584,0.941852063049399,0.930257657673553,0.941329182546041,0.939045026508089,0.943903735903446,0.944376805796933,0.946445607570297,0.946750854743717,0.95315312466069,0.952705117357351,0.957238829161729,0.960677261119523,0.960605181494448,0.962571355282398,0.960003155995623,0.958241438972097,0.959991981230571,0.960197265847291,0.971451886947787,0.974881776080172,0.974397430316285,0.974634308071748,0.974682683042108,0.974773518264023,0.973108460307416,0.971195161605086,0.970628824041326,0.969278048172371,0.970352405391188,0.970517069111384,0.971857579682325,0.974856153387363,0.961733947133819,0.960430543912532,0.959975676400955,0.958202845753517,0.972511377973482,0.971676704750378,0.982963267341877,0.982061109181678,0.982344457603587,0.982333380291079,0.982899362158077,0.983302510971268,0.984834320080755,0.983981410528273,0.988162859980134,0.990139831098042,0.995540026951519,0.995048235024744,1.00164386202495,1.00264479360054
0.930186248290572,0.930588976150118,0.930179838652234,0.936341103031775,0.932802566003239,0.948657226451171,0.940813025283915,0.940256016346408,0.939585300646073,0.939540734053635,0.937442416966494,0.937319950212771,0.944404666533509,0.945243507429657,0.945649998726047,0.947120321073425,0.946362104063386,0.947377272979676,0.947308001339883,0.948867450084185,0.949939260342509,0.951420180020728,0.947597282379458,0.944456511924859,0.945672177328259,0.944392889646979,0.93821445296011,0.937641283286935,0.937010040057388,0.937046444293947,0.93659622889375,0.936791487275538,0.936775503515185,0.938299203935751,0.934913130551492,0.930099234947791,0.930747675442682,0.930298666650684,0.930520134964912,0.929985584714089,0.929912992600339,0.929791887719343,0.93074276352682,0.930313542668987,0.930020735079425,0.931314685863394,0.933678033644746,0.934839186100616,0.936601087376587,0.937460376760411,0.938820727962705,0.938233900378984,0.939906763455177,0.939453557850354,0.971445631290403,1.0283392666305,0.997358806193506,1.01580950276914,0.972586555456031,0.96978577503183,0.97785396619251,0.984764393344219,0.985904933172324,0.985606575555489,0.986651224196185,0.987619264284702,0.987656831295871,0.987633727623745,0.986824832408917,0.98552387712785,0.986305885406558,0.985879639601593,0.976788219062249,0.96749851096066,0.963184435730076,0.960459675071267,0.960137726147835,0.957846038474086,0.95735744924873,0.956651381350586,0.957683164465251,0.957723505809404,0.95865533489352,0.959157429951277,0.959831213554856,0.961720229769803,0.962892625454479,0.963196758048924,0.967573190769274,0.968609299532918,0.968242527656053,0.968587068943081,0.97171858890001,0.972882258722901,0.977375466304051,0.98034447866734,0.98001668046924,0.991968922452231,0.991004481900903,0.990345504536314,0.989585323491188,0.988944222664036,0.982991044233784,0.978729957088423,0.979166073773782,0.980253835498532,0.968157350425225,0.969530647795061,0.969694272926654,0.962864246590163,0.963177268055058,0.951482377590799,0.949962877831528,0.948319290441667,0.947962373782919,0.946408606856124,0.94173487178684,0.940750952582306,0.940867189467424,0.940400744296989,0.942086192260775,0.943067173330969,0.94815750337078,0.947588656750622,0.954507038127564,0.957175427794372,0.957391079396378,0.961177176307873,0.959917538004378,0.958207421054119,0.960026063792759,0.958275006868839,0.96213906863987,0.968806353682065,0.969950635126809,0.969763537241908,0.972538409252749,0.974015279659531,0.974056806719967,0.976227256392465,0.972384324019234,0.971034853475659,0.970925302405108,0.970631912514116,0.970666058362299,0.970028869744264,0.970571691448022,0.969635104640025,0.962882368945637,0.963398245204845,0.962574759843138,0.96393648213187,0.972847353571462,0.971813623399654,0.983746959481234,0.981642877697098,0.982529340658253,0.981628642257959,0.981995221553927,0.981882616836149,0.986376793880979,0.987609058039554,0.989741515466507,0.99129548410968,0.997620545566285,1.00202493643809,1.00261884506935,1.00301545508966
0.930263844105113,0.931464347748803,0.930729793143671,0.932179797625479,0.930808996062692,0.943865965570182,0.941387861079307,0.94022640916032,0.940169953823907,0.939796280824707,0.941606754505033,0.943681532032375,0.946718801282035,0.946654987223697,0.947408677336196,0.946966453741029,0.946684841886152,0.945216604169549,0.946155364836831,0.946771585111419,0.945057810181077,0.945376540056135,0.943326378095422,0.943721749071175,0.941877146209045,0.93412030896556,0.935524301342173,0.936890130516772,0.93679342475395,0.936961195315107,0.937029929293086,0.937693200258791,0.937650229759298,0.93816470580759,0.936704086618694,0.93498784885029,0.932234769995447,0.931728698894305,0.931539069201681,0.929930843100378,0.929782872862266,0.930357251488344,0.931312382536761,0.93206272560739,0.933430265974793,0.9364515494034,0.938995153197176,0.946531001451792,0.950879760511218,0.990034002099144,0.951826218558684,0.94703886076825,0.951574696053118,1.1089280562395,0.994672510405612,1.03306204638194,0.982161889959353,0.96836765271763,0.974309303308759,0.977217173762781,0.979746645958587,0.98511084428707,0.986508677146324,0.98738012458457,0.987401551163302,0.987403979323742,0.987246038734582,0.98728525075072,0.985535647084352,0.98274144656959,0.9814599681073,0.977584498162603,0.974115023911017,0.959796491857418,0.959195002511444,0.960107176226118,0.958770326141456,0.957083187551452,0.9577302684761,0.958079387068514,0.958618947571888,0.959787036424426,0.959659638247457,0.960108440501702,0.960351458401531,0.960295797662935,0.966092561945433,0.969230504600295,0.96867396646482,0.968287672954076,0.968820208961373,0.968985749669571,0.97127280428095,0.973518259702599,0.97521955560118,0.976141187378151,0.978021962084149,0.987229961366486,0.987067584995902,0.985953377184028,0.980473538208811,0.975261085297533,0.975746709112149,0.978351773470763,0.979182656099695,0.979376193647682,0.968837420896934,0.969015450216855,0.969284035334529,0.963412656382073,0.963404526908798,0.952284113818619,0.949993515818059,0.948374393147505,0.948072797429469,0.943137363299587,0.942709761124008,0.941711155503898,0.941284387084789,0.940106037527254,0.940851363192788,0.941321779024058,0.949835515917131,0.953989591989444,0.95482627498467,0.957000664581459,0.957413048936105,0.959840442680839,0.959464925617838,0.956503480222761,0.962914365864307,0.963373095347892,0.96445188105166,0.967986275531665,0.969192406852859,0.970206338994677,0.971239781756793,0.971775767481201,0.972391145772694,0.971738640823035,0.972128049718791,0.970945927503579,0.971378618926698,0.971733880591952,0.964607806212162,0.960487711300798,0.959194898176693,0.960227458096785,0.964109113299865,0.963521306698374,0.964497695043553,0.967672054275397,0.974186759504201,0.977062765708776,0.985437268625972,0.985701236826949,0.983824651271853,0.982841909572791,0.984644124018862,1.20197796835322,1.00109593244262,0.99875105033973,0.998834101719895,0.998594940316379,0.999852319465443,1.0018757905624,1.00218050804326,1.00253171472377
0.930194052955057,0.930003069312996,0.930148396790931,0.929524530151307,0.929497566062825,0.940623913420255,0.940929046416313,0.939609972967645,0.940560093487183,0.941013106844113,0.941728306893401,0.947735436066892,0.948402114230862,0.950637723585254,0.949130091510393,0.950753385839458,0.946770439834318,0.944422731373769,0.944818474493205,0.942964454792213,0.944450768942265,0.943582786943784,0.942088091216181,0.93838716507324,0.937191418796434,0.936344901202323,0.935776910514689,0.935347977662998,0.936096113892569,0.93647684429974,0.936924769112365,0.937325092788697,0.93798568465816,0.938799634306836,0.939206482056361,0.940230602167048,0.936698419199966,0.933050556801552,0.933506884463044,0.934951870240917,0.936165083914037,0.936699007153934,0.934922091438037,0.934322132110175,0.933980475139609,0.937226523663665,0.94212284002573,0.952092535234627,0.954028263606617,0.953551804587413,0.954652064147431,0.955047075311803,0.954994374583951,0.954777009114771,0.96505513772668,0.958703557148126,0.972728847139706,0.970939680601032,0.974867850748588,0.984219318042053,0.985518358010211,0.985861726231538,0.987398097330698,0.98857375706194,0.988009672513306,0.987924572211952,0.985726350141859,0.983084649622726,0.98337604611875,0.982922491165462,0.979534339888636,0.977674382047931,0.971392899252992,0.959114185706761,0.958970155860686,0.958437669835835,0.95864025886068,0.95789691106068,0.958889549202129,0.959103347888622,0.959914292107833,0.959949497974299,0.960720266436158,0.961002565352422,0.960987296872766,0.961305813521691,0.968515224271504,0.969989563493911,0.969040454030337,0.968962485602867,0.969141903803014,0.969854540744168,0.971005785544216,0.973622768912488,0.97427730362616,0.976291217593215,0.977884616020881,0.979305350039993,0.977915541979046,0.976616448678796,0.974668236121638,0.97428851772242,0.974075273096474,0.973735798577295,0.9729519712805,0.974485039796994,0.969561487829693,0.968910409315303,0.968164448865678,0.962963554362243,0.96180638526898,0.959825314526812,0.948585438677586,0.949059655246812,0.947300370292339,0.945965986143378,0.94328116501852,0.942239353620841,0.941132412977428,0.940387345044807,0.940427451623706,0.940560236443828,0.951401683956259,0.954213843646141,0.953907864167213,0.953028257797383,0.955122040119841,0.954391831553331,0.96157768860156,0.962705159020751,0.964083525092216,0.96540448399747,0.966299047469043,0.968594222545639,0.968934864306887,0.970237183292986,0.970122055840343,0.970336165307175,0.971038254337993,0.971105962284379,0.971887865954724,0.97199622202453,0.963264058006511,0.956322560543861,0.956896398612904,0.95755933722838,0.957842510015258,0.957101484427254,0.964182311672458,0.965463543141579,0.969535376223962,0.974610234999961,0.975955439793663,0.977301454766321,0.985923151942861,0.985329081265328,0.984673313723335,0.982332178629383,0.986634246856216,1.00330757134683,1.00287686881617,1.00123183669507,1.00163922023518,0.999783841625106,1.00070462661288,1.00108157550264,1.00476861319214,1.05008856868255
0.929628020788213,0.928918651133517,0.929485462628954,0.930031679584258,0.928599523416132,0.927622761375747,0.939400649601453,0.938426230317979,0.940791336492588,0.94087872971907,0.944155928837551,0.947594398113108,0.948644775852634,0.951124383874201,0.949825145691388,0.947784012348264,0.947787423542737,0.946422582702718,0.945983563163246,0.944155181454265,0.94503741754155,0.944902025162501,0.939421144524127,0.936881974342195,0.936205666947018,0.934694653777664,0.934867270614383,0.934672577639681,0.935627704691583,0.936684139311132,0.936548116041561,0.937245932877168,0.937971352141943,0.939884821156002,0.940868128683908,0.943456090358091,0.938210270979092,0.9346563336527,0.933994805725594,0.933057248679269,0.937061557262553,0.942760355646861,0.935462893650702,0.93384676665786,0.933684418581996,0.932576000720155,0.946223994711173,0.953505634861552,0.955012396866307,0.958220746797149,0.95881190623914,0.959198547051487,0.958459120707674,0.956931196080193,0.968974923736669,0.971599337408645,0.974970391327378,0.975668418180839,0.974989189743063,0.984091905734517,0.985186213251677,0.988164078241097,0.988224954826768,0.98887269998993,0.987885728128134,0.986049556057008,0.980550660377634,0.974830451414282,0.974135476833855,0.973910186783847,0.973257869387592,0.97355120067837,0.968454474161408,0.958640398375508,0.958738337688486,0.958241303064408,0.958772936731368,0.959120278559554,0.95980660702214,0.961771824193998,0.960767706424655,0.960765681172328,0.961516875518647,0.962767608306918,0.961480241596503,0.968907839262773,0.969590075673358,0.97052163235153,0.969299208849037,0.97011141789283,0.969562383344678,0.969476099238392,0.97002109900127,0.969715785094102,0.972368685195844,0.97531009473302,0.973426849528547,0.973848761144723,0.973721848534009,0.974899135847455,0.974020853045547,0.97365951352532,0.973438264713079,0.973595895849342,0.972789256793983,0.973772165070178,0.969337222246501,0.966924116816528,0.966760979509688,0.964832831927936,0.9601463190598,0.961005401369498,0.948130155457464,0.949001808865717,0.947099382197888,0.944761461792896,0.9436778177553,0.941019141125461,0.941800013821133,0.942418419210342,0.945977814087623,0.953264655994989,0.952733124129051,0.952989570403024,0.953081660323507,0.951936200057848,0.956619270272875,0.955411420055014,0.961927267869993,0.964338655904652,0.964889860479985,0.966028718722099,0.966814656001892,0.967963495356067,0.968273264192665,0.968160238174692,0.968984704954389,0.968608259148816,0.970246691060369,0.970817327510993,0.972067873135814,0.955157432437361,0.955088754398652,0.955017159495803,0.957006011043692,0.957308975837735,0.958167615882393,0.959380134780514,0.968154933079704,0.975455598800422,0.97682609527769,0.978473907291758,0.981966876621267,0.98703768999628,0.988029189498443,0.989055982873256,0.986432559233906,0.981376810656755,0.987730653230996,1.00413295725872,1.00387058076184,1.00501449409394,1.00210405744802,1.0015358512809,1.00100925144616,1.00162672272196,1.00851955588076,1.09310620461526
0.929626791826498,0.928916616874155,0.929444428193309,0.929052487630598,0.929279282525858,0.929616792554287,0.939503693796157,0.937170215422195,0.942577041092346,0.941587656967654,0.946509130838235,0.94712257520462,0.949257595600477,0.951675582148105,0.950164377865774,0.949560974318187,0.948580177327312,0.94822268343941,0.94802648716872,0.948976847174405,0.946747149002732,0.946604624423866,0.938019899040735,0.936936216587068,0.935180769596852,0.933861676374954,0.934566720832355,0.934753809380276,0.935295270847966,0.935650236628041,0.935933106491734,0.936022263047854,0.936980485847254,0.940833395050221,0.941469913264563,0.949536495217521,0.939753979920556,0.940509623203984,0.9391634928976,0.937165076707205,0.938080944256314,0.944023641237148,0.937674529738154,0.926291706703026,0.933214835888022,0.932030614109893,0.94992561885148,0.952513836182691,0.956672281550051,0.957374163362643,0.958795506617044,0.961118332556261,0.963696604346066,0.968425243056612,0.971941467976212,0.976989669023292,0.976189377107127,0.976892320381627,0.974966695251003,0.985274025744274,0.985877676909934,0.987290526559244,0.988105114988056,0.988228435138671,0.981866218331799,0.977320614515125,0.972914491513083,0.967945007603438,0.966501421432006,0.964449382374583,0.966027276296601,0.966642660711432,0.9665725231664,0.965610121129571,0.959157356381185,0.959220816534641,0.959619005289809,0.959779414217927,0.96043785376493,0.961320224118943,0.96201296406675,0.961470278918177,0.962254991510463,0.963151639978967,0.961914832527292,0.968940384695808,0.972877712324027,0.978211749081635,0.967909539874039,0.969323238875,0.968976413922333,0.969500098320364,0.968963107647581,0.968536238292537,0.969187008940991,0.969567215330238,0.971200050694289,0.972995519146944,0.973252700758408,0.973430685286827,0.973419224261486,0.973871381194325,0.972845531187509,0.972901902215426,0.971021410267588,0.968863772671115,0.968560755816974,0.967118230808136,0.967057312209005,0.966231060684968,0.958104165300179,0.95506485584789,0.947487846576514,0.949764858793785,0.947118064523971,0.944504351670242,0.944104230506742,0.943178319471677,0.943186116413423,0.945733985115026,0.948184271782959,0.953448919989236,0.952933133877912,0.952676411468312,0.952536502988464,0.952620813081269,0.959445909034183,0.960929769511251,0.962215551117076,0.963480696276202,0.964305226798837,0.966722354171307,0.966047313612752,0.967837707408765,0.967274983747607,0.96734881938072,0.968727197039689,0.969399993121619,0.970416673824477,0.971191370110402,0.972393429735907,0.953299854810505,0.954143002494012,0.95418281404408,0.957830502032041,0.958403867955395,0.973981965491625,0.991564090977793,0.97760019599667,0.977374176305091,0.980021013665746,0.98207976619726,0.983748873547253,0.986708188305567,0.988271205123954,0.989382927249194,0.991313524766562,0.991669508872176,0.991836300597107,1.00412109769413,1.00477446945222,1.00457887058118,1.00619874351881,1.00728727697294,1.00499129574206,1.00257260474549,1.0093085162812,1.02950313498471
0.930695392987936,0.92986598849965,0.930470448659403,0.930120887585475,0.929639173419345,0.922798450485426,0.940111532810092,0.938099785453415,0.944171633836113,0.946850813269231,0.947227337108492,0.947914554770213,0.95005941155848,0.951847449355205,0.950822293523084,0.949709626433106,0.949503205640479,0.948966274853838,0.949070976032595,0.949226935037437,0.940355941681293,0.933060789085833,0.932669759906117,0.932472085169475,0.934092747183768,0.933842687078689,0.934732815444184,0.935353596117689,0.934916232967162,0.934978687475447,0.934849499755078,0.935930293334859,0.936342315825923,0.946312332425745,0.944167082000423,0.946929148573734,0.94031899565488,0.940835891678093,0.939564756351744,0.937706277058469,0.9406016014792,0.943350320789248,0.94078947620531,0.92585498249013,0.933355317818808,0.932928182321537,0.953621906132322,0.981158436663367,0.961935141612503,0.960320777316139,0.96347082978246,0.965805561337262,0.9651166756396,0.977311452589041,0.977379993735717,0.976924002298383,0.976495251710495,0.975874726014719,0.974812767417024,0.985389732561645,0.984803524889911,0.981739376864149,0.980407385871417,0.978076272031349,0.972145419250969,0.968441910569193,0.966031770579675,0.961425979001896,0.959473011129148,0.958890719205171,0.961592737988554,0.964981253509826,0.962546676163233,0.959665954809094,0.959395990904581,0.960017735816217,0.959918083115751,0.960673891946775,0.96028713881385,0.966557369281353,0.963957864880408,0.963425477504326,0.962901491771693,0.963085757396052,0.962317865574255,0.977574126507056,0.979077058296177,0.980226135474822,0.967284463579228,0.969663352399024,0.968452778178706,0.967952290599467,0.968280833491651,0.967665402473165,0.968719679820568,0.968620064240448,0.970759334629989,0.972762037663146,0.972701063455536,0.973461063090896,0.972865757833267,0.973666421203183,0.971601291424008,0.967890853403058,0.969064704380169,0.968382543451247,0.969110928471075,0.969205989414814,0.968110208375396,0.968399616097437,0.956716274542247,0.956680321691195,0.947063157762292,0.948314668751288,0.947000923889376,0.94528736974559,0.944628560106642,0.944600666417754,0.94856772291869,0.955640393159306,0.955072669083213,0.953837885782383,0.953708069423635,0.953595150566891,0.955459404498754,0.960081853301854,0.960894557526062,0.961181581602445,0.962382438547673,0.962635783106018,0.962471368833409,0.963006112998683,0.9641156551396,0.963740378573676,0.966380784858802,0.968948516841664,0.96860646995907,0.969613004444158,0.970231285233623,0.970237088563227,0.972080722918923,0.953030492148938,0.954125271683198,0.953595418960799,0.964061903611246,1.1847258210346,0.982025395511197,0.978324192164881,0.978870101319896,0.982165807531664,0.987152932815612,0.990520202011849,0.991180925450693,0.991022325527722,0.989087534847133,0.988862099216377,0.993545567390375,0.997204093138988,0.995920020881498,0.996669817202906,1.00578327173142,1.01278414373771,1.01447542512639,1.01819312331862,1.01512747659018,1.01263947763456,1.01079695814266,1.0302474714962
0.934312532641491,0.934306193508724,0.932109227228057,0.930562784517135,0.930195363979087,0.92458145737009,0.941414980023984,0.943658335668891,0.945075257138297,0.945992408094169,0.947973757840923,0.952860428479658,0.95165523928222,0.951125849218234,0.951166062571441,0.950323359563726,0.949915127654194,0.948641434346706,0.944413072533036,0.936234652095797,0.93500847308745,0.932652772066285,0.932827026581789,0.933425205176508,0.934419993758216,0.935807996691486,0.935136905026621,0.93506031226791,0.934271415144048,0.933071229197144,0.933653006065819,0.933146802582257,0.935943015503365,0.940019579661222,0.941868119794901,0.944885317361457,0.941724868290088,0.941429559433715,0.942306037089211,0.945474327730314,0.947646165182411,0.952137296315674,0.943681095214148,0.931088891196981,0.933337478020992,0.934616201448596,0.955797025940053,1.01315451736349,0.967172843934913,0.967219248525378,0.966860671075653,0.966690501345885,0.966622746639633,0.975893616711169,0.977091640772352,0.978054040383282,0.976765866253717,0.976077665331711,0.975196249254057,0.975897308170845,0.977402295692574,0.979933109382574,0.97693579888836,0.973360740907672,0.969658080468741,0.96506125988656,0.964648177095615,0.960218094379923,0.958828187163611,0.957706622529321,0.956424853886151,0.957493269727731,0.956259714506908,0.957833988044652,0.958155653634338,0.959894942736445,0.95987622362285,0.959924602011193,0.959786946239892,0.965838240916308,0.964243424566047,0.962297239173158,0.963011164896013,0.962542333626388,0.961874573912175,0.978788745289985,0.979190440054539,0.978908684395073,0.966165867695265,0.966323923694059,0.967377408553298,0.96763332005009,0.967996709740822,0.968026441793318,0.968494352715811,0.968741892798227,0.969978857999073,0.970924816847926,0.971399905520732,0.971517250853692,0.970717900751707,0.968940790333031,0.969440036003073,0.968563435187269,0.969154081229884,0.968421246845531,0.969884158218543,0.970727811542304,0.967488169025819,0.966757978656791,0.955980708666454,0.955820438626323,0.946440761423786,0.946967267816209,0.947486031406378,0.946485224219821,0.949969186935168,0.95112159094961,0.952561493977118,0.956394975362889,0.957208361432094,0.963218456966769,0.963319938214812,0.968315008495113,0.964850592733316,0.963433113627625,0.962753049382183,0.962485298895021,0.96310078107599,0.962172973945444,0.960223145180064,0.957284178944335,0.963039280963565,0.963552510360395,0.965604656861316,0.967286226022663,0.967301730662865,0.96495579592975,0.970273543193926,0.969451520596837,0.971785984328669,0.954660519068379,0.955624095812672,0.9584500991377,0.967322327193121,0.975023180631182,0.984533446191161,0.986098421315837,0.987847748381575,0.988718881342022,0.991326915644322,1.00266832530924,1.0001178052464,0.995220755206901,0.995693241279331,0.994467361072942,0.99630216015433,0.997209706996346,0.997181669199079,0.997695997880711,1.00633740726478,1.01314373924035,1.0158576798109,1.01733237346762,1.01599541498627,1.01360513013423,1.01181385767511,1.03184977833982
0.935559732818129,0.934213811583742,0.933576352199071,0.933118279033953,0.930283503455361,0.929123226363939,0.940958948068831,0.943896334423622,0.945873092920403,0.950775184725503,0.950459457669645,0.952515952920903,0.951368700943948,0.94334679579529,0.942012054862225,0.940945674940307,0.940366827036586,0.940255908879391,0.939757517964989,0.934813724554254,0.934309075569747,0.933246591529877,0.933599360562439,0.934254805886613,0.93493781290038,0.935833103683824,0.935136613306053,0.934425029218698,0.933965345933704,0.933141796657033,0.933130052847053,0.933074175455295,0.935559393989264,0.93763562877346,0.94026094658031,0.940419725047956,0.941741645604549,0.942355303092043,0.942425003713296,0.951697104022326,0.949822936944599,0.95209043047248,0.945789786130097,0.934533844241623,0.93427028091889,0.934809952422712,0.957708389099389,0.964887255321347,0.966305185098965,0.966305990544648,0.967045680448718,0.966829950453443,0.96886288627947,0.974463893288166,0.976151716131813,0.977559649897286,0.976708260012891,0.975798299850869,0.975107097349283,0.974984625578249,0.973774908912083,0.975345829396535,0.972288166371623,0.964734804454196,0.963636950783615,0.963610452945971,0.96243751269255,0.96047990475177,0.958334872847497,0.956564339791106,0.955615370893392,0.954181507715135,0.954271501520631,0.953739021984502,0.95505883648083,0.960905779286802,0.958961663150274,0.959023562520921,0.958802042417636,0.958405782639497,0.95596908925325,0.955713822860047,0.963909958289466,0.962411471064089,0.962066541378127,0.978724190589622,0.972055688786459,0.964998440611095,0.965371614990483,0.965926299844674,0.967199137045987,0.96837624993838,0.968460253773824,0.968455799645879,0.968766789826991,0.968664601405361,0.969638641539901,0.969779216368927,0.970598688945644,0.97083531139097,0.969732842224517,0.968261288123775,0.968977072597661,0.969317812455943,0.969766824279412,0.969856080771567,0.970612490698774,0.970457305969702,0.967689862658308,0.954261933603572,0.951933077547988,0.947258097703279,0.946754386943838,0.947178107095949,0.948476372982695,0.950925425817061,0.95114467172067,0.953316868004437,0.954006484180193,0.955690227699307,0.957807629268653,0.960078041052312,0.963889180299394,0.967225265981751,0.966106325927026,0.9643295454451,0.964692120962543,0.964439140133464,0.96460844952291,0.955843419556051,0.958917996002871,0.956916513493494,0.961476352431827,0.962529373031325,0.96381660779819,0.967339294027666,0.964103013918738,0.955987411372068,0.969812317368301,1.1411594955798,0.985190936808686,0.984889348137279,0.985302344605337,1.14939859603122,0.987681668950161,0.985444169775644,0.9871762322913,0.988566309239316,0.988626143782874,1.0976617476555,1.00546192583086,1.00330325095091,1.00106131717376,0.999241231415709,0.998525583586385,0.997996988649079,0.996856291768946,0.997711724711768,0.997577913463491,0.997776872652838,1.00656734453969,1.01774599449917,1.01799240953606,1.01886880688236,1.01725494362483,1.01482178721424,1.01335706613894,1.03254838049061
0.936123169552177,0.935057268663145,0.934530617947537,0.93512508831281,0.937055795861251,0.937874812782043,0.93995389852934,0.942323642291978,0.94850960423215,0.951035564545708,0.950886924992225,0.951261069792941,0.951062481352669,0.943422708681836,0.942664867561874,0.941303016754746,0.94042238779122,0.939679496304138,0.938821430704328,0.936508791178234,0.935226683462953,0.93434657964056,0.934768642657074,0.935314885925674,0.935483163071295,0.935699593490226,0.935252327534828,0.934839515896079,0.934292459733405,0.933581471346755,0.933432456599105,0.933294006646281,0.934656037366069,0.937664868447453,0.939301790590858,0.940453483385467,0.940952416880504,0.941710309213397,0.941653897594799,0.947849297828516,0.947951013210575,0.947231274453337,0.946997651501485,0.947242333962865,0.947385052097853,0.946799935994777,0.958930457536023,0.966347886846559,0.966569129504802,0.966478322133951,0.968096079400172,0.969493710192846,0.971330272847976,0.974160128206222,0.975778972410335,0.976562494917957,0.976285744359406,0.975494115063995,0.974783155899185,0.97382830016733,0.972220995883543,0.970034449258646,0.969087462752092,0.963642027870619,0.963043200331874,0.962331248099181,0.961345842916308,0.959883806127039,0.958167549357354,0.956698583114455,0.955113211305626,0.953953411356777,0.953220034716291,0.953138372531914,0.954471415502861,0.955314834102381,0.956261521546765,0.957626436823701,0.957501318213955,0.957304572640811,0.955504545572585,0.955505729110799,0.964885851883331,0.964052475393174,0.963654634767841,0.964111734983785,0.963808624331588,0.96424809368428,0.964813092647329,0.965513870604504,0.966979176076134,0.968359247336255,0.968795088786206,0.969151881758742,0.969272049947239,0.96963559585655,0.969966971558457,0.970440211418706,0.970377569570926,0.970066303165241,0.96926362596281,0.968453405896309,0.969154444686539,0.969983429453167,0.970762627293985,0.971121829506011,0.97125762313898,0.969460252690876,0.967399343898112,0.952582412264967,0.950471687296387,0.948309478570503,0.947387225910024,0.947113822107388,0.949926864503892,0.951467935683531,0.952586751800256,0.953712820734847,0.954853879512387,0.956318940601456,0.958897406844879,0.962139862289411,0.964309208316904,0.966302111133107,0.966864242804575,0.96668077806298,0.966109448509946,0.965283453089055,0.964901829796637,0.964076629098008,0.962158702159222,0.959100427200818,0.959554397535008,0.960279189787222,0.961006387088513,0.960620527712334,0.96001424065445,0.958972779859971,0.969290177775661,0.984393244897898,0.984964942023721,0.985029403211884,0.98542099692635,1.04396597262948,0.988431776585042,0.988969332775806,0.990227615920881,0.991464654400703,0.992003801655795,1.00642821844809,1.00610405343935,1.00381390237934,1.00172579405778,0.999956570650204,0.998757835718403,0.998127750909977,0.997976406333803,0.998383563799033,1.00115574659452,1.00283848284404,1.00704621709033,1.01854740922724,1.01891369450567,1.01949938969742,1.01955249883225,1.01928079647063,1.01662354225857,1.02434007172485
0.936995788119082,0.934550769538352,0.935262768334948,0.935575485428347,0.937294116495422,0.938445062043375,0.93990400844661,0.941520568129763,0.949677002299026,0.951506885928596,0.95133008310954,0.951192796133889,0.950368487344337,0.943664286376349,0.943350082298468,0.941469554105353,0.940764311762619,0.939366478794387,0.9385803930113,0.937104383992567,0.935746727850409,0.935123667534927,0.93566627354897,0.93741228110131,0.93667643173223,0.936359489911551,0.936026515624516,0.935651653304698,0.935121942412887,0.934041286889899,0.934075068978742,0.932214797645374,0.93300401723987,0.931678264366005,0.938994733807813,0.939833549506271,0.94029192366051,0.939924950976523,0.941645839526349,0.947324030832594,0.946959650848306,0.947207444272183,0.947040839408642,0.946209332202546,0.946186001877429,0.944033225087269,0.961329323907331,1.00956893338152,0.968869504550701,0.964999575294622,0.969961037627182,0.971417939219587,0.972828770915072,0.975423432911221,0.975599918546251,0.976574317588126,0.975993942601532,0.975379236406241,0.97443095861178,0.974303245683323,0.971305281360878,0.969328983539668,0.9675046692379,0.964541509362277,0.962869961959069,0.96175058453487,0.960925497810039,0.959862723265534,0.958214845557604,0.956403511083984,0.954569120976181,0.952672216075145,0.951681527463936,0.951663043991139,0.950868740836223,0.951248087549638,0.953215700336291,0.958658800903369,0.955861995336542,0.953414734936868,0.953239325334158,0.952525469797864,0.965445425176309,0.964783047159211,0.964864570702574,0.965726642309945,0.964443615555626,0.964550470808617,0.964580644663079,0.964737592809091,0.966799393617227,0.969493900520301,0.969148103918119,0.969799718390096,0.969840286376176,0.969901898716503,0.97047896406966,0.971362134391913,0.970393730864988,0.970032411169927,0.968719470587353,0.967411180092202,0.969209699518782,0.970538004004787,0.971524632824529,0.97188236889202,0.972387872840609,0.966038412495999,0.966361906459776,0.949286735380472,0.94935261103195,0.948769397942166,0.948070961265764,0.944730347352231,0.951540653309552,0.953776970157957,0.953877913708603,0.953988933577272,0.955661973655421,0.956080506585819,0.960227734978895,0.963420243620782,0.965038911392141,0.966580405942433,0.967799064410752,0.968479124245156,0.969193662097499,0.969626186340859,0.968691762624636,0.967043678998752,0.965534034528618,0.957552291530115,0.958294770291437,0.958969783003083,0.959463186982262,0.960042038068746,0.959912819126789,0.953316393549871,0.969260112905381,0.982607196170491,0.985364381654726,0.984819957910802,0.986008454213283,1.09055907491633,0.988656218102916,0.988151220934704,0.990840282613159,0.99284912602858,0.999254433248172,1.00563790336355,1.00748743633739,1.0096982515183,1.01008069909311,1.00911923418373,1.00493837447571,0.999574050078014,0.998450775139985,0.998786274656002,1.00320641066257,1.00627619560145,1.00811338991298,1.01846176727066,1.01841673110134,1.0204619282257,1.02075869515239,1.02146411290014,1.01873889529192,1.01600271338806
0.938258059397167,0.938635125995991,0.936344349732478,0.936399123000277,0.942826006298072,0.949643807902839,0.949919583802374,0.948616147845764,0.950065967949118,0.950646180602172,0.950938228301448,0.950868341462679,0.949205044395741,0.948427971499432,0.945703111566711,0.945669642469974,0.942927509841609,0.9396592957032,0.939114912515723,0.940044989249966,0.939339074991404,0.939907255342712,0.939098075613212,0.939020767466158,0.937635161319101,0.937648670695798,0.936784966324038,0.937190693204367,0.936807422128874,0.938038342461753,0.936294535641907,0.932368747197213,0.933152784383462,0.934451539943754,0.937287084078764,0.938832339422568,0.939560219163311,0.940151707618241,0.941715119500068,0.945034082291909,0.945121804582553,0.944526596106183,0.947637981481439,0.947106529304997,0.949552918812052,0.950552754038394,0.963206833553014,1.03909676456665,0.981984566428154,0.97818433480858,0.974806096579005,0.971583281210354,0.972911652379203,0.97428934533657,0.974481808331313,0.974734251686435,0.975682949069123,0.974545553085945,0.974052892048738,0.971033855358166,0.970466009183181,0.968142134788295,0.96571125051205,0.963645716659535,0.962697654100538,0.960847202614889,0.960966966955443,0.960499519951407,0.957649508174988,0.957217035123486,0.953824053247578,0.949522385153844,0.949367988219127,0.947910922215562,0.949670507358095,0.949732961107454,0.951561876132704,0.95693399080936,0.954548515563723,0.952134504049098,0.952213111857906,0.951991319160485,0.966424736676449,0.96633568497836,0.965515830090222,0.964459621480257,0.964698874843685,0.964554547726092,0.964974146204441,0.964879999746913,0.966629107222586,0.967862846394969,0.968575984605447,0.970901431170211,0.969320867592992,0.971068070329275,0.96961175502682,0.97037173664314,0.969646202656719,0.970281236486674,0.968525552559047,0.967504592400914,0.969801878660754,0.971387805927772,0.972596463149132,0.973879944468951,0.975735225008194,1.17077519197059,0.964191991726465,0.948959923659474,0.949713577413632,0.949024251701229,0.94966451165863,0.950078254658386,0.951885306812064,0.952941394277169,0.954861622249262,0.95648491115712,0.956954934485498,0.957614454236193,0.961356397836484,0.963211757994207,0.966037546327363,0.966274322653416,0.968730519067475,0.970336125474536,0.970797636134974,0.971029100963132,0.969129817001461,0.968165802730424,0.967508627641024,0.95741761133014,0.957867476226036,0.957755743330879,0.958386618954977,0.957977264295548,0.957987473252438,0.954893105245076,0.970553144444147,0.973558311274637,0.986967435109856,0.988340476999425,0.98769398538118,0.988100957118018,0.989427584447124,0.991432089251363,0.998133649745921,1.00730974718966,1.00753500947164,1.00803025292668,1.01166665067144,1.01774594456168,1.01637337867138,1.01466990307661,1.00949815891051,0.999492939261248,0.999003310206085,0.999454910438357,1.00542766742594,1.00651527793235,1.00934910514276,1.01032959589766,1.01635299116983,1.02302790603508,1.02166074663853,1.02162945337477,1.02067512058503,1.0156839186861
0.939278035820329,0.93916991231388,0.941471347230171,0.949844652144469,0.950440846484643,0.950146506496474,0.950549036004993,0.950358167462904,0.95080822729552,0.951426835937986,0.951732280385539,0.951507681623928,0.949248117313432,0.947957316328432,0.946895836613411,0.947290421391077,0.947187085590843,0.946962776938707,0.946555039507075,0.944873328344587,0.948445950794587,0.950859837322215,0.950052081338852,0.949696452800337,0.945209909542076,0.94243493377603,0.945404300117489,0.947579560773378,0.948875666790618,0.949759448946866,0.943236401228396,0.933246980058438,0.934244117482782,0.933951776261747,0.936744229472968,0.937273755834301,0.939131139811982,0.940169156542756,0.940511135444793,0.941622820350077,0.943095469861491,0.942239864270345,0.949588492729608,0.94937229064333,0.9498919482691,0.951309711945903,0.965426127022621,1.02820220855313,0.983133904010826,0.981950504488587,0.983094952113677,0.982653003111856,0.986292643875361,1.03221919115035,0.972596649079005,0.968740594548587,0.968477757826115,0.969473525871233,0.967338943024991,0.966153219282182,0.964294156700565,0.963593148690912,0.963885165328705,0.962897323358885,0.962301904132822,0.962219069370941,0.961496883093255,0.963034795120671,0.956258817314921,0.954316566870191,0.953137705532402,0.947795556649046,0.948311159268287,0.947856443615495,0.948178812378098,0.949032112656775,0.948638240281734,0.950400033384105,0.952383743971085,0.952021093384833,0.958076201073757,0.968135902127641,0.967333210894201,0.967720790238812,0.966013140411549,0.964904241745654,0.965070483093255,0.965406332009395,0.964996919244973,0.965653166965473,0.966154992029626,0.966946393724296,0.967517617516645,0.966654057029866,0.967300520335509,0.96640377129228,0.967521310171552,0.967487585671776,0.96817969349089,0.968948488481185,0.967581118552784,0.967704301773163,0.970841765067022,0.971726729309801,0.97340312332164,0.974819483309238,0.975770807707296,0.957903749972766,0.961085799132954,0.953218695438446,0.951374081061468,0.952984608388854,0.95315859598032,0.953750297587016,0.952283019893257,0.949676092514559,0.956570709290126,0.956977252047816,0.958493924564369,0.9599939467471,0.961083564548696,0.961835240276336,0.968531340474971,0.970084297131737,0.971393389236732,0.9734090780215,0.973525417574266,0.973042684770971,0.97420523585469,0.973525827838628,0.97343880659404,0.972995586448672,0.962272633348029,0.957317045179502,0.957935646757359,0.958377858420457,0.960220552863469,0.968659809166892,0.979031285422482,1.04358344800212,1.00658198519563,1.00578822150398,1.00575070414453,1.00863148124009,1.00197912672005,0.996664224869683,1.00317146224869,1.00739845960502,1.0110865061608,1.01566734406454,1.01771375083732,1.01923384981539,1.01937416140016,1.01835245432411,1.01301960271863,1.00501531314469,1.00632688021114,1.00666077764379,1.00963610766442,1.01444198010626,1.0127184256139,1.01238473965476,1.01370702348453,1.01340717965098,1.02091510271394,1.02218633037021,1.02141043479509,1.0154474309491
0.939523806642873,0.940047984441991,0.943843958788976,0.949670826462723,0.950729400829471,0.951660837662098,0.951241830592642,0.9518636879425,0.951222271935399,0.951529573675996,0.953157977062535,0.955871404332394,0.955306765364112,0.954886547293835,0.954380171774137,0.95335694301922,0.952834250295181,0.951464648476121,0.952119089425913,0.952738256428453,0.953892326931979,0.954442889587538,0.955066617234369,0.954611734447473,0.953315502494398,0.952057042491235,0.954627018782535,0.957621996736728,0.957298663995484,0.957963908305884,0.948885405895641,0.934124300681845,0.934366167946099,0.934115969550542,0.937348567987072,0.938053311394052,0.939111426357263,0.939203251792574,0.939081790765577,0.937707425524387,0.944400921946356,0.942676830321487,0.951369580408511,0.950712763286501,0.952944165337867,0.958612466189665,0.968135127470649,0.982729803417648,0.983021070706251,0.982548283898834,0.982929401052453,0.983788721553738,0.986742314668187,1.07195497050385,0.971488212473035,0.967997665636292,0.96809537434493,0.966854508387846,0.965066435104435,0.962674900205876,0.963279022177871,0.963483238152828,0.963175468730366,0.962707897401205,0.962301998906167,0.962417607529825,0.959679323582906,0.957508594364389,0.956117309809474,0.952330071201616,0.950862163103262,0.949078042910585,0.948006288597758,0.947661503061786,0.946842042033322,0.944944445517769,0.945520602994946,0.945218927789844,0.952458058317062,0.953101767778884,0.962074475418534,0.967397935358613,0.96721050406455,0.966225142629472,0.966231655154323,0.965868985580375,0.966028800874407,0.966435662643201,0.965255302078151,0.96313175197588,0.965703989467941,0.968368227465299,0.965859594793196,0.963829980009431,0.964809085770497,0.965252120507409,0.965534725774071,0.966863265501257,0.965511829804271,0.964908639961394,0.964852154210565,0.965981823546289,0.972994047624743,0.973231082675176,0.974145030598807,0.975984563826213,0.975735970014426,0.978799935264651,0.962755564731117,0.960817350213702,0.959985880550017,0.957982766800445,0.955717627463045,0.953950782790901,0.954121181417823,0.954604158777209,0.956564949997296,0.957994177776634,0.959116069093383,0.960422322177018,0.96226780152654,0.967188866777013,0.97005163769452,0.975199133638301,0.976365109311494,0.976927090538494,0.975721479092189,0.974807264826254,0.9779739320947,0.980533868554613,0.9856485172625,1.01252177482193,0.981151157646755,0.964368673427354,0.968948016861702,0.97810205819923,0.980273980608164,0.982276917892698,0.982983437870762,1.15183799675941,1.00521833538623,0.995614944724759,1.0051980645956,1.00208886308031,1.00472488170301,1.00514288115614,1.00808286889522,1.01449797077934,1.01530020091886,1.01540585274967,1.02039671948242,1.02943369096407,1.02838773765642,1.02643498656118,1.01801798526736,1.01090342076484,1.01625824219595,1.02064159366547,1.02183910364666,1.02128139916513,1.01185014341777,1.01184849255431,1.01299408637891,1.01310246425892,1.01916781943388,1.04614562677008,1.0264659025639,1.01358912162747
0.945875415976603,0.9471690216246,0.946710978271714,0.950955442146827,0.950748344981933,0.950881048782527,0.950675034792861,0.950409088829432,0.950669379275922,0.95104792374357,0.954046345971282,0.961055745351757,0.962348854188056,0.962220331900301,0.96158929199523,0.960067544126318,0.958877893934697,0.957153641735989,0.957115501401152,0.957131807263185,0.956436705494401,0.955895710705604,0.955812285076093,0.960780398398582,0.961054031600835,0.961947687111646,0.965081525994286,0.966385355978553,0.967201205552666,0.967437887614336,0.961502336910559,1.1857446872022,0.937653718573181,0.932368400461936,0.939027136804116,0.940297906580833,0.939686232413584,0.938357546807079,0.938254386239972,0.938174275410732,0.945525179401705,0.946689492224741,0.952946084211826,0.954928139794974,0.956279639660021,0.959416306150038,0.971601709454307,0.983693360067126,0.981881268780037,0.982295918911326,0.980349883425539,0.976059832486014,0.970067385143647,0.953397568965199,0.952569343996189,0.953103887517087,0.958854642909694,0.962377943509478,0.961434153326174,0.962235083089173,0.962037257649487,0.962182139971249,0.96218357720294,0.962450610331579,0.960948489449162,0.960534903516932,0.958503755660396,0.956600104003141,0.956032084990974,0.950585222244363,0.950989346840564,0.948927427984261,0.947969746627107,0.947523166912028,0.945874799223253,0.946460639450513,0.945860961946567,0.946412544814258,0.951782773642172,0.96736916824807,0.967786676559672,0.967724766569628,0.967240696068995,0.96631563334397,0.966276554513329,0.966481566379027,0.965679175744178,0.965723269665369,0.964901974274927,0.96495897911677,0.964814400392872,0.964038636929561,0.964316052315199,0.963122913674614,0.963538527205474,0.963322397212678,0.963144055109031,0.962139991606426,0.962811911290495,0.96183450272155,0.962668098713967,0.976916936936838,0.976095413440583,0.975008734266687,0.973512610433912,0.974613845421056,0.972795773109102,0.971410026308941,0.965746670196907,0.9651805539162,0.960423786940861,0.960304743359305,0.955830056435437,0.954818172195909,0.955389542334933,0.955498336565684,0.957389545617588,0.958009785760285,0.959547123885534,0.959492685282561,0.964566305968974,0.971176774830345,0.972308224326615,0.975836530873072,0.976196602498637,0.976474133437058,0.97725786357178,0.978884454510675,0.981283895473246,0.987880921880489,0.988838146812229,1.0179310126574,0.992411495520627,0.993241341028552,0.985152834443907,0.975862230410939,0.982063780097355,0.98249365698951,0.989799027964999,0.998874750725034,1.0006959683262,0.998735882292737,1.00653846378125,1.00660570721029,1.00776616679522,1.00919394741292,1.00970102156787,1.01346927503745,1.01503491886944,1.01620864860146,1.02536637744191,1.03063202453999,1.02993319877837,1.02394057069913,1.02328586315576,1.02291449260619,1.0235083934234,1.02419055939627,1.02299673682731,1.02211220726303,1.01247754419063,1.01249906616429,1.01288308949279,1.01347305620638,1.01809225997777,1.04632233366644,1.03468402954286,1.01190389142162
0.946870112419995,0.947555480643593,0.94779514885372,0.950142092116948,0.950230370728608,0.949594513268229,0.948902813379941,0.949289943856503,0.950405055245186,0.951196167975505,0.954974090022261,0.961596704526977,0.962061056845808,0.962565963525948,0.961596520693096,0.966520503992212,0.968410021785524,0.971097665338142,0.957258586624642,0.95762407679862,0.956874848176879,0.955980263418084,0.956730783496855,0.95522549456542,0.960997993001357,0.96911817006318,0.967406728976895,0.967228496827568,0.967676171262499,0.967212696372956,0.959673496801327,0.941033120154527,0.94195752201193,0.94113728891567,0.941905965230658,0.941562245174883,0.941322119600215,0.942154411488797,0.943601661797407,0.944379299135801,0.945772242308223,0.947030044335228,0.953721025807329,0.955559858584262,0.957128994996197,0.974936854234382,0.974755573694946,0.978153603984783,0.979290178583839,0.977476753734766,0.97849387258553,0.976330965919413,0.964583466762807,0.954221124046818,0.95193676773538,0.951833308237529,0.956583175891161,0.960401221083951,0.961008688021433,0.960500527229621,0.961093530624025,0.961475281430163,0.961343741687789,0.961572197068142,0.959828262674885,0.957407510012641,0.957404815698498,0.956400064527081,0.955090811829981,0.954831860841003,0.950698529757656,0.947376651192378,0.946755804557906,0.941865540617026,0.943267606562996,0.941937519637721,0.94539260602326,0.953101952167189,0.951368414893943,0.96767891682615,0.967857035458057,0.967488838158922,0.968153648738936,0.967397126338498,0.96639008334579,0.965889036512669,0.965453859318517,0.965170978864706,0.965277558520667,0.964769174332036,0.964802341387548,0.964531524714871,0.964558875581144,0.96386643238519,0.963871173125426,0.962879598338248,0.961828106928198,0.960138937035378,0.961595735953518,0.962932495919978,0.961943044134518,0.977076939474087,0.976299681689268,0.976523060314217,0.971500425327782,0.969610075415401,0.970381253863362,0.969171104987222,0.966972859513277,0.9665256293393,0.962282782985695,0.957955747985403,0.957010300740038,0.956489916824261,0.956541626491887,0.95741382612337,0.958384909432657,0.959705078736949,0.961361330874776,0.96320517100319,0.966875039998823,0.968703693232809,0.975580544724811,0.975714306414655,0.976540706107037,0.977075979403272,1.00064513342898,1.18944787384981,1.0050217337515,1.00300463107486,0.993499506161202,0.995374455165006,0.99093620642188,0.989794444602981,0.989411708630915,0.987858938914983,0.989334387217722,0.990607519544297,0.993712884835145,0.999095068006229,1.00426802392684,1.00808910850649,1.00969647683468,1.00819613030865,1.00811750926286,1.00817213995052,1.01031277379013,1.0303402928643,1.02758003638683,1.02568624891208,1.02969331001908,1.03580856885252,1.03001451351642,1.02878284738859,1.03112785401695,1.03092816464168,1.02329922387634,1.02380611097707,1.02386277526548,1.02368592620059,1.01442962910377,1.01368300145697,1.01383673710044,1.01289223218238,1.01810301728894,1.04572972624302,1.0411926825456,1.04843362433495
0.947246494781436,0.946825290518078,0.947029822868241,0.945509723890328,0.946453303196764,0.945153572253447,0.947282024133174,0.947547596685254,0.951383216115899,0.955811006943441,0.956546630572155,0.961192621194361,0.961374224287534,0.961782026850064,0.960890837477305,0.971620791681975,0.970164154505698,0.971105044092896,0.95686321238927,0.957266903543751,0.95682734650286,0.956330834970679,0.957783162293351,0.960071142014704,0.960960857144602,0.967683856074173,0.967731440668462,0.967563327222444,0.96081527182169,0.957404041280035,0.957593602411687,0.943300275899442,0.942875857968257,0.94339470132438,0.946230862003159,0.951880229035188,0.952778802835494,0.952026136973057,0.95196237228333,0.951027448309856,0.953672092635422,0.959987366384781,0.961240636636422,0.961999311589312,0.963865680111642,0.964043112809209,0.976882617459757,0.978779747456518,0.97841288308622,0.977439053606904,0.968099988349225,0.961483717457869,0.958321153536756,0.956399200406998,0.950351670841921,0.948834465293907,0.953091028964543,0.96029423583554,0.960373659588559,0.959960427963154,0.959966359861782,0.960079295717682,0.959715584837479,0.960200059518013,0.958010983226482,0.957079943612159,0.95618191959668,0.956568416335236,0.955371572674805,0.955924126979986,0.951773482929513,0.944441499172791,0.94510304067691,0.943613147947664,0.943699542230213,0.943780679947187,0.944442547718656,0.948484237734428,0.949087909541113,0.961584291044384,0.96690536707318,0.969957866614995,0.969482234426233,0.969348522226487,0.96504748329142,0.963753355121484,0.96419801765531,0.965408317803547,0.964674717937211,0.964949994938604,0.965172174772272,0.964301698970342,0.965367576830213,0.96593002016477,0.963603864269054,0.961957740463547,0.961192847959654,0.96034788817442,0.961628831825571,0.961284561040092,0.96238573569325,0.973477474945542,0.97262394170991,0.969880313145851,0.969273934048113,0.968731860742131,0.968707773036832,0.96809331871856,0.966559493688345,0.965712522093938,0.963856613811665,0.963645202021817,0.957587062758994,0.956290833332218,0.957170649771727,0.958217332662398,0.959598826948503,0.960621945676899,0.964045868382001,0.96712101253908,0.966751158806393,0.967981013096943,0.976687455843699,0.975905476018697,1.00228417705695,1.0527923524551,1.00895406960506,1.00747385416794,1.00644995504828,1.00731972463684,0.991452123053148,0.990425521528913,0.990481015463454,0.989754871154366,0.991627117270305,1.00147733755204,1.00550888431428,1.00830904000098,1.00876805574261,1.00769404492698,1.00989146807662,1.011232913944,1.01049524541134,1.01006539406012,1.01104736387752,1.01445236280246,1.01180373142633,1.02423656318388,1.02770503766777,1.03405469256681,1.03546154870583,1.0371411003873,1.03137435435707,1.02906973794807,1.03163625079414,1.03136073658445,1.02329318180574,1.02462783903426,1.02474257012239,1.01733567253418,1.01656162202574,1.01194459074033,1.01538683560131,1.02027906484318,1.01906251465525,1.03668138542229,1.03557407927265,1.03534175792839
0.946501476867217,0.937021492149322,0.936306946606258,0.936968728080791,0.947539283764647,0.945806960287833,0.946700248700118,0.947205383653899,0.952575523038785,0.952753121546136,0.958349732993843,0.961275704587255,0.959823621228483,0.958460634718416,0.958714355351015,0.970561885072749,0.969415374342105,0.968155507987897,0.956973744831476,0.957627427044251,0.957599517183391,0.9570897123049,0.959041032335349,0.961616539113372,0.962136344795626,0.96681546690131,0.967021742931655,0.957813877411181,0.956873832609068,0.956931779660196,0.9541961878906,0.942780345373696,0.942555396210242,0.94226463821919,0.955699670552044,1.02603741553467,0.969617727361766,0.966328072583549,0.970515138070659,1.0262921201097,0.967996955192209,0.965036135135367,0.965002541946954,0.964400308350053,0.972975206169655,1.03688245928224,0.983605787987814,0.980572731427411,0.97946001629604,1.17340073171017,0.960825267718856,0.960653510436538,0.954581116573086,0.947495244244391,0.946373929973486,0.946787429184404,0.950051114787687,0.958816902084493,0.959572083015653,0.958466890494889,0.958710003432288,0.958555535902371,0.958241925893723,0.956178969441855,0.956818680024926,0.955020836104593,0.955277165687923,0.954845040392324,0.953935244798059,0.952466880232456,0.952789135000579,0.944983538679847,0.945219286438516,0.94543515477573,0.944898211541507,0.9435281114517,0.944235281102752,0.944138238496038,0.94773260617097,0.963445192694269,0.965421494863434,0.970086774526307,0.970491312171882,0.970130445503128,0.964760098721401,0.963434744710387,0.96303390705843,0.963359159830046,0.964326341472277,0.964565308341882,0.965995080512772,0.968978129671524,0.966202916766728,0.965077919861736,0.964286224959818,0.962423472823782,0.961390377681978,0.961317677969584,0.962180865804702,0.966398756211234,0.963893607919109,0.959447396818429,0.96756921367509,0.968206351474696,0.968151856014251,0.967771902843751,0.967182113297226,0.967139585500875,0.96527666006093,0.964111167370072,0.963293339722301,0.962644229210127,0.959581911852783,0.958030498156753,0.957991495032761,0.958370400141091,0.961570793793273,0.963947028799906,0.965611581540789,0.971252807693748,0.972596503515017,0.973291311045348,0.99766813289294,1.17519354429354,1.00867970153273,1.00771729466858,1.00900340512372,1.00802868201839,1.00147341919192,0.990673243300992,0.991021671347044,0.990454300987471,0.991204569789121,0.991278743930847,0.993909730332973,1.41544022725467,1.01261251988652,1.01109105163659,1.01038946005066,1.00961872128129,1.01066652149485,1.01061807935577,1.01147055437946,1.01178015826678,1.0124747196259,1.01374248034676,1.01241464798745,1.02364504207275,1.02975209689789,1.03245745654113,1.03483469041483,1.03653101076325,1.03447127486723,1.03369395116291,1.03371336169949,1.03187789816757,1.02333115889376,1.02435318778461,1.02468720441488,1.02479586169363,1.01808662372248,1.01753812358247,1.01709855624018,1.02170746203387,1.01977878176708,1.02467179640093,1.02768921980556,1.03275394351524
0.944906148546518,0.937029600288721,0.936226861151642,0.936209935888041,0.949119049380103,0.946521256152885,0.948112489471561,0.947871613908303,0.954033363363961,0.959057397268125,0.959211000884944,0.959808542793562,0.958430352457815,0.956660493333893,0.957226935886062,0.967135000039679,0.96830013852656,0.967559662940094,0.957838913196499,0.958575930991584,0.95840130067465,0.958146670119044,0.960042724349401,0.962196460190828,0.962837980453709,0.964190766968675,0.965919890297374,0.953791295967682,0.953435720672074,0.949481440936019,0.951146100495892,0.944186500329533,0.947270631877616,0.95562128318987,0.962058542597174,0.973118744877528,0.974708406683419,0.974973495550614,0.976091841405278,0.976696299103792,0.975719623545374,0.974061776634281,0.977743921362678,1.04232946942922,0.985899027312242,0.9838782377225,0.984284514487281,0.983614569023175,0.976690288660889,0.960111658119207,0.960810067815005,0.948151179869946,0.946805192082066,0.945996998936071,0.946000935406965,0.946397904257168,0.945925156789658,0.946724759979959,0.954088723894528,0.956702877526301,0.957664807905063,0.957536398462843,0.957606756962865,0.957632412440058,0.956427029870544,0.956143353784355,0.954181229184733,0.951763872132001,0.953076553948898,0.952540563869929,0.953096040917814,0.944723511978065,0.94645584038677,0.947592943150044,0.946178935753274,0.945000642004387,0.943882141859898,0.94213837779173,0.947756478963208,0.967001333029663,0.965614417545237,0.964509286638903,0.961456482882715,0.960180279233677,0.958137223185595,0.956684220925207,0.961443492798081,0.962866871801117,0.963807207914767,0.965674608078049,0.965933603376669,0.967275555149999,0.966043255379178,0.964775357894719,0.965757130110757,0.9668026419492,0.967900253530593,0.973533374212772,0.966311027515947,0.966096633143247,0.965098222941264,0.959554511805968,0.967192603382029,0.966937136678157,0.966923445352469,0.965881510223513,0.965781545214021,0.964231272320326,0.964002810349088,0.962515292939173,0.96258366367068,0.961869338495943,0.960488677375399,0.958880521510009,0.959257250693392,0.961778664993449,0.965651292396025,0.97553987050825,0.976250167376618,0.975127400848561,0.981206134493367,1.35782530483513,1.00873871647782,1.00730818333047,1.00847862476582,1.00815778344105,1.00965189103595,1.01042632689915,0.998311045575292,0.991266820867014,0.991383749819955,0.991509570391409,0.992269032336424,0.992829603586458,0.996937635178315,1.01226550004737,1.01278945686294,1.01226099926362,1.01158698074185,1.01125718649706,1.0116531569771,1.01208966792266,1.01271501874397,1.0136123422845,1.01344247123639,1.01419067841638,1.01245656772133,1.02472316539498,1.03194466879065,1.03265319827544,1.03448823711093,1.03781561803003,1.03639570669318,1.03537074243939,1.03659472583709,1.02223269328456,1.02307997398066,1.02380731332723,1.02406252376177,1.02412889111034,1.01835752546844,1.02025452227656,1.01748587242056,1.01631193770935,1.01681072428932,1.01724661221695,1.02206109991755,1.09251843330098
0.943498895257626,0.937725452195238,0.936496034832502,0.93642463138784,0.950866391413501,0.949972616546025,0.950771475898768,0.953148009792943,0.955849162255158,0.957928606719838,0.958541067069845,0.95846859246829,0.957629684918248,0.956644387484437,0.95715001063482,0.95894244103527,0.960202473669004,0.960790883087697,0.959762431470917,0.959330464679086,0.959379295576873,0.959741621284885,0.960987448297991,0.962321301117023,0.963018335908896,0.963710835673587,0.964765842684439,0.953196043551722,0.95382802033139,0.949950186092141,0.950846149868024,0.950472101664963,0.951995981794257,0.956468893926163,0.966454703584205,0.974322088933695,0.974994196823686,0.975535827220686,0.9764261454676,0.977820522341776,0.980497465589431,0.982210397762459,0.983259109134071,0.983389575927283,0.984828255371766,0.984657642264034,0.984862434500596,0.984504442163437,0.974214684014421,0.959888652681087,0.960378063794579,0.947628165720226,0.946780411018521,0.945746762701169,0.945439136877955,0.945380416356061,0.94525248503408,0.94546307499545,0.951662535552394,0.957599521521751,0.957572366623443,0.957453200088975,0.95715809543589,0.956882044994062,0.955760847876184,0.9545175014478,0.953886416813955,0.953121195696895,0.953509860880698,0.953494468036664,0.952757537668757,0.951084239515381,0.948935731261821,0.948427381094297,0.947680039942943,0.946728251320138,0.945452375957325,0.944508004297505,0.94884436763932,0.953704093905098,0.957861378670696,0.961421527249778,0.959458846884323,0.95937306473986,0.95755254034405,0.957403790742803,0.958961222589821,0.960815750004882,0.962589169323152,0.963847317897624,0.964803657382104,0.965775188424418,0.966100452164945,0.966056886971858,0.966681983383065,0.967876596375427,0.968807989184213,0.971589058140551,0.96583562200292,0.965894721723963,0.965480084808233,0.966480899520191,0.966652881721284,0.966450584633803,0.966478308251582,0.966182646512415,0.965329924152611,0.964140824576362,0.963629851016717,0.962940215471036,0.962686027593293,0.962298786299694,0.961951283136689,0.963371410884759,0.965352391752033,0.968010870151477,0.970518375374688,0.976672128286177,0.976853078542056,0.976754215352134,0.983392673590088,1.07154414560649,1.00816012151899,1.00782207981954,1.00851789402761,1.00876005256058,1.00052993317807,0.997277362249795,0.995840377092111,0.9922995762357,0.992564138327437,0.993159083169586,0.994450825337775,0.995937832195911,1.00077796007071,1.01279310635336,1.0131439155353,1.01264908438372,1.01250634193271,1.01216897946463,1.01255420588396,1.01305833295618,1.01360071117712,1.0139904730409,1.01380326203387,1.01287837478362,1.0120962018514,1.01834589287225,1.03353758188598,1.0338836835419,1.03533803561138,1.03740229990106,1.03786374611484,1.03814327417863,1.03891384113457,1.0263754776141,1.02381322414407,1.02318068510521,1.02164878911188,1.0187599812085,1.01755630557758,1.01640152945236,1.01654207549323,1.01608947720116,1.01672627768173,1.01715222410865,1.00554483177489,1.00103944205943
