0.00322195, 0.201352, 0.0028127, 0.00319573, 0.203494, 0.202967, 0.201211, 0.00352494, 0.223539, 0.22351, 0.221458, 0.2211, 0.228168, 0.228853, 0.226491, 0.00351954, 0.00335065, 0.00326803, 0.0031671, 0.299708, 0.299047, 0.293893, 0.291175, 0.290557, 0.305966, 0.305884, 0.305146, 0.304781, 0.31003, 0.327196, 0.00319546, 0.00335178, 0.00315661, 0.361488, 0.361628, 0.356796, 0.362398, 0.362989, 0.00328014, 0.00320351, 0.00303058, 0.00327857, 0.00312846, 0.41395, 0.414026, 0.418317, 0.0031827, 0.442517, 0.436279, 0.443721, 0.457018, 0.45692, 0.00329294, 0.00332534, 0.487894, 0.48863, 0.487968, 0.487204, 0.487112, 0.495498, 0.00323243, 0.00331655, 0.520933, 0.520481, 0.520595, 0.525869, 0.00299274, 0.536514, 0.0029404, 0.53786, 0.00333976, 0.00328463, 0.542309, 0.00330069, 0.0032919, 0.5606, 0.559834, 0.561419, 0.00317915, 0.566452, 0.00320023, 0.00330204, 0.579994, 0.591179, 0.591255, 0.587148, 0.586431, 0.601712, 0.600513, 0.599957, 0.615031, 0.616807, 0.6171, 0.616933, 0.625989, 0.628077, 0.637391, 0.0032186, 0.003126, 0.647305, 0.00339753, 0.665941, 0.666855, 0.668505, 0.669545, 0.672234, 0.00299053, 0.00308349, 0.00321799, 0.00303515, 0.00320074, 0.694641, 0.700499, 0.700424, 0.709754, 0.0033966, 0.718745, 0.720883, 0.717966, 0.719443, 0.00305054, 0.744865, 0.745281, 0.745659, 0.74821, 0.748875, 0.748618, 0.755187, 0.756158, 0.0033919, 0.774403, 0.779853, 0.780474, 0.780204, 0.787839, 0.786248, 0.789299, 0.79177, 0.792746, 0.795935, 0.796718, 0.794341, 0.797425, 0.797326, 0.797545, 0.797226, 0.00334389, 0.00339853, 0.00324713, 0.00341563, 0.00318386, 0.00321787, 0.00300566, 0.00346527, 0.00333117, 0.00328505, 0.850977, 0.851961, 0.859527, 0.860266, 0.870394, 0.86988, 0.876285, 0.879005, 0.887324, 0.889033, 0.00330337, 0.00330722, 0.921485, 0.9232, 0.930666, 0.930388, 0.928537, 0.927492, 0.929217, 0.00342773, 0.0032372, 0.00344275, 0.00328825, 0.00318301, 0.00312041, 0.00339292, 0.00335411, 0.984858, 0.00339835, 0.994445, 1.00304, 1.00776, 1.00955, 1.01656, 1.02478, 0.00360724, 1.03628, 1.03755, 1.04575, 1.04593, 1.06278, 1.07, 1.07287, 1.08082, 1.09126, 1.09169, 1.09604, 1.10105, 1.10241, 1.11925, 1.11935, 1.12262, 1.12508, 1.12761, 1.12862, 1.13416, 1.13673, 1.14355, 1.14658, 1.15002, 1.15293, 1.16421, 1.17083, 1.17367, 1.17411, 1.17475, 1.18156, 0.00340968, 1.19294, 1.19746, 1.20014, 1.20887, 1.21208, 1.22006, 1.22568, 1.22847, 0.00320657, 1.24956, 1.2564, 1.25729, 0.00312966, 0.00339166, 0.00315521, 1.28743, 1.28759, 1.29141, 1.29256, 1.30249, 1.30819, 1.3131, 1.31257, 0.00328753, 1.33504, 1.33554, 0.00298525, 1.35303, 1.3533, 1.36571, 1.36451, 1.36583, 1.38115, 1.38241, 1.38326, 1.3869, 1.38959, 1.39477, 1.39473, 1.39934, 1.64602, 0.00344611, 1.41394, 1.41364, 1.41912, 1.41766, 1.42601, 1.43069, 1.43264, 1.43347, 1.4437, 1.44509, 0.00314349, 1.45963, 1.45871, 1.46651, 0.00327917, 1.47887, 1.49404, 1.49434, 1.49695, 1.50134, 1.5004, 1.50506, 1.5054, 0.00336722, 0.00312877, 0.00331565, 0.00312728, 0.00333748, 1.5407, 1.54298, 1.54215, 1.55206, 1.56239, 1.56788
0.176096, 0.00323724, 0.180693, 0.00331551, 0.195812, 0.00355826, 0.1924, 0.0037426, 0.202615, 0.211757, 0.211715, 0.222128, 0.214462, 0.224467, 0.225624, 0.229349, 0.00333788, 0.00330694, 0.00334494, 0.00301875, 0.00346337, 0.288094, 0.287201, 0.291826, 0.290985, 0.301973, 0.301884, 0.301193, 0.314519, 0.00328076, 0.00303153, 0.0032775, 0.3602, 0.00351854, 0.359938, 0.359488, 0.358851, 0.0035058, 0.00354049, 0.00318977, 0.00324464, 0.00316581, 0.00331851, 0.416585, 0.415286, 0.415417, 0.419849, 0.425697, 0.00327305, 0.441852, 0.442636, 0.00334812, 0.00320113, 0.00307847, 0.00331174, 0.489256, 0.491766, 0.493897, 0.494488, 0.00317904, 0.00347885, 0.520962, 0.521031, 0.520088, 0.522018, 0.521781, 0.517938, 0.00314795, 0.00309962, 0.00339344, 0.00327261, 0.00339205, 0.538339, 0.538209, 0.542241, 0.543806, 0.542966, 0.542139, 0.00303926, 0.559663, 0.561008, 0.561399, 0.561648, 0.00317319, 0.582135, 0.585206, 0.590963, 0.600487, 0.594313, 0.599295, 0.601325, 0.615684, 0.614149, 0.613293, 0.607808, 0.624469, 0.623528, 0.00345414, 0.637128, 0.638016, 0.638583, 0.6543, 0.655287, 0.656595, 0.666937, 0.667166, 0.00344188, 0.00312488, 0.699175, 0.694604, 0.691186, 0.68959, 0.69297, 0.695379, 0.705041, 0.707623, 0.709864, 0.716872, 0.715838, 0.727717, 0.00319783, 0.734972, 0.737533, 0.745278, 0.746232, 0.748239, 0.749491, 0.749072, 0.762729, 0.762954, 0.765613, 0.76854, 0.772451, 0.774902, 0.775541, 0.776551, 0.78584, 0.777754, 0.790419, 0.790177, 0.791203, 0.790781, 0.789593, 0.786888, 0.792102, 0.791771, 0.791945, 0.0032806, 0.00337638, 0.00315682, 0.00307407, 0.00337186, 0.00330751, 0.00308228, 0.00338856, 0.00324379, 0.836524, 0.843651, 0.842745, 0.00322199, 0.862588, 0.862854, 0.869529, 0.87004, 0.883151, 0.00330057, 0.89219, 0.00323841, 0.918371, 0.921823, 0.926057, 0.926621, 0.918376, 0.917969, 0.922035, 0.9227, 0.922455, 0.00335657, 0.932824, 0.00313315, 0.00334621, 0.0032255, 0.967128, 0.968153, 0.980202, 0.987862, 0.992223, 0.00328209, 1.00482, 0.0033161, 0.00340611, 1.0275, 1.03161, 1.03891, 1.03898, 1.05169, 1.05826, 1.06299, 1.06403, 0.00317891, 1.08387, 1.08415, 1.09405, 1.09464, 1.10111, 1.10793, 1.10938, 1.113, 1.11423, 1.11715, 1.12149, 1.12425, 1.12885, 1.14071, 1.14211, 1.14781, 1.14923, 1.15751, 1.16049, 1.16179, 1.16467, 1.17523, 1.17276, 1.1745, 1.19071, 1.19297, 1.2019, 1.20328, 1.2118, 0.00314928, 1.23015, 1.23185, 0.00333122, 0.00330669, 1.26171, 1.2643, 1.26947, 1.27285, 1.27742, 1.28477, 1.28473, 1.28823, 1.29407, 1.30224, 1.30551, 1.30753, 1.32299, 1.33013, 1.33224, 1.33915, 1.34026, 1.34968, 1.35431, 1.36286, 1.3638, 1.37804, 1.37828, 1.38097, 1.37803, 1.37959, 1.38901, 1.38927, 1.39228, 1.39527, 1.39587, 1.40075, 1.40326, 1.40878, 1.41031, 1.41212, 0.00323177, 1.42643, 1.42562, 1.43208, 1.43528, 1.44714, 1.44679, 1.45388, 0.00335122, 0.00318145, 1.47211, 1.47816, 0.00364917, 1.48907, 1.49197, 1.49348, 1.49384, 1.50085, 1.50253, 1.50386, 1.50976, 1.50943, 1.51044, 0.00329282, 1.53436, 1.54017, 0.00317601, 1.54428, 0.00310769, 0.00334449
0.00331879, 0.00336385, 0.181528, 0.179104, 0.181291, 0.18157, 0.190331, 0.199304, 0.200225, 0.212714, 0.212223, 0.216802, 0.215044, 0.211525, 0.00350698, 0.237301, 0.00309817, 0.245897, 0.00334572, 0.00316845, 0.00329087, 0.00332037, 0.285889, 0.284747, 0.293049, 0.303684, 0.304947, 0.307648, 0.318334, 0.317001, 0.317745, 0.00372152, 0.00302249, 0.352168, 0.354764, 0.355108, 0.354724, 0.757926, 0.76302, 0.763799, 0.00323686, 0.00329836, 0.0031087, 0.404451, 0.403404, 0.40333, 0.423635, 0.424186, 0.432925, 0.432417, 0.438371, 0.443045, 0.00346679, 0.465372, 0.00326946, 0.0032965, 0.00305938, 0.492046, 0.500848, 0.501272, 0.50049, 0.517812, 0.517646, 0.517095, 0.514973, 0.507285, 0.502475, 0.506598, 0.50502, 0.511211, 0.520852, 0.52018, 0.528093, 0.530845, 0.538012, 0.536877, 0.545498, 0.546488, 0.548464, 0.548551, 0.555138, 0.562772, 0.563169, 0.566692, 0.576306, 0.585919, 0.00320668, 0.588264, 0.586735, 0.593824, 0.00320885, 0.607997, 0.607257, 0.609051, 0.608211, 0.61577, 0.614765, 0.6351, 0.634206, 0.636401, 0.63954, 0.644258, 0.650772, 0.655167, 0.00346091, 0.00339445, 0.00326585, 0.00339246, 0.00324546, 0.672258, 0.67587, 0.0033217, 0.69115, 0.691737, 0.701234, 0.70155, 0.707327, 0.705344, 0.707406, 0.714256, 0.715682, 0.00333933, 0.0030633, 0.00357421, 0.00310139, 0.746322, 0.745361, 0.745398, 0.756319, 0.762853, 0.762034, 0.765024, 0.76374, 0.762656, 0.764627, 0.767277, 0.769755, 0.771055, 0.778281, 0.783661, 0.78082, 0.78189, 0.781614, 0.78753, 0.787154, 0.787085, 0.0031946, 0.0034462, 0.00332748, 0.00348132, 0.00319984, 0.00352081, 0.00301352, 0.00353114, 0.00328507, 0.00332677, 0.828839, 0.835021, 0.836855, 0.00348445, 0.00315746, 0.864567, 0.865225, 0.867922, 0.86926, 0.00333645, 0.00338926, 0.00356875, 0.0030603, 0.920185, 0.92439, 0.919208, 0.918962, 0.919273, 0.923495, 0.924978, 0.922253, 0.923076, 0.00346787, 0.00334146, 0.948129, 0.950671, 0.9592, 0.96377, 0.978389, 0.977821, 0.00323933, 0.00357353, 1.00264, 1.00552, 1.01134, 1.0154, 0.00319136, 0.00342309, 0.00344056, 1.04676, 1.0491, 1.05506, 0.00335105, 1.0732, 1.0758, 1.08821, 1.08853, 1.09514, 1.10542, 1.10517, 1.10441, 1.10906, 1.11231, 1.11427, 1.11665, 1.12014, 1.12225, 1.13066, 1.13298, 1.13821, 1.14431, 1.14939, 1.1506, 1.15567, 1.15896, 1.1725, 1.17063, 0.00328804, 1.18695, 1.19285, 1.19455, 1.20095, 1.20505, 0.00346675, 0.00302822, 0.00347938, 0.00331166, 1.25412, 0.0032216, 0.00336357, 0.00318358, 1.26729, 0.00313529, 0.00325048, 0.00322555, 0.00354198, 0.00326281, 0.00328955, 1.30493, 1.30633, 1.32048, 1.32825, 1.33537, 1.33525, 0.00328365, 0.0033215, 0.00328516, 1.36451, 1.37098, 1.37321, 1.37303, 1.37122, 1.37391, 1.38109, 1.38435, 1.38405, 1.39102, 1.3926, 1.39283, 1.39464, 1.40079, 1.40428, 1.40662, 1.41391, 1.41442, 1.42417, 1.42922, 1.42998, 1.4365, 1.43963, 1.44693, 1.44715, 1.44819, 0.00331143, 1.472, 1.47464, 1.47557, 1.48243, 1.4886, 1.48902, 1.49188, 1.49952, 1.49927, 1.49887, 1.50411, 1.50868, 1.50879, 1.52332, 1.52649, 0.00335217, 1.53631, 0.00346596, 0.00301696, 1.54597
0.153955, 0.00324694, 0.00333389, 0.181586, 0.183636, 0.192503, 0.19263, 0.190503, 0.193307, 0.193971, 0.200409, 0.213037, 0.213746, 0.213803, 0.00329663, 0.00320861, 0.240886, 0.247588, 0.246777, 0.0031681, 0.280276, 0.27882, 0.287239, 0.288268, 0.286878, 0.316235, 0.313846, 0.323662, 0.324728, 0.323978, 0.322256, 0.321243, 0.00348289, 0.352867, 0.353538, 0.353206, 0.358234, 0.00322103, 0.00315544, 0.380232, 0.380001, 0.00325073, 0.404917, 0.404584, 0.00343586, 0.00320442, 0.00350087, 0.426417, 0.428352, 0.43087, 0.432568, 0.00336917, 0.447037, 0.00322232, 0.00335144, 0.00340311, 0.483109, 0.482622, 0.493433, 0.499739, 0.00330837, 0.00308808, 0.514958, 0.514631, 0.508592, 0.505117, 0.503833, 0.504679, 0.506771, 0.518513, 0.519621, 0.520606, 0.519139, 0.531908, 0.531847, 0.530993, 0.545271, 0.544055, 0.546616, 0.548114, 0.54972, 0.553272, 0.00357408, 0.575593, 0.575128, 0.57373, 0.57389, 0.580967, 0.590005, 0.590645, 0.588991, 0.59074, 0.597879, 0.603122, 0.609941, 0.610684, 0.610391, 0.630945, 0.630382, 0.631747, 0.631459, 0.632512, 0.00314376, 0.00345708, 0.648707, 0.00329805, 0.00337079, 0.678823, 0.673439, 0.672305, 0.672764, 0.672549, 0.00341183, 0.693597, 0.694018, 0.695509, 0.701091, 0.701137, 0.708881, 0.708961, 0.714393, 0.71501, 0.728884, 0.735144, 0.73634, 0.747647, 0.748069, 0.747315, 0.746678, 0.754545, 0.755177, 0.762378, 0.76206, 0.76167, 0.764415, 0.771519, 0.773746, 0.773681, 0.779226, 0.778101, 0.775529, 0.778832, 0.778688, 0.780422, 0.783372, 0.0031972, 0.77524, 0.773696, 0.00339294, 0.00300127, 0.0033715, 0.00310403, 0.00344591, 0.00341583, 0.00333429, 0.00328671, 0.00346515, 0.00323642, 0.00346728, 0.00298332, 0.00328829, 0.00335716, 0.863422, 0.863735, 0.00360758, 0.00338936, 0.00335005, 0.00329614, 0.90782, 0.00320017, 0.00319624, 0.915773, 0.918475, 0.921391, 0.922775, 0.921038, 0.920226, 0.927127, 0.935013, 0.937933, 0.945433, 0.947461, 0.00329674, 0.00329619, 0.00386678, 0.978278, 0.979444, 0.991721, 0.993238, 1.00168, 1.00152, 0.00316971, 0.00364999, 0.00332424, 1.03513, 1.03516, 0.00341151, 1.06133, 1.06197, 0.00327042, 1.07176, 1.0744, 1.08412, 0.00320351, 1.09144, 1.09293, 1.09718, 1.09823, 1.10618, 1.10783, 1.11576, 1.1196, 1.12212, 1.12649, 1.12962, 1.13469, 1.13947, 1.1408, 1.14227, 0.00335587, 1.16007, 1.16194, 1.16993, 1.16761, 1.17895, 1.1815, 1.194, 1.195, 1.20577, 1.21159, 0.00322999, 0.00336876, 1.25017, 1.2503, 1.25143, 0.00310114, 0.00347465, 1.25341, 1.25967, 0.0031954, 0.00339475, 0.00327909, 0.00337975, 0.00316934, 0.00323106, 0.0033414, 1.32504, 1.32674, 1.33269, 1.33448, 0.00350735, 0.0031584, 0.00319342, 1.36653, 1.36586, 1.36642, 1.3662, 1.36916, 1.38065, 1.38091, 1.37859, 1.38117, 1.38085, 1.38841, 1.39206, 1.39337, 1.39844, 1.40018, 1.4103, 1.41003, 1.41754, 1.4188, 1.42779, 1.42712, 1.43169, 1.43691, 1.43745, 1.44025, 1.44406, 1.46922, 1.46837, 1.4736, 1.47822, 1.47779, 1.47899, 1.48732, 1.49354, 1.49827, 1.49672, 1.5009, 1.50158, 1.50189, 1.51914, 1.51728, 1.52128, 1.52787, 1.52931, 1.52731, 1.5327, 1.53284
0.156662, 0.154575, 0.00321067, 0.00331369, 0.182524, 0.193015, 0.180064, 0.180301, 0.193509, 0.192567, 0.19118, 0.20594, 0.20675, 0.206261, 0.00340869, 0.00336485, 0.00316561, 0.00328375, 0.00321866, 0.00355045, 0.00332403, 0.00323754, 0.0029786, 0.282981, 0.00334495, 0.00308418, 0.00319361, 0.325338, 0.325198, 0.325689, 0.00329589, 0.00335799, 0.00323697, 0.00350331, 0.00334343, 0.00352541, 0.358729, 0.35777, 0.36378, 0.366621, 0.00329188, 0.380005, 0.00313599, 0.00355001, 0.00320341, 0.00363248, 0.00302507, 0.429986, 0.429567, 0.431372, 0.434367, 0.00321795, 0.00334943, 0.45805, 0.457304, 0.00356447, 0.0029845, 0.485024, 0.483305, 0.485304, 0.511712, 0.512582, 0.512612, 0.511762, 0.501017, 0.500515, 0.499538, 0.508905, 0.517287, 0.515904, 0.520975, 0.519394, 0.517915, 0.525308, 0.532798, 0.534035, 0.530092, 0.534817, 0.533365, 0.547367, 0.547152, 0.546732, 0.548602, 0.548527, 0.00319483, 0.570064, 0.00324714, 0.00360873, 0.579971, 0.579683, 0.590563, 0.589924, 0.593325, 0.593901, 0.00323582, 0.606474, 0.61472, 0.00326551, 0.623373, 0.62726, 0.631794, 0.632945, 0.634676, 0.641501, 0.00331016, 0.00336816, 0.00346518, 0.655876, 0.664062, 0.668882, 0.00330195, 0.676994, 0.00315978, 0.688052, 0.694611, 0.695345, 0.698961, 0.699348, 0.710132, 0.710819, 0.711731, 0.721104, 0.721832, 0.731697, 0.00313228, 0.746049, 0.747316, 0.747213, 0.741838, 0.741935, 0.748959, 0.749706, 0.752817, 0.760027, 0.759309, 0.760551, 0.771695, 0.771983, 0.773727, 0.7715, 0.772624, 0.773212, 0.776585, 0.771726, 0.772891, 0.00344141, 0.00307697, 0.00315321, 0.00317782, 0.0030457, 0.00311, 0.00351849, 0.00300733, 0.00337166, 0.00318081, 1.29959, 0.00342264, 0.00324436, 0.825249, 0.00309559, 0.00312718, 0.851167, 0.00321915, 0.00329954, 0.00326939, 0.00339017, 0.00316829, 0.895296, 0.897239, 0.901722, 0.903554, 0.909081, 0.91265, 0.912971, 0.917179, 0.920469, 0.00320512, 0.927413, 0.931254, 0.93445, 0.00321597, 0.938703, 0.00335989, 0.00322326, 0.00319288, 0.00368254, 0.97937, 0.981995, 0.00326386, 0.995904, 1.00519, 1.01169, 1.01357, 0.00352263, 0.00306433, 0.00330013, 0.00337002, 0.00324595, 1.06037, 1.06044, 1.06122, 0.00314485, 1.08061, 1.0784, 1.08354, 1.0842, 1.08935, 1.09271, 1.0979, 1.10643, 1.11196, 1.11527, 1.11742, 1.12235, 1.12869, 1.13032, 1.13932, 1.13308, 1.13943, 1.14953, 1.14979, 1.15703, 0.00311505, 1.16791, 1.17083, 0.00337647, 0.00372224, 0.0033738, 1.20132, 1.21095, 0.00336896, 1.23245, 1.22937, 1.22815, 1.22921, 1.22917, 0.00338216, 0.00337201, 0.00324332, 1.26299, 0.00317466, 0.00357365, 0.00343877, 0.00337743, 0.00343823, 1.3054, 0.00314272, 1.32621, 1.32891, 1.33366, 0.00307231, 0.00327103, 0.002961, 1.35763, 1.36287, 1.36131, 1.36127, 1.3625, 1.3704, 1.37214, 1.37034, 1.37516, 1.37649, 1.38533, 1.3848, 1.3892, 1.39204, 1.3988, 1.40899, 1.41013, 1.41356, 1.41878, 1.4191, 1.42823, 1.42997, 1.43446, 1.43466, 1.4409, 0.00336109, 0.00333247, 1.47362, 1.47028, 1.47827, 1.47747, 1.48163, 1.49357, 1.49215, 1.49141, 1.49043, 1.50059, 1.50104, 1.5091, 0.00344139, 1.51144, 1.50973, 0.00343635, 1.52252, 1.52505, 1.52671, 1.53139
0.154764, 0.153647, 0.152851, 0.155916, 0.179693, 0.180142, 0.181124, 0.183914, 0.182505, 0.181376, 0.192907, 0.199408, 0.20975, 0.20982, 0.00351088, 0.003058, 0.0035298, 0.00317226, 0.00341535, 0.00326419, 0.26255, 0.262629, 0.266802, 0.266067, 0.266565, 0.00331241, 0.00348239, 0.00322238, 0.323806, 0.323835, 0.00326513, 0.00319786, 0.00316368, 0.00312369, 0.340473, 0.339796, 0.00325598, 0.359349, 0.358679, 0.361919, 0.361753, 0.371121, 0.372037, 0.00315225, 0.00362485, 0.39425, 0.00356294, 0.00316926, 0.00333458, 0.00313227, 0.00305861, 0.00324853, 0.00342392, 0.00326457, 0.00342562, 0.00338308, 0.479695, 0.478433, 0.00328732, 0.00312962, 0.00338931, 0.514838, 0.514242, 0.513764, 0.503678, 0.499083, 0.500201, 0.509007, 0.517146, 0.519466, 0.51879, 0.519355, 0.517777, 0.00323726, 0.525454, 0.526486, 0.52482, 0.535507, 0.536425, 0.00337935, 0.549703, 0.549885, 0.546946, 0.551952, 0.550115, 0.562392, 0.564176, 0.567833, 0.580351, 0.579894, 0.58136, 0.586239, 0.593685, 0.591536, 0.591889, 0.589806, 0.591377, 0.614743, 0.613973, 0.613232, 0.613356, 0.634872, 0.631548, 0.00346237, 0.00325488, 0.651605, 0.652292, 0.653085, 0.652854, 0.655218, 0.673245, 0.672959, 0.672875, 0.690064, 0.690262, 0.689895, 0.689623, 0.70078, 0.701197, 0.705351, 0.706167, 0.712629, 0.718329, 0.719072, 0.0106701, 0.00332736, 0.739346, 0.739428, 0.74025, 0.74116, 0.746482, 0.74925, 0.751808, 0.753235, 0.75383, 0.00330404, 0.767613, 0.769524, 0.768761, 0.767324, 0.765823, 0.00304544, 0.759977, 0.761635, 0.762362, 0.00313449, 0.756311, 0.756269, 0.757324, 0.00330319, 0.00319376, 0.00322221, 0.00322492, 0.00346945, 0.00344162, 0.00299009, 0.00332174, 0.0032134, 0.822923, 0.82432, 0.832528, 0.833366, 0.00346815, 0.00335697, 0.00329331, 0.00329605, 0.88533, 0.887357, 0.888259, 0.894173, 0.892944, 0.904501, 0.904621, 0.907666, 0.911771, 0.00317409, 0.919751, 0.922175, 0.926802, 0.931589, 0.93886, 0.940491, 0.00313319, 0.00311882, 0.0033407, 0.97556, 0.975621, 0.985001, 0.987903, 0.00325883, 0.997805, 1.00129, 1.00165, 0.00330473, 0.00327924, 1.03578, 0.00342401, 1.05628, 1.05472, 1.05505, 0.0033213, 1.07055, 1.07182, 1.0727, 1.07622, 0.00318467, 1.08702, 1.08607, 1.09097, 0.00310536, 1.10737, 1.11173, 1.11822, 1.12083, 1.12495, 1.12624, 1.12673, 1.13112, 1.13758, 1.1421, 1.14461, 1.14971, 1.15937, 1.16464, 1.16804, 1.16941, 0.00354112, 0.00309732, 1.20413, 1.20514, 1.22211, 0.00334331, 1.21973, 1.22102, 1.22851, 0.00316705, 0.00338466, 0.00344312, 1.25537, 0.00334996, 1.27131, 1.27202, 1.27575, 1.29979, 1.2983, 1.29902, 1.30978, 1.31497, 0.0034725, 1.33283, 1.34166, 1.34297, 1.34806, 1.35234, 1.35544, 1.35704, 1.35152, 1.35986, 1.36554, 1.36583, 1.36939, 1.37159, 1.37454, 1.38094, 1.38516, 1.38629, 1.39088, 0.00317963, 1.40405, 1.40556, 1.41194, 1.41651, 1.41539, 1.42711, 1.42766, 1.42791, 1.43378, 1.43804, 0.0031008, 1.46121, 0.00329261, 1.47208, 1.47491, 0.00326543, 0.00340837, 1.49767, 1.49906, 1.50199, 1.5031, 1.49825, 1.4996, 1.5006, 1.49986, 1.51092, 1.51144, 1.516, 1.51531, 1.51579, 0.00352168, 1.52684
0.154857, 0.140405, 0.139669, 0.153167, 0.00323398, 0.00334078, 0.18383, 0.184402, 0.182561, 0.181529, 0.180331, 0.20084, 0.200435, 0.0034534, 0.00320111, 0.00347153, 0.00304732, 0.00298497, 0.00297525, 0.00344346, 0.2625, 0.264279, 0.26146, 0.262134, 0.261251, 0.264924, 0.264541, 0.00327342, 0.00323686, 0.0033548, 0.00334438, 0.00329079, 0.00321608, 0.341442, 0.0030215, 0.339238, 0.00313691, 0.351368, 0.34677, 0.36195, 0.00336147, 0.366912, 0.365546, 0.388245, 0.387627, 0.388297, 0.00320781, 0.00322302, 0.00305084, 0.00301016, 0.00322738, 0.00357659, 0.00312125, 0.00336654, 0.00328738, 0.466647, 0.465651, 0.478396, 0.00332393, 0.49528, 0.496189, 0.495352, 0.494333, 0.495143, 0.50279, 0.502158, 0.50097, 0.499954, 0.500606, 0.50374, 0.501098, 0.500768, 0.00318721, 0.00358176, 0.52057, 0.52058, 0.521802, 0.525605, 0.525875, 0.524291, 0.00316454, 0.542911, 0.542543, 0.542527, 0.552682, 0.559312, 0.564343, 0.56485, 0.570201, 0.575914, 0.575914, 0.588816, 0.589478, 0.588262, 0.589279, 0.585423, 0.585229, 0.603223, 0.60207, 0.612196, 0.611336, 0.619404, 0.628475, 0.630316, 0.629673, 0.627976, 0.00320904, 0.642332, 0.650465, 0.650762, 0.00314908, 0.66972, 0.670327, 0.671543, 0.685928, 0.688916, 0.687388, 0.686909, 0.70109, 0.702186, 0.702718, 0.702352, 0.718379, 0.720886, 0.00318009, 0.00325185, 0.00316096, 0.00367447, 0.731155, 0.730944, 0.733046, 0.733938, 0.742862, 0.743826, 0.745932, 0.00352488, 0.00332219, 0.750557, 0.751726, 0.754979, 0.755962, 0.756687, 0.759709, 0.762421, 0.762873, 0.756216, 0.755905, 0.755994, 0.755691, 0.755695, 0.00313162, 0.00338119, 0.779541, 0.781728, 0.781864, 0.00350575, 0.0032579, 0.00373378, 0.00310383, 0.82663, 0.827763, 0.831297, 0.832042, 0.832908, 0.0034049, 0.00352972, 0.00327069, 0.00334593, 0.881503, 0.890701, 0.892149, 0.896262, 0.897651, 0.902563, 0.908753, 0.911122, 0.91829, 0.919926, 0.932572, 0.93466, 0.935807, 0.947638, 0.950579, 0.956869, 0.964068, 0.965808, 0.969925, 0.978003, 0.983463, 0.984584, 0.987497, 0.00322236, 0.00325416, 1.01139, 0.00307916, 0.00339848, 0.00327685, 1.04428, 1.04444, 1.04795, 0.00323976, 1.05971, 1.06051, 1.06713, 0.00323362, 0.00321168, 1.07272, 1.07545, 1.08376, 1.08736, 1.09678, 1.09984, 0.00331622, 0.00343536, 1.12149, 1.12224, 1.12321, 1.12547, 1.12643, 1.13206, 1.13947, 1.14114, 1.15285, 1.15519, 0.00311473, 0.00319476, 1.18378, 1.19152, 0.00322038, 1.21462, 1.2142, 1.2098, 1.20964, 1.21393, 1.21983, 1.22932, 0.00303474, 1.24742, 1.24969, 1.25385, 1.26055, 1.27056, 0.00321435, 0.00317177, 1.30022, 1.30108, 1.30453, 0.00321826, 1.32057, 1.3256, 0.00335474, 1.33555, 0.00324121, 1.34343, 1.34492, 1.34393, 1.34601, 1.35509, 1.35516, 1.36076, 1.36175, 1.36409, 1.36805, 1.37066, 1.37806, 1.3836, 1.38836, 1.39128, 0.00327438, 1.40359, 1.40365, 1.40997, 1.41212, 1.42364, 1.42277, 1.42132, 1.42246, 0.00344125, 0.00329076, 1.45982, 1.46683, 1.46627, 1.47116, 0.00302276, 0.00334886, 1.49277, 1.49869, 1.49831, 1.50227, 1.4983, 1.4971, 1.49969, 1.5024, 1.50746, 1.5086, 1.50898, 1.51283, 1.51324, 1.51414, 1.53146
0.141678, 0.141793, 0.140723, 0.140386, 0.152396, 0.155727, 0.155413, 0.154254, 0.00317165, 0.180837, 0.192932, 0.00321567, 0.00333194, 0.0032746, 0.00329551, 0.00331652, 0.00310313, 0.00339478, 0.256171, 0.254574, 0.259342, 0.260718, 0.26073, 0.264665, 0.263748, 0.264475, 0.263074, 0.269166, 0.00342012, 0.0034388, 0.00339485, 0.00313819, 0.00330663, 0.00332742, 0.00320822, 0.0033022, 0.00334378, 0.349767, 0.350392, 0.350193, 0.00349633, 0.00310723, 0.367691, 0.380334, 0.379767, 0.0031627, 0.408709, 0.410066, 0.40981, 0.413788, 0.425628, 0.0033196, 0.00328959, 0.00311036, 0.00354896, 0.00320105, 0.467169, 0.00336532, 0.479832, 0.00300317, 0.495479, 0.494989, 0.490308, 0.49276, 0.501634, 0.501148, 0.496855, 0.00318724, 0.00348429, 0.503182, 0.502691, 0.501357, 0.506963, 0.00310457, 0.00353508, 0.0028948, 0.513532, 0.513704, 0.525301, 0.525822, 0.525833, 0.533477, 0.539186, 0.541527, 0.542743, 0.553139, 0.560878, 0.563457, 0.00316923, 0.572998, 0.572572, 0.582973, 0.58063, 0.585282, 0.58464, 0.583884, 0.583428, 0.601908, 0.603688, 0.6025, 0.6117, 0.615664, 0.614995, 0.618424, 0.626134, 0.631758, 0.63706, 0.636208, 0.6507, 0.650337, 0.65091, 0.669141, 0.66845, 0.670849, 0.671139, 0.672906, 0.674261, 0.689493, 0.693191, 0.697005, 0.700989, 0.700798, 0.705399, 0.706858, 0.707065, 0.72223, 0.722372, 0.722398, 0.722057, 0.723528, 0.733737, 0.731899, 0.735085, 0.73715, 0.735401, 0.744336, 0.748186, 0.746907, 0.748706, 0.751093, 0.754305, 0.753939, 0.751127, 0.756336, 0.757233, 0.757852, 0.758789, 0.758176, 0.756343, 0.756493, 0.756734, 0.00309889, 0.77972, 0.78088, 0.780646, 0.00317669, 0.00330157, 0.00320978, 0.00350601, 0.817945, 0.00333759, 0.825775, 0.829177, 0.83489, 0.0030628, 0.00316703, 0.00336272, 0.00320265, 0.88438, 0.887753, 0.888919, 0.888227, 0.893777, 0.894682, 0.90878, 0.911556, 0.919191, 0.00319078, 0.00333985, 0.933092, 0.937991, 0.00311784, 0.950859, 0.953227, 0.00340029, 0.00318402, 0.969341, 0.969826, 0.974045, 0.976588, 0.00336288, 0.00316773, 1.00292, 0.00309742, 1.02344, 1.03031, 1.02807, 1.0285, 0.00326861, 1.04228, 1.04257, 1.04301, 1.04473, 1.05447, 1.05683, 1.05768, 1.06345, 1.06447, 0.00334169, 0.00315176, 1.09079, 1.09402, 0.00321319, 1.11233, 1.11258, 1.11523, 1.11862, 1.12085, 1.12595, 1.12759, 1.13728, 1.13886, 1.15093, 1.1547, 1.16186, 0.00351919, 0.00326817, 0.00333874, 1.21143, 1.21157, 1.2128, 1.21297, 1.21206, 1.21574, 1.22076, 1.23504, 1.24254, 1.24185, 1.24404, 0.00342008, 1.25914, 1.26331, 0.00354751, 1.27758, 0.00339478, 0.00293966, 1.30612, 1.31515, 1.31672, 1.3187, 1.32224, 1.32676, 0.00356225, 0.00313764, 1.32957, 1.33334, 0.00334042, 0.0030582, 1.351, 1.35363, 1.35746, 0.0033692, 1.36348, 0.00323438, 1.37898, 1.37783, 0.00354927, 1.38593, 1.39164, 1.39329, 1.39804, 1.40407, 1.4155, 1.41306, 1.41123, 0.0035826, 1.43419, 1.4351, 0.00342916, 1.45372, 1.45466, 1.4642, 1.46635, 0.00335402, 1.48292, 1.48387, 0.00337818, 1.4948, 1.49249, 1.49132, 1.49238, 1.49549, 1.49424, 1.50121, 1.5053, 1.50578, 1.50982, 1.51041, 1.50939, 1.53181
0.13806, 0.13841, 0.134217, 0.131399, 0.138884, 0.139864, 0.00299309, 0.155287, 0.00305585, 0.00342799, 0.00312632, 0.00354695, 0.00316537, 0.00354607, 0.00338207, 0.00342771, 0.00305834, 0.00335538, 0.0032442, 0.00342795, 0.257886, 0.261365, 0.264746, 0.263107, 0.26461, 0.258696, 0.257622, 0.269222, 0.00310343, 0.268795, 0.00294138, 0.00349219, 0.00318834, 0.0035764, 0.00315712, 0.00337598, 0.335446, 0.334488, 0.333584, 0.00340685, 0.0032741, 0.00337212, 0.00293849, 0.38239, 0.376354, 0.00340282, 0.40929, 0.40938, 0.409277, 0.415275, 0.413768, 0.41253, 0.00350424, 0.00340232, 0.00329425, 0.00320612, 0.00318658, 0.461308, 0.00312511, 0.0035633, 0.0031485, 0.486593, 0.488051, 0.487892, 0.00334772, 0.00344673, 0.00319304, 0.00342533, 0.482177, 0.484571, 0.500116, 0.501697, 0.500203, 0.499156, 0.506865, 0.508699, 0.513956, 0.514176, 0.52175, 0.520604, 0.530254, 0.535259, 0.536757, 0.542004, 0.54611, 0.546483, 0.548977, 0.00330019, 0.00333575, 0.570214, 0.571792, 0.575943, 0.576265, 0.582671, 0.583739, 0.584574, 0.583721, 0.592351, 0.593401, 0.600494, 0.599823, 0.613599, 0.614417, 0.611937, 0.62188, 0.621139, 0.63254, 0.631659, 0.630768, 0.640654, 0.00334688, 0.658043, 0.66103, 0.670561, 0.665061, 0.666744, 0.672117, 0.00354935, 0.691254, 0.692644, 0.697214, 0.6973, 0.707612, 0.706958, 0.723532, 0.725057, 0.723512, 0.720467, 0.719637, 0.721992, 0.725048, 0.72471, 0.728702, 0.733784, 0.733843, 0.735392, 0.735749, 0.736959, 0.741958, 0.745438, 0.744552, 0.746324, 0.752718, 0.755567, 0.756534, 0.756893, 0.760897, 0.759548, 0.755606, 0.755871, 0.755932, 0.00319171, 0.00317905, 0.769623, 0.00310242, 0.0037186, 0.00311995, 0.00326341, 0.00331754, 0.817335, 0.819204, 0.818461, 0.818429, 0.00395543, 0.00325445, 0.0035398, 0.0029101, 0.00343507, 0.877734, 0.879712, 0.882745, 0.887346, 0.892356, 0.890793, 0.892253, 0.00334595, 0.00312043, 0.916458, 0.00319686, 0.00345839, 0.00329892, 0.934191, 0.00312664, 0.00341515, 0.953955, 0.00328299, 0.960567, 0.965947, 0.972675, 0.973365, 0.983483, 0.0034616, 0.00332257, 0.00339509, 0.00302457, 1.01139, 0.00335862, 0.0032296, 1.03362, 1.03236, 1.03765, 1.04167, 1.04262, 1.0421, 1.04427, 1.04651, 1.05508, 1.06339, 1.06581, 1.07948, 1.08334, 1.09062, 0.00330526, 1.10241, 1.10633, 1.11408, 1.11485, 1.11511, 1.12036, 1.12242, 1.13518, 1.14297, 1.14763, 1.15488, 1.1669, 0.00321268, 0.00334832, 1.20494, 1.20521, 1.20679, 1.21482, 1.21835, 1.22521, 1.22737, 1.22887, 1.22929, 1.23345, 1.23825, 1.24149, 1.24729, 1.25618, 1.25865, 1.27121, 1.27406, 1.28106, 1.28122, 0.0033286, 1.31036, 1.314, 1.31539, 1.31578, 1.31516, 1.3151, 1.31911, 1.31907, 1.32925, 1.32915, 0.00369652, 1.34222, 1.34287, 1.33743, 0.00332531, 0.00315467, 1.36375, 1.37205, 1.3717, 1.37506, 1.37773, 1.38107, 1.38871, 1.39635, 1.39726, 1.40174, 1.40802, 1.41029, 0.00346396, 1.43371, 1.44127, 1.44119, 1.44663, 1.45213, 1.4595, 1.46476, 0.00335945, 0.00313294, 1.47961, 0.00344585, 0.00336278, 1.4816, 1.48224, 1.48786, 1.48585, 1.48976, 1.49867, 1.49863, 1.50036, 0.00313752, 0.00365916, 0.00323389, 1.52252
0.134426, 0.127025, 0.130026, 0.141671, 0.141045, 0.13782, 0.142823, 0.150019, 0.00302264, 0.00312384, 0.00337188, 0.17786, 0.17998, 0.181787, 0.17908, 0.178186, 0.003553, 0.00328739, 0.00335241, 0.00312917, 0.0032739, 0.00318716, 0.00359528, 0.252011, 0.260053, 0.261535, 0.261412, 0.26054, 0.259163, 0.00326386, 0.271041, 0.00337721, 0.00359292, 0.00324948, 0.00349079, 0.00327742, 0.335392, 0.335281, 0.334184, 0.00325236, 0.00333119, 0.00302988, 0.00338928, 0.0033203, 0.373008, 0.00352968, 0.00374804, 0.00333406, 0.00323693, 0.00330117, 0.412116, 0.00302055, 0.00330849, 0.00298473, 0.00346271, 0.00336942, 0.00332021, 0.00306373, 0.00362915, 0.00299987, 0.00334486, 0.00305053, 0.463496, 0.46713, 0.466607, 0.466176, 0.465458, 0.00308007, 0.486047, 0.48662, 0.485061, 0.501297, 0.49791, 0.504761, 0.504023, 0.504594, 0.503813, 0.503185, 0.510706, 0.512199, 0.511659, 0.511274, 0.519095, 0.00319553, 0.00341008, 0.541586, 0.550317, 0.551932, 0.550159, 0.55208, 0.568824, 0.567977, 0.567815, 0.572761, 0.582791, 0.583915, 0.582932, 0.581869, 0.593359, 0.595102, 0.594993, 0.00322111, 0.609439, 0.608943, 0.614181, 0.621594, 0.624256, 0.624528, 0.624361, 0.632396, 0.0035419, 0.00311462, 0.00353611, 0.00323332, 0.663173, 0.665979, 0.664794, 0.665529, 0.00359864, 0.00324588, 0.685666, 0.00324338, 0.690134, 0.00353901, 0.00326924, 0.00325499, 0.721674, 0.712455, 0.715054, 0.714836, 0.721985, 0.722138, 0.72196, 0.00315621, 0.731444, 0.732064, 0.730539, 0.736397, 0.735797, 0.737858, 0.7381, 0.737475, 0.744876, 0.752971, 0.752898, 0.750948, 0.744347, 0.744108, 0.744967, 0.746865, 0.75779, 0.757314, 0.756918, 0.765209, 0.76708, 0.00340023, 0.00332545, 0.00305698, 0.00333154, 0.812019, 0.812707, 0.819662, 0.822484, 0.00341291, 0.846918, 0.846714, 0.00314355, 0.863932, 0.874762, 0.875568, 0.879761, 0.882387, 0.883013, 0.889585, 0.00323349, 0.901577, 0.903035, 0.907414, 0.907566, 0.00298532, 0.917649, 0.921535, 0.00362923, 0.00319622, 0.945692, 0.943324, 0.943477, 0.958897, 0.00329606, 0.974149, 0.00340835, 0.00327223, 0.999368, 0.999362, 0.00320449, 0.00326465, 0.00349754, 0.00313086, 1.021, 1.02122, 1.02092, 1.02975, 1.03115, 1.03306, 1.03602, 0.00317861, 1.04942, 1.05397, 1.06113, 1.06965, 1.07246, 0.00325025, 1.07575, 0.00313001, 0.00356063, 1.10836, 1.10912, 1.11457, 1.11697, 1.12442, 0.00339971, 0.00350347, 1.14731, 0.00313185, 0.00336636, 0.00329854, 1.20089, 1.20108, 1.20284, 1.21005, 1.21043, 1.21705, 1.22414, 1.2258, 1.22403, 1.22498, 1.22627, 1.23472, 1.23665, 1.24746, 1.2511, 1.25883, 1.26094, 1.26846, 1.27226, 0.0032264, 1.30868, 1.30621, 1.31179, 1.31115, 1.3082, 1.30703, 1.30719, 1.31201, 1.32024, 0.00342544, 0.00323967, 1.33109, 1.33645, 1.33956, 1.33756, 1.3429, 1.35564, 1.36014, 1.36707, 1.36732, 1.36922, 1.37501, 1.3755, 1.38244, 1.39182, 1.39168, 1.3916, 1.39623, 0.00326267, 1.42417, 1.42717, 1.43301, 1.4385, 1.44248, 1.44998, 1.4474, 1.44568, 1.45058, 1.4527, 0.00306759, 1.46481, 1.47199, 1.47874, 1.47799, 1.4787, 1.48267, 1.48492, 1.48977, 1.48989, 1.49159, 1.49172, 0.00326316, 0.00324323, 0.00321501
0.129774, 0.13024, 0.128436, 0.128173, 0.12913, 0.128072, 0.00337165, 0.00334371, 0.00306545, 0.00366806, 0.00332874, 0.176717, 0.17759, 0.176467, 0.175974, 0.174114, 0.00319582, 0.00354788, 0.00335832, 0.00337984, 0.0033569, 0.00351834, 0.00298785, 0.253205, 0.252607, 0.253837, 0.253881, 0.253193, 0.25536, 0.254843, 0.262569, 0.00314671, 0.0031675, 0.00347572, 0.00334296, 0.00322929, 0.00330618, 0.00337663, 0.0033307, 0.00316069, 0.00329227, 0.00326121, 0.00301387, 0.00347794, 0.0030243, 0.00341957, 0.00325549, 0.0034377, 0.00324853, 0.00321196, 0.00305746, 0.00321607, 0.00297047, 0.00341543, 0.434126, 0.43771, 0.437736, 0.444259, 0.0034333, 0.450479, 0.451414, 0.455038, 0.45349, 0.454995, 0.466688, 0.465859, 0.463635, 0.464889, 0.465408, 0.00338293, 0.00340162, 0.488181, 0.49353, 0.493944, 0.494959, 0.493712, 0.493384, 0.500294, 0.502563, 0.510137, 0.510554, 0.512161, 0.518198, 0.519829, 0.519011, 0.00337883, 0.544422, 0.54406, 0.546474, 0.545305, 0.00335779, 0.00328685, 0.566796, 0.567447, 0.57451, 0.577553, 0.577672, 0.582298, 0.586112, 0.585024, 0.591417, 0.600531, 0.598757, 0.603293, 0.00315656, 0.620333, 0.621721, 0.622448, 0.624989, 0.627716, 0.631051, 0.637194, 0.639607, 0.64757, 0.648265, 0.649493, 0.662379, 0.661191, 0.666676, 0.00316561, 0.68113, 0.681194, 0.00337402, 0.690591, 0.0031007, 0.697755, 0.701287, 0.701492, 0.706408, 0.711773, 0.711861, 0.716133, 0.716601, 0.714178, 0.712117, 0.722755, 0.725805, 0.728433, 0.729914, 0.727614, 0.725818, 0.732812, 0.734395, 0.742886, 0.745222, 0.740595, 0.743175, 0.744421, 0.74483, 0.741026, 0.74163, 0.00317697, 0.00316925, 0.00340251, 0.00326152, 0.00316424, 0.00334243, 0.00360586, 0.00305707, 0.801353, 0.809134, 0.814957, 0.821677, 0.822311, 0.00341176, 0.847478, 0.850638, 0.860307, 0.00310399, 0.870672, 0.87421, 0.875746, 0.881203, 0.883058, 0.887864, 0.88826, 0.897993, 0.90271, 0.903765, 0.910203, 0.911833, 0.00307039, 0.00306443, 0.923321, 0.942247, 0.942367, 0.946239, 0.950324, 0.00335437, 0.00332842, 0.00314271, 0.00345605, 0.982271, 0.982648, 0.00311262, 0.992834, 0.00314741, 0.00324657, 1.00809, 1.01118, 1.01223, 1.02109, 1.02145, 1.02813, 1.03105, 1.03456, 0.00310869, 1.04726, 0.00313083, 1.05937, 1.06497, 1.07064, 1.07298, 1.07439, 0.00322244, 1.08862, 1.0886, 1.10717, 1.1127, 1.21917, 0.00315034, 1.13911, 0.00326584, 0.00335306, 0.00340602, 1.18585, 1.19107, 1.19477, 1.19865, 1.19893, 1.20243, 0.0033392, 1.21083, 1.21455, 1.21445, 1.21794, 1.22228, 1.22211, 0.00326113, 1.24511, 1.25094, 1.25373, 0.00324106, 0.00337991, 0.00302331, 1.28994, 0.00319076, 1.30653, 1.30684, 1.29643, 1.2964, 1.29708, 1.30447, 1.30932, 1.31061, 1.31811, 1.32087, 1.32869, 1.32699, 0.00328536, 0.00332, 1.34165, 0.00326429, 1.35704, 1.3589, 1.36156, 1.36344, 1.37061, 1.36961, 1.37695, 1.38327, 1.3823, 1.39533, 1.39443, 0.00317024, 0.00323849, 1.4241, 1.43044, 1.43402, 1.44678, 1.44695, 1.444, 1.44429, 1.44586, 1.44963, 1.45193, 1.46288, 1.46356, 1.46875, 1.47187, 1.47207, 1.47255, 1.47238, 1.47336, 1.47373, 1.48849, 1.48536, 0.00342271, 0.0033236, 1.50177
0.105871, 0.00322303, 0.126843, 0.127384, 0.12421, 0.123919, 0.00330213, 0.00333041, 0.00330138, 0.00323913, 0.169845, 0.169687, 0.168451, 0.175498, 0.173899, 0.00338832, 0.193317, 0.19231, 0.00343181, 0.00368225, 0.00353863, 0.0031159, 0.00325864, 0.254249, 0.255231, 0.255712, 0.254454, 0.256014, 0.263667, 0.260231, 0.262015, 0.262861, 0.00356426, 0.00325731, 0.00333817, 0.00321304, 0.00371041, 0.00305276, 0.308742, 0.00321843, 0.00355612, 0.00300617, 0.00342882, 0.349754, 0.00313687, 0.00340237, 0.0034943, 0.00307267, 0.00327445, 0.0032078, 0.00363665, 0.430951, 0.43104, 0.430468, 0.428674, 0.430078, 0.428446, 0.435071, 0.437191, 0.00335434, 0.446626, 0.45273, 0.451688, 0.449633, 0.45322, 0.461323, 0.459117, 0.465103, 0.463946, 0.471115, 0.470293, 0.469897, 0.477817, 0.492985, 0.491051, 0.487549, 0.494445, 0.494819, 0.503288, 0.50376, 0.511041, 0.512209, 0.520521, 0.520963, 0.523712, 0.528189, 0.531332, 0.530091, 0.536563, 0.00337707, 0.00348253, 0.00307401, 0.00352134, 0.00319923, 0.571796, 0.575088, 0.573936, 0.583046, 0.584116, 0.584044, 0.584427, 0.586971, 0.58823, 0.596106, 0.600652, 0.00323473, 0.617626, 0.621321, 0.619725, 0.62653, 0.628144, 0.626406, 0.631949, 0.632145, 0.003404, 0.00332413, 0.649948, 0.00328268, 0.00353403, 0.00334988, 0.676868, 0.675823, 0.674839, 0.00326177, 0.690504, 0.691706, 0.694897, 0.697643, 0.703389, 0.702282, 0.707418, 0.708689, 0.7097, 0.709339, 0.714664, 0.714876, 0.716187, 0.715855, 0.717863, 0.720292, 0.724141, 0.724658, 0.724569, 0.733487, 0.734798, 0.733386, 0.733884, 0.73906, 0.739766, 0.741304, 0.740591, 0.74299, 0.00317782, 0.0030698, 0.00331029, 0.00327429, 0.00320367, 0.00334835, 0.793837, 0.793566, 0.793839, 0.808789, 0.00350427, 0.822015, 0.00333541, 0.00332761, 0.0033458, 0.00303734, 0.00322254, 0.00332057, 0.0031611, 0.870876, 0.00345847, 0.8837, 0.882314, 0.887396, 0.00340956, 0.00309795, 0.897931, 0.902982, 0.905086, 0.910645, 0.920377, 0.927794, 0.928552, 0.93671, 0.939201, 0.00320693, 0.00316391, 0.973252, 0.972624, 0.00314937, 0.964389, 0.00309308, 0.00312923, 0.00344148, 0.993586, 0.994666, 1.00277, 1.00633, 1.00779, 0.00304743, 1.01383, 1.02162, 1.02435, 1.02863, 0.00331371, 0.00315385, 1.04385, 1.04907, 1.04756, 1.05008, 1.05296, 1.05803, 1.06213, 0.00311455, 0.00346865, 0.00328287, 0.00327968, 0.00322008, 0.00316391, 0.00330674, 0.00332972, 0.00307785, 1.17955, 1.17928, 1.18433, 1.18365, 1.19455, 1.19712, 1.19929, 1.20037, 1.20374, 1.20845, 1.21176, 1.21301, 1.21636, 0.00318083, 1.2327, 1.24086, 1.24509, 1.25295, 1.25932, 0.00310043, 1.28992, 1.28941, 1.29818, 1.29688, 0.003442, 1.28759, 1.28555, 1.28568, 1.29818, 1.30759, 1.31238, 1.31328, 1.31578, 1.32907, 1.32711, 1.3298, 1.33517, 1.33962, 1.34671, 1.34688, 1.34963, 1.35735, 1.35699, 1.36126, 1.36073, 1.36429, 1.37511, 1.37933, 0.00346686, 0.00332766, 0.00334163, 1.41557, 1.41939, 1.41958, 0.0031497, 1.44371, 1.44104, 1.43487, 1.43537, 1.43644, 0.00353857, 1.45357, 1.45329, 1.45396, 1.45961, 1.46433, 1.46507, 1.46307, 1.46901, 1.4717, 0.00313321, 1.47938, 1.4795, 0.00312784, 0.00325597, 0.00305467
0.0031929, 0.00331648, 0.0030576, 0.125181, 0.125347, 0.123842, 0.0031861, 0.00318799, 0.00334018, 0.00317831, 0.166171, 0.164758, 0.164219, 0.16329, 0.00337399, 0.180627, 0.180814, 0.179168, 0.00319074, 0.00336006, 0.00338402, 0.00361784, 0.00322782, 0.00344154, 0.255336, 0.254685, 0.00322173, 0.269133, 0.26788, 0.26661, 0.265572, 0.265451, 0.271892, 0.271135, 0.00326826, 0.00332186, 0.00320917, 0.00338623, 0.0031698, 0.00337701, 0.00327043, 0.00328338, 0.00320896, 0.00324096, 0.00346571, 0.00320045, 0.00327536, 0.00342448, 0.00323152, 0.00305775, 0.424134, 0.425234, 0.424847, 0.426874, 0.425518, 0.428095, 0.42564, 0.431466, 0.430908, 0.00328305, 0.00320381, 0.450172, 0.449721, 0.00353329, 0.00333925, 0.462065, 0.00345701, 0.00339541, 0.00318394, 0.00333103, 0.00297516, 0.00319458, 0.0031685, 0.479334, 0.00328835, 0.488077, 0.496374, 0.496948, 0.496872, 0.4968, 0.501939, 0.512219, 0.509798, 0.515733, 0.521713, 0.519413, 0.519309, 0.532966, 0.532783, 0.538708, 0.538589, 0.545018, 0.00333887, 0.00321134, 0.571538, 0.572676, 0.576226, 0.578534, 0.577176, 0.575558, 0.575845, 0.57606, 0.00325028, 0.00342077, 0.00326893, 0.612745, 0.617069, 0.617792, 0.617877, 0.617416, 0.623685, 0.625144, 0.628817, 0.636213, 0.636545, 0.636321, 0.636719, 0.00338507, 0.00327646, 0.00332094, 0.662642, 0.00343119, 0.00324351, 0.676359, 0.00310546, 0.685556, 0.692958, 0.693369, 0.694002, 0.697178, 0.701265, 0.70137, 0.708472, 0.708193, 0.710651, 0.710955, 0.710882, 0.709918, 0.718053, 0.72116, 0.719224, 0.721297, 0.725415, 0.72593, 0.727624, 0.729614, 0.72919, 0.730706, 0.732423, 0.732, 0.735752, 0.00332659, 0.00308029, 0.00322667, 0.00329261, 0.00311693, 0.00315624, 0.0033057, 0.00352003, 0.00350295, 0.00332859, 0.80351, 0.00337165, 0.818583, 0.00314797, 0.00313459, 0.00334616, 1.20484, 0.00322623, 1.20865, 0.00349009, 0.00322189, 0.003213, 0.00322079, 0.00329375, 0.876664, 0.877184, 0.885584, 0.889157, 0.00338084, 0.897416, 0.898105, 0.00308614, 0.00329054, 0.00324665, 0.936231, 0.00313704, 0.95315, 0.961315, 0.954988, 0.953379, 0.956043, 0.964445, 0.965734, 0.966795, 0.978058, 0.980525, 0.983185, 0.984001, 0.991905, 0.99525, 1.00065, 0.00321691, 0.00343865, 1.01747, 1.01863, 1.02148, 1.03555, 1.03736, 1.04294, 1.0443, 1.04748, 1.05148, 1.06124, 1.06218, 0.0032856, 0.00330624, 1.0997, 0.00319418, 0.00344594, 0.00316883, 0.00332485, 0.00343959, 1.16934, 0.00333174, 1.17514, 1.17934, 1.18167, 1.18703, 1.18791, 1.18935, 1.19122, 1.19754, 1.20269, 1.20768, 1.21167, 1.2126, 1.22998, 1.23498, 1.23555, 0.00302122, 0.00327308, 0.00304354, 1.27883, 1.28981, 1.28812, 1.2883, 0.00357728, 1.26744, 0.00346295, 0.00313881, 1.28744, 1.28784, 0.00314719, 1.3018, 1.30642, 1.30587, 1.30903, 0.00322199, 0.0032958, 1.32705, 1.33745, 1.3393, 1.33714, 1.34619, 1.34683, 1.35329, 1.35319, 1.3679, 1.36816, 1.36934, 0.00331188, 0.00317354, 0.00304835, 1.40146, 1.40326, 0.00324508, 0.00361975, 1.42963, 1.43255, 1.4361, 1.43849, 1.44297, 1.4444, 1.44446, 1.44523, 1.44808, 1.45327, 1.4518, 1.45771, 1.45596, 1.45743, 1.46217, 1.46558, 1.47008, 0.00325039, 0.00321907, 0.00316699, 0.00323139, 1.48596
0.00346459, 0.00324254, 0.00341743, 0.00302679, 0.124175, 0.125024, 0.00329306, 0.0032299, 0.00342458, 0.00339412, 0.00345995, 0.158559, 0.165274, 0.159764, 0.159266, 0.169453, 0.180437, 0.178813, 0.00317064, 0.19014, 0.189754, 0.00313235, 0.00337427, 0.00312529, 0.00317409, 0.00313016, 0.00332441, 0.00319894, 0.256977, 0.256648, 0.255801, 0.273045, 0.273235, 0.272664, 0.271935, 0.276885, 0.280997, 0.00317149, 0.00337231, 0.00350472, 0.00348845, 0.00325193, 0.00321986, 0.00320298, 0.00333171, 0.00324004, 0.00330198, 0.0031684, 0.00333654, 0.00321356, 0.00328747, 0.426612, 0.426722, 0.426293, 0.416272, 0.424752, 0.422756, 0.422198, 0.420619, 0.00326014, 0.00327658, 0.00344537, 0.00326486, 0.00338329, 0.00299574, 0.00332667, 0.00332527, 0.00313179, 0.00353878, 0.00314218, 0.00335405, 0.00312413, 0.00337869, 0.00325989, 0.00315054, 0.00326136, 0.490994, 0.497959, 0.499168, 0.499509, 0.510284, 0.508851, 0.512579, 0.514883, 0.514882, 0.521676, 0.520759, 0.520495, 0.531439, 0.00320969, 0.00333465, 0.00326887, 0.0033567, 0.00332177, 0.00371863, 0.00306139, 0.577749, 0.578002, 0.578065, 0.575973, 0.578201, 0.577275, 0.00347021, 0.00328115, 0.607121, 0.607021, 0.6178, 0.61769, 0.616242, 0.615697, 0.00313993, 0.00338566, 0.00333798, 0.63701, 0.637249, 0.63667, 0.635538, 0.641419, 0.643021, 0.64729, 0.984421, 0.00304272, 0.00349674, 0.00327394, 0.0032333, 0.00314786, 0.686939, 0.686047, 0.696683, 0.698367, 0.697321, 0.69627, 0.697546, 0.698025, 0.698212, 0.702158, 0.706984, 0.708832, 0.709548, 0.704878, 0.70539, 0.708013, 0.728351, 0.727532, 0.72719, 0.727223, 0.729616, 0.731262, 0.729569, 0.726072, 0.727398, 0.00326669, 0.00319005, 0.00323081, 0.00335179, 0.00328251, 0.00330323, 0.780396, 0.782211, 0.784529, 0.789873, 0.795597, 0.00336668, 0.00320437, 0.814246, 0.815808, 0.817913, 0.818408, 0.00330116, 0.00319282, 0.00292167, 0.00310536, 0.854385, 0.00343507, 0.86373, 0.863411, 0.00332196, 0.877789, 0.886826, 0.885785, 0.894798, 0.896397, 0.902333, 0.00331218, 0.0035172, 0.0032965, 0.938749, 0.940919, 0.00320048, 0.00333384, 0.946532, 0.948727, 0.950588, 0.00327404, 0.961314, 0.964411, 0.00348418, 0.97249, 0.97929, 0.00327462, 0.00312608, 0.00326312, 0.00310132, 1.0124, 1.01491, 1.02138, 1.02038, 0.00333062, 1.04038, 1.04318, 1.04763, 1.0524, 1.05381, 0.00344309, 0.00360917, 1.08307, 1.09437, 1.10543, 1.10603, 0.00315819, 0.00334986, 0.0030799, 0.00343099, 1.15425, 0.00351299, 0.00323099, 1.17192, 1.17455, 1.17554, 1.18092, 1.18236, 1.18719, 1.1887, 0.00308715, 1.20604, 0.00338534, 1.21947, 1.2279, 1.22796, 1.23549, 0.00344869, 0.00331682, 1.26204, 0.003447, 0.00330153, 0.00352971, 1.26254, 1.25507, 1.25608, 1.26253, 1.26348, 0.00355879, 0.00332853, 1.28785, 1.29322, 1.2944, 1.30224, 0.00341572, 1.3121, 1.31591, 1.32259, 1.32416, 1.32902, 0.0033544, 1.34054, 1.34671, 1.3476, 1.35216, 1.36637, 1.3655, 1.37484, 1.38514, 1.38589, 1.39104, 1.39379, 1.3974, 1.40655, 0.00344371, 1.42259, 0.00323846, 1.43201, 1.43146, 1.43813, 1.43977, 1.43974, 1.44008, 1.4494, 1.45088, 1.45311, 1.45188, 1.45181, 1.45202, 1.46106, 1.46567, 1.46605, 0.00309217, 1.45963, 0.00359912, 0.00344949, 0.00317299
0.0928321, 0.0995094, 0.0973314, 0.106081, 0.103658, 0.10309, 0.00315687, 0.00325376, 0.00317379, 0.161085, 0.161872, 0.162709, 0.164486, 0.163081, 0.162067, 0.160178, 0.00321025, 0.00335785, 0.00321951, 0.194903, 0.193852, 0.00317127, 0.00310798, 0.00343041, 0.00325533, 0.00330571, 0.00317255, 0.00343964, 0.00322248, 0.00330342, 0.00345565, 0.00334754, 0.276643, 0.277243, 0.275364, 0.275839, 0.00313686, 0.00335262, 0.0033084, 0.00337456, 0.0030584, 0.00388287, 0.00308039, 0.00335178, 0.00310436, 0.00304552, 0.00318265, 0.00342956, 0.00330319, 0.00341593, 0.00318424, 0.00336258, 0.00304046, 0.00363969, 0.00318146, 0.415368, 0.413894, 0.00352462, 0.00308457, 0.0035665, 0.0031243, 0.00360802, 0.00310269, 0.00346626, 0.00326117, 0.00332144, 0.00357164, 0.0036193, 0.00322976, 0.00327527, 0.00316191, 0.00340923, 0.46209, 0.461884, 0.461618, 0.00349072, 0.00326786, 0.00347012, 0.00335165, 0.497034, 0.494669, 0.500206, 0.497848, 0.515169, 0.51456, 0.510681, 0.510426, 0.522251, 0.521419, 0.519535, 0.528604, 0.530483, 0.529469, 0.545461, 0.554067, 0.553814, 0.556972, 0.556542, 0.00310513, 0.571726, 0.571274, 0.00338948, 0.00327681, 0.00345541, 0.603815, 0.604071, 0.594992, 0.595122, 0.00322389, 0.00344107, 0.604955, 0.00347911, 0.00322947, 0.621405, 0.624926, 0.00348933, 0.637204, 0.644506, 0.645744, 0.645747, 0.646301, 0.653206, 0.00324399, 0.672353, 0.671919, 0.675577, 0.678156, 0.680954, 0.683442, 0.686934, 0.687579, 0.693845, 0.695059, 0.698742, 0.700782, 0.69821, 0.701881, 0.705155, 0.70722, 0.70768, 0.706807, 0.714865, 0.715349, 0.721726, 0.713615, 0.714243, 0.723448, 0.724228, 0.724939, 0.724572, 0.72345, 0.0035072, 0.00314907, 0.00319766, 0.0034092, 0.00325304, 0.00349803, 0.00359576, 0.00318743, 0.782223, 0.782928, 0.790367, 0.79113, 0.812571, 0.813263, 0.81439, 0.81754, 0.819378, 0.819778, 1.16297, 0.0031795, 0.848853, 0.85114, 0.852683, 0.00324316, 0.864806, 0.00326246, 0.876371, 0.877109, 0.877886, 0.882138, 0.891938, 0.00302718, 0.00363385, 0.00327316, 0.00331867, 0.00329596, 0.00355966, 0.00310535, 0.00334937, 0.933025, 0.939897, 0.942793, 0.9493, 0.949137, 0.949921, 0.949592, 0.00335031, 0.00304673, 0.97258, 0.973418, 0.00368662, 0.00319332, 1.00291, 0.00333193, 0.00334168, 1.01825, 1.02608, 1.02841, 1.03582, 1.04061, 0.00352794, 0.00320992, 0.00317731, 1.07524, 1.08831, 1.09078, 1.09523, 0.00326572, 1.11588, 1.11955, 0.00353098, 0.00333921, 0.00347083, 1.14696, 0.00347643, 1.15531, 0.00349655, 1.16663, 0.00340002, 1.17888, 1.18271, 1.18506, 0.00355614, 1.19973, 0.00317452, 1.21741, 1.21927, 1.22075, 0.00398771, 1.24468, 1.2435, 1.24947, 1.25213, 1.25688, 0.00344652, 1.24714, 1.24968, 1.24867, 1.25882, 1.25956, 1.26609, 1.2757, 1.2824, 1.28276, 1.28782, 1.28921, 1.2985, 1.30206, 1.30832, 1.3103, 1.3179, 1.32634, 1.32782, 1.34316, 1.34326, 1.34483, 1.35541, 1.36434, 1.37067, 1.37752, 1.38151, 1.38703, 1.38783, 1.39452, 1.39465, 0.00326444, 1.40996, 0.00325537, 0.00338622, 0.00358491, 0.00331835, 0.00328337, 1.42999, 1.43104, 1.43297, 1.44058, 1.44086, 1.44411, 1.44704, 1.44327, 1.44367, 1.46343, 1.46247, 1.45893, 1.45613, 1.45818, 0.00340964, 1.47148, 1.4769
0.0873635, 0.103041, 0.103861, 0.10587, 0.105493, 0.106312, 0.110191, 0.00336773, 0.00330027, 0.133852, 0.132891, 0.132063, 0.162748, 0.164233, 0.163374, 0.162321, 0.00360211, 0.0032501, 0.172934, 0.00321277, 0.0035029, 0.00319407, 0.00329637, 0.00329421, 0.207008, 0.20613, 0.00361965, 0.00324394, 0.00342382, 0.00322413, 0.00316689, 0.00323179, 0.00361411, 0.273181, 0.273712, 0.272099, 0.00318969, 0.00308496, 0.00342668, 0.00364224, 0.00322983, 0.00325847, 0.00321184, 0.00350403, 0.00326705, 0.00315991, 0.00320494, 0.00309998, 0.00333378, 0.00330078, 0.00356618, 0.00319453, 0.0034728, 0.00325127, 0.00345511, 0.00326183, 0.00315615, 0.00338664, 0.00360611, 0.00308901, 0.00318837, 0.00346715, 0.00329753, 0.00334376, 0.003355, 0.00316195, 0.00348078, 0.00322451, 0.00328461, 0.00316276, 0.00314097, 0.00327139, 0.46241, 0.462937, 0.462469, 0.462313, 0.465776, 0.469064, 0.0035098, 0.494646, 0.495466, 0.496435, 0.49692, 0.00308423, 0.505575, 0.510408, 0.5101, 0.512392, 0.513916, 0.521426, 0.520784, 0.529714, 0.531803, 0.531819, 0.541959, 0.546754, 0.00313882, 0.552659, 0.550611, 0.554979, 0.560853, 0.00318435, 0.00330664, 0.00317489, 0.590237, 0.589903, 0.590433, 0.593479, 0.593738, 0.594075, 0.00367714, 0.00328986, 0.614867, 0.615936, 0.00313807, 0.63444, 0.638492, 0.63743, 0.00326019, 0.00315988, 0.00369365, 0.655191, 0.991846, 0.00324169, 0.673527, 0.674695, 0.678184, 0.679509, 0.683171, 0.679454, 0.682506, 0.68658, 0.689371, 0.688965, 0.689298, 0.694336, 0.00306476, 0.701614, 0.701511, 0.706135, 0.706138, 0.708849, 0.708121, 0.709753, 0.710751, 0.71543, 0.714033, 0.712839, 0.715534, 0.00333545, 0.725533, 0.726676, 0.726076, 0.0033204, 0.00318469, 0.00303909, 0.758581, 0.760247, 0.773237, 0.773403, 0.773438, 0.0036322, 0.00328269, 0.803147, 0.00347507, 0.815142, 0.819442, 0.822162, 0.823824, 0.824909, 0.00365564, 0.00322737, 0.850642, 0.85122, 0.859695, 0.860545, 0.86108, 0.872181, 0.873414, 0.875247, 0.881892, 0.00308651, 0.00348989, 0.00328636, 0.00313632, 0.00338188, 0.921701, 0.911001, 0.00339286, 0.918449, 0.00346507, 0.00301475, 0.936061, 0.0030587, 0.937376, 0.00325049, 0.00317251, 0.00330048, 0.00337244, 0.96691, 0.00311981, 0.975066, 0.977176, 0.990379, 0.994235, 0.994839, 1.01164, 1.013, 1.02438, 1.02592, 1.03633, 1.03771, 0.00326353, 0.00326189, 1.06969, 1.07811, 1.08348, 0.00325966, 0.00346077, 0.00306469, 1.11948, 1.12204, 1.12939, 0.00306662, 0.00329015, 0.00315191, 1.14819, 1.1526, 1.16052, 0.0033283, 1.17645, 1.17853, 1.18695, 1.18886, 1.19491, 1.20051, 0.00325465, 1.21499, 1.22904, 1.22904, 1.23697, 1.23875, 1.24185, 0.00313387, 1.24355, 1.24127, 1.24054, 1.2414, 1.24844, 1.25005, 1.25553, 1.26233, 1.26759, 0.003178, 1.27892, 1.28739, 1.28842, 1.29632, 1.29921, 1.30024, 1.3056, 0.00318184, 1.32034, 1.3202, 0.00308711, 0.00321233, 0.00338986, 1.35742, 1.36521, 1.36948, 1.37237, 1.37844, 1.38499, 1.38446, 1.39135, 1.39607, 0.00344097, 1.40469, 1.40477, 0.00330652, 1.41257, 0.00349087, 0.00329683, 1.42005, 1.43011, 1.42954, 1.43026, 1.44272, 1.44231, 1.44346, 1.4484, 1.44837, 1.46493, 1.46748, 1.46374, 1.46272, 1.46419, 1.46562, 1.46868, 1.47611
0.0864035, 0.0956314, 0.097071, 0.0960679, 0.106435, 0.103814, 0.117482, 0.117246, 0.00304345, 0.135729, 0.134428, 0.133178, 0.134047, 0.148073, 0.14816, 0.156513, 0.158789, 0.177221, 0.177474, 0.17539, 0.174141, 0.00363429, 0.00316243, 0.0032041, 0.00342392, 0.202174, 0.200536, 0.00351451, 0.214197, 0.00330435, 0.0035393, 0.00352721, 0.00308674, 0.259778, 0.259098, 0.00329773, 0.00330911, 0.0032489, 0.00322937, 0.00325997, 0.00323297, 0.00346619, 0.00323462, 0.00319354, 0.00331408, 0.0032173, 0.00315984, 0.00327633, 0.00332847, 0.00315708, 0.00338453, 0.37656, 0.377162, 0.375261, 0.375075, 0.380324, 0.00342478, 0.389, 0.00322788, 0.00330038, 0.00309186, 0.00337842, 0.00341059, 0.00336216, 0.00337871, 0.00336833, 0.00336355, 0.00336273, 0.00324075, 0.0035039, 0.431109, 0.00366001, 0.00333151, 0.00332157, 0.00330439, 0.00312865, 0.00320448, 0.00333568, 0.0032594, 0.00335924, 0.00314739, 0.00349721, 0.00327466, 0.49184, 0.492602, 0.503997, 0.503125, 0.00333455, 0.510203, 0.524611, 0.524645, 0.532638, 0.534034, 0.532304, 0.529944, 0.541203, 0.541667, 0.541709, 0.54862, 0.00338461, 0.00339687, 0.566153, 0.565941, 0.00330359, 0.584674, 0.584453, 0.585643, 0.592723, 0.593772, 0.597152, 0.00348854, 0.00333972, 0.617059, 0.61915, 0.618878, 0.634142, 0.635269, 0.635534, 0.639262, 0.00318155, 0.657993, 0.658532, 0.657544, 0.662185, 0.665668, 0.667007, 0.676026, 0.682954, 0.680332, 0.680073, 0.681082, 0.68507, 0.684716, 0.684492, 0.686988, 0.687676, 0.691964, 0.69414, 0.701053, 0.699118, 0.706768, 0.707401, 0.705974, 0.70592, 0.709962, 0.708611, 0.706565, 0.706843, 0.705527, 0.706325, 0.00325155, 0.00343694, 0.00333437, 0.00353784, 0.00344489, 0.756207, 0.757053, 0.766157, 0.768443, 0.772199, 0.00318134, 0.00338569, 0.00302879, 0.801339, 0.0035443, 0.808329, 0.809286, 0.80975, 0.00317274, 0.00334045, 0.832101, 0.836989, 0.838485, 0.850087, 0.00333897, 0.855652, 0.85621, 0.00320004, 0.873819, 0.877757, 0.003084, 0.00336397, 0.00355812, 0.895027, 0.0031064, 0.0032906, 0.909847, 0.909112, 0.913186, 0.913606, 0.919844, 0.921367, 0.00314878, 0.00322853, 0.00319434, 0.00326237, 0.00330846, 0.00344137, 0.00341088, 0.95301, 0.959227, 0.960098, 0.0033859, 0.980362, 0.990703, 0.00333515, 1.00375, 1.00514, 0.00327851, 1.02079, 0.00345603, 1.03957, 0.00325978, 1.05835, 0.00327628, 1.07463, 0.00322691, 0.00339715, 0.00325094, 0.00329077, 1.10896, 1.11064, 1.11866, 1.12008, 1.13024, 1.13309, 1.13886, 1.14624, 0.00310646, 1.15856, 1.1664, 1.17699, 1.18128, 1.18766, 1.18785, 1.19159, 0.00327922, 0.00323036, 0.00329854, 1.22199, 0.00332699, 0.00356752, 0.00317391, 1.23638, 1.23626, 1.23752, 1.23724, 1.23614, 0.00309172, 1.25317, 1.25942, 1.26005, 1.26266, 1.27125, 1.2724, 1.27615, 1.28415, 1.28453, 1.28847, 0.00337117, 1.3015, 1.30609, 1.30887, 1.32214, 1.32494, 0.00327528, 0.00336053, 1.35612, 1.36011, 1.36784, 1.36784, 1.37411, 0.00320819, 1.37965, 1.38694, 1.39381, 1.39306, 0.0034032, 1.39646, 0.00343518, 0.00311666, 1.40311, 1.40293, 1.41103, 1.41454, 1.42344, 1.43435, 1.43359, 1.43798, 1.43721, 1.44969, 1.45001, 1.46196, 1.46014, 1.45947, 1.46392, 1.46344, 1.46169, 1.46936, 1.47463
0.0880248, 0.0874402, 0.085769, 0.102422, 0.102473, 0.00321603, 0.121398, 0.120808, 0.121124, 0.120474, 0.120377, 0.132337, 0.00318444, 0.00334494, 0.161626, 0.161686, 0.160339, 0.161721, 0.176316, 0.177317, 0.175666, 0.003446, 0.0033457, 0.00327147, 0.203961, 0.204079, 0.202848, 0.217174, 0.216588, 0.217189, 0.21582, 0.00318111, 0.246628, 0.250963, 0.252129, 0.00349679, 0.00325795, 0.00337452, 0.00336854, 0.00313935, 0.00336061, 0.00333941, 0.00331162, 0.00302046, 0.00313682, 0.0032108, 0.00307897, 0.00311981, 0.0036016, 0.00332196, 0.00331837, 0.0032058, 0.376936, 0.377189, 0.376159, 0.00333547, 0.00334453, 0.0032305, 0.00342687, 0.00319835, 0.00332261, 0.00336184, 0.00351706, 0.00333278, 0.00331365, 0.00313878, 0.00358972, 0.00319169, 0.00333137, 0.421106, 0.00360285, 0.0033112, 0.0034197, 0.435002, 0.435194, 0.00332867, 0.00316829, 0.00333926, 0.00318755, 0.00303033, 0.468929, 0.00318203, 0.486097, 0.48453, 0.496013, 0.495174, 0.495966, 0.00307988, 0.00291005, 0.513271, 0.514429, 0.515627, 0.524604, 0.523041, 0.00342775, 0.537106, 0.538974, 0.540412, 0.539581, 0.539018, 0.00316388, 0.00318135, 0.571121, 0.569958, 0.585022, 0.584556, 0.58531, 0.585378, 0.589871, 0.592012, 0.597271, 0.607644, 0.607671, 0.615433, 0.00333491, 0.628466, 0.630068, 0.00327067, 0.00320159, 0.644173, 0.656198, 0.00309629, 0.654093, 0.662843, 0.66419, 0.667328, 0.672646, 0.6741, 0.679579, 0.67471, 0.678481, 0.680304, 0.681096, 0.684682, 0.686234, 0.687409, 0.686676, 0.695215, 0.694518, 0.698305, 0.708041, 0.705166, 0.704129, 0.703485, 0.702979, 0.703012, 0.701302, 0.701506, 0.702259, 0.707229, 0.714657, 0.721477, 0.721487, 0.00314128, 0.00336315, 0.753604, 0.755536, 0.764247, 0.764848, 0.7716, 0.773978, 0.779281, 0.00348852, 0.00323398, 0.800318, 0.800773, 0.805641, 0.815218, 0.818596, 0.824846, 0.823917, 0.833376, 0.834556, 0.837388, 0.838551, 0.00309513, 0.00312772, 0.86345, 0.00322939, 0.00311866, 0.87523, 0.875987, 0.00360412, 0.00325554, 0.00333737, 0.0031812, 0.00355452, 0.0032154, 0.00321789, 0.908017, 0.00370192, 0.0032928, 0.915371, 0.91777, 0.00364933, 0.00324322, 0.00356338, 0.00320269, 0.00328229, 0.942476, 0.95519, 0.00329849, 0.00324426, 0.0032344, 0.981418, 0.983505, 0.991853, 1.00094, 0.00342039, 0.00333631, 1.02932, 1.03582, 1.04638, 0.00343869, 1.06049, 0.00331973, 1.07713, 1.08393, 1.09077, 1.09539, 1.09869, 0.0031483, 1.10954, 0.00334621, 0.00321969, 1.12826, 1.13091, 0.003308, 1.14817, 0.00320825, 0.0034561, 1.17016, 1.18199, 1.18234, 1.18638, 1.18738, 0.00326371, 1.20927, 1.2123, 1.2136, 0.00335056, 0.00303626, 0.00338849, 1.22522, 1.22529, 1.22652, 0.00330101, 1.23451, 0.00333585, 1.26023, 1.25803, 1.25736, 1.26016, 1.25932, 1.26075, 1.27199, 1.27865, 1.28394, 1.28372, 1.2896, 1.29469, 1.3002, 1.31489, 1.31439, 0.00340203, 0.00324335, 0.00336127, 0.00340871, 1.35744, 1.35895, 1.36315, 1.36321, 1.36446, 0.003267, 1.38029, 0.00332298, 1.38502, 1.38498, 1.39204, 1.39031, 1.39025, 0.00311253, 1.40648, 1.40632, 1.4151, 1.4162, 1.42265, 1.42193, 0.00347242, 0.00308839, 0.00363469, 0.00329794, 1.45805, 0.00313819, 1.4507, 1.45119, 1.45665, 1.46145, 1.46376, 1.47048
0.0881731, 0.0872478, 0.09381, 0.0928409, 0.00327165, 0.00326402, 0.00305296, 0.00326508, 0.00291609, 0.108757, 0.113947, 0.00336562, 0.00324215, 0.003251, 0.00329194, 0.00335184, 0.00309441, 0.163398, 0.00330194, 0.0034302, 0.00335919, 0.00335334, 0.0031435, 0.00348507, 0.183112, 0.00344152, 0.00326758, 0.0031413, 0.00316878, 0.00330765, 0.00329359, 0.00341833, 0.00335517, 0.254543, 0.252356, 0.00324902, 0.00324025, 0.00333954, 0.00322239, 0.0032297, 0.320784, 0.321732, 0.00321788, 0.30818, 0.311308, 0.311868, 0.00331972, 0.00316923, 0.00313657, 0.00352978, 0.00313949, 0.00327589, 0.00305558, 0.00319183, 0.00327969, 0.00341417, 0.00311918, 0.00311424, 0.00308104, 0.00335171, 0.00350867, 0.00332742, 0.00313854, 0.00328817, 0.00332314, 0.00371373, 0.0033338, 0.00328389, 0.00304506, 0.00327785, 0.00326783, 0.00327522, 0.00318106, 0.432369, 0.436386, 0.435377, 0.00329403, 0.0033355, 0.00322176, 0.00334009, 0.0030143, 0.00351652, 0.00315384, 0.00328408, 0.00328346, 0.495222, 0.494512, 0.493631, 0.493178, 0.513893, 0.514711, 0.511892, 0.512836, 0.511628, 0.524634, 0.524496, 0.532453, 0.535723, 0.536286, 0.537702, 0.555948, 0.557148, 0.555704, 0.00334066, 0.581686, 0.582176, 0.581816, 0.581856, 0.586258, 0.00336685, 0.00311917, 0.60845, 0.608352, 0.608136, 0.607822, 0.631009, 0.631465, 0.631831, 0.00340932, 0.63948, 0.638296, 0.645185, 0.65512, 0.656472, 0.655514, 0.65492, 0.0029761, 0.669793, 0.00329352, 0.674789, 0.679524, 0.678194, 0.677254, 0.679656, 0.680523, 0.681963, 0.686058, 0.686382, 0.693136, 0.00343666, 0.00299977, 0.697319, 0.696708, 0.697437, 0.698589, 0.700523, 0.701464, 0.703886, 0.703784, 0.705263, 0.70945, 0.713838, 0.715263, 0.0030802, 0.00336779, 0.00336606, 0.758856, 0.759042, 0.764095, 0.767064, 0.772913, 0.780116, 0.783256, 0.783594, 0.801469, 0.800928, 0.80088, 0.801633, 0.814493, 0.815031, 0.81724, 0.818152, 0.00312506, 0.836656, 0.837232, 0.00315013, 0.00307967, 0.856237, 0.867203, 0.873698, 0.00342261, 0.00348227, 0.00296478, 0.00352066, 0.00317635, 0.874806, 0.00330384, 0.887991, 0.00319926, 0.00328866, 0.895351, 0.896406, 0.906054, 0.00332695, 0.0031762, 0.0037229, 0.00332321, 0.00328607, 0.933242, 0.933278, 0.943618, 0.947136, 0.00344408, 0.969829, 0.970501, 0.0031604, 0.991386, 0.992929, 0.00337113, 0.00315143, 1.02301, 1.02592, 0.00317499, 0.00349456, 1.06076, 1.07049, 0.00342143, 1.08313, 1.08484, 1.09068, 1.09721, 0.00359672, 1.09913, 0.00323055, 0.00334282, 0.00338251, 1.12864, 0.00333505, 1.1432, 0.00317125, 0.0031424, 1.16773, 1.17129, 1.17108, 1.17528, 1.18192, 1.18918, 0.00341734, 1.20249, 1.20274, 0.00331459, 0.00320242, 1.21372, 1.21423, 1.2202, 1.22132, 1.22309, 1.23573, 1.23894, 0.00367389, 1.25415, 1.25312, 1.25336, 1.25684, 1.2589, 1.26868, 1.27195, 1.27415, 1.27928, 1.27973, 0.00313082, 1.2923, 0.00317739, 1.31778, 0.00319038, 1.32946, 1.3396, 1.34454, 1.35069, 1.35596, 1.35544, 1.35818, 1.36337, 0.00336006, 1.37815, 0.00317985, 1.37443, 1.37325, 0.00336217, 1.38494, 1.38506, 1.39698, 1.39876, 1.40446, 1.41293, 1.41237, 1.41637, 1.42111, 1.4271, 1.44013, 1.43867, 1.43797, 0.00326174, 1.44011, 1.44485, 1.44633, 1.45067, 1.4508, 1.4581, 1.46088
0.0599264, 0.00346644, 0.0669998, 0.00319117, 0.00329305, 0.00324507, 0.00325053, 0.00316823, 0.0972668, 0.110075, 0.00314845, 0.0031424, 0.00306459, 0.00346812, 0.00332199, 0.00340715, 0.00344855, 0.163097, 0.161225, 0.00310211, 0.16643, 0.164785, 0.171421, 0.174298, 0.174396, 0.00320971, 0.00343959, 0.00328601, 0.00320937, 0.218193, 0.00315909, 0.00305445, 0.00327659, 0.00317595, 0.00351567, 0.00339424, 0.00326515, 0.00343351, 0.320126, 0.320663, 0.32075, 0.319424, 0.304743, 0.304693, 0.308072, 0.30768, 0.318494, 0.317482, 0.324871, 0.333751, 0.3331, 0.00305539, 0.341639, 0.00330733, 0.00337245, 0.00312993, 0.00326491, 0.00349486, 0.00327808, 0.00329093, 0.00341695, 0.00341238, 0.00317477, 0.00308683, 0.00342985, 0.00324019, 0.396412, 0.396503, 0.401608, 0.400527, 0.405035, 0.00318437, 0.420594, 0.425472, 0.421728, 0.425961, 0.435755, 0.433556, 0.441401, 0.00322216, 0.00329449, 0.00318212, 0.00334732, 0.00337856, 0.479021, 0.478512, 0.4869, 0.487368, 0.496337, 0.496456, 0.496391, 0.503926, 0.501429, 0.00329059, 0.00320602, 0.00301092, 0.529536, 0.534533, 0.533622, 0.00345655, 0.546445, 0.00329469, 0.00325969, 0.00327356, 0.577151, 0.575133, 0.576996, 0.579115, 0.579956, 0.587074, 0.595624, 0.595213, 0.598763, 0.00323295, 0.00351854, 0.624264, 0.623511, 0.623685, 0.632934, 0.639459, 0.640425, 0.644248, 0.647855, 0.647922, 0.647504, 0.652878, 0.658383, 0.653967, 0.652179, 0.654073, 0.655611, 0.656565, 0.674291, 0.678363, 0.679739, 0.673233, 0.675178, 0.00321694, 0.00334373, 0.00348816, 0.685229, 0.686549, 0.688128, 0.692046, 0.690859, 0.693112, 0.694704, 0.696567, 0.698316, 0.698908, 0.706769, 0.708517, 0.00351019, 0.00320753, 0.00335253, 0.747707, 0.00344156, 0.75937, 0.757796, 0.00324833, 0.769824, 0.773113, 0.78134, 0.0033594, 0.00318183, 0.800293, 0.797639, 0.797629, 0.00331693, 0.00329833, 0.815691, 0.817878, 0.822626, 0.00353913, 0.00329624, 0.00323186, 0.00338346, 0.853704, 0.854446, 0.857045, 0.846203, 0.847444, 0.00350101, 0.00314594, 0.862553, 0.866053, 0.00345605, 0.87659, 0.882025, 0.882268, 0.00329405, 0.0033714, 0.00339216, 0.00334177, 0.00336248, 0.00332721, 0.00335121, 0.924585, 0.925917, 0.94204, 0.945674, 0.947568, 0.959304, 0.963075, 0.0033101, 0.971443, 0.00319445, 0.994958, 0.999029, 1.0056, 0.00326293, 0.00336288, 0.00328292, 1.04572, 1.04592, 1.05687, 0.00304076, 1.07544, 1.0777, 0.00350297, 1.08847, 1.08944, 1.08932, 1.09183, 0.00334765, 0.00331542, 0.00328062, 1.13125, 1.13299, 0.00316987, 0.00321152, 1.15928, 1.16033, 1.16634, 1.17029, 1.18015, 0.00328558, 1.19477, 1.19542, 1.19531, 1.19824, 1.19898, 1.19906, 1.19909, 1.21499, 1.21539, 1.21691, 0.00313827, 0.00333322, 0.00324101, 0.00329918, 0.00317224, 0.0031951, 0.00315089, 1.25769, 1.26032, 1.26277, 1.27169, 1.27095, 1.27693, 1.28586, 1.28569, 0.00329246, 0.00316374, 1.31958, 1.32251, 0.00337784, 0.00313031, 1.34333, 1.34231, 1.34715, 1.34828, 0.00317286, 1.3681, 1.367, 1.36535, 1.36398, 1.36954, 1.37639, 1.36562, 1.39103, 1.39056, 1.39215, 1.3946, 1.39476, 0.00307328, 1.40854, 0.00327359, 0.00322261, 1.4327, 1.43641, 1.4364, 1.43333, 1.4347, 1.4431, 1.44285, 1.44493, 1.4451, 1.4466, 1.45074
0.0541634, 0.052244, 0.0684312, 0.00315157, 0.0691088, 0.0679162, 0.0666724, 0.00358337, 0.0031117, 0.00342513, 0.00320714, 0.00324288, 0.00317672, 0.00351109, 0.003278, 0.00349965, 0.00313274, 0.00354279, 0.00332198, 0.00351483, 0.0032159, 0.165611, 0.173776, 0.170547, 0.00329483, 0.0033806, 0.00310335, 0.00352204, 0.0031757, 0.00335618, 0.00336524, 0.0034818, 0.231257, 0.00386351, 0.00319068, 0.00315829, 0.00318228, 0.00362447, 0.00312285, 0.318038, 0.317805, 0.317061, 0.313765, 0.308204, 0.306899, 0.307815, 0.318126, 0.319327, 0.328761, 0.337092, 0.33726, 0.336578, 0.337992, 0.341187, 0.342846, 0.00321083, 0.00334495, 0.00320468, 0.00309991, 0.00335298, 0.0031241, 0.00348939, 0.00332256, 0.00350085, 0.00326792, 0.0035205, 0.00333513, 0.39672, 0.396273, 0.394436, 0.400613, 0.399151, 0.421996, 0.422918, 0.421675, 0.427863, 0.429123, 0.432722, 0.442383, 0.444884, 0.44443, 0.00339071, 0.00327053, 0.00364384, 0.469918, 0.0034311, 0.00301828, 0.48812, 0.493414, 0.492787, 0.496591, 0.496322, 0.00314099, 0.511121, 0.508679, 0.516542, 0.00306478, 0.0032162, 0.00309437, 0.00344666, 0.00329807, 0.00354758, 0.00316069, 0.00322251, 0.00311756, 0.574961, 0.574722, 0.579713, 0.580546, 0.579198, 0.00299718, 0.587884, 0.00332366, 0.896542, 0.893892, 0.00321505, 0.00320571, 0.621726, 0.0031518, 0.639408, 0.640531, 0.64004, 0.641292, 0.00310896, 0.00309163, 0.646585, 0.646403, 0.647556, 0.64934, 0.655356, 0.655649, 0.656858, 0.666489, 0.667845, 0.667684, 0.673346, 0.670948, 0.672727, 0.674028, 0.675695, 0.675127, 0.675882, 0.682332, 0.688378, 0.690026, 0.688724, 0.00334707, 0.695573, 0.695808, 0.695826, 0.702467, 0.703092, 0.00324866, 0.00316366, 0.733121, 0.743239, 0.745526, 0.745529, 0.00308915, 0.764843, 0.764431, 0.77039, 0.773582, 0.774229, 0.783647, 0.783787, 0.787271, 0.786374, 0.787021, 0.00351213, 0.00335763, 0.00354199, 0.0031769, 0.00353544, 0.00320956, 0.00316132, 0.00333338, 0.838515, 0.84192, 0.00335329, 0.0033696, 0.850131, 0.849271, 0.849505, 0.859926, 0.86361, 0.863723, 0.86659, 0.874109, 0.872899, 0.873488, 0.00362308, 0.00312123, 0.881155, 0.00334121, 0.00328277, 0.906115, 0.00354388, 0.920711, 0.00368532, 0.937703, 0.00332631, 0.952614, 0.958851, 0.960415, 0.963573, 0.00324709, 0.00352211, 0.00323624, 0.00346243, 0.00303447, 1.03159, 1.03505, 1.04597, 1.0495, 1.04985, 1.05171, 0.00355934, 1.07072, 0.00303174, 1.08129, 1.08247, 1.08711, 1.08721, 1.08956, 1.09389, 0.00334306, 0.00353338, 0.00302415, 0.00352837, 1.14108, 0.0037464, 0.00313191, 1.15902, 0.00329312, 0.00343871, 0.00330382, 0.0034171, 0.00330434, 1.18762, 1.19316, 1.19304, 1.19373, 1.19568, 0.00324004, 0.0033053, 1.2068, 1.21113, 1.21337, 0.0034741, 0.00336515, 0.00338166, 1.2406, 1.2437, 1.25038, 1.25422, 1.25443, 1.25495, 0.00347426, 1.27718, 1.27613, 1.28772, 1.29207, 0.00365807, 1.42586, 0.00358769, 0.0033621, 1.33101, 1.33193, 1.34078, 1.34005, 1.34732, 1.36735, 1.36411, 1.36201, 1.3616, 1.36446, 1.36405, 1.37293, 0.00338329, 0.00323924, 1.38759, 1.38908, 1.39287, 0.00307419, 0.00316697, 1.40631, 0.00315297, 0.00333931, 1.42255, 1.4257, 1.42532, 1.42583, 1.4327, 1.4328, 1.43332, 1.44011, 1.44417, 1.44122, 1.44678
0.0561064, 0.0499366, 0.0515369, 0.0031825, 0.065704, 0.0635105, 0.0667479, 0.0658254, 0.0034667, 0.00331419, 0.00362107, 0.00314366, 0.00360836, 0.00319219, 0.00330186, 0.00313419, 0.00327951, 0.00312231, 0.130383, 0.00296363, 0.00333254, 0.00308993, 0.161621, 0.161031, 0.00321654, 0.00382843, 0.00343322, 0.00316051, 0.00339084, 0.00341366, 0.00334481, 0.00329383, 0.00304706, 0.0033417, 0.00330113, 0.00300471, 0.00322098, 0.00324214, 0.00328682, 0.00342621, 0.00332134, 0.00323703, 0.00361216, 0.0031233, 0.00366555, 0.31666, 0.323389, 0.324316, 0.322798, 0.331603, 0.342184, 0.340203, 0.343319, 0.342224, 0.341841, 0.00315344, 0.00348952, 0.00307032, 0.00334215, 0.00333148, 0.00333974, 0.00330303, 0.00348849, 0.00305356, 0.00356822, 0.00323803, 0.384375, 0.384037, 0.394696, 0.393266, 0.00340857, 0.415343, 0.414133, 0.413745, 0.414528, 0.42746, 0.428124, 0.427401, 0.427518, 0.00310024, 0.0032664, 0.00330411, 0.00335093, 0.00330897, 0.00338742, 0.00352841, 0.490878, 0.492128, 0.49217, 0.496952, 0.496123, 0.503902, 0.502838, 0.50846, 0.508125, 0.00332211, 0.00342619, 0.00339045, 0.00340246, 0.00313075, 0.00344545, 0.00332647, 0.00364593, 0.00326566, 0.00326796, 0.568193, 0.56706, 0.573813, 0.57517, 0.574455, 0.573566, 0.00317623, 0.00344892, 0.888111, 0.60272, 0.605219, 0.00337662, 0.00315249, 0.00351568, 0.00314452, 0.00338881, 0.00329873, 0.00341818, 0.00317245, 0.00343437, 0.00312542, 0.0035157, 0.646996, 0.651466, 0.652866, 0.655608, 0.651466, 0.662853, 0.663075, 0.659321, 0.659855, 0.673795, 0.675556, 0.675631, 0.677114, 0.674462, 0.675982, 0.679823, 0.00333622, 0.681058, 0.678915, 0.677882, 0.677467, 0.684997, 0.692295, 0.693396, 0.00316937, 0.00351599, 0.00308054, 0.729238, 0.730033, 0.731424, 0.00326486, 0.00331504, 0.00329446, 0.00335679, 0.00315073, 0.764438, 0.764496, 0.00341408, 0.00319278, 0.786886, 0.787277, 0.789967, 0.00325886, 0.00341852, 0.00323145, 0.00329282, 0.00319443, 0.00329985, 0.00316559, 0.00336612, 0.0031684, 0.82744, 0.829704, 0.830342, 0.831549, 0.00341706, 0.00316488, 0.00355258, 0.0032068, 0.857018, 0.862659, 0.862701, 0.867074, 0.872208, 0.874178, 0.00327835, 0.00332273, 0.888597, 0.892679, 0.00342903, 0.00321919, 0.00341355, 0.924532, 0.926665, 0.931692, 0.947157, 0.952548, 0.956781, 0.967132, 0.00337471, 0.00327923, 0.00330148, 0.00302306, 0.00333292, 0.00326052, 1.03148, 1.03625, 1.03845, 1.04015, 0.00338822, 1.05728, 1.05837, 1.06948, 1.07221, 1.07245, 1.08167, 0.00321525, 1.09408, 1.09454, 0.00341413, 0.00337397, 0.0033576, 0.00334897, 0.00356738, 1.58453, 1.44138, 0.00336356, 0.00335215, 0.0033437, 1.22531, 0.00316456, 0.00359526, 1.18162, 1.18214, 1.18477, 1.18551, 0.00329617, 1.19512, 1.19688, 1.19789, 1.20268, 0.00330622, 1.49553, 0.00326654, 1.22997, 1.23445, 1.23843, 1.23828, 1.24717, 1.25302, 1.25319, 1.26363, 0.00320427, 0.00349117, 0.00297695, 1.28917, 1.29236, 1.3027, 0.00328637, 0.00353858, 0.00310834, 1.32268, 0.00334559, 0.00311095, 0.00328935, 0.00342792, 1.35809, 1.36041, 1.35971, 1.35547, 1.35543, 0.00347465, 0.00339626, 1.38675, 1.38511, 1.3884, 1.38795, 1.39229, 1.39605, 0.00359249, 0.00318208, 1.41096, 1.41127, 1.41575, 1.41593, 0.00339599, 0.0033243, 0.00325581, 1.43157, 1.43148, 1.43462, 1.43879, 0.00322332
0.0537974, 0.00337397, 0.0511114, 0.051266, 0.065358, 0.0640888, 0.0670075, 0.0660388, 0.00312028, 0.068412, 0.00322578, 0.00347722, 0.0032015, 0.00335849, 0.00333891, 0.00331429, 0.00321896, 0.00339523, 0.131758, 0.131083, 0.00346148, 0.00338011, 0.161811, 0.0033, 0.00294569, 0.00361513, 0.00327257, 0.00314061, 0.00325953, 0.00343725, 0.00310242, 0.00335509, 0.0030906, 0.00329048, 0.00330537, 0.00330173, 0.00323005, 0.00332517, 0.00301393, 0.00323774, 0.00318733, 0.00338857, 0.00330717, 0.00329419, 0.0032407, 0.00342368, 0.00327666, 0.00329269, 0.00327237, 0.00362894, 0.00321881, 0.342912, 0.34244, 0.341939, 0.0032713, 0.00326504, 0.00318909, 0.00342419, 0.00330844, 0.00321987, 0.00337739, 0.00320679, 0.0033277, 0.00337868, 0.00322455, 0.368345, 0.374463, 0.379782, 0.387025, 0.385074, 0.397622, 0.397789, 0.404697, 0.402546, 0.00324034, 0.4268, 0.425678, 0.426896, 0.426672, 0.425977, 0.00294535, 0.00346189, 0.0032814, 0.452984, 0.00328903, 0.00332334, 0.00315673, 0.00328273, 0.00348313, 0.00351028, 0.00342595, 0.496921, 0.500477, 0.500379, 0.00301399, 0.508235, 0.510376, 0.510624, 0.510248, 0.00305747, 0.00326823, 0.00335517, 0.00327984, 0.00325287, 0.00333707, 0.0033009, 0.0034497, 0.562659, 0.574012, 0.566154, 0.566303, 0.00330583, 0.00329863, 0.00356644, 0.00328896, 0.00344635, 0.61105, 0.619468, 0.619475, 0.61487, 0.612051, 0.620198, 0.619026, 0.620602, 0.620416, 0.621198, 0.00319645, 0.00329181, 0.00326429, 0.652755, 0.651935, 0.653857, 0.652294, 0.661925, 0.663393, 0.663022, 0.664451, 0.660795, 0.660958, 0.669819, 0.665442, 0.666091, 0.669621, 0.672646, 0.678169, 0.682992, 0.683918, 0.683262, 0.682784, 0.685349, 0.690652, 0.00339953, 0.00314718, 0.00346506, 0.721549, 0.723114, 0.728142, 0.72794, 0.727894, 0.0033855, 0.00335732, 0.753382, 0.758456, 0.755254, 0.754495, 0.754616, 0.0031234, 0.00331935, 0.778769, 0.783493, 0.791304, 0.790496, 0.0032294, 0.00322309, 0.00316606, 0.00307466, 0.00314039, 0.817946, 0.814963, 0.815059, 0.822097, 0.830466, 0.832227, 0.00333201, 0.00338847, 0.00382772, 0.00306397, 0.00353795, 0.859909, 0.862955, 0.86559, 0.0034118, 0.00329242, 0.880635, 0.884972, 0.886717, 0.00350649, 0.00345099, 0.00327752, 0.916531, 0.917575, 0.00340715, 0.00332044, 0.00318106, 0.951688, 0.955247, 0.00329345, 0.00349646, 0.0033445, 0.991908, 0.00313705, 0.00350423, 0.00323588, 1.02808, 0.00324842, 0.00335684, 0.00327274, 1.05068, 1.05496, 1.05967, 1.05886, 1.06988, 1.07071, 1.07995, 1.08064, 0.00335197, 0.00337169, 0.00324984, 0.0032967, 0.00339828, 0.00336135, 0.0033799, 1.48394, 0.00346456, 0.0031178, 1.48325, 0.00302989, 0.00351113, 0.00325637, 1.17305, 1.17472, 1.17785, 1.18288, 1.18446, 1.18395, 1.18581, 1.19414, 1.19487, 1.2048, 1.20722, 1.21412, 1.22164, 1.2263, 1.22803, 1.23272, 1.24278, 1.24798, 1.24801, 0.0032547, 1.26667, 1.26874, 1.28101, 1.28166, 1.28894, 1.28924, 1.2986, 1.30315, 1.30889, 1.31715, 1.32629, 0.00324712, 0.00320191, 0.00338486, 1.34703, 1.34923, 1.353, 1.3539, 1.35373, 1.36438, 1.37008, 0.00345971, 1.38345, 1.38313, 1.38211, 1.38894, 1.38975, 1.3891, 0.00349166, 1.40039, 0.00362877, 1.41241, 1.41006, 1.40949, 1.40778, 1.40776, 0.00343098, 1.4277, 1.42748, 1.42862, 1.42379
0.0486147, 0.0498699, 0.0494808, 0.0479657, 0.0466463, 0.0478727, 0.00332435, 0.0626884, 0.0558349, 0.0698785, 0.0686549, 0.0791789, 0.0775235, 0.00328673, 0.106143, 0.105648, 0.104931, 0.104615, 0.00336489, 0.00311574, 0.00324716, 0.00306255, 0.00346131, 0.00296602, 0.00356674, 0.00334672, 0.00320037, 0.00332061, 0.00330382, 0.00320265, 0.00358635, 0.00331009, 0.00338935, 0.0030645, 0.00350305, 0.00286853, 0.249497, 0.00339332, 0.00337659, 0.00317048, 0.00310274, 0.277302, 0.275546, 0.00330989, 0.00337151, 0.00315711, 0.00335482, 0.00309235, 0.00325854, 0.0030892, 0.00335516, 0.00334021, 0.0037008, 0.00320376, 0.00330614, 0.00356891, 0.00328869, 0.00309653, 0.00325056, 0.0031092, 0.00336938, 0.00346071, 0.00323627, 0.363039, 0.366744, 0.367457, 0.366452, 0.370167, 0.381472, 0.381231, 0.400759, 0.401241, 0.403898, 0.404043, 0.402933, 0.00319004, 0.424918, 0.427692, 0.417959, 0.41812, 0.418605, 0.00301014, 0.448401, 0.00331194, 0.00332499, 0.00324474, 0.00357082, 0.00286456, 0.00332651, 0.00319493, 0.0035345, 0.00314162, 0.00338289, 0.498219, 0.497251, 0.00343791, 0.507595, 0.50756, 0.00351661, 0.00331946, 0.526271, 0.00338025, 0.00339082, 0.00327293, 0.00337052, 0.547207, 0.551598, 0.551605, 0.551632, 0.00335226, 0.00351948, 0.00325137, 0.00330283, 0.590829, 0.591364, 0.00318828, 0.00359419, 0.619236, 0.60688, 0.615796, 0.613905, 0.614011, 0.618888, 0.619636, 0.620027, 0.617611, 0.617383, 0.00328898, 0.00319599, 0.650885, 0.651975, 0.652534, 0.653289, 0.65211, 0.660541, 0.662252, 0.661484, 0.662088, 0.654336, 0.653322, 0.654233, 0.667316, 0.66114, 0.669079, 0.669748, 0.673173, 0.67152, 0.674904, 0.684102, 0.686532, 0.687494, 0.00343559, 0.00337005, 0.713871, 0.714277, 0.718758, 0.719761, 0.719256, 0.717027, 0.00326022, 0.744794, 0.00328373, 0.75563, 0.756006, 0.757095, 0.757486, 0.756657, 0.767296, 0.774053, 0.777958, 0.779527, 0.779707, 0.00359583, 0.00320383, 0.807964, 0.798947, 0.798887, 0.799717, 0.811782, 0.814763, 0.817231, 0.817975, 0.818357, 0.827248, 0.829969, 0.831771, 0.833329, 0.00335671, 0.0035537, 0.859829, 0.86029, 0.860555, 0.865719, 0.00343017, 0.875739, 0.888989, 0.00321563, 0.90468, 0.907628, 0.911386, 0.912375, 0.922582, 0.924135, 0.0032571, 0.00303454, 0.957574, 0.00328463, 0.971252, 0.00327292, 0.987784, 0.00330555, 0.00297559, 1.01493, 1.01807, 1.026, 0.0033235, 1.03961, 1.04371, 1.04596, 0.00337447, 1.06156, 1.06701, 1.07166, 1.07685, 1.0803, 0.00294257, 0.00306935, 0.00313218, 0.00342669, 0.00321878, 0.00348298, 0.00320199, 0.00335641, 0.0031548, 0.00314963, 0.00328227, 1.48307, 0.00314602, 0.003174, 0.0031087, 1.16682, 1.17127, 1.17479, 1.17536, 1.17928, 1.18359, 1.18399, 1.18444, 1.18968, 1.19901, 1.21215, 1.21509, 1.22073, 1.22195, 1.22303, 1.23362, 1.23735, 1.24177, 0.00332364, 1.25981, 1.26013, 1.27152, 1.27486, 1.27719, 1.28321, 1.29153, 0.00353567, 0.00307062, 1.31597, 1.32853, 1.32784, 1.33097, 1.33541, 1.33634, 0.00354082, 0.00327379, 0.00317792, 1.35401, 0.00338013, 0.00302072, 0.00323015, 1.37791, 1.37713, 1.37929, 1.38113, 1.38547, 1.38662, 0.00327375, 1.39263, 1.39604, 0.00341876, 1.40395, 1.40542, 1.41566, 1.41221, 1.41721, 1.41992, 1.42687, 1.42723, 1.42798
0.0450038, 0.0447807, 0.0479576, 0.0481646, 0.04826, 0.050696, 0.049295, 0.0497287, 0.00308122, 0.0627226, 0.00307008, 0.0803858, 0.0799132, 0.0905161, 0.0889151, 0.106776, 0.106395, 0.104346, 0.00341856, 0.00318208, 0.00313485, 0.124804, 0.00326243, 0.00352997, 0.00338446, 0.00318353, 0.0031543, 0.00335942, 0.00326559, 0.00325348, 0.0034667, 0.00344901, 0.00320496, 0.00331476, 0.00330826, 0.00345134, 0.00332961, 0.00339872, 0.00302043, 0.00354336, 0.00338996, 0.276994, 0.00329711, 0.00348945, 0.00337839, 0.00352274, 0.00313275, 0.00348662, 0.0031314, 0.00346125, 0.00312655, 0.00329142, 0.00322617, 0.00308239, 0.00316624, 0.00337422, 0.00328093, 0.00340332, 0.00317688, 0.00342433, 0.00316825, 0.00341447, 0.00316925, 0.363057, 0.360853, 0.365923, 0.366512, 0.367249, 0.375089, 0.00318517, 0.38605, 0.386197, 0.00327282, 0.00324284, 0.00303297, 0.00332226, 0.00321298, 0.412105, 0.412844, 0.422053, 0.00357403, 0.00357769, 0.00318359, 0.00338585, 0.00330629, 0.00331507, 0.00309828, 0.00332058, 0.0033006, 0.00344984, 0.00328362, 0.00360384, 0.0033008, 0.00319269, 0.0033151, 0.00332472, 0.506729, 0.00333531, 0.00317764, 0.512223, 0.520676, 0.520811, 0.00325314, 0.536185, 0.535519, 0.534079, 0.551534, 0.55181, 0.00333179, 0.00362736, 0.00321075, 0.00365173, 0.00339402, 0.591726, 0.591968, 0.597362, 0.00321865, 0.601264, 0.607576, 0.606557, 0.605905, 0.608927, 0.607306, 0.617438, 0.617345, 0.616832, 0.00324353, 0.00343349, 0.6322, 0.63419, 0.0032096, 0.00328743, 0.0033326, 0.00323308, 0.00338738, 0.00339747, 0.652699, 0.652609, 0.652483, 0.654194, 0.652926, 0.653054, 0.662438, 0.662299, 0.66266, 0.665894, 0.664692, 0.664734, 0.00338481, 0.00339406, 0.689975, 0.691001, 0.705805, 0.707895, 0.708245, 0.714898, 0.718326, 0.718951, 0.722166, 0.00344737, 0.00359871, 0.744668, 0.747001, 0.747788, 0.755919, 0.75102, 0.756275, 0.757352, 0.00321042, 0.771222, 0.00346816, 0.00345951, 0.00313259, 0.00327836, 0.788554, 0.78856, 0.00325989, 0.00329939, 0.00320847, 0.00344472, 0.00364978, 0.00346228, 0.811679, 0.813103, 0.821769, 0.826627, 0.831328, 0.839853, 0.845777, 0.00342485, 0.853472, 0.856693, 0.859212, 0.00319714, 0.00310506, 0.883699, 0.891671, 0.891853, 0.893856, 0.894651, 0.908526, 0.00332688, 0.925914, 0.926041, 0.00323334, 0.00327906, 0.960842, 0.973701, 0.975244, 0.984221, 0.987622, 0.9953, 0.00314049, 0.00309125, 1.02254, 1.02346, 1.02965, 1.03033, 0.00313367, 0.00336546, 1.05385, 1.06104, 0.00326089, 1.0769, 1.078, 0.00339761, 0.00302106, 0.00328999, 0.0032353, 0.00349045, 0.0031394, 0.00328951, 0.00300081, 0.00350168, 0.00339279, 0.00336799, 0.0032352, 1.28157, 0.00307595, 0.00319615, 1.15634, 1.16536, 1.16735, 1.17091, 1.17462, 1.17535, 1.17384, 0.00344167, 1.18548, 0.00339158, 1.20427, 1.20512, 1.21316, 1.21555, 1.21389, 1.22309, 1.23193, 1.24296, 1.25285, 1.25685, 1.26262, 1.26493, 1.27106, 1.27266, 1.27938, 1.29055, 0.00358061, 0.00336379, 1.31647, 1.31754, 1.32718, 1.32844, 1.3323, 1.33202, 1.33337, 1.33234, 1.33247, 1.34987, 1.35077, 0.0032335, 1.36022, 1.36411, 1.37582, 1.3734, 1.37312, 0.00324755, 1.37087, 1.37268, 0.00329908, 0.00333173, 1.39852, 1.39924, 1.39995, 1.40544, 1.40818, 1.41636, 1.41706, 1.42064, 1.42514, 1.42499
0.0453667, 0.0471404, 0.0455314, 0.0472776, 0.046008, 0.0463958, 0.0485192, 0.0466007, 0.0472689, 0.00310348, 0.0696596, 0.0720232, 0.00339272, 0.00314701, 0.0866814, 0.00319653, 0.00308403, 0.0972266, 0.00356662, 0.00316356, 0.127065, 0.12658, 0.00339649, 0.00339102, 0.0034685, 0.00323276, 0.00331545, 0.00327857, 0.00317509, 0.00315832, 0.00326418, 0.00326869, 0.211362, 0.211883, 0.211999, 0.217114, 0.216602, 0.218442, 0.00326226, 0.00325414, 0.00338757, 0.242139, 0.24799, 0.00311435, 0.00328455, 0.00311142, 0.00309171, 0.00325939, 0.0031075, 0.00317802, 0.00322726, 0.0029456, 0.00342794, 0.00320153, 0.00341508, 0.00326719, 0.00333601, 0.00332794, 0.0034681, 0.00327265, 0.00353913, 0.0031916, 0.00320059, 0.361777, 0.361022, 0.363327, 0.362229, 0.364862, 0.363707, 0.374362, 0.386055, 0.383132, 0.380166, 0.00326084, 0.00345217, 0.00340778, 0.00321687, 0.00337056, 0.413917, 0.407248, 0.00347177, 0.00328374, 0.00341289, 0.00318781, 0.00332923, 0.00340775, 0.00314546, 0.00338475, 0.442563, 0.00319732, 0.00327943, 0.00342848, 0.00317227, 0.00331056, 0.00360172, 0.00306777, 0.00342828, 0.00351896, 0.00342526, 0.0032712, 0.515136, 0.00331378, 0.527834, 0.528172, 0.527424, 0.538515, 0.00327121, 0.00324427, 0.0032516, 0.00310426, 0.00326166, 0.00320869, 0.0032465, 0.00340704, 0.588445, 0.595843, 0.593941, 0.590661, 0.594168, 0.593397, 0.596556, 0.598665, 0.601827, 0.602287, 0.603342, 0.603333, 0.00331247, 0.00319823, 0.624085, 0.62546, 0.624977, 0.624835, 0.626114, 0.00352343, 0.00324282, 0.0032224, 0.00332006, 0.00328243, 0.641291, 0.64219, 0.644821, 0.64643, 0.651885, 0.00329969, 0.00328537, 0.664118, 0.66273, 0.662386, 0.660838, 0.0032491, 0.00327474, 0.00313125, 0.0033038, 0.706692, 0.702087, 0.703834, 0.706045, 0.00308385, 0.720756, 0.721782, 0.00346987, 0.736173, 0.742482, 0.744477, 0.744204, 0.745427, 0.755119, 0.758293, 0.758315, 0.758625, 0.761986, 0.762475, 0.00343947, 0.00317247, 0.00337587, 0.0032023, 0.00312462, 0.00326028, 0.780838, 0.00300677, 0.0033865, 0.801226, 0.00357734, 0.81608, 0.819357, 0.825602, 0.827108, 0.835261, 0.833716, 0.00321734, 0.00343508, 0.00319244, 0.863492, 0.863096, 0.0034365, 0.00321553, 0.00333562, 0.8912, 0.00353136, 0.00309436, 0.909421, 0.910585, 0.00330656, 0.00321122, 0.00330054, 0.00296287, 0.0034764, 0.96679, 0.00352932, 0.980728, 0.981403, 0.00327324, 1.00151, 1.00596, 1.01436, 1.01716, 0.00321791, 0.00324661, 1.0385, 1.04533, 1.0482, 1.05105, 1.06373, 1.06471, 0.00324805, 0.00334713, 0.0033437, 0.00313372, 0.00322037, 1.00877, 1.00848, 0.00349646, 0.0033656, 0.00329821, 0.003454, 0.00325032, 0.00336661, 0.00331626, 1.13378, 0.00344567, 1.15634, 1.15494, 1.16079, 1.15991, 1.16875, 1.16645, 1.16705, 1.17468, 1.18139, 0.00338162, 1.19561, 1.19607, 0.00342971, 0.00317444, 0.00331616, 0.00311465, 1.22637, 0.00338135, 1.24579, 0.00323048, 1.25658, 1.25931, 1.26393, 1.26544, 1.28106, 0.00324492, 1.30966, 1.30947, 1.31081, 0.0033509, 0.00335455, 0.00319001, 1.31958, 0.00318454, 1.32368, 1.32552, 1.33308, 1.33737, 1.33804, 0.00324497, 0.00334927, 0.00330071, 1.36222, 1.37022, 1.37194, 1.36996, 1.36708, 1.36747, 0.00329581, 0.00350992, 0.00325166, 1.39559, 1.39633, 1.40289, 1.4027, 1.41004, 1.41103, 1.40748, 1.41914, 1.4193
0.00329364, 0.0467011, 0.0471957, 0.0479517, 0.0484524, 0.0505334, 0.0496089, 0.0502652, 0.0481765, 0.0682339, 0.0691167, 0.00339675, 0.00307529, 0.00326136, 0.0838895, 0.00342316, 0.00315889, 0.0953422, 0.0960839, 0.00330435, 0.00301186, 0.00334859, 0.00309966, 0.00317405, 0.00305749, 0.00371228, 0.00317133, 0.189984, 0.190343, 0.189264, 0.188323, 0.00325953, 0.00326728, 0.214658, 0.213821, 0.213216, 0.220694, 0.230813, 0.00329713, 0.229354, 0.231941, 0.232685, 0.244578, 0.24315, 0.00327822, 0.00320155, 0.00335202, 0.00344624, 0.00326574, 0.0035167, 0.00316039, 0.00353035, 0.00311028, 0.00308704, 0.00316686, 0.00314459, 0.00323919, 0.306774, 0.00320193, 0.00326152, 0.00322496, 0.334171, 0.0032754, 0.334452, 0.00326103, 0.361578, 0.348596, 0.350668, 0.349289, 0.00333889, 0.373876, 0.00328485, 0.00328393, 0.38118, 0.00313304, 0.00343483, 0.396629, 0.397116, 0.00329157, 0.405364, 0.408465, 0.407612, 0.416595, 0.416176, 0.415089, 0.00346465, 0.432488, 0.00333629, 0.441537, 0.441756, 0.441109, 0.454389, 0.00329149, 0.00335672, 0.003279, 0.00319374, 0.00322478, 0.0034478, 0.00328685, 0.50732, 0.511625, 0.514358, 0.524902, 0.525463, 0.00321386, 0.00344871, 0.00332486, 0.00331771, 0.00336338, 0.00312837, 0.00331967, 0.00343226, 0.003134, 0.00330701, 0.00323727, 0.0033473, 0.00330713, 0.580785, 0.591547, 0.595584, 0.59875, 0.599161, 0.599259, 0.602107, 0.604209, 0.604342, 0.603655, 0.616463, 0.628005, 0.627458, 0.627355, 0.628426, 0.628158, 0.627526, 0.00303252, 0.00328405, 0.63672, 0.637311, 0.636095, 0.637334, 0.638708, 0.639758, 0.00312082, 0.00330474, 0.00330334, 0.659591, 0.659071, 0.66284, 0.666504, 0.66725, 0.00306511, 0.00325057, 0.0030271, 0.695296, 0.699035, 0.703802, 0.706992, 0.712563, 0.713342, 0.713926, 0.731766, 0.732344, 0.733923, 0.737068, 0.00305746, 0.747143, 0.749299, 0.75057, 0.750234, 0.00357615, 0.751118, 0.749798, 0.00311384, 0.749826, 0.00322577, 0.00314503, 0.0031049, 0.00319594, 0.780338, 0.00349538, 0.901939, 0.00328612, 0.00340849, 0.00347717, 0.809888, 0.00331881, 0.81816, 0.817191, 0.00342091, 0.00328689, 0.83545, 0.835762, 0.00326656, 0.859998, 0.86171, 0.86766, 0.873719, 0.879741, 0.00320874, 0.902369, 0.903257, 0.912909, 0.916039, 0.0031787, 0.00334522, 0.00349814, 0.956247, 0.00332331, 0.00321401, 0.973419, 0.979018, 0.981451, 0.00311964, 0.996462, 1.00657, 0.00337077, 1.02033, 1.0219, 0.00306292, 1.04416, 1.04525, 1.05423, 0.00331635, 0.00333397, 0.00323845, 0.00350685, 0.00305898, 0.00332562, 0.00327482, 1.0081, 1.00899, 0.00330892, 0.0031718, 0.0033715, 0.00313961, 0.00302314, 0.00330206, 0.00345719, 0.00325336, 1.13867, 1.13887, 1.14661, 1.15479, 1.1541, 1.1555, 1.16405, 1.16581, 1.17447, 1.17877, 1.18779, 1.18817, 1.19066, 1.19626, 1.20877, 1.20832, 1.20812, 0.00337524, 0.0034826, 1.23979, 1.23989, 1.24592, 1.24652, 1.25752, 0.00371514, 0.00317913, 0.00324785, 1.30221, 0.00345001, 1.28614, 1.28769, 1.29053, 1.29141, 1.30294, 1.30814, 1.31261, 1.31336, 0.00322972, 1.32936, 0.00311658, 1.34224, 1.34701, 1.35175, 1.35435, 1.36022, 1.36363, 1.36691, 1.37063, 1.37119, 1.37818, 1.38183, 1.38376, 1.38612, 0.00316842, 0.00330448, 1.39778, 1.40212, 1.40703, 1.40645, 1.41193, 1.41563
0.00362968, 0.00351673, 0.00342471, 0.00319908, 0.0303971, 0.0520403, 0.051629, 0.00318154, 0.0426702, 0.0528134, 0.00326857, 0.00296483, 0.00328498, 0.070999, 0.0691591, 0.00350491, 0.00327823, 0.00319844, 0.0960358, 0.00305192, 0.00338858, 0.00321159, 0.00330618, 0.00320047, 0.00334291, 0.00309057, 0.00362965, 0.00305188, 0.192837, 0.178713, 0.177453, 0.177217, 0.178406, 0.00327376, 0.196516, 0.00311135, 0.218995, 0.0033245, 0.232234, 0.231769, 0.233971, 0.232294, 0.241407, 0.241413, 0.248536, 0.00333926, 0.00338983, 0.0032906, 0.00362168, 0.00315461, 0.00333117, 0.00326056, 0.296744, 0.296148, 0.297025, 0.297052, 0.00321463, 0.00309591, 0.00319255, 0.00322356, 0.324761, 0.317539, 0.328124, 0.328006, 0.332073, 0.34068, 0.349524, 0.350905, 0.00313778, 0.00312315, 0.00331209, 0.356981, 0.360187, 0.369922, 0.0034861, 0.0032848, 0.00356925, 0.00312688, 0.389284, 0.389676, 0.409115, 0.408512, 0.407998, 0.415458, 0.417655, 0.417205, 0.418749, 0.434886, 0.434131, 0.441131, 0.00337581, 0.00334109, 0.00311128, 0.00326701, 0.00303299, 0.00313978, 0.00380591, 0.00309713, 0.00339057, 0.504965, 0.504898, 0.504341, 0.0031214, 0.517873, 0.00321129, 0.00326196, 0.00329052, 0.0032503, 0.00325711, 0.00322767, 0.0036346, 0.00333003, 0.00330512, 0.00317649, 0.00345591, 0.00317038, 0.578307, 0.584202, 0.584168, 0.58585, 0.00346225, 0.598098, 0.603797, 0.604352, 0.603665, 0.604341, 0.601642, 0.610417, 0.00351889, 0.00314565, 0.624098, 0.615237, 0.00325072, 0.00316824, 0.00339248, 0.62483, 0.621993, 0.621687, 0.628604, 0.628777, 0.629414, 0.631123, 0.632487, 0.638246, 0.639308, 0.64982, 0.649386, 0.656041, 0.660766, 0.662614, 0.0033337, 0.681492, 0.683662, 0.68535, 0.691897, 0.697924, 0.703563, 0.703534, 0.715865, 0.716624, 0.716354, 0.725089, 0.727582, 0.728121, 0.736921, 0.740075, 0.00340722, 0.74243, 0.742481, 0.749623, 0.741605, 0.736786, 0.739633, 0.740289, 0.00319325, 0.00325209, 0.76266, 0.772205, 0.775894, 0.775699, 0.775041, 0.00326132, 0.00339847, 0.00308933, 0.00357616, 0.00321583, 0.00347064, 0.813244, 0.816317, 0.00315651, 0.829178, 0.835554, 0.847176, 0.856065, 0.859832, 0.861036, 0.868844, 0.878472, 0.883232, 0.00336714, 0.00316193, 0.00319492, 0.920656, 0.923732, 0.9357, 0.00312961, 0.00345958, 0.959374, 0.965443, 0.97012, 0.974592, 0.975808, 0.990602, 0.991081, 1.00282, 0.0032047, 0.00351755, 1.01976, 1.02637, 0.00334819, 0.00337314, 1.05732, 1.06, 0.00327941, 0.00352773, 1.03521, 0.00340521, 0.00344239, 1.01218, 1.01419, 1.01499, 0.00297243, 0.00343452, 0.00333229, 0.00330691, 0.00342887, 0.00333685, 1.12278, 1.12643, 1.13227, 1.13474, 1.14411, 1.147, 1.15051, 1.15134, 1.16379, 1.1674, 1.17015, 1.17515, 1.17736, 1.18466, 1.18568, 1.19124, 1.1984, 1.20266, 1.21067, 1.21929, 0.00308455, 1.22921, 1.23198, 1.23535, 1.25346, 1.25795, 0.00322086, 0.00346256, 0.00304279, 0.00354979, 0.0034094, 1.27881, 1.27866, 1.28454, 1.29607, 1.29653, 1.29664, 1.29802, 0.0030947, 0.00344109, 1.32703, 0.00329086, 0.00306864, 0.00314491, 0.00315088, 1.34789, 1.34823, 0.00358554, 0.00299484, 1.36441, 1.3678, 1.37287, 1.37484, 1.37766, 1.37873, 1.37933, 1.38492, 1.3896, 1.39265, 0.00354996, 0.00313366, 1.40659, 1.41169
0.00365969, 0.0243382, 0.0234076, 0.0239575, 0.0282667, 0.0310862, 0.0313472, 0.00344079, 0.00320263, 0.00316003, 0.0032441, 0.00331038, 0.00326312, 0.0680646, 0.00301505, 0.00326198, 0.00315769, 0.00313642, 0.0031329, 0.00309896, 0.00349718, 0.00321613, 0.145268, 0.145195, 0.143759, 0.142315, 0.00313585, 0.00334568, 0.0032258, 0.181936, 0.183032, 0.179858, 0.180302, 0.00313032, 0.00323844, 0.00337161, 0.00327067, 0.00345606, 0.00327578, 0.00343418, 0.231057, 0.00331142, 0.24754, 0.248357, 0.247934, 0.00313084, 0.00324435, 0.00351548, 0.0033949, 0.0030872, 0.00329267, 0.00339252, 0.298683, 0.299167, 0.29938, 0.299208, 0.298442, 0.311076, 0.311875, 0.310756, 0.312106, 0.317156, 0.319458, 0.319239, 0.32427, 0.325827, 0.00327033, 0.340008, 0.346796, 0.355623, 0.355375, 0.362458, 0.364212, 0.363491, 0.369102, 0.369272, 0.373577, 0.387124, 0.39357, 0.392767, 0.391753, 0.00330172, 0.00331267, 0.00317126, 0.406121, 0.404584, 0.00324907, 0.428276, 0.00329139, 0.00338171, 0.00353642, 0.00307407, 0.00316436, 0.00330251, 0.00345526, 0.00336405, 0.00326144, 0.00330405, 0.00324644, 0.00318876, 0.507522, 0.507047, 0.00346154, 0.00330869, 0.00304875, 0.00327645, 0.00311972, 0.0034887, 0.00322712, 0.00343643, 0.00307361, 0.00331154, 0.00318949, 0.553523, 0.554455, 0.00323706, 0.566896, 0.567449, 0.57715, 0.00332827, 0.588241, 0.588067, 0.00319354, 0.599199, 0.00335729, 0.00343541, 0.00345441, 0.602504, 0.605515, 0.614679, 0.616208, 0.616034, 0.00310903, 0.892238, 0.61466, 0.616322, 0.617433, 0.620237, 0.622206, 0.630784, 0.630406, 0.630715, 0.63041, 0.638694, 0.638923, 0.64028, 0.645848, 0.652876, 0.00323885, 0.668886, 0.670424, 0.671345, 0.673512, 0.682251, 0.684928, 0.686995, 0.688327, 0.00334258, 0.00337191, 0.714048, 0.715379, 0.718664, 0.718434, 0.727937, 0.728739, 0.734195, 0.738917, 0.74438, 0.743834, 0.74161, 0.731165, 0.732723, 0.730236, 0.00326993, 0.00308466, 0.00334749, 0.00326849, 0.760879, 0.764677, 0.00328933, 0.777428, 0.78019, 0.779143, 0.790696, 0.790299, 0.00321814, 0.00337033, 0.00342305, 0.00343655, 0.00337041, 0.825417, 0.00342114, 0.00307397, 0.0032542, 0.853815, 0.858561, 0.860186, 0.873411, 0.88273, 0.887221, 0.00321381, 0.0032672, 0.00331526, 0.00354257, 0.935993, 0.935845, 0.935692, 0.00340365, 0.957912, 0.963884, 0.973803, 0.976447, 0.984819, 0.987289, 1.00212, 1.00308, 0.00333689, 1.02442, 1.02708, 0.00360533, 1.04304, 0.003246, 1.06021, 0.00335276, 0.00332939, 0.00361272, 0.00323718, 0.00341142, 0.00329145, 0.00333179, 0.00310113, 0.00337392, 0.00328802, 0.00354361, 0.00322164, 0.00342253, 1.11689, 1.11826, 1.11907, 1.12173, 0.0032013, 1.13888, 1.14171, 1.14581, 1.15027, 1.15809, 1.16064, 1.16587, 1.1694, 1.17643, 1.18139, 1.18664, 1.18896, 0.00324941, 1.19893, 0.00342155, 1.21655, 1.2174, 1.22285, 1.22813, 1.23719, 1.23772, 0.00334436, 1.26025, 1.26923, 1.27094, 1.27901, 1.27824, 1.2738, 1.27271, 1.28783, 1.29173, 1.29247, 1.29812, 1.29961, 0.00338765, 0.00322219, 1.3204, 1.31985, 1.32965, 1.3312, 1.33168, 0.00333268, 1.34718, 1.34901, 1.35216, 1.35793, 1.36381, 1.36426, 1.36469, 1.37453, 1.3812, 1.37954, 1.3824, 1.38468, 1.38667, 1.38803, 1.39716, 1.40002, 1.40722
0.016881, 0.00306049, 0.0263004, 0.00336614, 0.0310904, 0.0286581, 0.028467, 0.00324123, 0.00336694, 0.0440905, 0.0422198, 0.00327366, 0.0663749, 0.00303186, 0.00331045, 0.00309703, 0.0715889, 0.00335562, 0.00337778, 0.00302404, 0.00336956, 0.00318942, 0.145526, 0.145885, 0.144638, 0.00318546, 0.003334, 0.00344994, 0.00337514, 0.00328219, 0.153211, 0.00344118, 0.00335543, 0.00316692, 0.00337046, 0.00310105, 0.00318166, 0.00323396, 0.00344678, 0.00322922, 0.00329196, 0.00336702, 0.00356487, 0.00311924, 0.250562, 0.248969, 0.24812, 0.00306843, 0.00322483, 0.00313185, 0.00338526, 0.00328765, 0.00320918, 0.299349, 0.290796, 0.301511, 0.301068, 0.300794, 0.308701, 0.311291, 0.311472, 0.311503, 0.321034, 0.31937, 0.32752, 0.327187, 0.326884, 0.332925, 0.334082, 0.349024, 0.350803, 0.350082, 0.350769, 0.359838, 0.358278, 0.00327208, 0.366725, 0.00313588, 0.386102, 0.00317519, 0.387487, 0.386525, 0.00350475, 0.00335927, 0.401695, 0.402575, 0.0033865, 0.00315989, 0.00329502, 0.00346784, 0.00314491, 0.00335178, 0.00336582, 0.00331308, 0.460416, 0.0032206, 0.003339, 0.00325819, 0.00340609, 0.00307702, 0.00335845, 0.00322786, 0.00325434, 0.00329997, 0.00324244, 0.00314828, 0.00328747, 0.00330237, 0.00332055, 0.00320201, 0.00347758, 0.00309817, 0.00310224, 0.546385, 0.546412, 0.00327694, 0.569192, 0.570053, 0.569961, 0.564985, 0.00334035, 0.0031768, 0.00337104, 0.00328055, 0.569615, 0.00290709, 0.00344341, 0.597051, 0.00337881, 0.00325715, 0.00344056, 0.595242, 0.603919, 0.606309, 0.608049, 0.605747, 0.618664, 0.618242, 0.617682, 0.617504, 0.620503, 0.621709, 0.622269, 0.00310712, 0.636215, 0.645555, 0.00333205, 0.00309864, 0.668794, 0.66911, 0.666665, 0.666219, 0.673839, 0.00325739, 0.686938, 0.690512, 0.68413, 0.68377, 0.00322276, 0.00322086, 0.00330656, 0.717914, 0.722927, 0.722987, 0.00335698, 0.00355208, 0.728014, 0.00343207, 0.734997, 0.734706, 0.730091, 0.731301, 0.730646, 0.732406, 0.00340771, 0.749629, 0.748718, 0.753378, 0.755916, 0.754329, 0.765508, 0.76658, 0.00332679, 0.781614, 0.785583, 0.78529, 0.792587, 0.795597, 0.79827, 0.798826, 0.00363499, 0.0035492, 0.832395, 0.834174, 0.836527, 0.00307116, 0.862575, 0.863737, 0.00341431, 0.00314354, 0.0034399, 0.00335773, 0.00334981, 0.921517, 0.923287, 0.00315004, 0.00341107, 0.942535, 0.00335709, 0.00331462, 0.00336067, 0.978815, 0.98011, 0.00322951, 1.00094, 0.00321071, 0.00324466, 1.01932, 1.02175, 0.00323668, 1.04094, 0.0032698, 1.0641, 1.07056, 1.07051, 0.00308581, 0.00364275, 0.00318607, 0.00348205, 0.00311025, 0.0033054, 0.00319638, 1.07941, 1.09169, 1.10174, 1.10415, 1.10495, 1.11312, 1.11617, 1.11633, 1.12609, 1.13254, 1.13534, 1.13566, 0.00312929, 0.00314512, 1.1598, 1.16036, 1.16193, 0.00342681, 0.00342515, 1.18006, 0.00314545, 0.00320854, 1.19362, 0.00333904, 1.198, 0.00323677, 0.00315069, 1.23179, 1.23769, 1.23917, 1.23921, 0.00330628, 1.26042, 1.26328, 1.26715, 1.27734, 1.27556, 1.27823, 1.27756, 1.28302, 1.28245, 0.00333338, 1.29931, 1.30204, 0.00331585, 1.30799, 0.00339452, 0.00315286, 1.32653, 1.33259, 1.33441, 1.33696, 1.34004, 1.34273, 0.00352131, 1.36044, 1.36047, 1.36677, 1.37044, 1.37311, 1.37484, 1.37816, 1.38478, 1.38567, 1.39141, 0.00313041, 1.39252, 0.00352548
