0.311071, 0.312019, 0.321306, 0.320322, 0.295071, 0.297129, 0.297288, 0.298062, 0.297141, 0.279369, 0.28059, 0.28095, 0.281075, 0.284636, 0.285525, 0.263014, 0.265158, 0.266505, 0.267016, 0.266974, 0.258869, 0.258961, 0.260235, 0.259957, 0.260228, 0.25915, 0.265369, 0.266819, 0.252128, 0.262713, 0.262259, 0.261517, 0.262283, 0.262455, 0.247481, 0.246743, 0.248548, 0.254521, 0.254531, 0.268361, 0.256328, 0.258062, 0.258471, 0.265034, 0.266539, 0.265442, 0.26466, 0.258312, 0.266877, 0.258471, 0.266742, 0.260384, 0.260498, 0.259223, 0.265299, 0.26394, 0.26498, 0.265208, 0.265003, 0.267051, 0.280075, 0.280193, 0.287483, 0.286653, 0.286938, 0.29838, 0.2974, 0.304452, 0.307824, 0.308903, 0.309072, 0.309019, 0.849195, 0.00393708, 0.337704, 0.337698, 0.338434, 0.772448, 0.774871, 0.00376968, 0.72205, 0.00400056, 1.19605, 0.635507, 0.607768, 1.18544, 1.18383, 1.18149, 1.17855, 1.17884, 1.18103, 1.18496, 0.51625, 0.00393429, 0.857837, 0.00388774, 0.549074, 0.563211, 0.565177, 0.00372508, 0.588242, 1.03359, 1.15623, 0.00436723, 1.64056, 0.00387064, 1.08423, 0.00426536, 1.29187, 1.29782, 1.3845, 1.25702, 1.27398, 1.27427, 0.806356, 1.39172, 0.784083, 0.00380991, 0.788672, 0.783458, 0.785328, 0.785485, 1.11529, 0.787083, 0.780468, 0.78199, 0.783386, 0.784172, 1.072, 0.784788, 0.78717, 0.793584, 0.778519, 0.794967, 0.794812, 0.787944, 0.790442, 0.790732, 0.791656, 0.790182, 0.788305, 0.790522, 0.783682, 0.781623, 0.78746, 0.78717, 0.787074, 0.791126, 0.788008, 0.00411276, 0.789228, 0.791177, 0.780387, 0.783128, 0.78344, 0.782843, 0.782515, 0.780888, 0.773007, 0.769227, 0.771382, 0.780153, 0.774209, 0.778879, 0.779969, 0.774443, 0.766991, 0.768412, 0.771301, 0.772909, 0.773202, 0.774307, 0.776103, 0.773585, 0.772136, 0.771881, 0.774924, 0.779143, 0.779865, 0.780271, 0.785466, 0.787066, 0.780676, 0.781998, 0.783413, 0.776997, 0.778114, 0.780072, 0.784141, 0.789904, 0.79095, 0.793417, 0.797254, 0.799985, 0.800265, 0.800419, 0.801355, 0.814133, 0.815809, 0.817374, 0.823668, 0.826408, 0.828512, 0.8298, 0.833782, 0.836425, 0.839125, 0.840608, 0.844045, 0.852457, 0.853779, 0.849693, 0.851554, 0.860631, 0.865389, 0.865028, 0.88312, 1.24771, 0.895248, 0.896768, 0.898842, 0.902802, 1.07838, 0.919313, 0.922126, 0.924165, 0.978112, 0.00382868, 0.95342, 0.956716, 0.958953, 0.961616, 0.964019, 0.966411, 0.97012, 0.973976, 0.981977, 1.01339, 1.01032, 1.01296, 1.01817, 1.16442, 1.12783, 1.13449, 1.21301, 1.09152, 1.4631, 0.00361587, 1.46069, 1.18031, 1.18302, 1.56075, 1.54955, 0.00388596, 1.69326, 0.00432977, 1.24495, 1.24799, 1.25072, 1.25487, 1.25396, 1.25808, 1.25926, 1.36307, 1.26963, 1.27487, 1.28164, 1.28177, 1.2877, 1.28693, 1.29216, 1.30493, 1.30384, 1.31139, 1.32048, 1.32582, 1.68382, 0.00390446, 1.39102, 1.38936, 1.36806, 1.37433, 1.37746, 1.3871, 1.39583, 1.70975, 1.4052, 1.41105, 1.41857, 1.42646, 1.43651, 1.43843, 1.44456, 1.45539, 1.82869, 1.4715, 1.47316, 1.53318, 1.83029, 0.00348072
0.709944, 0.693886, 0.327725, 0.289746, 0.291824, 0.293692, 0.294495, 0.313553, 0.313982, 0.313673, 0.704909, 0.300689, 0.00423661, 0.284351, 0.283703, 0.283311, 0.284739, 0.263709, 0.264541, 0.272679, 0.272935, 0.270033, 0.257408, 0.270781, 0.271163, 0.271827, 0.273884, 0.271219, 0.269694, 0.26259, 0.264045, 0.263461, 0.26679, 0.265156, 0.265463, 0.2681, 0.269343, 0.268748, 0.268765, 0.269298, 0.270304, 0.271315, 0.26975, 0.272248, 0.273182, 0.272221, 0.276993, 0.265563, 0.268067, 0.267801, 0.26977, 0.269261, 0.268658, 0.263114, 0.265314, 0.265111, 0.265074, 0.265869, 0.269723, 0.279136, 0.280312, 0.288821, 0.290195, 0.291456, 0.295765, 0.296739, 0.300181, 0.306938, 0.309453, 0.308213, 0.314645, 0.314637, 0.319258, 0.33443, 0.337565, 0.33772, 0.338839, 0.81324, 0.00382169, 0.522571, 0.00429015, 0.00346431, 0.501107, 0.00400347, 0.520686, 0.605187, 1.18867, 1.17602, 1.17643, 1.18111, 0.00338279, 0.860396, 1.19967, 1.20266, 1.22369, 0.00453967, 0.00398012, 0.555466, 0.56337, 0.569355, 0.00385297, 0.59568, 0.605572, 0.00389914, 0.00400202, 0.00368611, 0.00409949, 1.0813, 0.79849, 1.53598, 0.788702, 0.803223, 0.788772, 1.28023, 0.00386747, 1.23635, 0.843421, 0.793909, 0.79678, 0.795994, 0.790475, 0.797809, 0.797583, 1.48702, 0.791038, 0.791995, 0.795454, 0.795537, 0.794138, 0.792008, 0.792911, 0.793764, 0.795967, 0.798156, 0.798969, 0.789018, 0.790103, 0.790934, 0.798725, 0.803493, 0.793826, 0.793908, 0.793197, 0.792209, 0.790567, 0.803449, 0.798168, 0.791967, 0.797784, 0.80107, 0.793159, 0.79379, 0.793535, 0.787434, 0.783695, 0.788567, 0.789327, 0.78936, 0.782421, 0.783485, 0.786997, 0.779742, 0.779381, 0.777218, 0.779751, 0.779893, 0.775654, 0.775976, 0.774684, 0.77936, 0.780279, 0.783848, 0.785525, 0.786628, 0.785012, 0.785137, 0.787503, 0.785068, 0.789899, 0.786243, 0.787663, 0.78932, 0.790435, 0.791799, 0.793851, 1.21346, 0.779354, 0.784221, 0.787522, 0.795582, 0.797742, 0.800127, 0.8011, 0.802172, 0.801713, 0.805521, 0.808694, 0.809111, 0.819226, 0.82205, 0.824789, 0.829274, 0.832671, 0.835088, 0.837079, 0.84685, 0.846956, 0.849217, 0.849709, 0.854704, 0.857264, 0.860233, 0.862204, 0.863631, 1.2159, 0.951314, 0.876181, 0.878959, 1.28655, 1.26934, 1.0532, 0.00373559, 0.928467, 0.970547, 1.29831, 0.948702, 0.949344, 0.949347, 1.029, 0.960177, 0.960984, 0.960959, 0.963047, 0.966794, 0.969359, 0.975843, 0.978901, 1.21219, 1.01353, 1.01257, 1.63504, 1.03286, 1.16896, 1.16792, 1.16715, 1.23358, 1.48032, 1.22225, 1.47143, 1.23449, 1.2199, 1.2018, 1.53859, 1.37976, 1.3961, 1.36411, 1.25328, 1.25242, 1.25026, 1.2597, 1.26212, 1.265, 1.2707, 1.27162, 1.2744, 1.27856, 1.28149, 1.28693, 1.28993, 1.29493, 1.29561, 1.30425, 1.30922, 1.32373, 1.31949, 1.69775, 0.00414507, 1.65639, 1.35718, 1.3647, 1.3705, 1.37687, 1.3785, 1.38671, 1.3973, 1.39844, 1.71357, 1.41167, 1.41892, 1.42843, 1.43562, 1.45015, 1.44943, 1.53058, 1.52886, 1.4817, 1.47767, 1.78051, 1.85221, 1.50396
0.683192, 0.00372104, 0.32669, 0.327903, 0.32912, 0.329639, 0.329922, 0.315548, 0.317925, 0.319715, 1.02844, 0.312219, 0.312312, 0.296891, 0.297342, 0.290873, 0.294459, 0.293425, 0.291606, 0.290772, 0.290282, 0.28649, 0.269407, 0.269737, 0.270549, 0.273393, 0.278457, 0.280533, 0.281477, 0.281066, 0.281266, 0.264108, 0.264211, 0.273418, 0.272846, 0.275332, 0.266907, 0.267554, 0.26664, 0.269591, 0.269647, 0.269569, 0.269144, 0.27864, 0.278603, 0.27937, 0.280653, 0.280483, 0.266685, 0.279153, 0.268293, 0.270266, 0.271174, 0.274446, 0.275424, 0.275791, 0.268118, 0.283349, 0.284733, 0.285325, 0.28449, 0.28794, 0.287533, 0.29737, 0.297742, 0.296443, 0.30014, 0.310568, 0.312235, 0.312315, 0.317476, 0.318381, 0.319004, 0.321412, 0.79529, 0.795275, 0.801842, 0.798972, 0.00399658, 0.0042722, 0.857738, 0.00401343, 0.00412014, 0.00388, 0.53861, 1.18946, 1.18921, 0.580767, 0.65985, 0.574119, 1.18933, 1.20096, 1.02593, 0.00367224, 0.00445492, 0.553246, 0.555593, 0.556878, 1.12217, 0.00420504, 1.30641, 0.00456689, 0.00464929, 0.633275, 0.633858, 0.00357065, 0.0129104, 0.00350984, 0.949932, 0.00423761, 0.791191, 0.796731, 1.18871, 0.00407926, 1.28233, 0.806008, 1.30473, 0.807608, 1.13043, 1.25989, 1.20128, 0.00428686, 0.80405, 0.805057, 0.805815, 0.802022, 0.801665, 0.800482, 0.78484, 0.787284, 0.799248, 0.794757, 0.795226, 0.804169, 0.806161, 0.806859, 0.80769, 0.796145, 0.798955, 0.800583, 0.800846, 0.809843, 0.812229, 0.805493, 0.813436, 0.812277, 1.12008, 0.798305, 0.800396, 0.802619, 0.804348, 0.805314, 0.79737, 0.789701, 0.791115, 0.797415, 0.797405, 0.795443, 0.791646, 0.793412, 0.794667, 0.793084, 0.791827, 0.797776, 0.783965, 0.780658, 0.784978, 0.783998, 0.78189, 0.782411, 0.79382, 0.793735, 0.79419, 0.794794, 0.793941, 0.790644, 0.78919, 0.793035, 0.794247, 0.792985, 0.791181, 0.793175, 0.795748, 0.799893, 0.798104, 0.798415, 0.790502, 0.792845, 0.801152, 0.799656, 0.801353, 0.804653, 0.808661, 0.812731, 0.810167, 0.810804, 0.814311, 0.824096, 0.826285, 1.3568, 0.832558, 0.833636, 0.837433, 0.842076, 0.84738, 0.850412, 0.850711, 0.850722, 0.857418, 0.859289, 0.862564, 0.866917, 0.87033, 0.871317, 0.876312, 0.880114, 0.881674, 0.883238, 1.26194, 0.00368242, 0.916773, 0.922949, 0.932857, 0.963087, 0.953287, 0.00385524, 0.966257, 0.96039, 1.29504, 1.05685, 0.970999, 0.971262, 0.972855, 0.976731, 0.975178, 1.61607, 0.984919, 0.996318, 1.01901, 1.02004, 1.01783, 0.00405239, 1.17859, 1.17037, 1.17412, 0.00420648, 1.09504, 1.70327, 1.48019, 0.00348089, 1.15008, 1.20917, 1.22622, 1.22913, 1.71712, 1.72661, 1.26304, 1.26057, 1.26003, 1.26328, 1.26759, 1.27339, 1.27657, 1.27763, 1.27872, 1.28108, 1.28506, 1.28742, 1.29245, 1.299, 1.30059, 1.30661, 1.31082, 1.31528, 1.33051, 1.70343, 1.71693, 1.34382, 1.36126, 1.36475, 1.37464, 1.3815, 1.38641, 1.38543, 1.39516, 1.3986, 1.40642, 1.72449, 1.41824, 1.42751, 1.43423, 1.44592, 1.75587, 1.45527, 1.45692, 1.53225, 1.84981, 1.52823, 1.86298, 1.85276
0.354939, 0.70503, 0.326369, 0.328068, 0.329336, 0.330078, 0.329861, 0.318276, 0.318663, 0.31753, 0.318408, 0.317216, 0.316486, 0.994876, 0.756536, 0.296707, 0.29698, 0.289943, 0.29094, 0.292492, 0.291873, 0.292125, 0.2928, 0.283813, 0.283683, 0.285483, 0.280389, 0.280508, 0.281924, 0.282891, 0.283369, 0.281851, 0.272905, 0.279473, 0.272946, 0.275523, 0.266199, 0.266299, 0.26605, 0.269066, 0.27634, 0.277638, 0.278114, 0.279266, 0.278861, 0.279324, 0.281521, 0.285987, 0.285367, 0.279361, 0.282322, 0.846032, 0.272638, 0.274276, 0.274855, 0.274836, 0.264179, 0.283616, 0.286244, 0.2858, 0.285918, 0.294439, 0.299176, 0.301174, 0.300684, 0.298839, 0.310252, 0.31062, 0.311482, 0.320502, 0.318619, 0.318439, 0.320177, 0.324276, 0.332171, 0.00435662, 0.00379009, 0.489534, 0.00385618, 1.56382, 1.5602, 1.55742, 1.55816, 1.55808, 0.516852, 0.532807, 0.00413793, 0.528682, 0.656575, 0.639008, 0.00405866, 0.010592, 0.00427981, 0.963791, 0.00372965, 1.07056, 0.00385099, 0.00472136, 0.00371134, 0.574587, 0.580774, 0.588551, 0.00373821, 0.628814, 0.00391689, 0.649201, 0.00388801, 1.09237, 0.00371081, 0.00357672, 0.00399248, 0.00411344, 0.00422117, 0.841985, 0.810292, 0.811724, 0.813728, 0.814727, 0.00401454, 0.818131, 0.810029, 0.812133, 0.814188, 0.814545, 0.801694, 0.805661, 0.807972, 1.60378, 1.60593, 0.805702, 0.807232, 0.807898, 0.815483, 0.810289, 0.804941, 0.807165, 0.812716, 0.814142, 0.814811, 0.816317, 0.822289, 0.832054, 0.823727, 0.815343, 1.2275, 1.26769, 1.23674, 0.816281, 0.8149, 0.81224, 0.812722, 1.26457, 0.00348677, 0.807283, 0.808165, 0.808732, 0.805284, 0.805072, 0.80682, 0.807531, 0.804549, 0.802787, 0.8044, 0.806667, 0.790095, 0.794907, 0.796827, 0.796741, 0.800874, 0.791965, 0.794445, 0.795297, 0.795585, 0.797377, 0.797649, 0.798742, 0.796348, 0.804311, 0.805977, 0.805916, 0.804148, 0.80483, 0.804683, 0.804068, 0.804518, 0.805514, 0.796459, 0.790537, 0.792717, 0.793487, 0.804642, 0.808244, 0.817519, 0.81501, 0.828705, 0.826307, 0.823444, 0.824576, 0.825612, 1.34537, 0.840876, 0.84573, 0.843562, 0.939553, 0.865945, 0.855067, 0.856683, 0.857727, 0.86014, 0.861554, 0.862127, 0.864325, 0.866163, 0.875569, 0.0037165, 1.26876, 0.891071, 1.48016, 1.23292, 0.914019, 0.915062, 0.00427065, 0.936935, 0.940521, 1.11674, 0.958832, 0.980882, 0.983552, 1.29105, 1.2909, 0.981078, 0.9822, 0.983609, 1.02608, 1.08741, 0.989462, 0.992118, 1.09618, 0.00404826, 1.03271, 0.00359856, 1.03981, 1.04072, 1.15252, 1.18967, 1.18824, 1.24996, 1.24011, 1.12605, 1.50879, 1.50939, 0.00336116, 0.00355738, 1.80746, 0.0034459, 1.66911, 1.26763, 1.26552, 1.2656, 1.26641, 1.26838, 1.27281, 1.27451, 1.2766, 1.28191, 1.28728, 1.28758, 1.2913, 1.74471, 1.303, 1.30488, 1.31691, 0.00391006, 1.32052, 1.33707, 1.33838, 1.34229, 1.34721, 1.36152, 1.37842, 1.41343, 1.41048, 1.38922, 1.39025, 1.74787, 1.72699, 1.41637, 1.73737, 1.72753, 1.43094, 1.43194, 1.43692, 1.76702, 1.78702, 0.00342291, 1.47145, 1.8175, 1.53297, 1.53493, 1.55767
0.361694, 0.359912, 0.359105, 0.346647, 0.327671, 0.759916, 0.315864, 0.316476, 0.316892, 0.317931, 0.32722, 0.318774, 0.321318, 0.318449, 1.68183, 1.68147, 0.321119, 0.310253, 0.289203, 0.291408, 0.292507, 0.296669, 0.29947, 0.283869, 0.299268, 0.287114, 0.292535, 0.297306, 0.280836, 0.28203, 0.287168, 0.286062, 0.286707, 0.293321, 0.289603, 0.289652, 0.264116, 0.264265, 0.264901, 0.285737, 0.286978, 0.286301, 0.285882, 0.282811, 0.285203, 0.286602, 0.286799, 0.28718, 0.287346, 0.787239, 0.812123, 0.297457, 0.297148, 0.29739, 0.29757, 0.298065, 0.299598, 0.29879, 0.299386, 0.300407, 0.297185, 0.296712, 0.300757, 0.306188, 0.309672, 0.317012, 0.318051, 0.310801, 0.320702, 0.319271, 0.324168, 0.324929, 0.330887, 0.332055, 0.333981, 0.336009, 1.56694, 1.56775, 0.00374016, 0.00402464, 1.55954, 1.55952, 0.393882, 0.743299, 0.509363, 0.533402, 0.00364419, 0.00420198, 0.636433, 0.662723, 0.492698, 0.494102, 0.969114, 0.9638, 0.963324, 0.00409542, 0.00373298, 0.00417649, 0.572837, 0.582258, 0.585921, 0.586255, 0.00402797, 0.00409647, 0.642337, 0.974722, 0.94554, 0.00357693, 0.690959, 0.69039, 0.78068, 0.00390726, 1.28876, 1.27688, 1.32973, 0.813776, 0.813907, 0.816156, 0.894827, 0.00379093, 0.812354, 0.814111, 0.815762, 0.817963, 0.820367, 0.820799, 0.82099, 0.00417366, 1.57917, 1.61023, 0.819153, 0.818924, 0.817709, 0.819063, 0.821984, 0.821823, 0.815347, 0.82692, 0.82867, 0.831766, 0.00424978, 0.00369633, 0.82507, 0.826248, 0.820669, 0.821311, 0.827138, 1.33649, 0.821232, 0.821568, 0.823132, 0.824283, 0.80366, 0.806336, 0.816997, 0.818453, 0.80721, 0.806112, 0.808195, 0.809391, 0.808953, 0.811611, 0.809909, 0.814085, 0.812307, 0.802625, 0.804045, 0.804328, 0.80582, 0.805727, 0.792435, 0.794566, 0.795421, 0.794378, 0.800761, 0.802463, 0.801639, 0.807549, 0.809872, 0.810275, 0.812931, 0.81371, 0.808354, 0.812857, 0.813405, 0.813332, 0.81475, 0.808266, 0.812167, 1.2055, 1.35816, 0.82623, 0.823088, 0.827191, 0.830795, 0.00403687, 0.845581, 0.00373874, 0.846181, 0.844577, 0.846254, 0.849559, 0.858361, 0.858735, 0.861086, 0.862416, 0.864834, 0.866772, 0.867664, 0.00394272, 1.29167, 0.878171, 0.88384, 0.886777, 0.888214, 1.19898, 0.902549, 0.90519, 0.907431, 0.908017, 0.918851, 1.24084, 0.00400947, 0.951169, 1.10081, 1.11153, 0.00393406, 0.00411801, 0.994828, 0.994024, 0.991422, 1.15031, 0.994754, 0.995027, 1.03973, 1.0009, 1.01117, 1.01478, 1.01616, 1.23336, 1.03681, 1.66226, 1.64915, 1.66161, 1.66076, 1.21897, 1.1505, 0.0036778, 1.16363, 0.00388868, 1.39565, 1.24006, 1.37487, 1.61568, 1.24312, 0.00421807, 1.35351, 1.26624, 1.26873, 1.2713, 1.27138, 1.27448, 1.27731, 1.27835, 1.28134, 1.2841, 1.29258, 1.29265, 1.29557, 1.30147, 1.37862, 1.77198, 1.76159, 1.32682, 1.74216, 1.74168, 1.35368, 0.00403306, 1.73679, 1.37848, 1.37525, 1.38784, 1.39023, 1.39713, 1.73906, 1.74077, 1.74865, 1.42116, 1.73767, 1.43092, 1.4378, 1.44087, 1.45239, 1.77605, 1.53451, 1.46911, 1.50704, 1.86041, 1.5328, 1.57139
0.375361, 0.00427574, 0.363419, 0.345527, 0.357169, 0.356573, 0.00426564, 0.792639, 0.00387387, 0.328844, 0.329677, 0.329203, 0.517313, 0.00411472, 0.323205, 0.324418, 0.324676, 0.324767, 0.311035, 0.30472, 0.313283, 0.304747, 0.300282, 0.301321, 0.300457, 0.302362, 0.30154, 0.30177, 0.301497, 0.300689, 0.299843, 0.296278, 0.294015, 0.298319, 0.302791, 0.291029, 0.299636, 0.306124, 0.306486, 0.307284, 0.28661, 0.286771, 0.287063, 0.287043, 0.3059, 0.306506, 0.301781, 0.30659, 0.302176, 0.30806, 0.309952, 0.298712, 0.298631, 0.303845, 0.304567, 0.305849, 0.306651, 0.304802, 0.30388, 0.305067, 0.307849, 0.307841, 0.306489, 0.312368, 0.319279, 0.320095, 0.321061, 0.324236, 0.320083, 0.327433, 0.32524, 0.333331, 0.33269, 0.342719, 0.346192, 0.346782, 0.34741, 0.347839, 0.864407, 0.829695, 0.00392132, 0.826077, 0.00391632, 0.731387, 0.483409, 0.532795, 0.00395781, 0.539512, 0.658463, 0.656344, 0.493928, 0.494297, 0.00391151, 0.974002, 0.00435621, 0.00355334, 0.00366339, 0.00399376, 0.00427187, 1.01043, 1.01506, 0.00374946, 0.00445921, 0.00436706, 0.00426713, 1.10335, 1.10879, 0.698472, 0.698528, 0.696781, 0.805014, 0.00437048, 0.850756, 0.00935763, 0.832228, 0.83625, 0.00355522, 1.21562, 0.842591, 0.842285, 0.829465, 0.828366, 0.828588, 0.829362, 0.827572, 0.827113, 0.830615, 0.836386, 0.829434, 1.43068, 1.43023, 1.62749, 0.835176, 0.834314, 0.834116, 0.832463, 0.832224, 0.833375, 0.849976, 0.846698, 0.840452, 0.840141, 0.841475, 0.845929, 1.3516, 0.836354, 0.00374556, 0.837623, 0.826645, 0.821764, 0.822773, 0.826361, 0.827305, 0.827657, 0.818122, 0.819989, 0.820796, 0.825818, 0.823711, 0.825458, 0.825178, 0.819951, 0.819285, 0.818621, 0.821377, 0.821524, 0.804791, 0.806072, 0.807719, 0.812615, 0.814972, 0.810794, 0.809402, 0.811622, 0.810149, 0.811707, 0.00390334, 0.812988, 0.812132, 0.812193, 0.814283, 0.81605, 0.814657, 0.812473, 0.816751, 0.821116, 0.821478, 1.2539, 0.825694, 0.823732, 0.826939, 0.829341, 0.835248, 0.838623, 0.838843, 0.844758, 0.843696, 0.848013, 0.85102, 0.881478, 0.941732, 0.859727, 0.860992, 0.862415, 0.863446, 0.864845, 0.867034, 0.873315, 0.873562, 0.876214, 0.87872, 0.880422, 0.887366, 0.889473, 0.894976, 0.902936, 0.904455, 0.907607, 0.910159, 0.912936, 0.931831, 1.31618, 1.22776, 1.01826, 0.00332559, 1.116, 0.00401392, 1.32031, 0.995802, 1.00031, 0.995434, 0.995451, 0.997768, 0.999474, 1.0009, 1.01063, 1.00905, 1.01467, 1.51142, 1.66935, 1.03739, 1.05234, 1.05564, 1.06621, 1.18486, 1.18917, 1.22494, 1.12238, 0.0037003, 1.18029, 0.00385318, 1.15448, 0.00394103, 1.80071, 0.00390902, 1.26531, 1.67094, 1.55846, 1.28266, 1.28232, 1.28533, 1.28281, 1.28327, 1.28298, 1.28462, 1.28744, 1.29038, 1.29558, 1.29912, 1.30233, 1.30985, 1.32305, 1.33367, 1.33983, 1.34052, 1.3926, 1.36439, 1.74399, 0.00369805, 1.37529, 1.71997, 1.72345, 1.72377, 1.74764, 1.74827, 1.74794, 1.42129, 1.42072, 1.43023, 1.43887, 1.44139, 1.44191, 1.45753, 1.79575, 1.46516, 1.47855, 1.51487, 1.82909, 1.83384, 1.87954
0.375968, 0.00369154, 0.376304, 0.370777, 0.959993, 0.959843, 0.361904, 0.00416014, 0.363489, 0.718438, 0.658001, 0.348035, 0.348571, 0.349525, 0.34548, 0.346185, 0.324238, 0.00377733, 0.883093, 0.313644, 0.313829, 0.313781, 0.314038, 0.314066, 0.314796, 0.30073, 0.300233, 0.300034, 0.30104, 0.308278, 0.30488, 0.307157, 0.309556, 0.308798, 0.303206, 0.304371, 0.304975, 0.307693, 0.308664, 0.309128, 0.309077, 0.312448, 0.312425, 0.310728, 0.310482, 0.310805, 0.309945, 0.30812, 0.308504, 0.309588, 0.311109, 0.310702, 0.304913, 0.305254, 0.306036, 0.307509, 0.308737, 0.313608, 0.31505, 0.316934, 0.307951, 0.307449, 0.308388, 0.319809, 0.320572, 0.321512, 0.32201, 0.322522, 0.332131, 0.332676, 0.338181, 0.338502, 0.338627, 0.342971, 0.348212, 0.347054, 0.349608, 0.003361, 0.832915, 0.824094, 0.826962, 0.00375549, 0.784482, 0.411928, 0.414239, 0.0037729, 0.00394845, 0.00360271, 0.00334453, 0.651036, 0.656368, 0.00374463, 0.00353778, 0.00347448, 1.36718, 0.540339, 1.05387, 0.00361472, 0.876609, 0.584953, 0.586634, 0.58723, 1.17863, 0.00393542, 1.03991, 1.04682, 1.35158, 0.00398937, 0.00385662, 0.00367886, 0.00406505, 0.00386756, 0.00392711, 0.00389955, 0.836938, 0.00413259, 0.8496, 0.00335577, 0.924015, 0.922679, 1.29468, 1.20687, 1.21383, 0.840304, 0.834224, 0.843689, 0.845786, 1.60712, 1.39625, 1.56543, 0.845243, 0.00369082, 0.841848, 0.84106, 0.843708, 1.35776, 0.85038, 0.843113, 0.846533, 0.842296, 0.8499, 0.846974, 0.845632, 0.00371907, 0.847431, 0.853143, 0.852643, 0.846093, 0.846621, 0.839726, 0.839644, 0.00364386, 0.829773, 0.829442, 0.839432, 0.828974, 0.829808, 0.831333, 0.832081, 0.83267, 0.8301, 0.00356361, 0.82995, 0.83212, 0.819427, 0.814914, 0.813169, 0.812262, 1.42657, 0.824853, 0.819135, 0.828539, 0.811804, 0.82657, 0.824166, 0.00369608, 1.20814, 0.8161, 0.819342, 0.820453, 0.830122, 0.830744, 0.832423, 0.831476, 0.831628, 1.24316, 0.832829, 0.835283, 0.825133, 0.827366, 0.831841, 0.834968, 0.836186, 0.839105, 0.842547, 0.843792, 0.84842, 0.00374722, 1.36818, 0.865167, 0.867591, 0.861956, 0.863432, 0.866606, 0.867563, 0.870462, 0.872843, 0.873276, 0.879179, 0.878315, 0.881647, 0.890488, 0.888789, 0.891847, 0.906959, 0.00349255, 0.913245, 1.00581, 0.920945, 0.928892, 1.31745, 1.21975, 1.26504, 0.00407039, 1.08229, 1.02452, 1.01128, 1.02624, 1.00665, 1.00766, 1.00533, 1.0053, 1.00374, 1.01272, 1.04615, 1.02533, 1.01371, 1.50646, 1.0195, 1.03499, 1.04301, 1.0367, 1.4641, 0.00387453, 1.20602, 0.00345854, 1.23009, 1.26557, 1.23914, 0.00415049, 1.15368, 0.0038795, 1.40156, 1.52883, 1.39695, 0.00404702, 1.27079, 0.00391929, 1.47921, 1.30318, 1.28346, 1.28775, 1.29038, 1.29205, 1.28944, 1.29193, 1.29351, 0.00388662, 1.30431, 1.30822, 1.32191, 1.32586, 1.34089, 1.33868, 1.79509, 1.81119, 1.36126, 1.39706, 1.3746, 1.75131, 1.38188, 1.43995, 1.39704, 1.3981, 1.40907, 1.40895, 1.41176, 1.42576, 1.43174, 1.43339, 1.44427, 1.78557, 1.788, 1.53086, 1.78574, 1.77554, 1.80313, 1.50006, 1.54738, 1.55085
0.878805, 0.840316, 0.00394498, 0.37944, 0.00334236, 0.0106735, 0.00386978, 0.846553, 0.368262, 0.367853, 0.346575, 0.349178, 0.348583, 0.345943, 0.347184, 0.347785, 0.347747, 0.347629, 0.338212, 0.338334, 0.33852, 1.04598, 1.04407, 0.31481, 0.314569, 0.320932, 0.317564, 0.319977, 0.318002, 0.317495, 0.318312, 0.318368, 0.31765, 0.30909, 0.3018, 0.303281, 0.304195, 0.306296, 0.309574, 0.308711, 0.309558, 0.312846, 0.313793, 0.311782, 0.313177, 0.310732, 0.317916, 0.320064, 0.320191, 0.319474, 0.319996, 0.315489, 0.314212, 0.31389, 0.314325, 0.311371, 0.32092, 0.314412, 0.316947, 0.317907, 0.318099, 0.319544, 0.317402, 0.328429, 0.319547, 0.320396, 0.320708, 0.334138, 0.331318, 0.333114, 0.335757, 0.344503, 0.342048, 0.342539, 0.358518, 0.358359, 0.358841, 0.00387756, 0.00378039, 0.836433, 0.00388659, 0.785645, 0.003683, 0.00370072, 0.0036776, 0.850808, 0.00367725, 0.465494, 0.00360548, 0.00401118, 0.648834, 0.659301, 0.00394045, 0.538098, 0.00367162, 0.543678, 0.00399047, 1.42365, 0.00393049, 0.583913, 0.585149, 1.10111, 0.00379026, 0.00371933, 0.0042281, 0.00374067, 0.00394132, 0.69692, 0.697317, 0.707239, 0.00403394, 0.00362105, 0.0042284, 0.00426625, 0.88341, 0.879182, 1.58605, 0.86243, 1.36683, 0.870283, 1.3373, 1.40588, 1.24359, 0.00385396, 0.00420057, 0.857582, 1.35235, 0.863716, 0.866776, 0.865874, 0.862908, 1.58093, 0.846863, 0.847231, 1.34761, 0.86057, 0.856807, 0.852161, 0.851888, 0.853314, 0.00388441, 0.849476, 0.851106, 0.862803, 0.860956, 0.859628, 0.847372, 0.849171, 0.844786, 0.842553, 0.844488, 0.845364, 0.849938, 1.24747, 0.849797, 0.850419, 0.84453, 0.837404, 0.838645, 0.847131, 0.847381, 0.0033704, 0.846971, 0.836421, 0.829319, 0.83126, 0.83305, 0.834683, 0.835877, 0.836793, 0.837935, 0.835999, 0.826956, 0.829151, 0.830724, 0.842979, 0.837635, 0.84499, 0.844851, 0.838936, 0.841435, 0.836991, 0.838643, 0.833399, 0.836041, 0.837762, 0.832402, 0.834704, 0.835596, 0.837734, 0.830919, 0.833328, 0.835059, 0.850015, 0.848578, 0.84993, 1.32701, 0.867926, 1.32044, 1.32764, 0.874839, 0.876722, 0.876324, 0.875601, 0.877948, 0.879375, 0.879928, 0.884464, 0.886674, 0.887333, 0.895485, 0.895835, 0.897467, 0.901408, 0.903407, 0.909201, 0.916316, 0.919888, 0.921655, 1.31416, 0.940052, 1.33121, 1.28602, 0.00367572, 0.00393677, 1.05196, 0.003812, 1.02371, 1.01554, 1.01436, 1.01388, 1.01159, 1.02027, 1.01013, 1.01654, 1.01503, 1.01731, 1.01823, 1.03099, 1.03283, 1.68142, 1.4032, 1.06468, 1.07138, 1.70007, 1.13215, 1.17947, 1.23144, 1.27941, 1.14845, 1.15136, 1.19952, 0.00349488, 1.3232, 1.39245, 1.60604, 1.63853, 1.59314, 1.75207, 1.57163, 0.00378654, 1.29802, 1.29345, 1.29296, 1.29431, 1.29443, 1.30025, 1.30329, 1.31583, 1.32627, 1.32673, 1.3227, 1.33224, 1.75825, 1.75134, 1.76043, 1.3595, 1.36742, 1.37515, 1.37824, 1.38189, 1.49894, 1.44373, 1.44128, 1.76679, 1.7545, 1.41998, 1.43318, 1.43166, 1.77867, 1.44235, 1.44709, 1.78133, 1.46357, 1.47237, 1.47528, 1.81335, 1.82467, 1.55655, 1.55516
0.396863, 0.397825, 0.398141, 0.398013, 1.33498, 1.33629, 0.877527, 0.887838, 0.368215, 0.369381, 0.37032, 0.351042, 0.356095, 0.344951, 0.345963, 0.346122, 0.346288, 0.00362139, 0.339134, 0.339978, 0.340273, 0.339618, 0.321024, 0.320528, 0.321277, 0.319906, 0.318889, 0.319357, 0.318239, 0.318061, 0.318929, 0.318059, 0.319336, 0.319995, 0.320413, 0.320335, 0.318464, 0.319914, 0.320412, 0.320484, 0.321384, 0.318514, 0.313789, 0.779922, 0.824396, 0.319227, 0.319733, 0.31731, 0.329052, 0.330159, 0.329433, 0.330638, 0.00401809, 0.928763, 0.00418605, 0.318473, 0.320577, 0.320541, 0.317412, 0.315756, 0.325604, 0.325329, 0.327937, 0.329209, 0.331229, 0.331189, 0.330671, 0.341697, 0.342658, 0.347466, 0.345302, 0.345617, 0.345611, 0.359936, 0.355778, 0.357003, 0.357426, 0.373285, 0.375364, 0.37613, 0.961743, 0.00369722, 0.782257, 0.00354159, 0.00402337, 0.00363649, 0.00383443, 0.00364947, 0.663841, 0.00394494, 0.663208, 0.00413901, 0.646156, 0.525379, 0.00420698, 0.548956, 1.04911, 1.3993, 1.43413, 0.00369302, 0.600067, 0.600338, 0.00368214, 0.00389161, 1.16069, 0.00427278, 0.681058, 0.00418264, 0.00405022, 0.0040132, 0.857502, 0.00373836, 0.829781, 0.829321, 0.944302, 0.966964, 0.885982, 0.880828, 0.879227, 0.87853, 1.32277, 0.00348647, 1.24433, 1.35732, 1.38643, 1.35755, 1.33489, 1.37868, 0.868919, 1.57853, 1.57866, 0.867798, 0.874336, 0.00403356, 0.866473, 0.869874, 0.870413, 0.85993, 0.860715, 0.870436, 0.863414, 0.866313, 0.866763, 0.860958, 0.863873, 0.843002, 0.846383, 0.848636, 0.852387, 0.849687, 0.850202, 0.850403, 0.852328, 0.859111, 0.856645, 0.856742, 0.849834, 0.849351, 0.852741, 0.853879, 0.856926, 0.859298, 0.854603, 0.853151, 0.849933, 0.846, 0.850334, 0.840045, 0.843785, 0.84181, 0.843953, 0.846773, 0.848692, 0.849127, 0.848181, 0.851782, 0.849023, 0.848876, 0.849799, 0.849077, 0.848592, 0.838345, 0.848138, 0.847884, 0.848774, 0.839253, 0.845583, 0.845958, 1.22396, 0.00407861, 1.42788, 1.70349, 0.850972, 0.852147, 0.857208, 0.876082, 0.861022, 0.863711, 0.866521, 0.867848, 0.873582, 0.87595, 0.877526, 0.875519, 0.878459, 0.880239, 0.887856, 0.887226, 0.886002, 0.894944, 0.899424, 0.901081, 0.901534, 0.903526, 0.905193, 0.911185, 1.09555, 0.923491, 0.927933, 0.930975, 1.31411, 1.32223, 1.29401, 0.00428558, 1.33349, 1.0818, 0.00410341, 1.01411, 1.01784, 1.01902, 1.02964, 1.01598, 1.01771, 1.01948, 1.02178, 1.02094, 1.0225, 1.02589, 1.02771, 1.39672, 1.28824, 1.21315, 1.06128, 0.00374802, 1.52618, 0.0039998, 1.21927, 0.00370307, 1.28094, 1.28202, 1.2478, 1.18273, 1.29139, 1.19288, 1.19589, 1.32656, 1.67857, 1.65916, 0.00439085, 0.00395276, 1.89043, 1.29981, 1.30128, 1.30263, 1.30191, 1.29939, 1.30233, 1.31507, 1.31585, 1.3187, 1.32708, 1.32683, 1.33151, 1.33878, 1.33982, 1.74775, 1.36434, 1.37178, 1.37117, 1.37509, 1.76777, 1.76508, 1.76791, 1.7893, 1.75873, 1.41758, 1.41981, 1.43075, 1.43136, 1.78884, 1.44529, 1.44759, 1.53795, 1.4685, 1.4769, 1.47931, 1.4813, 1.49537, 1.8232, 0.00396515
0.397789, 0.398546, 0.398886, 0.398811, 0.398281, 0.396251, 0.395369, 0.394511, 0.368346, 0.370088, 0.370186, 0.370358, 0.36373, 0.365617, 0.366576, 0.359409, 0.366217, 0.361828, 0.878402, 0.337277, 0.00350497, 0.346625, 0.330757, 0.318344, 0.341059, 0.340444, 0.332382, 0.329906, 0.333694, 0.333417, 0.323796, 0.323912, 0.320791, 0.321105, 0.320911, 0.321504, 0.318506, 0.330404, 0.319988, 0.320049, 0.31962, 0.331398, 0.331234, 0.333024, 0.332089, 0.850101, 0.338978, 0.337587, 0.337238, 0.333105, 0.332895, 0.333692, 0.338625, 0.334979, 0.336797, 0.338196, 0.338225, 0.338285, 0.338304, 0.331836, 0.332981, 0.33189, 0.337399, 0.340323, 0.328998, 0.329426, 0.347672, 0.348509, 0.345997, 0.348909, 0.349099, 0.34944, 0.359715, 0.363606, 0.363477, 0.37221, 0.372216, 0.374017, 0.374091, 0.376132, 0.00399255, 0.00486487, 0.00395198, 0.00456229, 0.00371631, 0.918744, 0.927385, 0.570964, 0.0037159, 0.669843, 0.00388816, 0.56806, 0.00364247, 0.53222, 1.43051, 1.43039, 1.06837, 1.03966, 0.00365456, 1.03094, 0.00358238, 1.05279, 0.00388877, 0.96857, 0.00407238, 0.00405142, 0.00382334, 1.3685, 0.00354064, 1.07441, 0.00403706, 0.767522, 0.832985, 0.834661, 0.00401501, 0.871776, 0.00359223, 0.0041888, 0.00391707, 0.881292, 0.884572, 1.08732, 0.00366246, 1.02591, 0.880399, 0.873342, 0.876752, 1.35851, 0.880215, 0.88124, 0.880528, 1.42304, 0.87729, 0.87913, 0.873235, 0.863379, 0.865255, 0.866192, 0.866729, 0.878008, 0.004215, 0.875625, 0.870335, 0.870921, 0.869579, 0.869573, 0.877256, 0.863666, 0.863748, 1.35061, 0.858932, 0.859884, 0.863066, 0.85894, 0.858975, 0.860729, 0.861357, 0.86227, 0.856381, 0.857089, 0.859287, 0.860131, 0.863206, 0.863187, 0.856723, 0.858112, 0.859143, 0.858808, 0.852906, 0.855459, 0.857662, 0.852233, 0.850018, 0.851949, 0.85285, 0.853467, 0.85491, 0.854224, 0.850536, 0.852913, 0.854046, 0.856509, 0.857514, 0.857443, 0.848697, 0.846845, 0.849697, 1.25421, 1.24989, 1.25025, 0.861895, 0.86683, 0.862096, 0.86375, 0.86503, 0.866089, 0.869525, 0.873016, 0.877685, 0.879677, 1.33745, 0.888633, 0.89177, 0.89089, 0.889939, 0.897975, 0.00397309, 0.899691, 0.902948, 0.904522, 0.908527, 0.909996, 0.911907, 0.922654, 0.92093, 2.07651, 0.929481, 1.43093, 0.93894, 0.940579, 0.944941, 0.948141, 0.963529, 1.02203, 0.00348694, 1.00086, 0.00368994, 1.03528, 1.03608, 1.02372, 1.02361, 1.02485, 1.0247, 1.02494, 1.02498, 1.02529, 1.0268, 1.02903, 1.03195, 1.03324, 0.00370737, 1.15527, 0.00393158, 1.69162, 0.00362924, 1.69019, 1.25469, 1.12308, 1.12552, 1.25102, 1.16294, 1.29856, 1.29679, 1.29166, 0.00334862, 1.38312, 0.00387692, 1.6394, 0.0039871, 1.35032, 0.00390459, 1.29432, 1.32711, 1.31372, 1.30763, 1.31002, 1.31144, 1.31153, 1.31583, 1.31547, 1.66229, 1.3931, 1.76418, 1.3468, 1.79668, 1.74894, 1.75149, 1.36936, 1.37296, 1.37298, 1.37824, 1.76954, 1.77061, 1.40903, 1.75104, 1.42552, 1.42408, 1.43027, 1.43472, 1.43878, 1.44124, 1.45599, 1.45671, 1.54173, 1.47834, 1.47845, 1.48133, 1.49661, 1.50288, 1.50633
0.396365, 0.397252, 0.397761, 0.397818, 0.397414, 0.396228, 0.396828, 0.398162, 0.401106, 0.00348708, 0.376994, 0.00379304, 0.383786, 0.366624, 0.367133, 0.367577, 1.0057, 1.00527, 0.363498, 0.365437, 0.363511, 0.362606, 0.361467, 0.355761, 0.355499, 0.348431, 0.344001, 0.331535, 0.333963, 0.334035, 0.334092, 0.34271, 0.343059, 0.34427, 0.344309, 0.345523, 0.330867, 0.331363, 0.335788, 0.33738, 0.337511, 0.339227, 0.332492, 0.332857, 0.333763, 0.338689, 0.340238, 0.340816, 0.338502, 0.335202, 0.332253, 0.341009, 0.339841, 0.00339852, 0.919629, 0.00373986, 0.340669, 0.329375, 0.32995, 0.330793, 0.338526, 0.333641, 0.337226, 0.33939, 0.339686, 0.346181, 0.348672, 0.351003, 0.351581, 0.356595, 0.359353, 0.360465, 0.360382, 0.36287, 0.364522, 0.370419, 0.37275, 0.372368, 0.373898, 0.835925, 0.808442, 0.00370101, 0.820526, 0.00357769, 0.427547, 0.00378823, 0.00412621, 0.00371515, 0.00439007, 0.00424402, 0.662693, 0.00402949, 0.00408463, 0.670587, 0.00406739, 0.00380762, 1.0266, 1.02905, 1.03681, 0.00332765, 1.09451, 1.09597, 1.06335, 0.00401773, 0.0039738, 0.00416506, 0.681212, 1.05292, 0.742884, 0.00447402, 0.929274, 0.00399042, 0.937512, 0.00362328, 0.0043152, 0.00398956, 0.897973, 0.0039707, 0.912148, 0.00361938, 0.907297, 1.42972, 1.43026, 0.0038037, 1.4337, 1.44343, 1.24632, 0.00388651, 1.33506, 0.897739, 1.18375, 0.894937, 0.893619, 0.886829, 0.898147, 0.871212, 0.871936, 0.884577, 0.882473, 0.884024, 0.885813, 0.88178, 0.883095, 0.884637, 0.892506, 0.897218, 0.874239, 0.877629, 0.871271, 0.880602, 0.871293, 0.873438, 0.874516, 1.38121, 0.870724, 0.869261, 0.877329, 0.870081, 0.869401, 0.870597, 0.871858, 0.872394, 0.87296, 0.873566, 0.873725, 0.871263, 0.872739, 0.868323, 0.860824, 0.85655, 0.857708, 0.859038, 0.856735, 0.861052, 0.861851, 0.862957, 0.854103, 0.857634, 0.857729, 0.858653, 0.859307, 0.856511, 0.868163, 0.867853, 0.85701, 0.863688, 0.858186, 0.860116, 1.26018, 0.866677, 0.87047, 0.880457, 0.873949, 0.876148, 0.875186, 0.877014, 0.883881, 0.885725, 0.887211, 0.891471, 0.892631, 0.894895, 0.908461, 1.15118, 0.901228, 0.901692, 0.904757, 0.902552, 0.904043, 0.906064, 0.909302, 0.911071, 0.921632, 0.924725, 0.92941, 0.932493, 0.933141, 0.939091, 0.940218, 0.947503, 0.954285, 0.956456, 0.960016, 0.971749, 1.03027, 0.0040493, 1.01008, 1.01461, 1.02299, 1.02641, 1.02963, 1.04347, 1.02464, 1.02656, 1.02971, 1.03102, 1.03382, 1.72501, 1.09573, 1.05004, 1.05844, 0.00355822, 1.72463, 1.69604, 1.69422, 1.69557, 1.2661, 1.24756, 1.22626, 1.20542, 1.27216, 1.28959, 1.18938, 1.20233, 1.30886, 1.21427, 1.23, 1.33266, 1.65092, 0.00366118, 0.00411729, 0.00396688, 1.30875, 1.31777, 1.31644, 1.3133, 1.31005, 1.31133, 1.31178, 1.3159, 1.31946, 1.34075, 1.82825, 1.35022, 1.75811, 1.75725, 1.37131, 1.37396, 1.37717, 1.37944, 1.3888, 1.78612, 1.78436, 1.40516, 1.76407, 1.42586, 1.42589, 1.42469, 1.43231, 1.44302, 1.44387, 1.44974, 1.45827, 1.78813, 1.48035, 1.48165, 1.54171, 0.00380253, 1.50107, 1.89622
0.00392148, 0.915277, 0.984703, 0.638804, 0.918153, 0.401356, 0.00365533, 0.403015, 0.00399838, 0.961623, 0.00417245, 0.397151, 0.00375092, 0.39367, 0.00351589, 0.38749, 0.00361445, 0.796418, 0.372808, 0.371873, 0.371357, 0.360114, 0.359623, 0.356052, 0.0040962, 0.344726, 0.00375639, 0.333777, 0.33381, 0.34224, 0.344064, 0.344763, 0.344379, 0.346292, 0.346231, 0.35071, 0.348133, 0.355528, 0.33929, 0.344652, 0.929788, 0.909636, 0.909349, 0.902438, 0.861447, 0.339517, 0.343047, 0.343346, 0.351882, 0.336852, 0.355088, 0.355791, 0.00445669, 0.361143, 0.352909, 0.360049, 0.36037, 0.356932, 0.356433, 0.338694, 0.338846, 0.935725, 0.00388196, 0.345788, 0.00372264, 0.354412, 0.355548, 0.354802, 0.354629, 0.355343, 0.35849, 0.375279, 0.36078, 0.379595, 0.383887, 0.383176, 0.384575, 0.393779, 0.395221, 0.400795, 0.00405893, 0.403836, 0.00387409, 0.863549, 0.42718, 0.427804, 0.00378472, 0.448787, 0.00426351, 0.00328906, 0.00370709, 0.00399957, 0.00419606, 0.00388338, 0.00395949, 1.60343, 0.00416626, 0.00364715, 0.00384175, 1.42986, 0.00347047, 0.630153, 0.631043, 0.631725, 0.00367192, 1.057, 0.00352531, 1.08438, 0.00401965, 0.724895, 0.00396592, 0.967594, 0.00407442, 0.861413, 0.00371476, 0.880209, 0.00375513, 0.982981, 0.907967, 0.918532, 0.911539, 0.912764, 0.00365675, 1.19168, 0.970209, 0.893779, 0.895311, 0.898123, 0.897485, 0.898424, 0.00358741, 1.18265, 1.53114, 0.901181, 0.902705, 0.905305, 0.882174, 0.884339, 0.886405, 0.88364, 0.884931, 0.893715, 0.883177, 0.884812, 0.887712, 0.88417, 0.880476, 0.882388, 0.885528, 0.894188, 0.879955, 0.881314, 0.881905, 0.883551, 0.881716, 0.88462, 0.883631, 0.881787, 0.880529, 0.883418, 0.878209, 0.881085, 0.88209, 0.881292, 0.877559, 0.877223, 0.880174, 0.87128, 0.871891, 0.871273, 0.865963, 0.866514, 0.869436, 0.870698, 0.870537, 0.870225, 0.8602, 0.861544, 0.861281, 0.861323, 0.863872, 0.867116, 0.870568, 0.871304, 0.870237, 0.86981, 0.873635, 0.873649, 0.877418, 0.87929, 0.881384, 0.88903, 0.891517, 1.20837, 0.890141, 0.890133, 0.891552, 0.893744, 0.898435, 1.41624, 0.900828, 0.900858, 0.903382, 0.981464, 0.920237, 0.00374269, 0.909302, 0.909728, 0.912815, 0.920613, 0.923042, 0.924832, 0.927998, 0.938137, 0.937719, 0.938767, 0.943099, 0.944706, 0.949737, 0.950718, 0.960173, 1.32345, 1.31559, 0.973087, 0.978297, 1.18239, 1.194, 1.0157, 1.01949, 1.04818, 0.00385251, 1.0421, 1.0363, 1.03624, 1.03503, 1.03748, 1.03816, 1.04094, 1.05075, 1.43262, 1.43162, 1.15137, 1.07841, 1.07803, 1.44866, 1.73636, 0.00365733, 1.25815, 1.26713, 1.26908, 1.26769, 1.29288, 1.29413, 1.19655, 1.22275, 1.22004, 1.23068, 1.47166, 1.46536, 1.33386, 1.28587, 1.28568, 1.35736, 1.32021, 1.32246, 1.32176, 1.32311, 1.31611, 1.3193, 1.3213, 1.32324, 1.33435, 0.00369163, 1.36548, 1.35896, 1.35842, 1.80928, 1.37499, 1.38021, 1.38142, 1.38767, 1.39036, 1.76977, 1.7733, 1.42355, 1.42571, 1.42641, 1.42968, 1.43781, 1.44644, 1.44911, 1.45372, 1.46247, 1.81936, 0.00362782, 1.84515, 1.8445, 1.49897, 0.00372297, 1.51225
0.967153, 0.00377947, 0.00404063, 0.00388484, 1.00058, 0.00346824, 1.00963, 0.0036529, 0.00368156, 0.00358212, 0.966625, 0.967755, 0.960661, 0.00378617, 0.38793, 0.00346024, 0.863644, 0.0039096, 0.379048, 0.374134, 0.379799, 0.378911, 0.366541, 0.369295, 0.369664, 0.369822, 0.370826, 0.371486, 0.363274, 0.363976, 0.341375, 0.342014, 0.365341, 0.36225, 0.361524, 0.356683, 0.357874, 0.358388, 0.358428, 0.360871, 0.3614, 0.361167, 0.360466, 0.363304, 0.364993, 0.365727, 0.365854, 0.361545, 0.361217, 0.358259, 0.359798, 0.358321, 0.357506, 0.00364175, 0.363107, 0.360673, 0.35995, 0.361608, 0.362504, 0.363953, 0.363633, 0.360629, 0.00370691, 0.00395437, 0.369197, 0.00385712, 0.368512, 0.368923, 0.372418, 0.37388, 0.373975, 0.37601, 0.380074, 0.381641, 0.382295, 0.383336, 0.383372, 0.395019, 0.403652, 0.407972, 0.40961, 0.410213, 0.410629, 0.00355253, 0.0035122, 0.00370643, 0.446388, 0.00401157, 0.00406241, 0.00335223, 0.614403, 0.00401485, 1.00286, 0.00364173, 0.983635, 0.0036832, 0.00430712, 0.00361746, 0.704116, 1.4312, 1.45331, 0.628763, 0.630076, 1.01026, 0.970459, 0.00366836, 0.00349702, 0.00365419, 0.753016, 0.735506, 0.736447, 0.950537, 0.786629, 0.0040361, 0.00400048, 0.00419292, 0.00426516, 0.0038583, 0.960717, 0.00386337, 0.932896, 0.918928, 0.919485, 0.924453, 0.909046, 0.911935, 0.912625, 0.913391, 0.918773, 0.916888, 0.918345, 1.18828, 0.918375, 0.00362409, 0.90791, 0.902591, 0.907379, 0.904368, 0.90438, 0.904395, 0.904634, 0.904674, 0.897784, 0.895813, 0.905185, 0.898532, 0.881016, 0.89141, 0.894293, 0.894254, 0.905374, 0.881784, 0.901976, 0.884945, 0.885564, 0.886435, 0.886616, 0.887067, 0.888297, 0.8874, 0.88669, 0.885314, 0.882551, 0.88435, 0.885627, 0.884859, 0.884977, 0.881658, 0.881306, 0.880469, 0.878075, 0.873386, 0.876648, 0.876618, 0.876804, 0.8794, 0.880144, 0.8803, 0.884191, 0.879148, 0.881807, 0.879819, 0.880554, 0.872537, 0.87422, 0.00372275, 0.884174, 0.885426, 0.889456, 0.890944, 0.893565, 0.894038, 0.898305, 0.89847, 0.898476, 0.902851, 0.891154, 0.907097, 0.906059, 0.908059, 0.910336, 0.911212, 0.913262, 0.00333336, 0.922513, 0.923241, 0.929761, 0.926932, 0.928034, 0.925116, 0.928315, 0.935521, 0.937468, 0.9396, 0.944217, 0.946461, 0.950782, 0.952863, 0.957155, 0.961818, 0.970164, 0.972307, 0.973769, 0.0036382, 1.29873, 1.40189, 1.19899, 0.00366414, 2.11723, 0.00351292, 1.03754, 1.0407, 1.04341, 1.03973, 1.03909, 1.03708, 1.03775, 1.38543, 1.76192, 1.05559, 1.36034, 1.36069, 1.73926, 1.74317, 1.73707, 1.70923, 1.74193, 1.70434, 1.73057, 1.25485, 1.25846, 1.19738, 1.19781, 1.20253, 1.3306, 1.22675, 1.22793, 1.23369, 1.72451, 1.54012, 1.6613, 1.29024, 1.37112, 1.37128, 1.32354, 1.32615, 1.3271, 1.32348, 1.32473, 1.32454, 1.32945, 1.33399, 1.34651, 1.35851, 1.35806, 1.77037, 1.36778, 1.37833, 1.39195, 1.3866, 1.39264, 1.40244, 1.39999, 1.40614, 1.4543, 1.43081, 1.43089, 1.47441, 1.8374, 1.83336, 1.9156, 0.00417569, 1.84361, 1.84173, 1.47739, 1.49147, 1.49245, 1.86326, 1.84743, 1.55412
0.00382717, 0.0039939, 0.927475, 0.00371517, 0.00395352, 0.923345, 0.854072, 0.951931, 1.01259, 0.0041416, 0.00391265, 1.06003, 0.916208, 1.12824, 0.00407297, 0.411736, 0.395368, 0.39756, 0.396775, 0.396993, 0.379392, 0.381285, 0.880565, 0.36858, 0.370255, 0.37075, 0.371319, 0.373494, 0.375078, 0.375226, 0.364913, 0.366582, 0.366295, 0.364082, 0.362312, 0.361969, 0.356073, 0.356261, 0.365887, 0.368149, 0.369116, 0.370373, 0.369921, 0.368908, 0.367601, 0.366134, 0.365575, 0.363444, 0.363543, 0.358985, 0.354984, 0.357107, 0.362205, 0.375774, 0.373959, 0.376485, 0.375593, 0.373262, 0.361985, 0.362502, 0.375934, 0.375932, 0.00384954, 0.373966, 0.374297, 0.375768, 0.377328, 0.380696, 0.371815, 0.374198, 0.375354, 0.375847, 0.376216, 0.379876, 0.392501, 0.393758, 0.40297, 0.403384, 0.405278, 0.405667, 0.408446, 0.409826, 0.409748, 0.756815, 0.00383052, 0.819691, 0.832136, 0.00387165, 0.500546, 0.483644, 0.498455, 0.504098, 0.517463, 0.980603, 0.00422651, 0.00423604, 0.00374445, 0.584166, 0.601268, 1.5062, 0.00437076, 0.00374868, 0.00397939, 1.02631, 1.08405, 1.02919, 0.00369711, 0.00422239, 0.003875, 1.17407, 1.1824, 0.00374871, 0.00426787, 0.00389853, 0.00375854, 0.878455, 0.909162, 0.912055, 0.93893, 0.930892, 0.941996, 0.934112, 0.935298, 1.4024, 1.38593, 0.918984, 0.92636, 0.923106, 0.925862, 1.29615, 0.925513, 0.943155, 0.943609, 0.92787, 0.915811, 0.927489, 0.925218, 0.921293, 0.905116, 0.907092, 0.908399, 0.909386, 0.925455, 0.912226, 0.911886, 0.913241, 0.910111, 0.893294, 0.895678, 0.904865, 0.905065, 0.904202, 0.891638, 0.892199, 0.890125, 0.888932, 0.890946, 0.897312, 0.887837, 0.897375, 0.887161, 0.888257, 0.887333, 0.886233, 0.888371, 0.887095, 0.882165, 0.884449, 0.878642, 0.88331, 0.878942, 0.878624, 0.880328, 0.880979, 0.881445, 0.883346, 0.883943, 0.888413, 0.886299, 0.886964, 0.886149, 0.886797, 0.886972, 0.888485, 0.0035566, 0.898992, 0.898259, 0.899629, 1.30301, 1.30858, 1.28673, 1.30506, 0.00377023, 0.920105, 0.913482, 0.912788, 0.996524, 0.921231, 0.00379011, 0.916964, 0.919484, 0.922795, 0.923873, 0.00322904, 0.936537, 0.949914, 0.92762, 0.928605, 0.93321, 0.937102, 0.938948, 0.942504, 0.945825, 0.949909, 0.946874, 0.956262, 1.12313, 1.12733, 1.13021, 0.966647, 0.980952, 0.97953, 1.32638, 1.32738, 0.995349, 2.11546, 1.00314, 1.5467, 1.46864, 2.08697, 0.0036816, 1.05419, 1.04755, 1.04693, 1.04878, 1.04433, 1.04564, 1.05489, 1.21835, 1.06444, 0.00357265, 1.10111, 1.07951, 1.74553, 1.46625, 1.74738, 1.74108, 1.12256, 1.29242, 1.27831, 0.00408349, 1.29594, 1.29662, 1.29879, 1.32945, 1.22293, 1.31324, 1.24135, 1.2448, 1.24641, 1.35464, 1.34862, 0.0037527, 1.30799, 0.00381154, 1.32605, 1.32724, 1.32845, 1.32869, 1.32951, 1.33178, 1.46828, 0.00353242, 1.35138, 1.4755, 1.36722, 1.37059, 1.8369, 1.38782, 1.39145, 1.39113, 1.39986, 1.40642, 1.41723, 1.41565, 1.4232, 0.00399181, 1.44028, 1.44013, 1.44805, 1.46101, 1.46701, 1.83012, 1.47277, 1.48047, 1.73806, 0.00365299, 1.49978, 1.51158, 1.51973
0.46801, 0.46984, 0.470468, 0.471011, 0.00385592, 0.00353863, 0.994648, 0.940395, 0.940496, 0.00325651, 1.01585, 0.417049, 0.416692, 0.416479, 0.416107, 0.411209, 0.39557, 0.39644, 0.397258, 0.396907, 1.02865, 0.00389598, 0.39882, 0.00375129, 0.385838, 0.389309, 0.388436, 0.374666, 0.374895, 0.374747, 0.00345845, 0.939968, 0.787697, 0.0037284, 0.380141, 0.38126, 0.382048, 0.38309, 0.386914, 0.367992, 0.368678, 0.369145, 0.369035, 0.370795, 0.369867, 0.37029, 0.378511, 0.377568, 0.379471, 0.378498, 0.377314, 0.376714, 0.378018, 0.377265, 0.377049, 0.389278, 0.0036989, 0.940782, 0.382506, 0.375003, 0.376436, 0.377194, 0.38672, 0.38775, 0.376804, 0.384063, 0.38424, 0.383146, 0.390389, 0.374069, 0.372883, 0.383481, 0.390653, 0.393145, 0.394883, 0.395487, 0.396643, 0.397368, 0.404204, 0.405522, 0.894183, 0.00390986, 0.00363564, 0.00404661, 0.912122, 0.00405983, 0.837017, 0.00422816, 0.482947, 0.485061, 0.496253, 0.503531, 0.501654, 0.539033, 0.539757, 0.553639, 0.00392585, 0.00398096, 1.07439, 0.00348919, 0.00379713, 0.641246, 0.641588, 0.658476, 1.03355, 1.16408, 1.15686, 0.00414476, 0.72193, 0.00373891, 1.37481, 0.00382818, 0.00405384, 0.00397906, 0.00396373, 0.871088, 0.909068, 0.92346, 0.928708, 0.933102, 0.938593, 0.937569, 0.950338, 0.936575, 0.937194, 0.938177, 0.936346, 0.950997, 0.951159, 0.944126, 0.946378, 0.949501, 0.920975, 0.923061, 0.923678, 0.938583, 0.921661, 0.921429, 0.940221, 0.916984, 0.942999, 0.920818, 0.920855, 0.9162, 0.92344, 0.915037, 0.917791, 0.916955, 0.908866, 0.907959, 0.908138, 0.905931, 0.905456, 0.90486, 0.905711, 0.899927, 0.900928, 0.899053, 0.887908, 0.889443, 0.883776, 0.885239, 0.908026, 0.909943, 0.884457, 0.888917, 0.881275, 0.889757, 0.881452, 0.887366, 0.88714, 0.885403, 0.881074, 0.882227, 0.884689, 0.887268, 0.890258, 0.890204, 0.89004, 0.893592, 0.898321, 0.90075, 0.901063, 0.905308, 0.907224, 0.906858, 0.910555, 0.912237, 0.9131, 0.91547, 0.915292, 1.43796, 0.921384, 0.932456, 0.923991, 0.928162, 0.928742, 0.929016, 0.922351, 0.926435, 0.927006, 0.930243, 0.931382, 0.940056, 0.945138, 0.944082, 0.94575, 0.946835, 0.945433, 0.953036, 0.953124, 0.00350642, 0.950395, 0.95155, 0.962682, 0.963355, 0.964087, 1.12231, 0.973943, 0.975188, 0.978074, 0.985975, 0.994054, 0.994023, 1.00177, 1.00147, 1.00569, 1.00706, 1.03231, 0.00358307, 1.47492, 1.0502, 1.06008, 1.07767, 1.0483, 1.04937, 1.0577, 1.05829, 1.0622, 1.07059, 1.07245, 1.08393, 1.17526, 0.00352139, 1.74888, 0.00406075, 1.12347, 1.77144, 1.74082, 0.00375157, 0.00375411, 1.26031, 1.26575, 1.21393, 1.3377, 1.63962, 1.64087, 1.24476, 1.32081, 1.4869, 1.36057, 0.00436895, 1.30362, 1.30552, 1.82453, 1.37716, 1.33695, 1.33222, 1.33385, 1.33573, 1.34043, 1.34388, 1.34648, 1.3616, 1.36643, 1.37745, 1.37655, 1.38465, 1.3981, 1.39822, 1.81047, 0.00381132, 1.41044, 0.00394693, 1.42264, 0.00355991, 1.43673, 1.44805, 1.44504, 1.45204, 1.46251, 1.46136, 1.47319, 1.47974, 1.48264, 1.48877, 1.83777, 1.84541, 1.51009, 1.85693
0.47184, 0.4729, 0.471179, 0.636245, 0.466908, 0.46674, 0.465668, 0.00401787, 0.0038111, 0.739451, 0.870643, 0.416326, 0.416026, 0.416114, 0.415579, 0.410624, 0.410913, 0.410823, 0.00348624, 0.413077, 0.412743, 0.412091, 0.00349346, 0.405275, 0.387249, 0.398006, 0.398613, 0.399185, 0.396445, 0.396258, 0.00373677, 1.00496, 0.00401235, 0.387899, 0.381031, 0.382788, 0.38329, 0.382841, 0.00369052, 0.379933, 0.00385333, 0.389905, 0.389356, 0.389886, 0.377455, 0.376783, 0.377868, 0.378685, 0.378856, 0.37913, 0.375044, 0.375833, 0.389856, 0.39114, 0.390983, 0.39171, 0.00385648, 0.382555, 0.381527, 0.387472, 0.389194, 0.388748, 0.38918, 0.390615, 0.390985, 0.391588, 0.391733, 0.390447, 0.389794, 0.39716, 0.397734, 0.398522, 0.397056, 0.399772, 0.396247, 0.39616, 0.396439, 0.397492, 0.405717, 0.407094, 0.00330942, 0.420867, 0.00369322, 0.432273, 0.00400163, 0.45244, 0.454636, 0.455492, 0.00371505, 0.0101257, 0.0041455, 0.0106105, 0.00349676, 0.552694, 0.552407, 0.541897, 0.5581, 0.578366, 0.003485, 0.003956, 0.00404919, 0.641361, 0.00361402, 0.00398364, 0.00358516, 1.09931, 0.00385327, 0.00401739, 0.721203, 1.18602, 1.18645, 0.770518, 0.003462, 0.832822, 0.905755, 0.00425434, 0.882046, 0.912933, 0.914415, 0.941824, 0.954219, 0.956695, 0.955726, 0.953404, 0.954009, 0.950715, 0.94084, 0.943919, 0.955137, 0.956595, 0.961662, 0.978059, 0.95676, 0.946129, 0.950172, 0.93981, 0.960465, 0.961517, 0.975415, 0.944841, 0.935743, 0.935394, 0.940679, 0.938976, 0.943191, 0.92612, 0.912713, 0.915121, 0.911213, 0.911275, 0.91168, 0.902203, 0.905616, 0.915174, 0.916608, 0.909206, 0.913094, 0.887652, 0.887528, 0.876936, 0.888096, 0.862266, 0.866912, 0.903884, 0.905032, 0.890873, 0.892272, 0.891776, 0.894394, 0.887427, 0.886442, 0.887039, 0.885522, 0.887865, 0.907446, 0.896816, 0.898484, 0.898149, 0.898155, 0.901073, 0.901125, 0.896635, 0.898075, 0.906303, 0.906358, 0.911384, 0.914498, 0.91639, 0.917884, 0.918448, 0.917095, 0.926016, 0.934995, 0.934524, 0.936993, 0.936136, 0.928585, 0.930653, 0.930955, 0.934193, 0.939768, 0.940214, 0.942292, 0.94873, 0.949965, 0.95376, 0.955455, 0.95444, 0.956096, 0.960106, 0.958025, 0.959359, 0.956048, 0.958666, 0.971409, 0.968999, 0.966801, 1.41008, 0.981783, 0.980416, 0.987671, 0.988326, 0.999956, 0.99962, 0.00353345, 1.9898, 1.01485, 1.01864, 1.02692, 1.02919, 1.04098, 2.19934, 1.05731, 1.05998, 0.00339365, 0.00372824, 1.4797, 1.06461, 1.07471, 1.07488, 1.07446, 1.08499, 1.62761, 1.09385, 1.10274, 1.10554, 0.00394965, 1.13247, 0.00372967, 1.7768, 0.00386117, 1.28538, 1.27222, 1.27215, 1.31053, 1.44694, 0.00362262, 1.25142, 1.24363, 1.2644, 0.00342804, 1.59271, 0.00406509, 1.5818, 1.3714, 1.37107, 1.33794, 1.3434, 1.33728, 1.34093, 1.34243, 1.3442, 1.35514, 1.37097, 1.3722, 1.79835, 1.84395, 1.8444, 1.39215, 1.39687, 1.81851, 1.84135, 1.84336, 1.41531, 1.42352, 1.43199, 1.43193, 1.44046, 1.45495, 1.45339, 1.45852, 1.89467, 1.4772, 1.47601, 1.84945, 1.49302, 1.49449, 1.50537, 1.51713, 1.51646
0.503588, 0.915354, 0.475144, 0.475791, 0.47019, 0.468812, 0.46865, 0.00360523, 0.00404898, 0.734906, 0.823293, 0.802327, 0.808608, 0.00381462, 0.00397153, 0.00337282, 0.0031939, 0.424734, 0.425593, 0.425682, 0.413311, 0.404878, 0.405952, 0.411084, 0.411164, 0.411561, 0.399736, 0.399649, 0.398725, 0.397941, 0.407578, 0.408178, 0.409068, 0.00377848, 0.00409938, 0.397871, 0.0106183, 0.00359391, 0.403057, 0.400612, 0.401832, 0.00374627, 0.390625, 0.00401925, 0.395914, 0.395527, 0.396738, 0.397996, 0.399858, 0.00344627, 0.831216, 0.389458, 0.401835, 0.402886, 0.403373, 0.407637, 0.409043, 0.0037433, 0.385732, 0.38708, 0.388164, 0.388409, 0.390326, 0.389789, 0.390375, 0.391777, 0.392369, 0.392533, 0.396172, 0.401134, 0.402, 0.403653, 0.400431, 0.399535, 0.398373, 0.399587, 0.397726, 0.398948, 0.407239, 0.406636, 0.407944, 0.0032522, 0.429072, 0.00352968, 1.1128, 0.0039413, 0.0102807, 0.00330276, 0.00397011, 0.483188, 0.815555, 0.00364919, 0.0114039, 0.00390355, 0.561037, 0.568426, 0.571223, 0.00359567, 1.10293, 0.00346712, 0.00383263, 0.00384897, 0.660306, 0.65997, 0.673737, 0.00355509, 1.15306, 0.00355739, 0.77353, 0.00362505, 0.0038061, 0.00370097, 0.801405, 0.00335494, 0.887209, 0.843875, 0.901059, 0.00363247, 0.931958, 0.94316, 0.966253, 0.969704, 0.974333, 0.97979, 0.964197, 0.973048, 0.970068, 0.968911, 0.951085, 0.952671, 0.947118, 0.988775, 0.966935, 0.969471, 0.967822, 0.967995, 0.971073, 0.974201, 0.93948, 0.939342, 0.940013, 0.94099, 0.940621, 0.937039, 0.950512, 0.918536, 0.918816, 0.940553, 0.942993, 0.906012, 0.926083, 0.917239, 0.911008, 0.897428, 0.886319, 0.879497, 0.890245, 0.898426, 0.88757, 0.880689, 0.871387, 0.858525, 0.884177, 0.86147, 0.860806, 0.86708, 0.881465, 0.851482, 0.853668, 0.852401, 0.868613, 0.867747, 0.905669, 0.907082, 0.909029, 0.901211, 0.901925, 0.90567, 0.908418, 0.897869, 0.908453, 0.907354, 0.908488, 0.91933, 0.919964, 0.919532, 0.920757, 0.917116, 0.920011, 0.922163, 0.9234, 0.931413, 0.933653, 0.935119, 0.93626, 0.938554, 0.937625, 0.929197, 0.93548, 0.934216, 0.939527, 0.942952, 0.944811, 0.948209, 0.953684, 0.953251, 0.951368, 0.952764, 0.964001, 1.7476, 0.968307, 0.973285, 0.974849, 0.975153, 0.974679, 1.18493, 0.981131, 0.982659, 0.983555, 0.996469, 0.998733, 1.45758, 2.10641, 2.10101, 1.01017, 1.01204, 1.99856, 1.02136, 1.02536, 1.02967, 1.52161, 1.31936, 1.0593, 1.06128, 1.07027, 1.07614, 1.07703, 1.07568, 1.07466, 1.08147, 1.08218, 1.08264, 1.29496, 1.10132, 1.11631, 1.11629, 1.1253, 1.1334, 1.13646, 0.00389723, 1.16726, 0.00368734, 1.30919, 1.27186, 1.38953, 1.3535, 1.33349, 1.25846, 1.25099, 0.00364842, 1.37674, 1.27101, 1.3707, 0.00344994, 1.38161, 0.00362758, 1.35723, 1.35093, 1.34873, 1.34756, 1.82735, 1.57, 1.35977, 1.36743, 1.38484, 0.00410173, 1.39603, 1.39654, 1.39959, 1.39945, 1.4033, 1.4105, 1.48817, 1.84818, 1.42705, 1.85922, 1.43551, 0.0038117, 1.89008, 1.45714, 1.87363, 1.87354, 1.89268, 1.48348, 1.487, 1.49306, 1.4974, 1.50018, 1.50759, 1.51877
0.739091, 0.914208, 0.00392649, 0.00365711, 1.34045, 0.977983, 0.0038928, 0.473059, 0.472292, 0.00378526, 0.00397531, 0.00380427, 0.00376054, 0.456933, 1.11585, 0.961294, 0.00380115, 0.425507, 0.426381, 0.426535, 1.03882, 1.02599, 1.0258, 0.411489, 0.412583, 0.412175, 0.411951, 0.416793, 0.410432, 0.410257, 0.408671, 0.410538, 0.0036821, 0.00408292, 0.00380572, 0.418409, 0.00405919, 0.00387774, 0.00409323, 0.401826, 0.00378945, 0.408727, 0.408246, 0.40976, 0.409869, 0.409847, 0.395432, 0.406521, 0.401083, 0.404436, 0.411078, 0.400254, 0.402483, 0.402915, 0.409967, 0.410091, 0.411237, 0.42342, 0.00352913, 0.410194, 0.407421, 0.407879, 0.407171, 0.406038, 0.404256, 0.396493, 0.389641, 0.397196, 0.399005, 0.402718, 0.401114, 0.40414, 0.403983, 0.396817, 0.397169, 0.398745, 0.398927, 0.406079, 0.00386452, 0.413822, 0.00425175, 0.723192, 0.00372291, 0.448296, 0.448519, 0.00359809, 0.0036317, 0.00406918, 0.00364661, 0.485555, 0.485657, 0.82022, 0.822378, 0.00403876, 0.00363929, 0.00438325, 0.00401439, 0.939488, 0.00383369, 0.00345269, 0.00377211, 0.00343637, 0.663648, 1.40193, 0.00392992, 0.694593, 0.700432, 0.702424, 0.00357901, 0.00359953, 0.00390083, 0.00358203, 0.793916, 0.85795, 0.826254, 0.906272, 0.899019, 0.921479, 0.933338, 0.996033, 0.961139, 0.984231, 0.984723, 0.986938, 0.998705, 0.981793, 0.981478, 0.991175, 0.996002, 1.01474, 0.988375, 0.98833, 0.985334, 0.977826, 0.960733, 0.964467, 0.964645, 0.96742, 0.986171, 0.948254, 0.950629, 0.951137, 0.965934, 0.950883, 0.940034, 0.940295, 0.933908, 0.922589, 0.90834, 0.887944, 0.874321, 0.873316, 0.870912, 0.880112, 0.87167, 1.00211, 0.907707, 0.976847, 0.977684, 0.980616, 0.871766, 0.884949, 0.85802, 0.862694, 0.874178, 0.873672, 0.873398, 0.849729, 0.878403, 0.876706, 0.875476, 0.881921, 0.895209, 0.915681, 0.892896, 0.912005, 0.911994, 0.939722, 0.939224, 0.936932, 0.915918, 0.922302, 0.922354, 0.924238, 0.925425, 0.925744, 0.923069, 0.926652, 0.928148, 0.933795, 0.932995, 0.936825, 0.939079, 0.942965, 0.939462, 0.940537, 0.944236, 0.94492, 0.946195, 0.94748, 0.948861, 0.958851, 0.957071, 0.960273, 0.96096, 0.962503, 0.959305, 0.961092, 0.984018, 0.00388462, 0.97681, 0.979283, 0.980298, 0.979605, 0.987594, 0.986227, 0.987437, 0.987426, 0.990405, 0.992548, 1.00032, 1.00132, 1.44451, 1.01157, 1.01518, 2.16554, 2.08869, 1.79851, 1.51504, 1.30539, 1.30902, 1.05111, 0.00381716, 0.00395861, 0.0035556, 1.08157, 1.07999, 1.08212, 1.08215, 1.08703, 1.0859, 1.0923, 1.09453, 1.09784, 1.09433, 1.09807, 1.10521, 1.13801, 1.13795, 1.25759, 1.16367, 1.32706, 1.30758, 1.33305, 1.24989, 1.38703, 0.00369339, 1.24177, 0.00374632, 1.25886, 1.26788, 1.27588, 0.00358191, 0.00407186, 1.32795, 1.32885, 1.34082, 1.35461, 1.35525, 1.35949, 1.36563, 1.82478, 1.83536, 1.38373, 1.86945, 1.39105, 1.45428, 1.402, 1.4042, 1.40565, 1.41563, 1.41468, 1.42366, 1.4273, 1.43383, 1.89381, 1.43992, 1.44994, 1.45245, 1.88504, 1.88296, 1.88368, 1.90636, 1.48585, 1.48518, 1.84512, 1.88216, 1.85456, 1.5139, 1.51548
0.510809, 0.00360379, 1.06805, 0.00381379, 1.07454, 0.482578, 0.483228, 0.00377691, 0.474466, 1.62574, 1.62665, 0.46188, 0.463117, 0.463369, 0.460842, 0.00400152, 0.447596, 0.446788, 0.446892, 0.00348251, 1.03716, 1.03308, 0.880647, 0.0033749, 0.431484, 0.43191, 0.431763, 0.00402412, 0.428084, 0.00374365, 0.427744, 0.00413213, 0.82151, 0.433733, 0.433472, 0.424806, 0.425032, 0.421972, 0.421709, 0.422745, 0.422467, 0.00390812, 0.409738, 0.410735, 0.412451, 0.416093, 0.413735, 0.413354, 0.413276, 0.419109, 0.420118, 0.420917, 0.422905, 0.424055, 0.423838, 0.427491, 0.42615, 0.426231, 0.426377, 0.414552, 0.415983, 0.40718, 0.414785, 0.417484, 0.417566, 0.00395363, 0.415948, 0.416708, 0.417324, 0.408423, 0.407441, 0.414188, 0.413789, 0.421553, 0.405409, 0.407193, 0.407828, 0.408381, 0.414095, 0.00395024, 0.749483, 0.00366368, 0.0110878, 0.00361992, 0.450567, 0.00391285, 0.461488, 0.00374173, 0.010871, 0.00346641, 0.0035381, 0.0035024, 1.01674, 0.00428956, 0.00399505, 0.00368302, 1.0654, 1.0681, 1.05864, 0.00349675, 0.709911, 0.00370976, 0.0161996, 0.00365924, 0.696506, 0.699315, 0.701614, 0.00361536, 1.03336, 0.00323988, 0.00367929, 0.00385155, 0.952322, 0.816938, 0.840275, 0.90325, 0.929451, 0.936936, 1.01519, 0.950398, 1.00195, 1.0032, 0.996321, 1.00062, 1.00197, 1.00832, 1.00188, 1.00501, 1.00807, 1.00477, 1.00596, 1.01449, 1.00312, 0.994367, 0.971902, 0.975464, 0.994073, 0.994634, 0.961796, 0.964501, 0.94762, 0.940129, 0.949571, 0.950215, 0.943502, 0.936016, 0.915434, 0.910046, 0.916175, 0.890215, 0.925395, 0.931704, 0.922927, 0.928555, 0.929846, 0.937082, 0.935704, 0.956719, 0.933765, 0.939975, 0.91805, 0.907763, 0.88269, 0.859223, 0.87667, 0.877161, 0.86799, 0.871964, 0.874388, 0.880303, 0.891404, 0.88138, 0.927615, 0.929428, 0.90939, 0.908761, 0.871147, 0.930134, 0.872293, 0.929014, 0.907303, 0.908167, 0.890851, 0.917269, 0.957056, 0.957847, 0.923165, 0.928169, 0.927971, 0.929149, 0.949875, 1.02192, 0.943709, 0.946226, 0.949595, 0.95127, 0.952187, 0.952904, 0.95836, 0.95707, 0.957268, 0.964223, 0.972042, 0.974942, 0.968018, 0.970154, 0.971745, 0.971446, 0.977607, 0.982017, 0.985353, 0.987929, 0.995151, 0.995498, 0.996799, 1.00236, 1.00229, 0.986235, 0.988394, 1.00885, 1.01011, 1.01077, 1.01148, 1.01362, 1.39269, 1.02365, 1.02715, 1.03275, 1.03615, 1.52796, 1.04858, 1.33084, 1.3799, 0.00365722, 1.08134, 1.08639, 1.08906, 1.09157, 1.09488, 1.09743, 1.09546, 1.09744, 1.10579, 1.12297, 1.11251, 1.38284, 1.12771, 1.13758, 1.14867, 0.00376655, 1.79012, 1.33996, 1.24761, 1.31921, 1.33013, 1.33964, 1.24328, 1.24475, 1.34522, 1.27494, 1.28027, 1.27127, 1.28862, 0.0034072, 1.33313, 1.3368, 1.3466, 1.36072, 1.36162, 1.36396, 1.36946, 1.37208, 1.37443, 1.38576, 1.3869, 1.39622, 1.39918, 1.40408, 1.40735, 1.41104, 1.41907, 1.42456, 1.4334, 1.43329, 1.43719, 1.89822, 1.4454, 1.45387, 1.46056, 1.46049, 1.89066, 1.89217, 1.48597, 1.48811, 1.48813, 1.49456, 1.85805, 1.85665, 1.86307, 1.86313
0.52593, 0.00430392, 0.00376898, 0.00354782, 0.00377749, 0.832706, 0.00383489, 0.873573, 0.00390161, 0.00385726, 0.00377486, 0.463456, 0.463571, 0.796429, 0.00386965, 0.00418942, 0.457257, 0.459747, 0.459593, 0.459507, 0.459534, 0.451969, 0.00373152, 0.00374406, 0.00373345, 0.813889, 0.00375509, 1.08212, 0.788644, 1.07768, 0.00358196, 0.802033, 0.00370045, 0.433602, 0.435323, 0.435641, 0.434875, 0.435691, 0.00376833, 0.00385584, 0.00359358, 0.00392035, 0.00363688, 0.434966, 0.425529, 0.424963, 0.425442, 0.414228, 0.422566, 0.422734, 0.422448, 0.422599, 0.425209, 0.42604, 0.427587, 0.429577, 0.43085, 0.432107, 0.431348, 0.430842, 0.429221, 0.431209, 0.42043, 0.423341, 0.423349, 0.42258, 0.423971, 0.423927, 0.425293, 0.426095, 0.42685, 0.426403, 0.427309, 0.428012, 0.428121, 0.0104648, 0.00389106, 0.00388097, 0.0035453, 0.446709, 0.44692, 0.449438, 0.00383261, 0.456567, 0.00379956, 0.460638, 0.470358, 0.00349619, 0.00373057, 0.886696, 0.00323865, 0.0036804, 0.52253, 0.521742, 0.52962, 0.664142, 0.00352886, 0.0110402, 0.00372264, 0.791916, 0.00378042, 0.804196, 0.00386419, 0.693865, 0.700458, 0.714161, 0.00352048, 0.72254, 0.00383992, 0.847016, 0.828796, 0.877545, 0.849615, 0.858029, 0.855752, 0.851644, 0.90767, 0.952614, 0.952916, 1.02611, 1.08458, 1.027, 1.01326, 1.0217, 1.02554, 1.0355, 1.02371, 1.02319, 1.01284, 1.01966, 1.03215, 1.03553, 1.02993, 1.02983, 1.01176, 1.01948, 0.988382, 0.987097, 0.986165, 0.954249, 0.958985, 0.94248, 0.934238, 0.947019, 0.946109, 0.9958, 0.929408, 0.930458, 0.906956, 0.919395, 0.929103, 0.946334, 0.926154, 0.942466, 0.935086, 0.93544, 0.91807, 0.959571, 0.950028, 0.939184, 0.931337, 0.91919, 0.925949, 0.908618, 0.903913, 0.902203, 0.904914, 0.908002, 0.931809, 0.928318, 0.922357, 0.929135, 0.929263, 0.936638, 0.899734, 0.898745, 0.930002, 0.885792, 0.885304, 0.890843, 0.900435, 0.899342, 0.904818, 0.900663, 0.901999, 0.903796, 0.934368, 0.936218, 0.938055, 0.933785, 0.934676, 0.95294, 0.953908, 0.954961, 0.952047, 0.951123, 0.953937, 1.02938, 0.00353911, 0.966102, 0.966111, 0.967146, 0.981552, 0.980782, 0.982932, 0.987512, 0.988624, 0.983062, 0.984064, 1.46534, 0.995148, 0.995809, 1.00163, 0.999904, 1.00172, 1.01565, 1.01891, 1.00672, 1.01161, 1.01142, 1.01191, 1.01373, 1.01466, 1.01717, 1.02936, 1.03136, 1.03236, 1.03786, 0.00405168, 1.04984, 1.50945, 1.37805, 1.06679, 1.34694, 1.07767, 1.37786, 1.09969, 1.10084, 1.10177, 1.10532, 1.10609, 1.10655, 1.10891, 1.13152, 1.82511, 1.23431, 1.79746, 1.14726, 1.14531, 1.16207, 1.26122, 1.3316, 1.33093, 1.34795, 1.34458, 1.22888, 1.24663, 1.24499, 1.25694, 1.31831, 1.33743, 1.35364, 1.28975, 1.2975, 0.00362651, 1.39669, 0.00361635, 0.00402803, 1.3683, 1.37591, 0.00404621, 1.38188, 1.3831, 1.38522, 1.39589, 1.43797, 1.40754, 1.41514, 1.41379, 1.41715, 1.89219, 1.8921, 1.90157, 1.85945, 1.83544, 1.44671, 1.44553, 1.45203, 0.00363341, 1.88775, 1.47672, 1.4756, 1.48616, 1.4863, 1.49492, 1.49606, 1.49638, 1.86242, 1.53108, 1.531
0.519684, 0.521304, 0.522366, 0.522285, 0.521897, 0.00396967, 0.00390382, 0.00396672, 0.887732, 0.818379, 0.901854, 0.00365003, 0.00349418, 0.48507, 0.486565, 0.484322, 0.455947, 0.457852, 0.462231, 0.00377047, 0.455181, 0.00350849, 0.00379586, 0.00397193, 1.04407, 0.00399431, 0.538836, 0.00375596, 0.00376104, 0.00345234, 1.75672, 0.00394982, 0.451467, 0.452377, 0.432483, 0.438837, 0.00336457, 0.00368028, 1.04515, 0.00374211, 0.0038834, 0.00354042, 0.00361751, 0.434944, 0.435307, 0.434886, 0.43391, 0.429001, 0.419659, 0.834547, 0.4425, 0.443341, 0.425371, 0.434818, 0.432458, 0.428823, 0.437508, 0.431766, 0.442341, 0.441173, 0.432961, 0.438653, 0.439132, 0.420867, 0.424576, 0.425686, 0.425688, 0.427138, 0.426457, 0.428736, 0.429996, 0.428004, 0.43445, 0.434679, 0.435589, 0.43888, 0.443204, 0.440665, 0.448513, 0.455171, 0.455132, 0.455176, 0.454933, 0.00373598, 0.471977, 0.472926, 0.474748, 0.474772, 0.477128, 0.497151, 0.50725, 0.510786, 0.514204, 0.53114, 0.532348, 0.00375422, 0.00442357, 0.00392706, 0.0038957, 0.794237, 0.00371179, 0.00362508, 0.00404579, 0.00350737, 1.38457, 1.46164, 0.726167, 0.00398992, 0.741225, 0.927037, 0.898312, 0.901351, 0.899537, 0.852874, 0.863817, 0.929922, 0.904804, 0.960235, 1.04505, 0.969434, 1.08283, 1.04365, 1.04115, 1.03506, 1.03598, 1.02969, 1.03707, 1.04907, 1.04628, 1.02389, 1.0338, 1.03533, 1.01571, 0.997565, 1.00756, 0.980769, 0.977582, 0.969522, 0.978765, 0.968337, 1.04612, 1.01813, 1.01976, 0.992592, 0.993098, 0.991463, 0.986563, 0.990331, 0.998844, 1.01202, 0.956639, 0.957063, 0.964238, 0.959958, 0.964302, 0.967107, 0.966952, 0.976306, 0.97936, 0.977968, 0.977888, 0.950441, 0.941731, 0.956748, 0.946788, 0.962798, 0.93451, 0.944193, 0.960503, 0.961405, 0.968899, 0.971798, 0.92675, 0.939094, 0.933554, 0.924369, 0.926849, 0.915004, 0.8908, 0.900357, 0.882222, 0.892088, 0.876489, 0.888659, 0.891098, 0.90207, 0.901133, 0.914677, 0.915212, 0.94131, 0.938857, 0.940331, 0.956051, 0.955502, 0.957541, 0.958571, 0.960169, 0.961971, 0.965314, 0.966294, 0.970238, 0.00364439, 0.979522, 0.984086, 0.991992, 0.993232, 0.994475, 0.994813, 0.990677, 0.998154, 1.00175, 1.00263, 1.00461, 1.00535, 1.0084, 1.01229, 1.01652, 1.0167, 1.0123, 1.01535, 1.01591, 1.01754, 1.02032, 1.02563, 1.0284, 1.40286, 1.03721, 1.04216, 1.04574, 1.05073, 1.05306, 1.30218, 1.12964, 0.00360617, 1.39973, 0.00347937, 1.16104, 1.48537, 1.48626, 1.10626, 1.11133, 1.109, 1.1145, 1.11586, 1.12706, 1.49658, 1.13146, 1.13599, 1.1509, 1.83942, 1.84365, 0.00412475, 1.19556, 1.34276, 1.36858, 1.35061, 1.37541, 1.37573, 1.25641, 1.26429, 1.29616, 0.00354486, 0.00414203, 1.40875, 1.49577, 1.4677, 1.39048, 1.37877, 1.3731, 1.37416, 1.3816, 1.38277, 1.38482, 1.39279, 1.40045, 1.40581, 1.41646, 1.41628, 1.41787, 1.41628, 1.41704, 1.87862, 1.87878, 1.83693, 1.44479, 1.44894, 1.45078, 1.45282, 1.81724, 1.88383, 1.48133, 1.89928, 1.48789, 1.48964, 1.4995, 1.50069, 1.53439, 1.511, 1.88393, 1.5312
0.518682, 0.519585, 0.52059, 0.521537, 0.00361693, 0.00364952, 0.00400837, 0.003887, 0.742768, 0.745081, 0.0104214, 0.0034296, 0.00392407, 0.980627, 0.485952, 0.484403, 0.00363884, 0.00407353, 0.00361409, 0.49175, 0.00365328, 0.484497, 0.00322372, 0.00377539, 0.00374791, 1.07479, 0.00372904, 0.00395946, 0.00339302, 0.00435234, 0.00352215, 0.00381225, 0.00341758, 0.552548, 0.00365874, 0.467034, 0.00396441, 1.05782, 0.00391629, 0.00399064, 0.00386296, 1.03563, 0.00370647, 0.433439, 0.00380693, 1.10341, 0.932877, 0.921152, 0.00377652, 0.442081, 0.443521, 0.444748, 0.447475, 0.449628, 0.450534, 0.441513, 0.442377, 0.445054, 0.444332, 0.444708, 0.443038, 0.445215, 0.441926, 0.441908, 0.422765, 0.424419, 0.427873, 0.425955, 0.434584, 0.435521, 0.433404, 0.438214, 0.43867, 0.441485, 0.443287, 0.443321, 0.443887, 0.444654, 0.447976, 0.448782, 0.456955, 0.45673, 0.463444, 0.46671, 0.469952, 0.471646, 0.472163, 0.473494, 0.489288, 0.488756, 0.492236, 0.491944, 0.00332117, 0.00431429, 0.00342031, 0.00397409, 0.00342802, 0.597794, 0.591334, 0.60904, 0.798044, 0.00385274, 0.683234, 0.708406, 0.711545, 0.714461, 0.713964, 0.741269, 0.742663, 0.744328, 0.744316, 0.787931, 0.789499, 0.790118, 0.862533, 0.8642, 0.850678, 0.86097, 0.857347, 0.956792, 1.02927, 0.980254, 1.03314, 1.02465, 1.02771, 1.02585, 1.04435, 1.04204, 1.04364, 1.16832, 1.04326, 1.04696, 1.03092, 1.04063, 1.01636, 0.994384, 0.993696, 0.991048, 0.991162, 1.00311, 1.01511, 1.00789, 1.05068, 1.02334, 0.997863, 1.02655, 0.990653, 1.01183, 0.995718, 1.00094, 1.00777, 0.974416, 0.974348, 0.97101, 0.978139, 0.977049, 0.987099, 0.963014, 0.963949, 0.945318, 0.946504, 0.960401, 0.960923, 0.986566, 0.982679, 0.942729, 0.982791, 0.981318, 1.0144, 0.995511, 0.997909, 0.984004, 0.970447, 0.962112, 0.950022, 0.949724, 0.936608, 0.925125, 0.92436, 0.932163, 0.926238, 0.925444, 0.915943, 0.879286, 0.881407, 0.907956, 0.913117, 0.913174, 0.92955, 0.928791, 0.915591, 0.922874, 0.924931, 0.947569, 0.942398, 0.954032, 0.956754, 0.975264, 0.973596, 0.976627, 0.976429, 0.978969, 0.980243, 0.991648, 0.995221, 0.996924, 1.00098, 1.00383, 1.0038, 1.0123, 1.01198, 1.01728, 1.01854, 1.01456, 1.01244, 1.01442, 1.01585, 1.01694, 1.01959, 1.02248, 1.02413, 1.02566, 1.02696, 1.03089, 1.0357, 1.03676, 1.04357, 1.04868, 1.04976, 1.05508, 1.05794, 1.06701, 0.00384308, 1.08135, 1.11933, 1.47739, 1.10149, 0.00427742, 1.11416, 1.11696, 1.1183, 1.11677, 1.12042, 1.1223, 1.14173, 1.13689, 0.00356321, 1.55808, 1.84977, 1.16203, 1.7963, 1.19114, 0.00370653, 1.35864, 0.00352922, 1.41813, 0.0032825, 1.34742, 0.00380427, 1.53705, 0.00382144, 1.29884, 0.00357371, 1.41406, 1.4194, 1.41504, 1.37992, 1.39042, 1.38908, 1.86223, 1.85878, 0.00353074, 1.86834, 1.40085, 1.40439, 1.41032, 1.41777, 1.42053, 1.42089, 1.41945, 1.41777, 1.42324, 1.4377, 1.4385, 1.45008, 1.45215, 1.45255, 1.4552, 1.46616, 1.47398, 1.91097, 1.48298, 1.89022, 1.89126, 1.49752, 1.50202, 0.00360586, 1.51468, 0.00357151, 1.5235
0.00362175, 0.962579, 0.963074, 0.00444585, 0.543103, 0.00379609, 0.739154, 0.00363185, 0.00392309, 0.00378077, 0.00393494, 0.00363813, 1.86423, 0.00311091, 0.946544, 0.0036895, 0.493812, 0.497164, 0.50075, 0.496556, 0.496863, 0.498529, 0.500305, 0.00370804, 0.00365451, 0.484432, 0.485804, 0.486107, 0.48605, 0.00364712, 0.485421, 0.483949, 0.483505, 0.00379784, 0.00330944, 0.00365057, 0.00341196, 0.00354681, 0.00395858, 0.0040455, 0.459838, 0.459521, 0.461711, 0.459465, 1.03303, 0.00339232, 1.03173, 0.44781, 0.448628, 0.448595, 0.441946, 0.443882, 0.451423, 0.451629, 0.453815, 0.453852, 0.45524, 0.443259, 0.444808, 0.451281, 0.449665, 0.448534, 0.449655, 0.45004, 0.439455, 0.442499, 0.445138, 0.437905, 0.43238, 0.441431, 0.438555, 0.443134, 0.447498, 0.448082, 0.444215, 0.443498, 0.445352, 0.448187, 0.448484, 0.448134, 0.460487, 0.461523, 0.470143, 0.00387103, 0.470902, 0.481771, 0.484187, 0.00385918, 0.4868, 0.00366174, 0.00382599, 0.00381731, 1.12081, 0.00361725, 0.853155, 0.0042321, 0.843219, 0.00343946, 0.00394241, 0.00356622, 0.813078, 0.00372948, 0.00388122, 0.715513, 0.715061, 0.714942, 0.71848, 0.742482, 0.743238, 0.743929, 0.802486, 0.801985, 0.799228, 0.799946, 0.879506, 0.815894, 0.816992, 0.970151, 0.968919, 0.956817, 0.95599, 0.975024, 0.997592, 1.02304, 1.05426, 1.05098, 1.0535, 1.05619, 1.05799, 1.06116, 1.07144, 1.05013, 1.03951, 1.04843, 1.04939, 1.03096, 1.03386, 1.02, 1.02949, 1.0403, 1.08222, 1.07446, 1.05355, 1.03573, 1.05429, 1.03362, 1.02055, 1.02176, 1.01775, 0.989868, 0.994627, 0.99239, 0.991064, 0.990996, 0.995391, 1.01012, 0.977959, 0.987084, 0.97973, 0.977658, 0.98504, 0.97006, 0.973371, 0.988935, 0.997968, 0.973984, 0.991633, 0.971973, 0.991354, 0.981003, 0.979146, 0.978717, 0.986614, 0.967735, 0.960567, 0.974482, 1.00976, 0.949031, 0.943667, 0.94633, 0.985321, 0.970347, 0.965515, 0.973831, 0.933209, 0.954245, 0.949582, 0.937098, 0.912799, 0.924824, 0.936751, 0.927276, 0.947847, 0.929332, 0.961913, 0.960705, 0.964572, 0.968052, 0.973038, 0.974324, 0.975428, 0.978023, 0.982275, 0.987116, 1.01192, 1.0083, 1.00844, 1.01705, 1.14395, 1.02011, 1.02255, 1.02498, 1.02198, 1.02176, 1.02171, 1.02066, 1.02155, 1.02653, 1.02813, 1.02663, 1.02961, 1.03063, 1.03947, 1.03703, 1.03968, 1.04484, 1.04875, 1.05028, 1.0569, 1.0613, 1.0631, 1.07377, 1.07493, 1.07953, 0.00368103, 2.11418, 1.59596, 1.11597, 1.11863, 1.12269, 1.12582, 1.12739, 1.12861, 1.12878, 1.13602, 1.14333, 1.1417, 1.14274, 1.15046, 1.16478, 1.84077, 0.00355066, 1.89392, 0.003669, 1.21724, 0.00380054, 1.37755, 0.00398067, 1.26461, 1.36892, 1.28833, 1.28809, 1.5167, 0.00392939, 0.00365571, 0.00389749, 1.44141, 1.39499, 1.39844, 1.39439, 1.88325, 1.40559, 1.40307, 1.41576, 1.41361, 1.41411, 1.42261, 1.4215, 1.42744, 1.42919, 1.42786, 1.4293, 1.82388, 0.00367087, 1.44827, 1.4499, 1.45731, 1.46516, 1.46645, 1.47219, 1.86431, 1.893, 1.48797, 1.49196, 1.50137, 1.50166, 1.50661, 1.51347, 0.00361798, 1.89063
0.00405695, 0.00350808, 0.00369074, 1.43738, 1.20234, 0.00380317, 0.00388956, 0.0102395, 0.00386465, 0.00338664, 0.528583, 0.00355967, 0.00416231, 0.9207, 0.924008, 0.513302, 0.511953, 0.503536, 0.498829, 0.504083, 0.501617, 0.501594, 0.502586, 0.50301, 0.00404692, 0.488071, 0.488648, 0.488665, 0.488022, 0.488443, 0.487935, 0.486906, 0.491692, 0.999321, 1.00242, 0.47647, 0.48567, 0.487023, 0.483568, 0.4845, 0.00366188, 1.05082, 0.00364554, 0.00412812, 0.474477, 0.472194, 0.468766, 1.91674, 0.46553, 0.465332, 0.46742, 0.466594, 0.452613, 1.00937, 0.458208, 0.455197, 0.455533, 0.455698, 0.455817, 0.45373, 0.457383, 0.457951, 0.449276, 0.458888, 0.00370894, 0.451753, 0.453375, 0.452182, 0.446328, 0.447804, 0.448815, 0.449127, 0.451601, 0.450147, 0.45201, 0.45315, 0.455142, 0.458123, 0.459996, 0.459528, 0.470925, 0.471934, 0.472841, 0.471805, 0.471658, 0.483328, 0.487535, 0.00349439, 0.00394184, 0.00416389, 0.00381104, 0.00378793, 0.00375745, 0.00344258, 0.00376627, 0.00399693, 0.00421665, 0.0035227, 0.00369157, 0.00385094, 0.818178, 0.815098, 0.822142, 0.690869, 0.706922, 0.711583, 0.714008, 0.745977, 0.742787, 0.767991, 0.769395, 0.798735, 0.831678, 0.824601, 0.817818, 0.805157, 0.823992, 0.833679, 0.853957, 0.868049, 0.996368, 0.991485, 1.04153, 1.08171, 1.07503, 1.07541, 1.0902, 1.05716, 1.05525, 1.0592, 1.05134, 1.04046, 1.05275, 1.05375, 1.04283, 1.04289, 1.03299, 1.0385, 1.05135, 1.05329, 1.0532, 1.06532, 1.04674, 1.04651, 1.03613, 1.0358, 1.03598, 1.02249, 1.01897, 0.997363, 1.01822, 1.00169, 1.00519, 1.00427, 1.01017, 1.03289, 1.04659, 1.03379, 1.00429, 1.02236, 0.991622, 1.01769, 1.03285, 1.0476, 1.05044, 1.05151, 0.997375, 0.999634, 1.01239, 1.0056, 0.992015, 0.997298, 0.999487, 0.998514, 0.992676, 0.992508, 0.984557, 0.987959, 0.986537, 0.987315, 0.984994, 0.977024, 0.954956, 0.95102, 0.948514, 0.953054, 0.975031, 0.97335, 0.976854, 0.954068, 0.957288, 0.936056, 0.943447, 0.94402, 0.927857, 0.946041, 0.973258, 0.970842, 0.97341, 0.998094, 1.00102, 0.979228, 0.983043, 0.984004, 0.988192, 1.02305, 1.01858, 1.03304, 1.02485, 1.03909, 1.03804, 1.03861, 1.03181, 1.03206, 1.03153, 1.02183, 1.02564, 1.03052, 1.03103, 1.03223, 1.03808, 1.0395, 1.04343, 1.0496, 1.05043, 1.05276, 1.056, 1.05918, 1.06136, 1.0656, 1.06945, 1.07165, 1.08246, 2.14659, 1.09528, 1.20894, 0.00395666, 1.12342, 1.12807, 1.12932, 1.13047, 1.13204, 1.1303, 1.13592, 1.16675, 1.1437, 0.00393951, 1.2362, 0.00368643, 1.78867, 1.18149, 1.68454, 0.00393769, 1.20213, 1.21596, 1.27705, 1.36463, 1.3607, 0.0034058, 1.26596, 0.00381981, 1.29068, 0.00372476, 1.36108, 0.00388714, 1.43076, 0.00348335, 0.0036501, 0.00394015, 1.40835, 1.40546, 1.40617, 1.4129, 1.41366, 1.41464, 1.41969, 1.42214, 1.42997, 1.43305, 1.43074, 1.43303, 1.43334, 1.432, 1.43827, 1.45392, 1.45371, 1.46353, 1.46134, 0.00392136, 1.91181, 1.92006, 1.50227, 1.8635, 1.5024, 1.50478, 1.50494, 1.50973, 1.51109, 0.00369208, 1.5256
1.18888, 0.00358718, 1.16142, 0.00373103, 0.00354371, 0.0037036, 0.00380399, 0.00376351, 0.00357336, 0.00354796, 0.529737, 0.00338288, 0.528744, 0.00392674, 0.916083, 0.513493, 1.18759, 0.00384774, 0.503706, 0.501671, 0.501742, 0.501805, 0.502371, 0.503073, 0.00418146, 0.485098, 0.486253, 0.00360219, 0.499083, 0.50047, 0.501361, 0.496675, 0.499816, 0.500144, 0.00418268, 0.00343748, 0.487291, 0.489222, 0.489657, 0.492028, 0.490986, 0.00326332, 0.00345936, 0.474422, 0.475832, 0.476716, 0.477071, 0.00381509, 0.467325, 0.468895, 0.470074, 0.469944, 0.470452, 1.01552, 0.469999, 0.46989, 0.469149, 0.467581, 0.468098, 0.460262, 0.465253, 0.470691, 0.46396, 0.468037, 0.470552, 0.45176, 0.45334, 1.05421, 0.459019, 0.448822, 0.448848, 0.454616, 0.453605, 0.449954, 0.456995, 0.457921, 0.458116, 0.46215, 0.463081, 0.464152, 0.463387, 0.474221, 0.475579, 0.476157, 0.476093, 0.485805, 0.486908, 0.488272, 0.00390418, 0.00358672, 0.00379708, 0.00351887, 0.00373084, 0.00358552, 0.0102175, 0.00374165, 0.003903, 0.00365939, 0.00383501, 0.00356715, 0.00355586, 0.00370869, 0.845193, 0.703453, 0.699239, 0.721951, 0.718041, 0.718959, 0.720217, 0.72146, 0.753078, 0.767238, 0.799106, 0.795514, 0.827304, 0.830065, 0.835915, 0.891033, 0.871157, 0.88767, 0.901017, 1.06465, 1.07381, 1.09412, 1.09254, 1.09176, 1.06649, 1.0653, 1.0721, 1.07091, 1.06693, 1.06305, 1.05408, 1.08177, 1.07797, 1.07774, 1.07418, 1.06569, 1.06264, 1.08064, 1.0805, 1.07478, 1.04728, 1.0655, 1.05313, 1.04977, 1.05324, 1.03397, 1.0345, 1.02557, 1.03675, 1.02644, 1.03064, 1.04703, 1.03726, 1.03573, 1.03578, 1.03784, 1.07663, 1.04429, 1.0466, 1.04635, 1.01891, 1.01714, 1.03784, 1.00964, 1.02349, 1.01963, 1.02748, 1.01718, 1.02806, 1.00343, 1.01589, 1.00482, 1.01769, 1.03229, 1.02536, 1.00924, 1.02869, 0.98827, 0.991002, 0.990586, 0.992324, 0.992336, 0.978571, 0.96337, 0.963726, 0.991552, 0.984281, 0.986939, 0.987845, 0.962918, 0.96441, 0.966791, 0.956826, 0.954194, 0.959036, 0.936873, 0.975989, 0.960404, 0.955013, 0.984144, 0.987854, 0.989324, 1.02926, 1.02882, 1.02578, 1.02573, 1.02873, 1.0326, 1.03619, 1.0404, 1.04133, 1.03983, 1.04089, 1.03609, 1.03679, 1.03868, 1.03718, 1.03796, 1.12235, 0.00342309, 1.04977, 1.05264, 1.05535, 1.05847, 1.06342, 1.06551, 1.43401, 0.00375303, 1.42417, 1.42661, 1.54004, 1.09262, 1.41892, 1.4226, 1.12728, 1.13583, 1.14162, 1.13531, 1.13653, 1.13974, 1.14005, 1.14371, 1.15341, 1.15324, 1.15788, 1.1597, 1.16779, 0.00348097, 1.19467, 0.00370623, 0.00418521, 0.00339271, 1.89646, 1.40268, 1.4115, 1.35878, 1.38451, 1.37026, 1.3836, 1.6858, 1.30193, 0.00356346, 1.57447, 0.00351563, 0.0038144, 0.00359023, 1.41347, 1.41246, 1.41121, 1.41524, 1.41273, 1.41681, 1.42019, 1.42184, 1.42713, 1.43705, 1.43476, 1.43849, 1.44148, 1.43893, 1.4395, 1.43803, 1.45016, 1.45838, 1.46454, 1.46389, 1.47445, 0.00363331, 1.4798, 1.49579, 1.49713, 1.49735, 1.50205, 1.93927, 1.51491, 1.51537, 1.52578, 0.00344248
0.00386034, 0.962729, 0.00377598, 0.00376736, 0.00369618, 0.00389997, 0.00376207, 0.00378666, 0.0040384, 0.0035153, 0.00382408, 1.0021, 0.54537, 0.54641, 0.00384708, 0.00360642, 0.953259, 0.00397448, 0.822865, 1.03786, 0.506086, 1.05235, 0.0035737, 0.00402878, 0.00402964, 1.09846, 0.00333866, 1.10895, 0.501707, 0.501551, 0.502107, 0.501414, 0.508605, 0.510373, 0.5104, 0.508044, 0.00349626, 0.498356, 0.00346223, 0.00398799, 0.00372587, 0.502458, 0.00380388, 0.473334, 0.474308, 0.475254, 0.00403978, 0.0106664, 0.00361899, 1.06488, 0.481644, 0.482823, 0.481603, 0.481292, 0.00354798, 0.480414, 0.482229, 0.472456, 0.472279, 0.473968, 0.470601, 0.47548, 0.473969, 0.473102, 0.475653, 0.477263, 0.477051, 0.47015, 0.470456, 0.46156, 0.461861, 0.462928, 0.462944, 0.46103, 0.46724, 0.467528, 0.467189, 0.465648, 0.468313, 0.469057, 0.471127, 0.480416, 0.479692, 0.47961, 0.492205, 0.492772, 0.493566, 0.494558, 0.501072, 0.0040003, 0.00367299, 0.00351719, 0.00357134, 0.00354082, 0.00326976, 0.00383046, 0.00397543, 0.00353965, 0.607484, 0.60253, 0.610175, 0.597682, 0.6346, 0.700802, 0.696511, 0.749352, 0.719266, 0.72634, 0.706193, 0.765611, 0.73152, 0.722763, 0.780725, 0.822776, 0.82518, 0.82535, 0.828455, 0.856849, 0.920667, 0.957163, 0.97724, 0.966346, 1.07556, 1.07682, 1.08249, 1.08476, 1.09371, 1.09192, 1.11016, 1.12234, 1.08278, 1.08388, 1.08814, 1.0785, 1.07162, 1.06502, 1.08636, 1.07486, 1.07466, 1.07705, 1.09134, 1.11632, 1.12273, 1.08473, 1.04905, 1.06525, 1.05982, 1.05104, 1.05746, 1.06298, 1.07191, 1.06721, 1.07369, 1.04655, 1.05446, 1.05438, 1.06235, 1.05482, 1.06812, 1.07103, 1.06238, 1.05138, 1.04422, 1.04722, 1.08445, 1.04022, 1.04727, 1.03336, 1.0501, 1.03909, 1.03642, 1.11217, 1.00625, 1.02402, 1.02564, 1.033, 1.0399, 1.04683, 1.01894, 1.00517, 1.01619, 1.00133, 1.00225, 1.01174, 1.00538, 0.998386, 1.01026, 1.01699, 0.992147, 0.991938, 0.985401, 0.981788, 0.977427, 0.98647, 0.994887, 0.968267, 0.960565, 0.960842, 0.964506, 0.948318, 0.99132, 0.98949, 1.01967, 0.995289, 1.03425, 1.03401, 1.02683, 1.02929, 1.03291, 1.03686, 1.04034, 1.04451, 1.04977, 1.04928, 1.04739, 1.044, 1.04683, 1.04339, 1.04457, 1.05003, 1.05087, 1.05517, 1.1228, 1.06407, 1.06535, 1.06747, 1.06928, 1.47258, 1.07817, 1.08365, 1.0861, 1.08799, 0.00349607, 1.09768, 1.10154, 1.57181, 1.20356, 1.13706, 1.14148, 1.15404, 1.14699, 1.14781, 1.1496, 1.14969, 1.15614, 1.15644, 1.16381, 1.17544, 1.32721, 1.22607, 1.194, 1.19485, 1.20539, 1.20652, 0.00360113, 1.47487, 1.29283, 1.29523, 1.36514, 1.27839, 1.3755, 1.38301, 1.3068, 0.00419652, 0.00400304, 0.00416629, 1.38628, 1.38968, 1.38642, 1.39585, 1.41924, 1.42412, 1.91165, 1.42262, 1.88912, 1.42786, 1.42665, 1.43561, 1.43663, 1.44316, 1.44271, 1.44357, 1.44241, 1.44457, 1.45129, 1.45884, 1.46107, 1.47047, 1.46781, 1.84065, 1.92412, 1.89246, 1.93127, 1.49941, 1.50383, 1.50972, 1.51398, 1.5137, 1.91094, 1.53379
0.00392412, 0.00407489, 0.00386231, 0.00344999, 0.599652, 0.00374752, 0.00377363, 0.00376933, 0.00378948, 0.00397064, 0.00392034, 0.00364097, 1.01046, 0.551753, 0.552094, 0.55163, 0.00405753, 0.0035945, 0.00431486, 0.569994, 0.570081, 1.05624, 0.00397001, 0.0035538, 0.544571, 0.00392842, 1.10677, 0.00360289, 0.00383309, 0.00382106, 0.968248, 1.11322, 0.520953, 0.521496, 0.522347, 0.00375933, 0.0104674, 0.915173, 1.51289, 0.00346137, 1.05193, 1.05333, 0.00387325, 0.00355861, 0.00390831, 0.0037581, 0.977185, 0.00359748, 0.00402585, 0.00365303, 1.08454, 0.00367782, 0.480505, 0.0036248, 0.481296, 0.482972, 0.483915, 0.483918, 0.997409, 0.483851, 0.472873, 0.479118, 0.481125, 0.483702, 0.484533, 0.485221, 0.485674, 0.481521, 0.476823, 0.472407, 0.460366, 0.462134, 0.46357, 0.466554, 0.467982, 0.467906, 0.473596, 0.474559, 0.46916, 0.482452, 0.483267, 0.484288, 0.484143, 0.496582, 0.494737, 0.494378, 0.494703, 0.50226, 0.503632, 0.504036, 1.07447, 0.00350975, 0.0040984, 0.00375775, 0.00346966, 0.00423768, 0.0040902, 0.794083, 0.605889, 0.607907, 0.609055, 0.632165, 0.633259, 0.635582, 0.682716, 0.751482, 0.709653, 0.725309, 0.718786, 0.725338, 0.733014, 0.740777, 0.742145, 0.79391, 0.817463, 0.863511, 0.900863, 0.898466, 0.923058, 0.997919, 0.998133, 0.993989, 1.08122, 1.08159, 1.08753, 1.10997, 1.13157, 1.11536, 1.12219, 1.1268, 1.13285, 1.08321, 1.0918, 1.09882, 1.09894, 1.1216, 1.1412, 1.1134, 1.17476, 1.12223, 1.12141, 1.11477, 1.10723, 1.1188, 1.10135, 1.10393, 1.09832, 1.07185, 1.11372, 1.1152, 1.08162, 1.07074, 1.0848, 1.1167, 1.11901, 1.12191, 1.04805, 1.12149, 1.12186, 1.057, 1.07493, 1.09038, 1.10293, 1.06581, 1.05493, 1.07074, 1.06064, 1.0646, 1.0578, 1.05948, 1.04039, 1.05797, 1.10698, 1.09445, 1.07795, 1.04935, 1.03906, 1.04971, 1.0533, 1.02172, 1.04902, 1.04657, 1.05808, 1.0049, 1.01134, 1.01196, 1.02567, 1.00843, 1.00959, 1.00101, 0.975815, 0.990798, 0.995977, 0.990877, 0.994226, 0.98742, 0.98411, 0.997735, 0.995824, 0.964067, 0.980817, 0.986151, 0.989645, 1.01828, 1.02824, 1.02747, 1.02972, 1.03367, 1.03712, 1.03703, 1.03952, 1.05482, 1.05597, 1.05775, 1.05543, 1.0541, 1.05216, 1.05163, 1.05109, 1.05639, 1.05763, 1.06309, 1.06579, 1.06827, 1.07041, 1.07477, 1.07601, 1.08019, 1.08217, 1.08471, 1.09022, 1.09351, 0.0036738, 1.10352, 1.57584, 1.57514, 1.37197, 0.00353476, 0.00386934, 1.15274, 1.15226, 1.15317, 1.15478, 1.15647, 1.15962, 1.16695, 1.16941, 0.00393608, 1.85651, 1.94329, 1.88735, 1.92024, 1.2037, 0.00333773, 1.22228, 1.30283, 1.253, 1.38864, 1.39448, 1.4156, 0.00373813, 1.49664, 1.62414, 1.62308, 0.00380104, 0.00370141, 1.39969, 1.92687, 1.85784, 0.00350791, 1.45135, 0.00406403, 1.42961, 1.42967, 1.43041, 1.43285, 1.43054, 1.4343, 1.44108, 1.44165, 1.45096, 1.44787, 1.44795, 1.4487, 1.44957, 1.9202, 1.46544, 1.4691, 1.47147, 1.92354, 1.48289, 1.48989, 1.48869, 1.50399, 1.50459, 1.51361, 1.51781, 1.51851, 1.52053, 1.53364
0.00344233, 0.607422, 0.00362103, 1.12005, 1.19221, 1.14958, 1.1269, 1.11562, 0.00369352, 0.0109204, 0.584782, 0.00382, 0.00379073, 1.01223, 0.552595, 0.552408, 0.00365204, 0.580274, 0.00350286, 0.00399729, 0.00394859, 0.00378604, 0.00365191, 0.556372, 0.00388277, 0.549943, 0.548973, 0.00401404, 0.53878, 0.538415, 0.538908, 0.538671, 0.532041, 0.531549, 0.523821, 0.532772, 0.533209, 0.00361768, 0.0037954, 1.06342, 0.524234, 0.524411, 0.00339798, 0.521375, 0.517946, 0.518102, 0.00345849, 1.10182, 0.00346563, 1.09496, 1.08335, 1.17345, 0.0036334, 0.49378, 0.493954, 0.492944, 0.495112, 0.495547, 0.49615, 0.4881, 0.487924, 0.490967, 0.491592, 0.491639, 0.492396, 0.486086, 0.486991, 0.480475, 0.00375018, 0.846227, 0.00390626, 0.00417148, 0.00367915, 0.479717, 0.479891, 0.480008, 0.480363, 0.479454, 0.48012, 0.483905, 0.485021, 0.486178, 0.489617, 0.488526, 0.00339142, 0.503864, 0.505483, 0.506463, 0.506777, 0.508593, 0.00351093, 0.612018, 0.00362519, 0.535505, 0.550258, 0.550851, 0.00359943, 0.577361, 0.597908, 0.600216, 0.656592, 0.645334, 0.64712, 0.646497, 0.647179, 0.68793, 0.687085, 0.703992, 0.705241, 0.736102, 0.736874, 0.76967, 0.77919, 0.822397, 0.861151, 0.936626, 0.936596, 0.982055, 0.985115, 0.986099, 1.02377, 1.0726, 1.10522, 1.11676, 1.12903, 1.13307, 1.13367, 1.13801, 1.12894, 1.14014, 1.14712, 1.12333, 1.10283, 1.12195, 1.15569, 1.15609, 1.14298, 1.13335, 1.12524, 1.13344, 1.14945, 1.13554, 1.15066, 1.14437, 1.15044, 1.15953, 1.17445, 1.17504, 1.19096, 1.21117, 1.09191, 1.04649, 1.11627, 1.12651, 1.14606, 1.13342, 1.13741, 1.32026, 1.10025, 1.12009, 1.12309, 1.11509, 1.08432, 1.0843, 1.07683, 1.05785, 1.05867, 1.06481, 1.0875, 1.09471, 1.07879, 1.07485, 1.08694, 1.08541, 1.08903, 1.06686, 1.05388, 1.05421, 1.03996, 1.05352, 1.05995, 1.05695, 1.04679, 1.02348, 1.04095, 1.04016, 1.02928, 1.02958, 1.02305, 1.01846, 1.01561, 1.00567, 0.987858, 0.991829, 0.990802, 0.991238, 1.02839, 0.974127, 0.967974, 0.988281, 0.95447, 0.979809, 0.980976, 1.05028, 1.02949, 1.02981, 1.03044, 1.03589, 1.03917, 1.04417, 1.04829, 1.05501, 1.05734, 1.05949, 1.06308, 1.06338, 1.06207, 1.0612, 1.06465, 1.06592, 1.07047, 1.07023, 1.07222, 1.07701, 1.07743, 1.08035, 1.08456, 1.08635, 1.08997, 1.09309, 1.09425, 1.09788, 1.11113, 1.11196, 1.11373, 1.12323, 0.00390033, 1.59048, 1.16449, 1.15808, 1.15921, 1.16111, 1.16009, 1.16132, 1.16693, 1.1667, 1.1749, 1.87231, 1.18839, 1.27511, 0.00384682, 1.20155, 1.2075, 1.21331, 0.0036311, 1.23071, 0.00350231, 1.39156, 1.39883, 1.70706, 0.0034975, 1.48211, 1.48734, 1.48512, 1.47928, 1.38796, 0.00390366, 1.39857, 1.40007, 1.40244, 0.00354302, 1.44768, 0.00360579, 1.43445, 1.4338, 1.44051, 1.43498, 1.43862, 1.43907, 1.44002, 1.45366, 1.45313, 1.45462, 1.45472, 1.45694, 1.46154, 1.4656, 1.46788, 1.48163, 1.48131, 0.0035941, 1.49072, 1.48936, 1.50597, 1.50248, 1.51502, 1.51731, 1.51625, 1.52098, 1.53043
1.21007, 1.12019, 1.04031, 0.00351022, 1.10869, 0.00367525, 0.610534, 1.13336, 0.00373158, 1.06814, 0.963562, 0.584525, 0.00372325, 0.00329637, 1.07386, 0.580933, 0.00368037, 0.00347295, 0.00381069, 0.56648, 0.566479, 0.566203, 0.00368293, 0.560228, 0.560113, 0.560209, 0.00378884, 0.537362, 0.53811, 0.539292, 0.539582, 0.54125, 0.540984, 0.541078, 0.538664, 0.534499, 0.53483, 0.534216, 1.07017, 1.08956, 1.10281, 1.10168, 1.93367, 0.528262, 0.52529, 0.523985, 0.00366284, 0.00338308, 0.519468, 0.52057, 0.00382643, 0.00371473, 0.0038647, 0.00366033, 0.507903, 0.508132, 0.498876, 0.498626, 0.501067, 0.501386, 0.502001, 0.497295, 0.498316, 0.498081, 0.499442, 0.00331152, 0.00360388, 0.0038761, 0.0106131, 0.00373594, 0.00386418, 0.00362828, 0.00377733, 0.00346381, 0.479951, 0.48027, 0.480979, 0.481849, 0.482875, 0.487156, 0.48654, 0.0037137, 0.00387954, 0.00352361, 0.00373565, 0.510519, 0.511741, 0.513394, 0.514336, 0.515608, 0.517738, 0.521024, 0.521843, 0.547097, 0.547745, 0.546191, 0.55632, 0.557652, 0.558895, 0.559131, 0.591462, 0.601257, 0.60412, 0.604209, 0.633087, 0.634625, 0.664015, 0.705335, 0.797173, 0.780705, 0.776316, 0.825123, 0.852943, 0.85083, 0.864336, 0.936856, 0.93712, 1.00929, 1.03525, 1.04404, 1.08563, 1.08694, 1.10993, 1.16133, 1.14623, 1.15466, 1.14647, 1.14749, 1.1949, 1.19696, 1.11965, 1.14383, 1.15286, 1.13873, 1.139, 1.18918, 1.14668, 1.17462, 1.1543, 1.15666, 1.18079, 1.19156, 1.18523, 1.15861, 1.16588, 1.20503, 1.17544, 1.20618, 1.20254, 1.20248, 1.1575, 1.15937, 1.18154, 1.18269, 1.18139, 1.12282, 1.18476, 1.1197, 1.10012, 1.10279, 1.10615, 1.10574, 1.08711, 1.08941, 1.10517, 1.113, 1.08988, 1.09783, 1.18412, 1.10971, 1.10872, 1.10644, 1.08881, 1.08897, 1.08388, 1.08832, 1.09466, 1.05548, 1.05386, 1.04422, 1.04586, 1.03445, 1.03992, 1.0413, 1.0432, 1.05398, 1.06143, 1.04768, 1.06491, 1.02192, 1.03362, 1.02263, 1.02557, 1.03976, 1.01426, 1.00592, 1.02865, 1.01188, 1.00753, 1.00802, 1.00369, 1.00716, 1.02083, 1.0204, 1.01208, 1.01932, 1.0315, 1.03277, 1.04609, 1.04505, 1.05269, 1.05562, 1.06016, 1.29195, 1.0677, 1.06813, 1.07033, 1.07256, 1.07051, 1.07007, 1.07393, 1.07494, 1.0811, 1.08392, 1.08741, 1.08825, 1.08977, 1.0931, 1.0951, 1.09706, 1.10125, 1.10181, 1.11243, 1.11616, 1.11878, 1.52303, 1.43353, 1.37229, 1.15518, 1.15672, 1.1628, 1.16519, 1.16349, 1.16446, 1.16917, 1.47519, 1.17581, 1.19534, 1.95978, 1.90462, 1.20515, 1.28486, 1.87351, 1.40279, 1.40629, 1.40213, 1.39882, 0.00340319, 1.40108, 1.43804, 0.00359444, 1.41466, 0.00373388, 1.96544, 1.36459, 0.00360126, 0.00356209, 0.00371325, 0.00370592, 1.91758, 0.00391303, 0.0034346, 1.44166, 1.44327, 1.43807, 1.43689, 1.43999, 1.44082, 1.44052, 1.44683, 1.45038, 1.46015, 1.46018, 1.45983, 1.46042, 1.94125, 1.94307, 0.0038353, 1.48182, 1.48347, 1.48587, 1.48859, 0.00387556, 1.50607, 1.5141, 1.51882, 1.52074, 1.52586, 1.52594, 1.52805
0.00338833, 1.26665, 0.00388705, 0.00385011, 0.00378825, 0.00399302, 0.00376689, 0.00392437, 0.00390777, 0.805382, 1.05428, 0.00394252, 0.0038222, 0.00399602, 0.0036775, 0.00325872, 0.583012, 0.583191, 0.00374905, 0.0038218, 0.0034452, 0.00371623, 0.00396736, 0.560338, 0.560123, 0.569898, 0.567996, 0.00356384, 0.536237, 0.537016, 0.538523, 0.538891, 0.539282, 0.548874, 0.549329, 0.548533, 0.547959, 0.546034, 0.545229, 0.54407, 0.544846, 0.538686, 0.536151, 0.00405154, 0.00381106, 0.00412333, 0.00408339, 1.10195, 0.520952, 0.523187, 0.523658, 0.524237, 0.517618, 0.516341, 0.516227, 0.507421, 0.507487, 0.500785, 0.500992, 0.502255, 0.502627, 0.502918, 0.0036396, 1.19545, 0.00399859, 0.0038219, 1.03013, 0.00364424, 0.00343444, 0.00396053, 0.0032615, 0.00384951, 0.00383817, 0.49966, 0.501339, 0.502557, 0.502637, 0.00395051, 0.00391267, 0.00359102, 0.00387261, 0.504922, 0.506934, 0.508146, 0.509178, 0.513156, 0.513798, 0.516284, 0.517496, 0.518481, 0.519917, 0.522219, 0.523358, 0.542928, 0.543689, 0.537872, 0.53913, 0.55601, 0.597436, 0.591558, 0.591225, 0.641221, 0.640341, 0.62189, 0.639151, 0.637534, 0.638017, 0.649192, 0.74311, 0.744905, 0.822675, 0.828894, 0.858132, 0.870912, 0.94728, 0.945998, 0.945318, 0.996162, 1.07934, 1.08173, 1.08797, 1.1026, 1.15785, 1.21319, 1.19228, 1.15944, 1.17809, 1.17074, 1.16803, 1.18158, 1.15634, 1.157, 1.16017, 1.16341, 1.16478, 1.16784, 1.16824, 1.25064, 1.17645, 1.17769, 1.20564, 1.21479, 1.20597, 1.20693, 1.19112, 1.17687, 1.17962, 1.16597, 1.17004, 1.17043, 1.18958, 1.16717, 1.1559, 1.20475, 1.16887, 1.15284, 1.13219, 1.14771, 1.14992, 1.15214, 1.11599, 1.12863, 1.1313, 1.1229, 1.15088, 1.10492, 1.16276, 1.16474, 1.3427, 1.09799, 1.18666, 1.09744, 1.11005, 1.10715, 1.09729, 1.09268, 1.11237, 1.10695, 1.0905, 1.03259, 1.03462, 1.04019, 1.03663, 1.03898, 1.0326, 1.03977, 1.05686, 1.05322, 1.04519, 1.04578, 1.02175, 1.04617, 1.03874, 1.03284, 1.03252, 1.03426, 1.02558, 1.02604, 1.0069, 1.00199, 0.998565, 1.0058, 1.01093, 1.00163, 1.00091, 1.04233, 1.03534, 1.02248, 1.03981, 1.0725, 1.07386, 1.05665, 1.05885, 1.14057, 1.0722, 1.07488, 1.07628, 1.0768, 1.07659, 1.07797, 1.08108, 1.08444, 1.08485, 1.08754, 1.09047, 1.09346, 1.09788, 1.09843, 1.10037, 1.19578, 1.10652, 1.11137, 1.11258, 1.1223, 0.00371588, 0.00373306, 1.58456, 1.14779, 0.00369487, 1.28543, 1.16559, 1.17052, 1.17033, 1.17117, 1.174, 1.17802, 1.18897, 1.18631, 1.18902, 1.19573, 1.86586, 1.2901, 1.85895, 1.42025, 1.8608, 1.23814, 1.24012, 1.25106, 1.46058, 1.46168, 0.00350171, 1.42124, 1.42722, 1.33039, 0.00356147, 0.00371473, 0.00363977, 1.40234, 0.00406759, 0.00365426, 0.00375109, 1.45475, 1.43949, 1.44308, 1.44269, 1.44307, 1.4426, 1.44361, 1.44456, 1.45017, 1.45035, 1.45855, 1.46243, 1.46099, 1.46357, 1.46265, 1.4718, 1.47327, 1.47443, 1.92502, 1.92993, 1.49571, 1.92779, 1.50965, 1.51243, 1.5173, 1.51646, 1.52376, 1.52787, 1.53033
0.650641, 1.23715, 1.23805, 0.00327686, 1.12671, 0.00364832, 0.00374982, 0.00344486, 0.00382444, 0.00357331, 0.63605, 0.00340074, 0.00402687, 0.00368624, 0.00383109, 0.00352373, 0.587826, 0.589498, 0.589673, 0.589985, 0.789077, 0.00384773, 0.00373054, 0.00358916, 0.582433, 0.583334, 0.003569, 0.00382, 0.00438482, 0.00362512, 0.0036575, 0.56219, 0.562986, 0.563162, 0.557109, 0.557332, 0.544805, 0.00348275, 0.549807, 0.544455, 0.546808, 0.550587, 0.550731, 0.551761, 0.548875, 0.0037119, 0.54473, 0.00397155, 0.94282, 0.0036726, 0.528379, 0.52997, 0.53062, 0.527257, 0.525311, 0.00357503, 0.524158, 0.00376604, 0.500835, 0.503053, 0.516513, 0.516992, 0.516865, 0.517013, 0.517723, 0.518778, 0.00374526, 0.00348354, 0.00346982, 0.00357249, 0.00390594, 0.00348097, 0.750197, 0.501148, 0.502263, 0.502819, 0.504011, 0.507137, 0.509167, 0.509459, 0.510064, 0.514167, 0.516876, 0.515988, 0.517593, 0.517635, 0.518381, 0.517267, 0.516605, 0.51792, 0.517215, 0.519676, 0.52076, 0.535611, 0.535685, 0.538492, 0.552052, 0.553356, 0.594867, 0.596273, 0.594689, 0.594121, 0.567101, 0.59397, 0.624923, 0.632298, 0.693364, 0.683877, 0.763015, 0.82264, 0.840578, 0.867678, 0.877764, 0.930893, 0.963291, 0.997989, 0.982552, 1.00239, 1.06766, 1.09984, 1.12712, 1.14302, 1.1817, 1.17971, 1.17839, 1.17164, 1.19324, 1.17789, 1.1783, 1.16738, 1.18905, 1.1689, 1.16937, 1.16966, 1.18372, 1.21308, 1.19383, 1.23936, 1.20585, 1.2115, 1.21297, 1.2199, 1.21624, 1.20358, 1.20633, 1.18217, 1.19778, 1.19631, 1.17117, 1.16532, 1.1617, 1.14603, 1.14547, 1.12701, 1.14667, 1.14222, 1.15028, 1.1404, 1.11861, 1.11775, 1.14321, 1.1231, 1.11184, 1.12219, 1.12243, 1.18572, 1.18746, 1.16537, 1.18173, 1.18324, 1.11118, 1.10329, 1.10492, 1.10895, 1.1148, 1.11808, 1.095, 1.09471, 1.09554, 1.09723, 1.07737, 1.07106, 1.07188, 1.06799, 1.04415, 1.0675, 1.05765, 1.06863, 1.05595, 1.06144, 1.06131, 1.06089, 1.06125, 1.11239, 1.04411, 1.04969, 1.04045, 1.04333, 1.05468, 1.04324, 1.04471, 1.04449, 1.01859, 1.02205, 1.0221, 1.02574, 1.04659, 1.0492, 1.02699, 1.03644, 1.04218, 1.0646, 1.14943, 1.07532, 1.09235, 1.09049, 1.0873, 1.08778, 1.08919, 1.08885, 1.08778, 1.0884, 1.09188, 1.09347, 1.09233, 1.09604, 1.09822, 1.10183, 1.1079, 1.10942, 1.11254, 1.11656, 1.11904, 1.4485, 1.22068, 1.13733, 1.14298, 1.14888, 1.20333, 1.17185, 1.17187, 1.17109, 1.1739, 1.17539, 1.17792, 1.18393, 1.18869, 1.18937, 1.93504, 1.93514, 1.45872, 1.29194, 1.21905, 1.2241, 0.00378439, 1.81096, 1.43404, 1.4409, 1.44833, 1.4237, 1.38558, 0.00356395, 1.4281, 0.0036978, 0.0105898, 0.00357749, 1.48914, 0.00379285, 1.40545, 1.41048, 0.00379227, 0.00363522, 1.44139, 1.44523, 1.44528, 1.4452, 1.44894, 1.44808, 1.45177, 1.45171, 1.45691, 1.45726, 1.46437, 1.46356, 1.46484, 1.46767, 1.90826, 1.47743, 1.48092, 1.4822, 1.93003, 1.92831, 1.50183, 1.50822, 1.51603, 1.51956, 1.51853, 1.52575, 1.53389, 1.53233
0.00356746, 0.00363914, 0.0035009, 0.00369159, 0.00369331, 1.13376, 1.13326, 0.00388015, 0.00369212, 1.16286, 0.00354485, 0.0038136, 0.00347163, 0.00391626, 0.0033554, 1.15339, 0.586482, 0.588806, 0.589384, 0.00427472, 0.00334651, 0.00399084, 0.592271, 0.594214, 0.00373536, 0.00335932, 0.590046, 0.581061, 0.580063, 0.581342, 0.580078, 0.00380816, 0.00372897, 0.00430617, 0.00393051, 0.00376108, 0.565938, 0.567066, 0.55867, 0.559886, 0.560978, 0.552921, 0.554395, 0.558638, 0.557109, 0.556134, 0.553373, 0.552565, 0.00352391, 0.542983, 0.530033, 0.530935, 0.530918, 0.531317, 0.52681, 0.528907, 0.530541, 0.525984, 0.525602, 0.524539, 0.523733, 0.519388, 0.520269, 0.51815, 0.519454, 0.522086, 0.525061, 0.529729, 0.535016, 0.533042, 0.533421, 0.534524, 0.534911, 0.00370299, 0.00355469, 0.512504, 0.515242, 0.516053, 0.51727, 0.509178, 0.517351, 0.517097, 0.51763, 0.519082, 0.519506, 0.519957, 0.519041, 0.520883, 0.520474, 0.515703, 0.516025, 0.521594, 0.522516, 0.52235, 0.535919, 0.534092, 0.532546, 0.618338, 0.583573, 0.556583, 0.559172, 0.578507, 0.586411, 0.587017, 0.582734, 0.731139, 0.723506, 0.759061, 0.765039, 0.777312, 0.845341, 0.876583, 0.952895, 0.962098, 1.00199, 1.00165, 1.00218, 1.05544, 1.13641, 1.1502, 1.1752, 1.1908, 1.19838, 1.19862, 1.19924, 1.20202, 1.20235, 1.20227, 1.18855, 1.18264, 1.17327, 1.18756, 1.2574, 1.25726, 1.20334, 1.20131, 1.24282, 1.2242, 1.22669, 1.22917, 1.20197, 1.2182, 1.21958, 1.21549, 1.21969, 1.20973, 1.21149, 1.21419, 1.17812, 1.16326, 1.15967, 1.16256, 1.16121, 1.13921, 1.14467, 1.1819, 1.18196, 1.13658, 1.14014, 1.14851, 1.14621, 1.14845, 1.14862, 1.1603, 1.14788, 1.1943, 1.19433, 1.19519, 1.32317, 1.19454, 1.19725, 1.1994, 1.15098, 1.14867, 1.11905, 1.11946, 1.11844, 1.13018, 1.13574, 1.13, 1.13006, 1.10191, 1.10675, 1.10589, 1.07484, 1.07311, 1.08122, 1.07944, 1.05829, 1.04965, 1.04317, 1.06326, 1.06055, 1.05803, 1.0593, 1.06754, 1.06634, 1.08198, 1.07314, 1.06986, 1.05681, 1.05408, 1.0229, 1.05893, 1.05959, 1.04604, 1.06599, 1.05046, 1.03192, 1.04698, 1.04241, 1.06889, 1.0702, 1.08635, 1.09517, 1.09466, 1.09731, 1.10012, 1.09821, 1.09365, 1.09496, 1.09628, 1.09921, 1.09964, 1.10306, 1.1032, 1.10605, 1.10847, 1.10803, 1.11271, 1.11873, 1.12023, 1.12664, 1.12854, 0.00351224, 1.14147, 1.15105, 1.15781, 1.16455, 0.00371987, 1.17465, 1.17868, 1.1804, 1.18184, 1.18384, 1.18754, 0.00351705, 0.00360634, 1.20162, 1.20838, 1.29949, 1.29199, 1.29476, 1.61981, 1.23513, 1.23772, 1.44076, 1.44051, 0.00316509, 1.36563, 1.29148, 0.00371266, 0.00390271, 0.00355899, 0.00355866, 0.00351923, 0.00367211, 0.00349436, 0.0038112, 0.00358608, 0.00366233, 1.9382, 1.93107, 1.44398, 1.45008, 1.44742, 1.4502, 1.45012, 1.45246, 1.45404, 1.46204, 1.46352, 1.46177, 1.4661, 1.46707, 1.47213, 1.47173, 1.48164, 1.48387, 1.48428, 1.49253, 1.50216, 1.50091, 1.50589, 0.00367027, 1.51861, 1.52369, 1.52322, 1.52741, 0.00372658
