0.824541, 0.824618, 0.822765, 0.825334, 0.828538, 0.827721, 0.82355, 0.822218, 0.833303, 0.822661, 0.825761, 0.822319, 0.828591, 0.824324, 0.82489, 0.825816, 0.826122, 0.817961, 0.820166, 0.82052, 0.821554, 0.821153, 0.824647, 0.821424, 0.828245, 0.825099, 0.821811, 0.820666, 0.826501, 0.822193, 0.822319, 0.821359, 0.819721, 0.82244, 0.816882, 0.818242, 0.807905, 0.807432, 0.811788, 0.81367, 0.815483, 0.815728, 0.911628, 0.812677, 0.829131, 0.823024, 0.842545, 0.909127, 0.921667, 0.921056, 0.933959, 0.93697, 0.929617, 0.931159, 0.953817, 0.925932, 1.15501, 1.16751, 1.12965, 1.13334, 1.24381, 1.26967, 1.26845, 0.900918, 0.869564, 0.857203, 0.832448, 0.804191, 0.806105, 0.782969, 0.784465, 0.80044, 0.781256, 0.798269, 0.807705, 0.810151, 0.814047, 0.814508, 0.828252, 0.84969, 0.816287, 0.824478, 0.810899, 0.823372, 0.812406, 0.813285, 0.822986, 0.814569, 0.814888, 0.835808, 0.832267, 0.810676, 0.805598, 0.807454, 0.817804, 0.817242, 0.89085, 0.873365, 0.850471, 0.85927, 0.865868, 0.836698, 0.845747, 0.811592, 0.812933, 0.811669, 0.804879, 0.801509, 0.807196, 0.804548, 0.800857, 0.811595, 0.801967, 0.799045, 0.800033, 0.800422, 0.800793, 0.801101, 0.800779, 0.801026, 0.800762, 0.80024, 0.811012, 0.800163, 0.800569, 0.800263, 0.798159, 0.799654, 0.800679, 0.799258, 0.800542, 0.80073, 0.799102, 0.801693, 0.802101, 0.802258, 0.801819, 0.817923, 0.801007, 0.813077, 0.803613, 0.803806, 0.803813, 0.803783, 0.802871, 0.802437, 0.802831, 0.802135, 0.801365, 0.801686, 0.802439, 0.801471, 0.812134, 0.800277, 0.800766, 0.80422, 0.798685, 0.798237, 0.814332, 0.806324, 0.806039, 0.795543, 0.796959, 0.796552, 0.796983, 0.794447, 0.793735, 0.791056, 0.793702, 0.788358, 0.788427, 0.784289, 0.796938, 0.784025, 0.788362, 0.788223, 0.785799, 0.787703, 0.78255, 0.782131, 0.783076, 0.787723, 0.784833, 0.779515, 0.784664, 0.777025, 0.777361, 0.77591, 0.777166, 0.775568, 0.777188, 0.780535, 0.779703, 0.776455, 0.774116, 0.763705, 0.768013, 0.770804, 0.777006, 0.780513, 0.774392, 0.774909, 0.775155, 0.781035, 0.783634, 0.782049, 0.787659, 0.778518, 0.78084, 0.791313, 0.778612, 0.780863, 0.783202, 0.786734, 0.783721, 0.782694, 0.780291, 0.781256, 0.782795, 0.782437, 0.78011, 0.780218, 0.798002, 0.794818, 0.801974, 0.81248, 0.795178, 0.795614, 0.825079, 0.824885, 1.03024, 1.02216, 1.0352, 1.24057, 1.25287, 1.36579, 1.02804, 1.02723, 0.852446, 0.836438, 0.811128, 0.807768, 0.791422, 0.789333, 0.78886, 0.772754, 0.791161, 0.801559, 0.778365, 0.783158, 0.782114, 0.782497, 0.780101, 0.779375, 0.782361, 0.788381, 0.780774, 0.783826, 0.781146, 0.783038, 0.777453, 0.785172, 0.779886, 0.780838, 0.78008, 0.780349, 0.781252, 0.780953, 0.786133, 0.780204, 0.781039, 0.78839, 0.783377, 0.780516, 0.78, 0.780658, 0.78082, 0.780796, 0.7802, 0.809665, 0.77908, 0.779266, 0.80264, 0.777975, 0.77785, 0.791249, 0.793477, 0.775861, 0.776018, 0.789815, 0.773382, 0.777672, 0.774617, 0.767811, 0.773618, 0.76933, 0.768277, 0.770249, 0.769026, 0.783934
0.828784, 0.832322, 0.828003, 0.838321, 0.826639, 0.82859, 0.828541, 0.824007, 0.829831, 0.821412, 0.821062, 0.825947, 0.823422, 0.822878, 0.820196, 0.81996, 0.822869, 0.828824, 0.824931, 0.821694, 0.825526, 0.822053, 0.81974, 0.824025, 0.82623, 0.828344, 0.826018, 0.826464, 0.821985, 0.821328, 0.822176, 0.821213, 0.81909, 0.825009, 0.819959, 0.828252, 0.822618, 0.811464, 0.817911, 0.811628, 0.811864, 0.811262, 0.803088, 0.803123, 0.802271, 0.811175, 0.803765, 0.818527, 0.828501, 0.866976, 0.865956, 0.952444, 0.951492, 0.95494, 0.967102, 1.02648, 1.14765, 1.1427, 1.12668, 1.18176, 1.23948, 1.26001, 1.25813, 0.943097, 0.884626, 0.856645, 0.849899, 0.812716, 0.825571, 0.825602, 0.811273, 0.823285, 0.794203, 0.829993, 0.818658, 0.82661, 0.823644, 0.825944, 0.816189, 0.829664, 0.81929, 0.814072, 0.811912, 0.813292, 0.812854, 0.822625, 0.818868, 0.813574, 0.82325, 0.815809, 0.81732, 0.836728, 0.821468, 0.815866, 0.80792, 0.81146, 0.812885, 0.813254, 0.815018, 0.818648, 0.809278, 0.846064, 0.808398, 0.815884, 0.805787, 0.806682, 0.806058, 0.804188, 0.802582, 0.80807, 0.80298, 0.801599, 0.800914, 0.802069, 0.802118, 0.828431, 0.802381, 0.802684, 0.802223, 0.80171, 0.800555, 0.801791, 0.801979, 0.843978, 0.800965, 0.804312, 0.800884, 0.800694, 0.801029, 0.801072, 0.800875, 0.801904, 0.80156, 0.802617, 0.80423, 0.817598, 0.802445, 0.808433, 0.802975, 0.804239, 0.801878, 0.812057, 0.807107, 0.806926, 0.805162, 0.80203, 0.803765, 0.836444, 0.803998, 0.80259, 0.802333, 0.82621, 0.802097, 0.800818, 0.801669, 0.801654, 0.800688, 0.8009, 0.814292, 0.800056, 0.798661, 0.797329, 0.798519, 0.796933, 0.795583, 0.825413, 0.801435, 0.790372, 0.794608, 0.789579, 0.792229, 0.786755, 0.79293, 0.794044, 0.794538, 0.795791, 0.787774, 0.787236, 0.7818, 0.781812, 0.784543, 0.786392, 0.786717, 0.789324, 0.784405, 0.778268, 0.779066, 0.778866, 0.786892, 0.777824, 0.783339, 0.778399, 0.780865, 0.783196, 0.786929, 0.777907, 0.777581, 0.775694, 0.773506, 0.773323, 0.777599, 0.775571, 0.777599, 0.775259, 0.773535, 0.774203, 0.772371, 0.767719, 0.787732, 0.785987, 0.786018, 0.78146, 0.776804, 0.778408, 0.777339, 0.779418, 0.7836, 0.786977, 0.78821, 0.784067, 0.780578, 0.780446, 0.767637, 0.784425, 0.819015, 0.794456, 0.822349, 0.804778, 0.809026, 0.829084, 0.878291, 0.877032, 1.02038, 0.938715, 0.917987, 0.899103, 0.907894, 0.908021, 0.854522, 0.854989, 0.809749, 0.799289, 0.80282, 0.785187, 0.787704, 0.784633, 0.778844, 0.784405, 0.777908, 0.78316, 0.782086, 0.783794, 0.782357, 0.781642, 0.780719, 0.787208, 0.774913, 0.78063, 0.779446, 0.777281, 0.778178, 0.782694, 0.777164, 0.785092, 0.779348, 0.780616, 0.781165, 0.778136, 0.785638, 0.784418, 0.781069, 0.782579, 0.781258, 0.804635, 0.781692, 0.781253, 0.782064, 0.781632, 0.78193, 0.780455, 0.779933, 0.779579, 0.790536, 0.780557, 0.7787, 0.779766, 0.781821, 0.784658, 0.794025, 0.819412, 0.777973, 0.770718, 0.769734, 0.766138, 0.768326, 0.78089, 0.770712, 0.766971, 0.769666, 0.77101
0.823048, 0.844231, 0.837173, 0.824746, 0.829132, 0.82719, 0.842851, 0.82562, 0.832259, 0.829684, 0.827277, 0.835441, 0.826432, 0.82387, 0.825108, 0.82616, 0.837761, 0.825859, 0.825373, 0.827043, 0.824351, 0.82823, 0.830271, 0.831838, 0.830175, 0.829553, 0.828767, 0.824484, 0.823209, 0.822637, 0.823468, 0.832732, 0.825982, 0.8282, 0.819863, 0.819647, 0.810604, 0.816335, 0.817259, 0.817824, 0.822415, 0.812495, 0.81143, 0.810736, 0.798664, 0.809541, 0.814956, 0.810245, 0.810988, 0.839837, 0.834625, 0.964235, 0.988659, 1.02223, 0.992311, 1.04767, 1.04612, 1.14756, 1.14822, 1.2157, 1.23093, 1.35037, 1.34308, 0.969074, 0.974499, 0.866195, 0.864729, 0.84551, 0.823243, 0.832393, 0.854083, 0.841574, 0.805287, 0.814726, 0.81357, 0.825245, 0.818599, 0.829654, 0.827995, 0.845904, 0.816328, 0.823547, 0.814625, 0.815403, 0.814776, 0.816297, 0.815102, 0.815419, 0.814892, 0.815282, 0.81731, 0.815202, 0.837714, 0.816329, 0.832633, 0.815069, 0.816014, 0.815534, 0.814427, 0.814699, 0.831684, 0.812126, 0.811113, 0.826275, 0.817492, 0.808879, 0.80718, 0.808109, 0.804387, 0.804266, 0.804026, 0.803959, 0.801074, 0.801237, 0.80651, 0.804663, 0.803629, 0.80311, 0.803051, 0.807519, 0.823497, 0.804001, 0.806315, 0.803835, 0.802429, 0.839392, 0.802971, 0.802077, 0.802378, 0.80183, 0.802046, 0.801908, 0.801654, 0.803497, 0.804015, 0.804228, 0.804891, 0.807038, 0.806009, 0.80553, 0.805826, 0.799318, 0.799289, 0.80482, 0.831018, 0.805348, 0.805025, 0.808767, 0.805204, 0.804925, 0.803261, 0.804169, 0.804204, 0.803326, 0.803063, 0.818674, 0.803602, 0.801715, 0.802106, 0.800607, 0.798359, 0.798425, 0.80172, 0.794406, 0.795759, 0.793251, 0.794366, 0.795625, 0.794454, 0.79729, 0.794485, 0.794475, 0.788269, 0.790507, 0.78814, 0.788214, 0.795869, 0.795539, 0.782958, 0.790581, 0.794142, 0.791651, 0.785724, 0.78661, 0.787737, 0.777782, 0.775442, 0.791653, 0.777738, 0.780558, 0.7802, 0.779308, 0.774352, 0.78589, 0.781851, 0.78041, 0.778827, 0.778776, 0.777467, 0.781149, 0.78077, 0.777187, 0.780178, 0.788669, 0.77863, 0.780423, 0.78128, 0.78059, 0.788103, 0.780879, 0.780732, 0.784631, 0.783293, 0.782312, 0.79106, 0.78418, 0.785163, 0.786487, 0.786538, 0.787808, 0.780336, 0.788017, 0.790559, 0.789711, 0.863926, 0.843338, 0.843305, 0.844051, 0.865707, 0.870524, 0.88293, 0.881396, 0.929647, 0.929495, 0.936818, 0.936891, 0.918389, 0.889201, 0.867186, 0.830225, 0.818359, 0.835195, 0.831737, 0.790756, 0.752394, 0.759159, 0.774713, 0.780659, 0.80234, 0.781797, 0.782071, 0.781437, 0.777725, 0.780749, 0.783249, 0.780046, 0.780014, 0.781113, 0.782715, 0.777547, 0.7776, 0.777965, 0.778142, 0.777358, 0.786597, 0.78494, 0.780238, 0.780737, 0.786967, 0.780086, 0.781461, 0.780514, 0.78507, 0.784359, 0.780376, 0.781612, 0.780954, 0.781635, 0.782742, 0.782941, 0.783813, 0.780953, 0.779761, 0.778297, 0.779917, 0.787588, 0.784499, 0.787218, 0.776231, 0.773563, 0.771084, 0.768546, 0.768889, 0.776805, 0.767824, 0.769458, 0.76379, 0.761492, 0.770133, 0.759855
0.83313, 0.829024, 0.828858, 0.842082, 0.839481, 0.832943, 0.832049, 0.830585, 0.828904, 0.832665, 0.827026, 0.825839, 0.829257, 0.824708, 0.825395, 0.831385, 0.829477, 0.827156, 0.826915, 0.833138, 0.833632, 0.833273, 0.82928, 0.835178, 0.82742, 0.830273, 0.824619, 0.827999, 0.8291, 0.831792, 0.829143, 0.828078, 0.823634, 0.822027, 0.834763, 0.82529, 0.822511, 0.815633, 0.823379, 0.822731, 0.821991, 0.822346, 0.818731, 0.809817, 0.804909, 0.790737, 0.816598, 0.816513, 0.833807, 0.843164, 0.849526, 0.88834, 0.997208, 0.996907, 1.06414, 1.10269, 1.14354, 1.17126, 1.17421, 1.16682, 1.28108, 1.27134, 1.34572, 0.893327, 0.895607, 0.885273, 0.868984, 0.882033, 0.853833, 0.842298, 0.848914, 0.788628, 0.798021, 0.814225, 0.818086, 0.837377, 0.821332, 0.832099, 0.820033, 0.829144, 0.828233, 0.818627, 0.817419, 0.819157, 0.814814, 0.815023, 0.815851, 0.822294, 0.811626, 0.815922, 0.814714, 0.830852, 0.821277, 0.815614, 0.817996, 0.815211, 0.813775, 0.815025, 0.81533, 0.81474, 0.815525, 0.816503, 0.814238, 0.813501, 0.814608, 0.809661, 0.807356, 0.80726, 0.802873, 0.804755, 0.804806, 0.805911, 0.809839, 0.809565, 0.807515, 0.807332, 0.807182, 0.805732, 0.805234, 0.80598, 0.80679, 0.806432, 0.80429, 0.804936, 0.80549, 0.807995, 0.806643, 0.805776, 0.809136, 0.804509, 0.804256, 0.802831, 0.808607, 0.803196, 0.807514, 0.816373, 0.806313, 0.806619, 0.807026, 0.815527, 0.805518, 0.807327, 0.807986, 0.812498, 0.80546, 0.805285, 0.805881, 0.80575, 0.805314, 0.799823, 0.802806, 0.804007, 0.804175, 0.804021, 0.804195, 0.804371, 0.803298, 0.801259, 0.801197, 0.800622, 0.803369, 0.79853, 0.796808, 0.795709, 0.797859, 0.796814, 0.796755, 0.795808, 0.797863, 0.796072, 0.795386, 0.795881, 0.795765, 0.793337, 0.79223, 0.794403, 0.792488, 0.811053, 0.793257, 0.791935, 0.791503, 0.785869, 0.785385, 0.784209, 0.782366, 0.779419, 0.77869, 0.781701, 0.782087, 0.781754, 0.787609, 0.787004, 0.783583, 0.784495, 0.7835, 0.784468, 0.783791, 0.780293, 0.782677, 0.78323, 0.779027, 0.778367, 0.780472, 0.78778, 0.780953, 0.776621, 0.785091, 0.787789, 0.787628, 0.789016, 0.791586, 0.783276, 0.780207, 0.781732, 0.792294, 0.79023, 0.788298, 0.786826, 0.789221, 0.786252, 0.782484, 0.760716, 0.764687, 0.768431, 0.741893, 0.74207, 0.73299, 0.756424, 0.884378, 0.875399, 0.904346, 0.904589, 1.27976, 1.29121, 1.32325, 1.29814, 1.31222, 1.18925, 0.929937, 0.883795, 0.86528, 0.842733, 0.830005, 0.800029, 0.760889, 0.770716, 0.772071, 0.779919, 0.798927, 0.783867, 0.780393, 0.784322, 0.78151, 0.776394, 0.779289, 0.77692, 0.778608, 0.780879, 0.781426, 0.776143, 0.781434, 0.774663, 0.776573, 0.774047, 0.784269, 0.777321, 0.779884, 0.786251, 0.786692, 0.780644, 0.783568, 0.782405, 0.78718, 0.785675, 0.781451, 0.789873, 0.783645, 0.783816, 0.783488, 0.784178, 0.784316, 0.783963, 0.783405, 0.781292, 0.779717, 0.776858, 0.777462, 0.781972, 0.768287, 0.770208, 0.77133, 0.767894, 0.773373, 0.768354, 0.767912, 0.76651, 0.769185, 0.76994, 0.770243, 0.760789
0.834691, 0.835017, 0.832748, 0.836554, 0.830864, 0.836088, 0.833345, 0.831863, 0.832139, 0.814976, 0.832208, 0.825962, 0.825724, 0.823074, 0.829871, 0.836327, 0.83021, 0.827101, 0.829129, 0.829989, 0.828922, 0.832844, 0.83286, 0.832127, 0.833934, 0.834436, 0.833648, 0.827712, 0.825261, 0.832897, 0.836532, 0.827723, 0.828029, 0.828953, 0.825754, 0.847623, 0.826608, 0.826552, 0.825641, 0.82425, 0.829232, 0.828569, 0.824487, 0.815433, 0.811452, 0.797783, 0.803665, 0.80935, 0.806897, 0.827055, 0.851522, 0.90395, 0.92171, 0.963197, 1.10665, 1.13058, 1.17083, 1.22998, 1.2065, 1.32756, 1.37578, 1.37903, 1.35385, 1.23142, 0.895047, 0.883797, 0.881965, 0.87961, 0.884327, 0.850129, 0.82661, 0.799029, 0.789969, 0.790088, 0.804906, 0.830186, 0.8404, 0.822954, 0.825772, 0.82264, 0.819727, 0.826446, 0.818133, 0.818725, 0.812808, 0.812091, 0.830806, 0.811293, 0.809709, 0.813215, 0.81229, 0.834999, 0.825492, 0.815755, 0.830716, 0.836246, 0.835082, 0.825909, 0.822943, 0.821377, 0.816912, 0.815094, 0.816098, 0.81582, 0.817903, 0.811831, 0.814089, 0.811929, 0.811358, 0.833974, 0.811049, 0.812047, 0.814799, 0.815839, 0.808377, 0.810293, 0.809166, 0.811347, 0.823091, 0.80785, 0.80854, 0.835317, 0.808463, 0.807556, 0.827025, 0.805089, 0.806748, 0.805196, 0.805388, 0.805657, 0.806188, 0.805001, 0.805224, 0.810432, 0.806815, 0.808632, 0.805239, 0.805989, 0.807512, 0.804856, 0.803525, 0.805169, 0.816338, 0.808764, 0.808609, 0.804792, 0.805914, 0.805418, 0.805131, 0.810773, 0.82571, 0.805258, 0.806024, 0.805789, 0.804761, 0.82564, 0.815024, 0.795617, 0.796341, 0.796009, 0.801612, 0.787946, 0.787429, 0.803837, 0.803499, 0.795673, 0.796522, 0.797748, 0.798138, 0.797436, 0.796992, 0.795701, 0.796232, 0.795039, 0.795911, 0.793827, 0.793863, 0.793835, 0.796092, 0.791668, 0.791507, 0.788198, 0.786433, 0.794109, 0.792833, 0.78503, 0.787341, 0.781784, 0.785015, 0.79002, 0.791627, 0.785361, 0.786743, 0.784426, 0.785973, 0.790482, 0.79908, 0.781662, 0.780309, 0.78434, 0.784625, 0.784501, 0.781496, 0.779645, 0.782155, 0.791107, 0.784889, 0.79087, 0.789879, 0.788952, 0.788397, 0.784429, 0.793647, 0.791641, 0.787243, 0.788634, 0.793666, 0.785089, 0.783474, 0.778919, 0.766074, 0.75191, 0.749755, 0.735341, 0.714896, 0.739934, 0.731431, 0.740597, 0.748596, 0.897044, 0.89698, 1.14347, 1.29349, 1.29226, 1.33517, 1.35158, 1.32055, 1.19945, 0.933872, 0.911293, 0.900207, 0.867612, 0.809111, 0.800556, 0.799277, 0.773763, 0.772384, 0.773391, 0.774214, 0.782113, 0.779022, 0.780548, 0.78279, 0.774523, 0.773552, 0.774709, 0.776897, 0.777561, 0.777621, 0.783382, 0.773574, 0.773001, 0.780448, 0.783231, 0.773696, 0.777857, 0.788768, 0.785173, 0.781785, 0.780003, 0.77779, 0.779896, 0.78146, 0.780781, 0.778356, 0.784632, 0.78619, 0.784109, 0.783255, 0.783579, 0.782128, 0.782727, 0.782416, 0.78146, 0.7783, 0.780922, 0.78771, 0.787126, 0.776667, 0.77656, 0.790385, 0.773652, 0.775312, 0.774251, 0.77527, 0.772751, 0.770863, 0.770042, 0.763042, 0.762653
0.839373, 0.843513, 0.843048, 0.836313, 0.834841, 0.837965, 0.83489, 0.830593, 0.827884, 0.83351, 0.840252, 0.828032, 0.836884, 0.834772, 0.831441, 0.832291, 0.832986, 0.834765, 0.837314, 0.836652, 0.83633, 0.833313, 0.834563, 0.83795, 0.834013, 0.832101, 0.831341, 0.832467, 0.829631, 0.826295, 0.829863, 0.847695, 0.835737, 0.828963, 0.827053, 0.832728, 0.827768, 0.834837, 0.826861, 0.828256, 0.830507, 0.829421, 0.829133, 0.828134, 0.829164, 0.799761, 0.79907, 0.792142, 0.819025, 0.807027, 0.84941, 0.906428, 0.929735, 0.948594, 1.00838, 1.14804, 1.18336, 1.22295, 1.23932, 1.2371, 1.4117, 1.40813, 1.38296, 0.992038, 0.949712, 0.94265, 0.919904, 0.915729, 0.87801, 0.828848, 0.811676, 0.816294, 0.80367, 0.800621, 0.80998, 0.833265, 0.833136, 0.83837, 0.820442, 0.822106, 0.822739, 0.819338, 0.819398, 0.820084, 0.818638, 0.819907, 0.81537, 0.816308, 0.815628, 0.816638, 0.816816, 0.822887, 0.82267, 0.82667, 0.827673, 0.828682, 0.819904, 0.818732, 0.820198, 0.82033, 0.825738, 0.818496, 0.818102, 0.825421, 0.831644, 0.815246, 0.823249, 0.816499, 0.81533, 0.814205, 0.813218, 0.812088, 0.812674, 0.812313, 0.822629, 0.823675, 0.81136, 0.810879, 0.810039, 0.808599, 0.807912, 0.789995, 0.8172, 0.815947, 0.808434, 0.806451, 0.804266, 0.803376, 0.795956, 0.797437, 0.801735, 0.803635, 0.805057, 0.804351, 0.798422, 0.80515, 0.804351, 0.804956, 0.811316, 0.823389, 0.807221, 0.815378, 0.806217, 0.801782, 0.804581, 0.804976, 0.805304, 0.80509, 0.805633, 0.807882, 0.804917, 0.805299, 0.802393, 0.797949, 0.803578, 0.798644, 0.798091, 0.800203, 0.797688, 0.80854, 0.799267, 0.798541, 0.797784, 0.799538, 0.801788, 0.797019, 0.794965, 0.797, 0.797651, 0.804795, 0.829033, 0.829866, 0.795437, 0.802314, 0.796781, 0.796323, 0.796799, 0.795905, 0.795181, 0.790187, 0.790613, 0.788241, 0.788349, 0.785269, 0.791628, 0.788406, 0.787233, 0.785037, 0.78564, 0.784018, 0.786545, 0.785541, 0.783438, 0.784534, 0.784059, 0.782757, 0.782451, 0.782332, 0.781195, 0.776871, 0.777186, 0.792069, 0.782832, 0.786979, 0.785259, 0.785204, 0.785603, 0.798191, 0.788769, 0.787282, 0.786911, 0.792313, 0.787422, 0.791222, 0.786609, 0.786765, 0.792985, 0.787724, 0.786571, 0.781763, 0.776892, 0.770164, 0.761426, 0.746499, 0.750079, 0.727817, 0.713986, 0.78431, 0.784117, 0.797661, 1.06055, 1.13652, 1.13824, 1.32664, 1.33625, 1.36411, 1.3327, 1.21528, 1.21604, 0.922558, 0.912624, 0.856404, 0.79785, 0.797879, 0.785421, 0.766895, 0.765333, 0.776424, 0.778638, 0.779511, 0.780179, 0.778339, 0.789518, 0.773571, 0.786856, 0.773597, 0.776221, 0.774781, 0.772778, 0.790972, 0.773837, 0.776941, 0.77424, 0.774694, 0.775999, 0.766079, 0.769351, 0.774108, 0.778097, 0.791353, 0.779737, 0.779383, 0.781278, 0.78578, 0.780804, 0.781684, 0.781202, 0.785152, 0.783303, 0.784318, 0.780428, 0.779841, 0.77701, 0.777405, 0.779001, 0.790679, 0.779228, 0.788429, 0.785224, 0.776875, 0.777254, 0.781633, 0.778442, 0.781303, 0.777713, 0.787078, 0.775096, 0.775258, 0.77535, 0.767679
0.84461, 0.842308, 0.842559, 0.842761, 0.850775, 0.841316, 0.837467, 0.839362, 0.833478, 0.830448, 0.829018, 0.83748, 0.834871, 0.829161, 0.837197, 0.839269, 0.83186, 0.830918, 0.836561, 0.835526, 0.83584, 0.834442, 0.838749, 0.834746, 0.834115, 0.835884, 0.830205, 0.831177, 0.830932, 0.837829, 0.830384, 0.83254, 0.832818, 0.83151, 0.831438, 0.831257, 0.829936, 0.84612, 0.828446, 0.831479, 0.832294, 0.831791, 0.828982, 0.827487, 0.810573, 0.803787, 0.804655, 0.805995, 0.787942, 0.788214, 0.870848, 0.882418, 0.899603, 0.91038, 1.01863, 1.04455, 1.17629, 1.24661, 1.23164, 1.25076, 1.39018, 1.39551, 1.38919, 0.99493, 0.980062, 0.942572, 0.928852, 0.913217, 0.897086, 0.826155, 0.799446, 0.784343, 0.819334, 0.809497, 0.821425, 0.820498, 0.840815, 0.822669, 0.823408, 0.821114, 0.822461, 0.843529, 0.824401, 0.825596, 0.826154, 0.818626, 0.818225, 0.819558, 0.819963, 0.820915, 0.820444, 0.819619, 0.820194, 0.830698, 0.819787, 0.820494, 0.81976, 0.81882, 0.819474, 0.824144, 0.820886, 0.819355, 0.818922, 0.819204, 0.819289, 0.818217, 0.817463, 0.815876, 0.814844, 0.815745, 0.815919, 0.814903, 0.814372, 0.835155, 0.813737, 0.812347, 0.812296, 0.819504, 0.832593, 0.796187, 0.791723, 0.809516, 0.808489, 0.804339, 0.804666, 0.808052, 0.807269, 0.807938, 0.80746, 0.819438, 0.811504, 0.801486, 0.802336, 0.804525, 0.805199, 0.802422, 0.80048, 0.803427, 0.811719, 0.809121, 0.805922, 0.810907, 0.801932, 0.811871, 0.804793, 0.805212, 0.805475, 0.8071, 0.807185, 0.807725, 0.807026, 0.804947, 0.794619, 0.794381, 0.825421, 0.805876, 0.803147, 0.804412, 0.804228, 0.807308, 0.802252, 0.801866, 0.80239, 0.802746, 0.800705, 0.79978, 0.80765, 0.798133, 0.811597, 0.798952, 0.797567, 0.798118, 0.798368, 0.796292, 0.797246, 0.797482, 0.797881, 0.792426, 0.788678, 0.7919, 0.788839, 0.788631, 0.790862, 0.793495, 0.786582, 0.794251, 0.786949, 0.797683, 0.797205, 0.790912, 0.804329, 0.788995, 0.788219, 0.788781, 0.787629, 0.787943, 0.78389, 0.781904, 0.78767, 0.79423, 0.782334, 0.781148, 0.783169, 0.783085, 0.783573, 0.784101, 0.791424, 0.790533, 0.790657, 0.790274, 0.789833, 0.791553, 0.798417, 0.791575, 0.790821, 0.788636, 0.789058, 0.793435, 0.788313, 0.788683, 0.783663, 0.765848, 0.740067, 0.736951, 0.753394, 0.747328, 0.754632, 0.771202, 0.783749, 0.836408, 0.946594, 0.956129, 1.32874, 1.32865, 1.35802, 1.40038, 1.25552, 1.26139, 0.943323, 0.916334, 0.891305, 0.857217, 0.839531, 0.793714, 0.768133, 0.759889, 0.766571, 0.76416, 0.781451, 0.78199, 0.782721, 0.774547, 0.777028, 0.78216, 0.776116, 0.778822, 0.780632, 0.774096, 0.772125, 0.783874, 0.781596, 0.774026, 0.773141, 0.783897, 0.772786, 0.770141, 0.773401, 0.774572, 0.778026, 0.78374, 0.778943, 0.779591, 0.779046, 0.778132, 0.78295, 0.786701, 0.782977, 0.778494, 0.783373, 0.776462, 0.776612, 0.788379, 0.787097, 0.777907, 0.77777, 0.780531, 0.780163, 0.780114, 0.781081, 0.785296, 0.785064, 0.781589, 0.783998, 0.783235, 0.783997, 0.782396, 0.782208, 0.782785, 0.789637, 0.79123
0.841111, 0.83993, 0.839632, 0.840129, 0.842196, 0.837015, 0.836481, 0.836767, 0.839186, 0.834593, 0.834776, 0.838017, 0.834265, 0.843484, 0.842118, 0.83831, 0.837058, 0.83925, 0.83891, 0.825352, 0.835921, 0.835124, 0.833408, 0.84303, 0.830328, 0.838453, 0.834505, 0.834015, 0.831592, 0.829588, 0.830355, 0.829225, 0.830516, 0.828908, 0.835498, 0.829004, 0.830585, 0.827047, 0.830104, 0.829997, 0.833552, 0.838433, 0.832118, 0.857837, 0.818051, 0.797658, 0.800857, 0.786947, 0.814759, 0.81474, 0.823933, 0.900508, 0.881504, 0.948285, 0.952846, 0.956322, 1.12346, 1.14806, 1.27559, 1.28519, 1.3472, 1.33954, 1.39969, 1.03493, 0.978947, 0.956158, 0.947242, 0.911896, 0.840293, 0.802462, 0.792022, 0.808526, 0.801997, 0.816441, 0.818057, 0.831212, 0.825563, 0.825135, 0.823954, 0.823598, 0.822582, 0.82163, 0.822826, 0.821076, 0.836052, 0.832616, 0.822326, 0.839273, 0.821343, 0.826067, 0.820608, 0.836215, 0.819856, 0.841995, 0.820497, 0.819456, 0.817832, 0.817647, 0.816305, 0.816569, 0.820737, 0.822422, 0.873824, 0.873632, 0.818876, 0.818881, 0.818001, 0.818884, 0.815532, 0.81665, 0.815555, 0.825079, 0.812688, 0.813187, 0.813299, 0.814117, 0.813812, 0.814032, 0.814258, 0.812154, 0.809467, 0.814721, 0.802526, 0.804208, 0.814453, 0.812628, 0.805332, 0.806172, 0.805274, 0.804952, 0.805441, 0.812432, 0.811525, 0.806039, 0.811347, 0.808121, 0.805989, 0.801381, 0.800583, 0.802551, 0.814767, 0.805229, 0.805077, 0.804061, 0.815262, 0.803846, 0.808099, 0.806109, 0.806819, 0.807889, 0.808838, 0.825933, 0.800276, 0.796516, 0.849883, 0.814413, 0.805037, 0.806091, 0.806985, 0.804942, 0.805559, 0.804054, 0.80432, 0.804327, 0.797805, 0.798845, 0.801009, 0.801339, 0.788314, 0.797159, 0.819913, 0.819996, 0.799971, 0.800464, 0.797561, 0.795579, 0.79557, 0.801905, 0.795567, 0.795754, 0.798138, 0.788467, 0.797547, 0.796449, 0.794072, 0.791167, 0.78988, 0.791906, 0.79142, 0.791556, 0.791963, 0.791047, 0.791066, 0.817763, 0.789782, 0.789663, 0.790856, 0.790155, 0.789104, 0.785662, 0.784612, 0.785539, 0.785486, 0.7877, 0.791272, 0.79139, 0.784337, 0.786928, 0.801034, 0.800981, 0.79127, 0.789926, 0.786684, 0.781316, 0.790522, 0.785265, 0.787224, 0.767157, 0.766417, 0.76961, 0.781292, 0.777477, 0.759269, 0.743565, 0.728711, 0.748285, 0.747597, 0.776059, 0.776347, 0.807459, 0.815185, 0.974445, 1.14206, 1.27653, 1.37839, 1.29147, 1.30178, 0.976946, 0.970474, 0.942026, 0.869923, 0.875743, 0.83065, 0.829392, 0.80358, 0.793551, 0.793055, 0.763542, 0.783787, 0.769473, 0.775438, 0.780706, 0.778121, 0.777488, 0.777683, 0.776545, 0.783634, 0.776249, 0.775578, 0.774336, 0.784618, 0.77286, 0.774797, 0.774389, 0.773706, 0.77466, 0.773904, 0.775963, 0.777205, 0.785241, 0.79836, 0.78203, 0.781487, 0.781125, 0.784397, 0.775455, 0.777121, 0.77695, 0.782407, 0.778363, 0.775589, 0.776023, 0.777, 0.778136, 0.786828, 0.780677, 0.7853, 0.78446, 0.779276, 0.781829, 0.781923, 0.78634, 0.782391, 0.7808, 0.780911, 0.786566, 0.797781, 0.791005, 0.78141, 0.807369
0.857234, 0.866845, 0.846935, 0.845352, 0.83939, 0.846603, 0.839421, 0.838551, 0.836895, 0.842531, 0.841293, 0.835696, 0.846237, 0.853505, 0.8386, 0.840706, 0.840299, 0.839986, 0.840736, 0.848594, 0.834823, 0.837587, 0.8387, 0.836107, 0.834225, 0.833903, 0.837416, 0.83925, 0.829656, 0.837961, 0.839346, 0.831975, 0.842409, 0.830643, 0.827529, 0.834383, 0.830397, 0.828692, 0.843973, 0.839792, 0.833107, 0.857914, 0.830189, 0.836364, 0.821281, 0.814626, 0.836007, 0.816327, 0.794992, 0.798418, 0.816581, 0.892152, 0.887018, 0.905104, 0.9465, 0.956729, 1.21454, 1.21532, 1.243, 1.28628, 1.31247, 1.32292, 1.33757, 1.0413, 1.04071, 0.985638, 0.956683, 0.906271, 0.82937, 0.803677, 0.804348, 0.822131, 0.833105, 0.833357, 0.822103, 0.83102, 0.823272, 0.825617, 0.824604, 0.822772, 0.822268, 0.822876, 0.823936, 0.819816, 0.818771, 0.828296, 0.822164, 0.821453, 0.822137, 0.833264, 0.819511, 0.821295, 0.832285, 0.855665, 0.836326, 0.847106, 0.837985, 0.834764, 0.83824, 0.822073, 0.821408, 0.821613, 0.820029, 0.821542, 0.82105, 0.818963, 0.819256, 0.818848, 0.817997, 0.817559, 0.81631, 0.82474, 0.822468, 0.815019, 0.815599, 0.815191, 0.815329, 0.813189, 0.814178, 0.814257, 0.810763, 0.812744, 0.807286, 0.805819, 0.805836, 0.809816, 0.819111, 0.811356, 0.809212, 0.807602, 0.814638, 0.811343, 0.809496, 0.81924, 0.809124, 0.805092, 0.809576, 0.803185, 0.801195, 0.806474, 0.79766, 0.808377, 0.866847, 0.866591, 0.804409, 0.818577, 0.805903, 0.801675, 0.802219, 0.804584, 0.803802, 0.804152, 0.804373, 0.805485, 0.804072, 0.828306, 0.805243, 0.805345, 0.805648, 0.806082, 0.804126, 0.804154, 0.801656, 0.804746, 0.801515, 0.801553, 0.79881, 0.794337, 0.792431, 0.790831, 0.804647, 0.803497, 0.82074, 0.799989, 0.800359, 0.799972, 0.800142, 0.797634, 0.810191, 0.812195, 0.795411, 0.794262, 0.804229, 0.803549, 0.81871, 0.794091, 0.793815, 0.793466, 0.79371, 0.792754, 0.792366, 0.79172, 0.789585, 0.79058, 0.792078, 0.808329, 0.790288, 0.791235, 0.790509, 0.801476, 0.791554, 0.789245, 0.790382, 0.790954, 0.793633, 0.786884, 0.788244, 0.797288, 0.800829, 0.797536, 0.798478, 0.794888, 0.788581, 0.790866, 0.79103, 0.787564, 0.784695, 0.760346, 0.747732, 0.766968, 0.769837, 0.770065, 0.743283, 0.763403, 0.732146, 0.753697, 0.753389, 0.761751, 0.761264, 0.812557, 0.937192, 0.970164, 0.986977, 1.01712, 1.01931, 1.03006, 1.00809, 1.00261, 1.00489, 0.952489, 0.888555, 0.86797, 0.835536, 0.830343, 0.815288, 0.781699, 0.769415, 0.760059, 0.767932, 0.77163, 0.78051, 0.770723, 0.773462, 0.777745, 0.784272, 0.773908, 0.78137, 0.780117, 0.779799, 0.776237, 0.784856, 0.782548, 0.782205, 0.772921, 0.77408, 0.774424, 0.775365, 0.780699, 0.783459, 0.778277, 0.781119, 0.781286, 0.783161, 0.780826, 0.778925, 0.776455, 0.780757, 0.778402, 0.781453, 0.781679, 0.780429, 0.778547, 0.791589, 0.781301, 0.780823, 0.78444, 0.785104, 0.790002, 0.781523, 0.791848, 0.784473, 0.780282, 0.778796, 0.780637, 0.777688, 0.780119, 0.77957, 0.792934, 0.790772, 0.781328
0.847904, 0.843591, 0.841889, 0.840034, 0.841705, 0.840051, 0.839294, 0.850438, 0.838801, 0.845736, 0.838736, 0.839673, 0.838474, 0.839427, 0.839022, 0.835996, 0.840048, 0.836059, 0.841675, 0.836981, 0.83569, 0.841746, 0.836753, 0.839014, 0.840355, 0.839086, 0.846579, 0.842802, 0.838552, 0.830006, 0.831297, 0.831493, 0.830283, 0.830984, 0.832208, 0.843681, 0.853562, 0.832221, 0.831416, 0.831563, 0.833235, 0.837262, 0.835888, 0.822128, 0.812875, 0.800809, 0.811663, 0.811119, 0.80585, 0.817334, 0.804433, 0.828622, 0.862191, 0.88196, 0.898642, 0.943389, 0.943845, 1.25981, 1.29997, 1.28125, 1.35101, 1.35063, 1.34969, 1.37149, 1.00896, 1.00273, 0.846287, 0.84153, 0.822637, 0.80837, 0.823325, 0.829946, 0.831733, 0.831127, 0.818895, 0.829892, 0.839936, 0.828487, 0.828816, 0.822965, 0.828799, 0.828569, 0.832538, 0.835167, 0.829391, 0.833069, 0.819272, 0.824373, 0.822643, 0.8171, 0.824951, 0.822197, 0.819233, 0.818322, 0.819577, 0.819778, 0.849413, 0.83834, 0.836568, 0.840567, 0.819186, 0.819131, 0.820855, 0.819484, 0.819575, 0.819126, 0.818884, 0.825956, 0.817629, 0.817927, 0.817512, 0.816247, 0.815545, 0.815474, 0.815086, 0.816173, 0.81627, 0.816116, 0.818069, 0.811476, 0.815277, 0.818013, 0.808979, 0.813822, 0.809615, 0.810951, 0.809261, 0.806267, 0.804895, 0.806582, 0.809381, 0.808279, 0.808095, 0.807633, 0.807619, 0.808784, 0.805927, 0.80223, 0.801823, 0.800758, 0.803741, 0.807342, 0.804239, 0.884968, 0.801457, 0.800642, 0.805037, 0.80291, 0.803787, 0.835551, 0.81441, 0.85197, 0.804261, 0.804428, 0.805331, 0.80494, 0.805171, 0.805375, 0.805425, 0.805224, 0.805792, 0.805759, 0.808701, 0.803516, 0.805108, 0.803687, 0.802159, 0.801476, 0.797604, 0.799493, 0.818862, 0.797849, 0.800287, 0.800233, 0.803044, 0.80085, 0.799485, 0.799612, 0.800451, 0.797959, 0.796958, 0.796289, 0.79579, 0.795207, 0.794746, 0.794208, 0.794881, 0.79352, 0.793928, 0.793776, 0.833046, 0.801409, 0.79332, 0.792324, 0.790168, 0.794334, 0.790347, 0.791146, 0.790847, 0.792603, 0.792839, 0.794737, 0.792093, 0.792846, 0.802236, 0.800912, 0.794823, 0.793698, 0.792546, 0.792352, 0.804589, 0.790264, 0.795041, 0.804607, 0.788426, 0.792175, 0.792128, 0.797387, 0.769136, 0.76052, 0.773895, 0.783816, 0.76703, 0.768147, 0.738837, 0.753615, 0.752947, 0.753484, 0.767483, 0.802541, 0.898165, 0.970514, 1.00082, 0.998999, 1.0287, 1.02218, 1.02293, 1.0223, 1.02007, 1.01392, 0.874401, 0.873701, 0.852156, 0.843069, 0.818583, 0.748057, 0.765738, 0.752521, 0.751433, 0.770199, 0.770807, 0.772788, 0.773848, 0.777259, 0.772943, 0.780518, 0.78159, 0.786835, 0.781452, 0.786866, 0.776299, 0.776022, 0.775324, 0.774346, 0.774439, 0.776487, 0.775031, 0.779586, 0.777225, 0.77676, 0.779543, 0.778734, 0.783343, 0.776668, 0.77501, 0.779547, 0.784167, 0.777844, 0.780438, 0.779746, 0.781382, 0.780322, 0.78196, 0.786572, 0.781824, 0.782279, 0.783967, 0.783193, 0.783333, 0.783662, 0.783491, 0.785151, 0.787604, 0.784318, 0.784359, 0.781652, 0.781098, 0.782403, 0.782356, 0.791975
0.842384, 0.842245, 0.842601, 0.840798, 0.839063, 0.83614, 0.836407, 0.839312, 0.842805, 0.839112, 0.839266, 0.858715, 0.855688, 0.840662, 0.838476, 0.837887, 0.839345, 0.829374, 0.837963, 0.837203, 0.827477, 0.82796, 0.832913, 0.83695, 0.836634, 0.835986, 0.835501, 0.835767, 0.835239, 0.837063, 0.844925, 0.839495, 0.838654, 0.831362, 0.833793, 0.829771, 0.835814, 0.834723, 0.831984, 0.831356, 0.842973, 0.833943, 0.837044, 0.825527, 0.809014, 0.794566, 0.818209, 0.815143, 0.80551, 0.815549, 0.808619, 0.816046, 0.83198, 0.863164, 0.864192, 0.906038, 0.916053, 1.24197, 1.29542, 1.29391, 1.31332, 1.37527, 1.35836, 1.28158, 1.02517, 0.87191, 0.849842, 0.834048, 0.836972, 0.826246, 0.837499, 0.825513, 0.8222, 0.820356, 0.816878, 0.827465, 0.826538, 0.829673, 0.833197, 0.847261, 0.82212, 0.823047, 0.821791, 0.829194, 0.843325, 0.820092, 0.819636, 0.822964, 0.817797, 0.815715, 0.812503, 0.813528, 0.811862, 0.812046, 0.811728, 0.811493, 0.822062, 0.814609, 0.819584, 0.817898, 0.819322, 0.829645, 0.819542, 0.818088, 0.817633, 0.850821, 0.817389, 0.817033, 0.852395, 0.817066, 0.817359, 0.817293, 0.815315, 0.817648, 0.815449, 0.815195, 0.815351, 0.815695, 0.836177, 0.815842, 0.812106, 0.809266, 0.809502, 0.812403, 0.807991, 0.80866, 0.808556, 0.816457, 0.814131, 0.811847, 0.808566, 0.808695, 0.807929, 0.806146, 0.810275, 0.803862, 0.822012, 0.801695, 0.800745, 0.805615, 0.803603, 0.800875, 0.804884, 0.80142, 0.801828, 0.816076, 0.802803, 0.83843, 0.803299, 0.803893, 0.833523, 0.803691, 0.806087, 0.83602, 0.832475, 0.803685, 0.803413, 0.804447, 0.803721, 0.805697, 0.802567, 0.812484, 0.802175, 0.804139, 0.804455, 0.804706, 0.803805, 0.817448, 0.815187, 0.797053, 0.79808, 0.799143, 0.79892, 0.798324, 0.797795, 0.822859, 0.800604, 0.797712, 0.797432, 0.797449, 0.797966, 0.795963, 0.796453, 0.795718, 0.815858, 0.795251, 0.824445, 0.79289, 0.793153, 0.79416, 0.795565, 0.805296, 0.790976, 0.794859, 0.792708, 0.791172, 0.794358, 0.798226, 0.793097, 0.791584, 0.804586, 0.813777, 0.792394, 0.791554, 0.791697, 0.800873, 0.800535, 0.790833, 0.790186, 0.806261, 0.789438, 0.789088, 0.788568, 0.797612, 0.789277, 0.787725, 0.788661, 0.801092, 0.793647, 0.794659, 0.790899, 0.782378, 0.772883, 0.77174, 0.774118, 0.750423, 0.758772, 0.769315, 0.824804, 0.822966, 0.89459, 0.955038, 1.02411, 1.05344, 1.06087, 1.05819, 1.05641, 1.05791, 1.04107, 1.01309, 0.926372, 0.926377, 0.870472, 0.784584, 0.768114, 0.750414, 0.739831, 0.750002, 0.759116, 0.767128, 0.762183, 0.775667, 0.774985, 0.777673, 0.770102, 0.773851, 0.771111, 0.780204, 0.775059, 0.778334, 0.775194, 0.7755, 0.774838, 0.780621, 0.780175, 0.776199, 0.781102, 0.774993, 0.77725, 0.776785, 0.776852, 0.776649, 0.781583, 0.77521, 0.774033, 0.772127, 0.781161, 0.774236, 0.774928, 0.773178, 0.784651, 0.779482, 0.778475, 0.780145, 0.779269, 0.794215, 0.783003, 0.784161, 0.784073, 0.786, 0.788136, 0.784533, 0.784515, 0.789148, 0.787973, 0.78398, 0.783404, 0.815069, 0.783539, 0.80287
0.841283, 0.841973, 0.843888, 0.841088, 0.842573, 0.834913, 0.834112, 0.836698, 0.83707, 0.839835, 0.840211, 0.888697, 0.844053, 0.839853, 0.836017, 0.841632, 0.835723, 0.834214, 0.833485, 0.834089, 0.8361, 0.836786, 0.837266, 0.842595, 0.840841, 0.838778, 0.83748, 0.838401, 0.834782, 0.846024, 0.845358, 0.845153, 0.838493, 0.847099, 0.834556, 0.842985, 0.832448, 0.840279, 0.831876, 0.838672, 0.863946, 0.840306, 0.832836, 0.82916, 0.811313, 0.802419, 0.808468, 0.793933, 0.79782, 0.815519, 0.811991, 0.815461, 0.822783, 0.831635, 0.864546, 0.869391, 0.910004, 0.930084, 1.30444, 1.32331, 1.32325, 1.37406, 1.3795, 1.24047, 0.905038, 0.866555, 0.867711, 0.869035, 0.826358, 0.829113, 0.832158, 0.819083, 0.831999, 0.811978, 0.825105, 0.830131, 0.823217, 0.826803, 0.850156, 0.82474, 0.834735, 0.833889, 0.823835, 0.822263, 0.823849, 0.820341, 0.818889, 0.824827, 0.822655, 0.815932, 0.814042, 0.814802, 0.817716, 0.815736, 0.821851, 0.824602, 0.822382, 0.814725, 0.818757, 0.818482, 0.819478, 0.819216, 0.818248, 0.820199, 0.819031, 0.822582, 0.815909, 0.815527, 0.81584, 0.816033, 0.816263, 0.814266, 0.814805, 0.814433, 0.815563, 0.813646, 0.815586, 0.814092, 0.814219, 0.808415, 0.812358, 0.807707, 0.814114, 0.810866, 0.809792, 0.808432, 0.811384, 0.808742, 0.809269, 0.807323, 0.80826, 0.806839, 0.806285, 0.806333, 0.78644, 0.785204, 0.801529, 0.800091, 0.801549, 0.800495, 0.804399, 0.803664, 0.8036, 0.811467, 0.801017, 0.80134, 0.818726, 0.804817, 0.801685, 0.814752, 0.800383, 0.801215, 0.830748, 0.801562, 0.802639, 0.803045, 0.820729, 0.803663, 0.803283, 0.803609, 0.804528, 0.815164, 0.802492, 0.80283, 0.803533, 0.803569, 0.803418, 0.801661, 0.801339, 0.798002, 0.801352, 0.812302, 0.804399, 0.796655, 0.796145, 0.818138, 0.797535, 0.79765, 0.79728, 0.797888, 0.797173, 0.798331, 0.798437, 0.805323, 0.797627, 0.809375, 0.79528, 0.795849, 0.797409, 0.810405, 0.795326, 0.794243, 0.795012, 0.818539, 0.815941, 0.802086, 0.801889, 0.798742, 0.792518, 0.834525, 0.792595, 0.791515, 0.799103, 0.80782, 0.79105, 0.790212, 0.790486, 0.790422, 0.789211, 0.789079, 0.788602, 0.790048, 0.801708, 0.801536, 0.788103, 0.780592, 0.787857, 0.793597, 0.790341, 0.791831, 0.793954, 0.788947, 0.785405, 0.787967, 0.785445, 0.77434, 0.773383, 0.790622, 0.791132, 0.885039, 0.922715, 0.931198, 0.944569, 1.03261, 1.20909, 1.20579, 1.20612, 1.06281, 1.02291, 1.01231, 1.00461, 1.0039, 0.880385, 0.777544, 0.777588, 0.742322, 0.749459, 0.76139, 0.76172, 0.771412, 0.773501, 0.770104, 0.770412, 0.776412, 0.775931, 0.774729, 0.776328, 0.777264, 0.770955, 0.774008, 0.772929, 0.77499, 0.773885, 0.774613, 0.773463, 0.774157, 0.786309, 0.772955, 0.774058, 0.776561, 0.773839, 0.774122, 0.777345, 0.778593, 0.787144, 0.773014, 0.773836, 0.773418, 0.773112, 0.772916, 0.783449, 0.775776, 0.782676, 0.781722, 0.784983, 0.783524, 0.7843, 0.783535, 0.784903, 0.785426, 0.785357, 0.843672, 0.800075, 0.785913, 0.785346, 0.785079, 0.783403, 0.783106, 0.783223, 0.792973
0.83696, 0.847174, 0.846094, 0.849868, 0.836268, 0.84078, 0.832022, 0.831708, 0.833683, 0.837657, 0.836825, 0.837158, 0.837134, 0.848709, 0.834505, 0.832442, 0.832644, 0.831654, 0.834673, 0.849759, 0.835738, 0.836335, 0.837602, 0.838245, 0.856149, 0.836945, 0.845606, 0.839086, 0.835617, 0.835931, 0.837145, 0.835617, 0.834307, 0.842174, 0.83408, 0.835619, 0.835515, 0.833606, 0.834464, 0.849305, 0.851275, 0.860878, 0.821749, 0.81981, 0.809122, 0.808634, 0.805832, 0.804258, 0.832699, 0.821619, 0.811039, 0.825485, 0.85187, 0.850067, 0.871203, 0.876076, 0.905003, 0.906824, 1.27069, 1.38227, 1.35445, 1.37313, 1.28463, 1.26192, 0.90091, 0.909489, 0.883666, 0.88484, 0.857441, 0.810246, 0.811348, 0.808478, 0.815542, 0.818717, 0.818899, 0.820916, 0.84378, 0.825946, 0.829714, 0.843083, 0.832371, 0.821385, 0.823263, 0.820116, 0.821971, 0.824401, 0.825278, 0.818427, 0.818338, 0.815127, 0.821045, 0.813174, 0.812195, 0.812503, 0.81572, 0.821913, 0.817914, 0.813691, 0.820183, 0.811965, 0.812321, 0.820392, 0.818222, 0.825016, 0.817021, 0.815733, 0.826553, 0.813109, 0.813417, 0.812743, 0.81347, 0.817277, 0.824853, 0.814768, 0.815235, 0.814019, 0.814193, 0.814097, 0.813152, 0.811568, 0.809375, 0.810583, 0.811468, 0.811235, 0.809599, 0.808753, 0.807667, 0.807519, 0.807835, 0.807934, 0.832813, 0.80762, 0.807352, 0.803657, 0.802227, 0.801603, 0.798241, 0.799425, 0.797646, 0.79615, 0.796784, 0.795518, 0.794839, 0.797128, 0.805836, 0.805507, 0.815841, 0.800785, 0.800212, 0.799749, 0.806087, 0.802109, 0.802774, 0.801281, 0.801387, 0.802258, 0.808291, 0.832503, 0.800784, 0.800469, 0.801617, 0.801447, 0.801699, 0.811275, 0.801391, 0.818342, 0.825297, 0.799559, 0.800781, 0.800573, 0.797327, 0.797262, 0.797665, 0.811685, 0.797749, 0.798203, 0.808041, 0.796432, 0.79699, 0.800438, 0.79867, 0.797397, 0.799449, 0.796934, 0.798165, 0.800508, 0.81846, 0.796964, 0.798245, 0.796021, 0.795076, 0.825329, 0.797645, 0.80469, 0.792475, 0.838849, 0.792226, 0.792187, 0.801193, 0.792273, 0.791957, 0.791352, 0.791542, 0.791161, 0.790035, 0.788793, 0.788537, 0.788774, 0.787314, 0.78871, 0.795094, 0.799584, 0.802635, 0.797868, 0.786508, 0.779963, 0.783809, 0.791898, 0.787268, 0.788598, 0.787009, 0.787347, 0.762326, 0.763433, 0.774111, 0.790075, 0.790186, 0.803782, 0.824683, 0.895342, 0.947429, 0.949447, 0.980537, 1.03026, 1.23918, 1.23632, 1.23622, 1.07333, 1.03006, 1.03263, 1.01281, 1.01073, 0.813344, 0.780058, 0.797677, 0.770147, 0.780762, 0.783661, 0.783311, 0.768831, 0.77097, 0.771071, 0.778006, 0.771736, 0.772659, 0.77756, 0.773324, 0.77211, 0.777853, 0.778076, 0.773213, 0.771078, 0.783578, 0.780954, 0.777794, 0.773257, 0.775802, 0.77782, 0.776319, 0.774844, 0.773239, 0.773669, 0.774456, 0.775676, 0.771045, 0.77744, 0.776173, 0.777578, 0.778013, 0.790298, 0.777223, 0.777195, 0.7794, 0.780514, 0.786904, 0.782391, 0.786848, 0.785266, 0.783239, 0.794751, 0.794105, 0.783232, 0.783178, 0.783752, 0.783201, 0.783505, 0.7818, 0.783556, 0.783938, 0.782336
0.847424, 0.833708, 0.834728, 0.836867, 0.836432, 0.832942, 0.832139, 0.839767, 0.833483, 0.831489, 0.837022, 0.8335, 0.839551, 0.835684, 0.835975, 0.834846, 0.833524, 0.837145, 0.847733, 0.836697, 0.836598, 0.839035, 0.837667, 0.836132, 0.836006, 0.84654, 0.83618, 0.850814, 0.850621, 0.835942, 0.843971, 0.844145, 0.833591, 0.834732, 0.839445, 0.823837, 0.822096, 0.829475, 0.818973, 0.836144, 0.835992, 0.835741, 0.846121, 0.829029, 0.831915, 0.805122, 0.798771, 0.818295, 0.803368, 0.805852, 0.83701, 0.833298, 0.834048, 0.849999, 0.901225, 0.901969, 0.901208, 0.921681, 0.96072, 1.30727, 1.39562, 1.37805, 1.36253, 0.909234, 0.908843, 0.92604, 0.886677, 0.871377, 0.814873, 0.812971, 0.79746, 0.804633, 0.788665, 0.812296, 0.815653, 0.812884, 0.819576, 0.81809, 0.824844, 0.822116, 0.822614, 0.81946, 0.821425, 0.815477, 0.813625, 0.822917, 0.808263, 0.819066, 0.817331, 0.817845, 0.835239, 0.818944, 0.815646, 0.814112, 0.816315, 0.822665, 0.812586, 0.812868, 0.815616, 0.824963, 0.816636, 0.817249, 0.808718, 0.816584, 0.812708, 0.812893, 0.814127, 0.812277, 0.813387, 0.818098, 0.813217, 0.815939, 0.814813, 0.814678, 0.813984, 0.814039, 0.812491, 0.809632, 0.808264, 0.810219, 0.811397, 0.805121, 0.815351, 0.809734, 0.80769, 0.818838, 0.8089, 0.809117, 0.80674, 0.80593, 0.807639, 0.808271, 0.803577, 0.807649, 0.800987, 0.800918, 0.799496, 0.798942, 0.79764, 0.79716, 0.796733, 0.79607, 0.822509, 0.796328, 0.835387, 0.821065, 0.819203, 0.7991, 0.818647, 0.807057, 0.798951, 0.828722, 0.819311, 0.822728, 0.80405, 0.802181, 0.801876, 0.807287, 0.836607, 0.809003, 0.809745, 0.799369, 0.801758, 0.79962, 0.799318, 0.800156, 0.801078, 0.797214, 0.818376, 0.80484, 0.798243, 0.801517, 0.798159, 0.798603, 0.809036, 0.797758, 0.796546, 0.798035, 0.799404, 0.797365, 0.795477, 0.796439, 0.797366, 0.79827, 0.797639, 0.798436, 0.796593, 0.795463, 0.797563, 0.796059, 0.801047, 0.793759, 0.792367, 0.809943, 0.792011, 0.808938, 0.791078, 0.802722, 0.801616, 0.80771, 0.792618, 0.791895, 0.790502, 0.78906, 0.791176, 0.789076, 0.790605, 0.801931, 0.804937, 0.786649, 0.783414, 0.786169, 0.787566, 0.788821, 0.787525, 0.787184, 0.78738, 0.787122, 0.785768, 0.786821, 0.786184, 0.781332, 0.764188, 0.770548, 0.767149, 0.79836, 0.787778, 0.802368, 0.847819, 0.889305, 0.905459, 0.98745, 1.01055, 1.06448, 1.23826, 1.22698, 1.18413, 1.21344, 1.18299, 1.10914, 1.06678, 0.867827, 0.838476, 0.792015, 0.770997, 0.768625, 0.780712, 0.775548, 0.781192, 0.7777, 0.772299, 0.77162, 0.776857, 0.771177, 0.770849, 0.76805, 0.778357, 0.778284, 0.77736, 0.775843, 0.771745, 0.773202, 0.771711, 0.777235, 0.774015, 0.773172, 0.780551, 0.775361, 0.775834, 0.776449, 0.776676, 0.778253, 0.773384, 0.773849, 0.779466, 0.773945, 0.774589, 0.775859, 0.785741, 0.777639, 0.781398, 0.782441, 0.783211, 0.784545, 0.782624, 0.790346, 0.784226, 0.784646, 0.783965, 0.798672, 0.78396, 0.783076, 0.783604, 0.784144, 0.783567, 0.784019, 0.785135, 0.783187, 0.783904, 0.783206
0.848697, 0.839338, 0.844571, 0.835259, 0.842849, 0.832759, 0.839861, 0.832323, 0.832744, 0.823177, 0.8301, 0.836887, 0.834594, 0.832716, 0.833559, 0.836006, 0.83796, 0.836125, 0.836996, 0.846388, 0.836273, 0.835628, 0.850996, 0.837785, 0.837707, 0.842139, 0.836302, 0.835408, 0.833738, 0.83728, 0.840207, 0.836002, 0.833972, 0.834843, 0.833837, 0.838773, 0.834736, 0.821279, 0.82244, 0.847424, 0.835287, 0.836444, 0.836588, 0.798842, 0.798683, 0.798733, 0.811888, 0.786859, 0.799447, 0.800314, 0.832569, 0.833217, 0.835822, 0.926507, 0.910994, 0.906822, 0.913335, 0.912885, 0.950892, 0.980525, 1.01977, 1.01862, 0.959769, 0.956775, 0.936782, 0.938421, 0.915213, 0.811667, 0.815428, 0.783798, 0.786876, 0.79762, 0.801544, 0.806814, 0.808651, 0.813998, 0.816114, 0.818867, 0.819672, 0.818644, 0.815084, 0.816101, 0.817678, 0.817846, 0.816129, 0.814477, 0.813479, 0.814722, 0.821749, 0.815077, 0.815511, 0.835082, 0.826592, 0.831451, 0.815904, 0.817754, 0.813889, 0.810936, 0.80965, 0.815092, 0.816586, 0.818849, 0.818278, 0.814764, 0.814174, 0.81018, 0.815484, 0.812568, 0.813443, 0.812905, 0.812279, 0.812132, 0.838677, 0.814089, 0.812608, 0.810977, 0.806381, 0.808408, 0.811592, 0.818847, 0.808346, 0.811336, 0.814257, 0.809282, 0.813855, 0.825167, 0.811614, 0.81255, 0.807497, 0.807216, 0.80577, 0.807198, 0.806238, 0.804351, 0.803104, 0.802999, 0.809722, 0.79959, 0.798729, 0.801015, 0.795568, 0.794352, 0.800152, 0.798509, 0.797059, 0.797715, 0.798029, 0.798119, 0.799614, 0.811757, 0.79808, 0.797556, 0.798404, 0.7996, 0.79809, 0.798206, 0.812793, 0.80829, 0.809609, 0.826629, 0.810033, 0.804972, 0.799496, 0.798667, 0.828246, 0.821661, 0.801365, 0.79892, 0.799009, 0.815285, 0.797286, 0.798339, 0.797403, 0.799042, 0.80261, 0.800097, 0.793503, 0.794634, 0.79501, 0.797216, 0.798246, 0.798229, 0.797025, 0.797632, 0.815124, 0.798874, 0.797471, 0.809932, 0.796921, 0.812774, 0.818872, 0.792984, 0.793579, 0.791553, 0.82061, 0.818914, 0.790942, 0.790256, 0.789758, 0.78871, 0.78855, 0.801908, 0.787586, 0.787807, 0.787826, 0.785294, 0.783701, 0.785819, 0.784823, 0.782268, 0.783168, 0.787422, 0.784729, 0.797711, 0.787, 0.791552, 0.790328, 0.7849, 0.790965, 0.784612, 0.785178, 0.785011, 0.777177, 0.767982, 0.763075, 0.749183, 0.76079, 0.822084, 0.839018, 0.876323, 0.903406, 0.922341, 1.20521, 1.18921, 1.23012, 1.20842, 1.20454, 1.2258, 1.20629, 1.16851, 0.902191, 0.857231, 0.836964, 0.800819, 0.803715, 0.773795, 0.80586, 0.790616, 0.791101, 0.780581, 0.780814, 0.770683, 0.7725, 0.782239, 0.779722, 0.781155, 0.789509, 0.776767, 0.775541, 0.77761, 0.773976, 0.771984, 0.772776, 0.77766, 0.770884, 0.77566, 0.774922, 0.774005, 0.79561, 0.777847, 0.777365, 0.778456, 0.777919, 0.777804, 0.777407, 0.780972, 0.782945, 0.78272, 0.782991, 0.782779, 0.782782, 0.782434, 0.785267, 0.783714, 0.784593, 0.785699, 0.78741, 0.7871, 0.785753, 0.795629, 0.796843, 0.78539, 0.785038, 0.783133, 0.785266, 0.791491, 0.781585, 0.78316, 0.783319, 0.784674
0.835332, 0.836502, 0.835186, 0.849438, 0.833141, 0.829163, 0.838173, 0.809839, 0.832348, 0.831248, 0.832633, 0.83835, 0.832236, 0.839334, 0.833221, 0.836377, 0.835619, 0.835522, 0.839009, 0.838339, 0.839585, 0.838425, 0.839019, 0.843887, 0.851471, 0.838332, 0.836053, 0.838174, 0.837712, 0.839903, 0.838974, 0.839108, 0.837087, 0.833815, 0.835186, 0.836072, 0.840535, 0.835767, 0.836625, 0.837378, 0.838958, 0.837316, 0.83607, 0.825946, 0.814416, 0.807689, 0.787611, 0.784468, 0.795294, 0.801381, 0.812087, 0.84631, 0.893719, 0.937468, 0.920939, 0.936885, 0.936562, 0.967388, 0.964604, 1.00932, 1.02717, 1.02865, 1.0168, 0.982007, 0.974163, 0.915654, 0.868211, 0.822169, 0.839438, 0.810041, 0.805349, 0.808467, 0.801977, 0.805443, 0.810955, 0.813337, 0.812581, 0.807537, 0.809668, 0.812246, 0.812635, 0.813225, 0.822771, 0.814799, 0.816779, 0.81659, 0.816236, 0.816403, 0.815926, 0.816366, 0.816167, 0.810194, 0.815664, 0.822353, 0.816522, 0.815127, 0.813125, 0.811721, 0.817871, 0.818403, 0.818028, 0.815197, 0.805463, 0.809121, 0.810073, 0.823338, 0.811991, 0.821894, 0.812337, 0.813172, 0.828989, 0.827554, 0.827697, 0.814006, 0.808638, 0.807471, 0.808547, 0.81288, 0.805752, 0.819781, 0.808795, 0.816226, 0.807567, 0.807223, 0.808192, 0.807886, 0.819439, 0.807077, 0.806612, 0.805137, 0.80288, 0.803969, 0.805132, 0.817848, 0.803761, 0.801476, 0.800902, 0.800286, 0.79709, 0.797201, 0.796836, 0.798162, 0.799534, 0.829318, 0.801378, 0.800632, 0.800682, 0.798951, 0.798908, 0.799641, 0.799454, 0.799673, 0.799951, 0.799576, 0.797602, 0.79873, 0.799013, 0.799132, 0.814936, 0.800967, 0.798729, 0.800483, 0.799799, 0.801425, 0.809095, 0.800014, 0.811093, 0.808323, 0.79928, 0.799523, 0.799082, 0.798699, 0.79842, 0.797144, 0.796222, 0.79511, 0.791799, 0.789813, 0.791712, 0.798082, 0.809157, 0.816469, 0.797879, 0.798185, 0.798944, 0.815314, 0.805468, 0.797947, 0.797823, 0.805485, 0.796242, 0.794214, 0.80879, 0.793903, 0.808524, 0.792278, 0.811493, 0.790497, 0.787476, 0.789196, 0.788191, 0.788799, 0.788988, 0.788706, 0.791978, 0.791216, 0.78655, 0.794063, 0.787199, 0.787588, 0.782938, 0.779199, 0.783977, 0.784926, 0.787679, 0.788706, 0.793374, 0.790334, 0.791564, 0.787149, 0.786629, 0.772364, 0.768727, 0.770694, 0.753729, 0.762436, 0.77297, 0.804739, 0.855593, 0.878059, 0.880176, 0.953655, 1.07132, 1.21452, 1.25318, 1.23376, 1.20337, 1.2317, 1.23764, 0.952231, 0.890258, 0.888309, 0.840932, 0.829124, 0.81843, 0.796843, 0.780883, 0.787569, 0.786687, 0.788409, 0.781567, 0.78199, 0.787654, 0.790076, 0.790286, 0.782764, 0.789734, 0.784407, 0.775438, 0.77351, 0.773808, 0.774443, 0.808561, 0.771396, 0.770537, 0.770798, 0.771293, 0.775211, 0.775054, 0.774741, 0.77639, 0.777898, 0.778419, 0.778651, 0.78126, 0.792509, 0.782313, 0.781025, 0.78281, 0.7811, 0.783644, 0.790738, 0.786787, 0.783842, 0.785061, 0.784996, 0.7851, 0.784396, 0.784012, 0.785852, 0.783224, 0.801692, 0.783466, 0.782415, 0.803791, 0.781951, 0.782895, 0.782185, 0.783066, 0.781778
0.83738, 0.843344, 0.836695, 0.837041, 0.835799, 0.832083, 0.831445, 0.833511, 0.835423, 0.830234, 0.83273, 0.841794, 0.83295, 0.834946, 0.835075, 0.835778, 0.836347, 0.838343, 0.838299, 0.83681, 0.837911, 0.837269, 0.837947, 0.839108, 0.837173, 0.838114, 0.839596, 0.84627, 0.835491, 0.835795, 0.842892, 0.835983, 0.833023, 0.834155, 0.834214, 0.838863, 0.841471, 0.836571, 0.836626, 0.840007, 0.850348, 0.843129, 0.839663, 0.83903, 0.811701, 0.801136, 0.790979, 0.787839, 0.782033, 0.802076, 0.801859, 0.81929, 0.832923, 0.959341, 0.961222, 0.950407, 0.995279, 1.03588, 1.03206, 1.07072, 1.07253, 1.08455, 1.08216, 1.07538, 1.05957, 0.98523, 0.840889, 0.828815, 0.842559, 0.835434, 0.836248, 0.81842, 0.811487, 0.811911, 0.819988, 0.821992, 0.81924, 0.81846, 0.816661, 0.815719, 0.81873, 0.832533, 0.81776, 0.815751, 0.814753, 0.816352, 0.816588, 0.815215, 0.817988, 0.817938, 0.82325, 0.816173, 0.815325, 0.821573, 0.821608, 0.815659, 0.814415, 0.807422, 0.805872, 0.809359, 0.801091, 0.801931, 0.807321, 0.81737, 0.815439, 0.811368, 0.812104, 0.81329, 0.81582, 0.814704, 0.812974, 0.814886, 0.809593, 0.811768, 0.818414, 0.810815, 0.809261, 0.828725, 0.808281, 0.809821, 0.814775, 0.808076, 0.810783, 0.811431, 0.809803, 0.817693, 0.808891, 0.80896, 0.808773, 0.805569, 0.802958, 0.832312, 0.801769, 0.816058, 0.816077, 0.800926, 0.828318, 0.798075, 0.801367, 0.797825, 0.807839, 0.799702, 0.799252, 0.800399, 0.801338, 0.800383, 0.800838, 0.800524, 0.801892, 0.800926, 0.801836, 0.800435, 0.812104, 0.813179, 0.798969, 0.797995, 0.798224, 0.801441, 0.802231, 0.802088, 0.810329, 0.808049, 0.799901, 0.803637, 0.802689, 0.800181, 0.809224, 0.799154, 0.80063, 0.800625, 0.798641, 0.814964, 0.799482, 0.798475, 0.797737, 0.796897, 0.79725, 0.797482, 0.802273, 0.798474, 0.801625, 0.797662, 0.79878, 0.799284, 0.797982, 0.798676, 0.797354, 0.797351, 0.797255, 0.808543, 0.796332, 0.795044, 0.802642, 0.801041, 0.794865, 0.826471, 0.789667, 0.790589, 0.790339, 0.790679, 0.793685, 0.794204, 0.791721, 0.790772, 0.788146, 0.794403, 0.788997, 0.791238, 0.791239, 0.787501, 0.784126, 0.781991, 0.784973, 0.783834, 0.784042, 0.787331, 0.793554, 0.790993, 0.790903, 0.793714, 0.786039, 0.781816, 0.779844, 0.760389, 0.75806, 0.763896, 0.784377, 0.778126, 0.826449, 0.877371, 0.878026, 0.918543, 1.01132, 1.22616, 1.25717, 1.27173, 1.26492, 1.26208, 1.12238, 0.945714, 0.896537, 0.892451, 0.859992, 0.843447, 0.805377, 0.786454, 0.787315, 0.776591, 0.783316, 0.779529, 0.781839, 0.778811, 0.78502, 0.785225, 0.793576, 0.786941, 0.780972, 0.778248, 0.781062, 0.780615, 0.776335, 0.774689, 0.777265, 0.772574, 0.771481, 0.770252, 0.769941, 0.772724, 0.779911, 0.774008, 0.77778, 0.776021, 0.777413, 0.778918, 0.786194, 0.782976, 0.783134, 0.78204, 0.783326, 0.784437, 0.781216, 0.784568, 0.782033, 0.784716, 0.781705, 0.781955, 0.783831, 0.785944, 0.779077, 0.788434, 0.779882, 0.780476, 0.781268, 0.780601, 0.781348, 0.779875, 0.797942, 0.779243, 0.78062, 0.780211
0.833379, 0.833058, 0.832151, 0.83224, 0.831754, 0.834086, 0.830968, 0.842268, 0.833657, 0.836318, 0.849005, 0.836333, 0.836089, 0.836397, 0.836042, 0.846019, 0.839979, 0.84053, 0.8544, 0.850161, 0.838974, 0.840178, 0.839504, 0.849534, 0.836617, 0.83577, 0.835927, 0.837193, 0.836548, 0.836047, 0.835589, 0.837489, 0.836082, 0.850161, 0.836254, 0.838819, 0.84673, 0.836223, 0.852798, 0.844994, 0.841897, 0.839312, 0.839667, 0.841581, 0.817525, 0.815212, 0.802219, 0.78742, 0.791493, 0.784219, 0.787318, 0.816162, 0.859812, 0.930947, 1.01098, 1.02514, 1.07041, 1.07982, 1.14437, 1.24299, 1.316, 1.30919, 1.30322, 1.27414, 1.13379, 0.857688, 0.854724, 0.837788, 0.856069, 0.837124, 0.808361, 0.817525, 0.809392, 0.821961, 0.828732, 0.820017, 0.831126, 0.82476, 0.821612, 0.816728, 0.817672, 0.818026, 0.813086, 0.812467, 0.811302, 0.811596, 0.81176, 0.817143, 0.818937, 0.812005, 0.812432, 0.820566, 0.819181, 0.815505, 0.812951, 0.812208, 0.814961, 0.80993, 0.811698, 0.810606, 0.811861, 0.81074, 0.810248, 0.810572, 0.809437, 0.811424, 0.812966, 0.833688, 0.813105, 0.825174, 0.815978, 0.817956, 0.814805, 0.812636, 0.809244, 0.808989, 0.804124, 0.811911, 0.828009, 0.816919, 0.824582, 0.808492, 0.808642, 0.808956, 0.808776, 0.809776, 0.807902, 0.808262, 0.806741, 0.805198, 0.804174, 0.804734, 0.807201, 0.822185, 0.814832, 0.838551, 0.799893, 0.797913, 0.810956, 0.811261, 0.799151, 0.79873, 0.798634, 0.808611, 0.800764, 0.801, 0.799657, 0.798955, 0.798958, 0.799555, 0.800001, 0.81852, 0.800149, 0.799721, 0.797752, 0.797966, 0.815037, 0.80023, 0.799678, 0.826273, 0.799207, 0.799127, 0.799748, 0.800616, 0.800997, 0.818018, 0.80133, 0.800241, 0.804079, 0.800994, 0.79951, 0.799694, 0.819058, 0.79998, 0.798162, 0.825475, 0.799395, 0.798346, 0.797556, 0.796377, 0.797947, 0.797864, 0.79781, 0.797091, 0.798478, 0.799919, 0.797529, 0.798084, 0.793945, 0.80003, 0.798326, 0.794592, 0.818911, 0.794883, 0.811175, 0.792597, 0.793054, 0.797773, 0.806996, 0.791886, 0.791561, 0.790473, 0.790276, 0.794045, 0.804327, 0.788674, 0.790463, 0.790694, 0.782789, 0.781264, 0.781412, 0.784245, 0.783445, 0.782627, 0.778639, 0.787663, 0.791019, 0.797873, 0.793278, 0.794231, 0.787873, 0.784035, 0.772964, 0.772438, 0.763266, 0.764066, 0.764493, 0.800978, 0.84917, 0.874879, 0.898808, 0.910019, 1.01184, 1.06048, 1.30314, 1.28589, 1.2827, 1.28328, 0.964058, 0.947108, 0.933197, 0.936433, 0.903773, 0.81592, 0.79922, 0.777074, 0.786394, 0.781226, 0.78223, 0.778033, 0.780199, 0.778601, 0.786359, 0.790243, 0.787873, 0.778516, 0.781048, 0.780494, 0.778131, 0.775419, 0.78113, 0.773517, 0.783281, 0.771367, 0.774721, 0.769481, 0.770181, 0.77101, 0.772431, 0.771135, 0.770281, 0.770477, 0.772941, 0.773563, 0.781255, 0.774668, 0.779643, 0.778006, 0.778804, 0.779689, 0.784068, 0.780523, 0.786212, 0.781198, 0.787247, 0.78045, 0.780288, 0.777951, 0.782831, 0.778651, 0.778367, 0.778308, 0.779978, 0.781824, 0.778537, 0.798235, 0.778665, 0.789044, 0.777376, 0.778962
0.838946, 0.834509, 0.833157, 0.83128, 0.831386, 0.843067, 0.83162, 0.831606, 0.82953, 0.835928, 0.836235, 0.836043, 0.836993, 0.837534, 0.83771, 0.838112, 0.839779, 0.839398, 0.839007, 0.84109, 0.840103, 0.839607, 0.8407, 0.83994, 0.839742, 0.839176, 0.84698, 0.840248, 0.839166, 0.841786, 0.834969, 0.836657, 0.842104, 0.839215, 0.83548, 0.839926, 0.837863, 0.837209, 0.836576, 0.839576, 0.839746, 0.846648, 0.846538, 0.84372, 0.835127, 0.814785, 0.815109, 0.798941, 0.81755, 0.79489, 0.802307, 0.815369, 0.823095, 0.861045, 1.01281, 1.08021, 1.07994, 1.13037, 1.17452, 1.29155, 1.29473, 1.30019, 1.31274, 1.30199, 0.878484, 0.877578, 0.85313, 0.850047, 0.847703, 0.839125, 0.810559, 0.811968, 0.819282, 0.818495, 0.819375, 0.843134, 0.823091, 0.821398, 0.820302, 0.826237, 0.825858, 0.818103, 0.817885, 0.816622, 0.81405, 0.8116, 0.811273, 0.81965, 0.814088, 0.818476, 0.818276, 0.811477, 0.809638, 0.812572, 0.811203, 0.811657, 0.809437, 0.819238, 0.813299, 0.821208, 0.82172, 0.828803, 0.812514, 0.813256, 0.812379, 0.812218, 0.811553, 0.811719, 0.809902, 0.811642, 0.811331, 0.809196, 0.809582, 0.81066, 0.811043, 0.808673, 0.816095, 0.808767, 0.809572, 0.818502, 0.810587, 0.815667, 0.810327, 0.809849, 0.807684, 0.80852, 0.8084, 0.807718, 0.807809, 0.806369, 0.805224, 0.804509, 0.801903, 0.801885, 0.8036, 0.80454, 0.840552, 0.81967, 0.819641, 0.823631, 0.823055, 0.840154, 0.857125, 0.866308, 0.825802, 0.815098, 0.804445, 0.79743, 0.801909, 0.799121, 0.800865, 0.799774, 0.799213, 0.799717, 0.79972, 0.798283, 0.798349, 0.799184, 0.798719, 0.798382, 0.797935, 0.799382, 0.819574, 0.808614, 0.801214, 0.800769, 0.808132, 0.80048, 0.804999, 0.822673, 0.799214, 0.79618, 0.798702, 0.799863, 0.800699, 0.799074, 0.798851, 0.798109, 0.797805, 0.798626, 0.797126, 0.794596, 0.796428, 0.79738, 0.7939, 0.792784, 0.792912, 0.797892, 0.795336, 0.795451, 0.794202, 0.796026, 0.794134, 0.793425, 0.793877, 0.793984, 0.793954, 0.79407, 0.793292, 0.79281, 0.793683, 0.791178, 0.807512, 0.791478, 0.789037, 0.788924, 0.793561, 0.786751, 0.781633, 0.794277, 0.783333, 0.780511, 0.785622, 0.786837, 0.782314, 0.786979, 0.792594, 0.789682, 0.793812, 0.793244, 0.790988, 0.788033, 0.782394, 0.787855, 0.77366, 0.765797, 0.774529, 0.828591, 0.828458, 0.910109, 0.973048, 0.973118, 0.985676, 0.987035, 1.01761, 1.29278, 1.31859, 1.06494, 0.984137, 0.99103, 0.963987, 0.935519, 0.83502, 0.801195, 0.771065, 0.770558, 0.770974, 0.795303, 0.788064, 0.785067, 0.784919, 0.784568, 0.783187, 0.791033, 0.782882, 0.775012, 0.778309, 0.784091, 0.778019, 0.778536, 0.772476, 0.776956, 0.777476, 0.775034, 0.775084, 0.776578, 0.770061, 0.773701, 0.773599, 0.771492, 0.771469, 0.770871, 0.771995, 0.779446, 0.779381, 0.784042, 0.785417, 0.784548, 0.801122, 0.779259, 0.778367, 0.780563, 0.780649, 0.780755, 0.780222, 0.780783, 0.780867, 0.78044, 0.78014, 0.780507, 0.783648, 0.778162, 0.778687, 0.779967, 0.777084, 0.778006, 0.778239, 0.780906, 0.776341, 0.777081
0.837249, 0.835874, 0.830718, 0.853825, 0.832864, 0.832234, 0.83322, 0.839448, 0.836348, 0.83538, 0.837468, 0.837578, 0.837385, 0.837961, 0.841562, 0.839884, 0.839565, 0.83681, 0.840667, 0.840018, 0.839627, 0.849251, 0.838925, 0.84106, 0.838818, 0.842517, 0.846775, 0.841725, 0.840149, 0.837064, 0.835745, 0.834485, 0.832439, 0.833081, 0.834519, 0.839045, 0.847202, 0.846622, 0.841402, 0.836384, 0.850362, 0.849066, 0.837609, 0.836382, 0.829845, 0.835214, 0.830519, 0.80501, 0.80465, 0.80353, 0.835583, 0.849933, 0.832999, 0.85012, 0.888065, 0.89872, 0.945287, 1.14353, 1.18589, 1.19106, 1.30956, 1.29511, 1.28784, 1.28649, 0.894182, 0.877666, 0.860693, 0.877843, 0.853154, 0.854353, 0.808863, 0.805375, 0.8439, 0.832571, 0.8332, 0.82121, 0.820462, 0.821323, 0.830191, 0.818918, 0.817157, 0.825797, 0.817288, 0.81692, 0.815899, 0.816674, 0.835658, 0.836282, 0.814373, 0.813137, 0.810903, 0.811926, 0.812293, 0.815258, 0.80883, 0.815284, 0.817432, 0.80671, 0.811931, 0.811503, 0.828258, 0.812113, 0.825245, 0.811576, 0.811494, 0.822561, 0.813144, 0.8119, 0.811777, 0.814509, 0.813664, 0.811193, 0.813079, 0.812114, 0.812112, 0.833295, 0.808127, 0.814779, 0.810947, 0.810168, 0.809123, 0.810237, 0.812054, 0.814609, 0.808263, 0.809075, 0.808084, 0.807575, 0.812612, 0.806516, 0.805138, 0.80471, 0.803103, 0.804032, 0.804032, 0.802008, 0.805398, 0.809196, 0.848738, 0.844566, 0.838775, 0.835733, 0.839439, 0.843704, 0.853918, 0.821932, 0.804528, 0.801171, 0.807494, 0.80441, 0.803649, 0.802974, 0.798856, 0.800356, 0.800314, 0.799846, 0.800922, 0.819358, 0.799536, 0.798101, 0.815408, 0.815225, 0.799481, 0.802917, 0.798798, 0.801989, 0.800567, 0.800396, 0.800062, 0.800766, 0.799295, 0.802541, 0.808752, 0.800463, 0.800351, 0.799831, 0.800166, 0.801272, 0.801104, 0.802379, 0.807506, 0.794753, 0.793044, 0.800525, 0.799319, 0.779692, 0.797182, 0.79387, 0.793273, 0.789427, 0.798068, 0.794763, 0.792677, 0.79557, 0.795191, 0.796625, 0.792446, 0.792694, 0.793984, 0.801938, 0.793492, 0.792213, 0.79465, 0.790835, 0.793975, 0.788079, 0.784965, 0.783556, 0.784102, 0.780734, 0.790203, 0.779898, 0.779931, 0.781244, 0.782512, 0.788225, 0.784114, 0.782646, 0.79812, 0.787427, 0.794283, 0.780629, 0.786998, 0.771148, 0.763943, 0.770041, 0.808704, 0.795739, 0.814319, 0.926618, 0.97223, 0.985425, 0.990152, 1.01493, 1.03598, 1.1549, 1.14918, 1.07313, 1.04426, 1.04607, 0.99601, 1.00224, 0.814565, 0.794953, 0.780248, 0.784531, 0.791424, 0.774549, 0.774995, 0.785128, 0.788217, 0.786538, 0.801007, 0.784823, 0.780806, 0.779254, 0.7756, 0.778279, 0.776924, 0.775945, 0.774248, 0.77922, 0.772104, 0.772153, 0.771778, 0.772818, 0.773127, 0.773046, 0.774314, 0.774218, 0.773179, 0.773241, 0.773525, 0.77379, 0.775867, 0.776196, 0.776175, 0.777755, 0.777803, 0.779761, 0.780343, 0.78016, 0.781471, 0.780123, 0.780017, 0.779832, 0.779036, 0.779563, 0.779282, 0.77991, 0.778539, 0.777433, 0.775448, 0.781205, 0.777543, 0.777807, 0.775873, 0.777169, 0.775361, 0.776325
0.835856, 0.836144, 0.838439, 0.827616, 0.829327, 0.832485, 0.83445, 0.834651, 0.835686, 0.838965, 0.838435, 0.836831, 0.836557, 0.836186, 0.8361, 0.837788, 0.838501, 0.838695, 0.838445, 0.838691, 0.850684, 0.843835, 0.840791, 0.839037, 0.838682, 0.839365, 0.854589, 0.838548, 0.847346, 0.843104, 0.841759, 0.865968, 0.834498, 0.83302, 0.843798, 0.832191, 0.838439, 0.835327, 0.845429, 0.835576, 0.835167, 0.8366, 0.84402, 0.858238, 0.835228, 0.814814, 0.813354, 0.811183, 0.814386, 0.814631, 0.842104, 0.848091, 0.880876, 0.895065, 0.90466, 0.919431, 0.936933, 1.15126, 1.17562, 1.22045, 1.30253, 1.3374, 1.33458, 1.32633, 0.923126, 0.91792, 0.928304, 0.899959, 0.879846, 0.843332, 0.836201, 0.817305, 0.876674, 0.826721, 0.830322, 0.825845, 0.82563, 0.819958, 0.81889, 0.825582, 0.819363, 0.843915, 0.817089, 0.816128, 0.832366, 0.814158, 0.814816, 0.813084, 0.813398, 0.814289, 0.8126, 0.814255, 0.816485, 0.810889, 0.809955, 0.807757, 0.807037, 0.808556, 0.809571, 0.810544, 0.819796, 0.8212, 0.811387, 0.81226, 0.825677, 0.811778, 0.812484, 0.811298, 0.835929, 0.814755, 0.814018, 0.811798, 0.810461, 0.810272, 0.810975, 0.809626, 0.810516, 0.810434, 0.823009, 0.80981, 0.810141, 0.810237, 0.809702, 0.807938, 0.808825, 0.808458, 0.808012, 0.807525, 0.807191, 0.807868, 0.804941, 0.803602, 0.815004, 0.802478, 0.813859, 0.815757, 0.821773, 0.852209, 0.851928, 0.87401, 0.829651, 0.833052, 0.832404, 0.833774, 0.84709, 0.835874, 0.834629, 0.799555, 0.802656, 0.79748, 0.797452, 0.798671, 0.799051, 0.79998, 0.805348, 0.798981, 0.798203, 0.798293, 0.80169, 0.797678, 0.798086, 0.798767, 0.79885, 0.799013, 0.8013, 0.825121, 0.818771, 0.801651, 0.840905, 0.79835, 0.804331, 0.801848, 0.801203, 0.808426, 0.801251, 0.800434, 0.811649, 0.799026, 0.797393, 0.796716, 0.793999, 0.799685, 0.801292, 0.802142, 0.791622, 0.802791, 0.801579, 0.794855, 0.796323, 0.798093, 0.799048, 0.812097, 0.796355, 0.794947, 0.808256, 0.794623, 0.800903, 0.797536, 0.790544, 0.794695, 0.79519, 0.795176, 0.794939, 0.794062, 0.78479, 0.786438, 0.785576, 0.784433, 0.783812, 0.785006, 0.784621, 0.783304, 0.791611, 0.783951, 0.785852, 0.786736, 0.787701, 0.79407, 0.79741, 0.795412, 0.788924, 0.789952, 0.791087, 0.770518, 0.769148, 0.788839, 0.798296, 0.847779, 0.845806, 0.855009, 0.998465, 1.00989, 1.05148, 1.05724, 1.10597, 1.15627, 1.15542, 1.11188, 1.07533, 1.03332, 1.06081, 0.864105, 0.831449, 0.827187, 0.803952, 0.775853, 0.776025, 0.783863, 0.791852, 0.786566, 0.788465, 0.787286, 0.790355, 0.783775, 0.796787, 0.794557, 0.782048, 0.776991, 0.776727, 0.776335, 0.794938, 0.776376, 0.767838, 0.768685, 0.779796, 0.770906, 0.772121, 0.773006, 0.77382, 0.771463, 0.771989, 0.770933, 0.772305, 0.773572, 0.773407, 0.774333, 0.774947, 0.775351, 0.777027, 0.774771, 0.790931, 0.778591, 0.778604, 0.778455, 0.780577, 0.777333, 0.778036, 0.77665, 0.777595, 0.775353, 0.791107, 0.811086, 0.776179, 0.776031, 0.776884, 0.774966, 0.773129, 0.777084, 0.774591, 0.774513
0.834023, 0.835642, 0.830131, 0.832834, 0.821875, 0.825693, 0.838401, 0.835619, 0.835664, 0.836505, 0.843413, 0.836521, 0.835649, 0.836779, 0.83744, 0.838352, 0.836029, 0.834106, 0.834177, 0.836664, 0.841309, 0.839186, 0.832825, 0.83568, 0.839285, 0.847484, 0.835357, 0.839499, 0.833735, 0.831742, 0.834754, 0.835871, 0.832135, 0.832166, 0.832904, 0.833322, 0.839482, 0.83509, 0.835916, 0.838256, 0.842561, 0.839874, 0.839841, 0.833505, 0.843595, 0.832173, 0.82183, 0.813143, 0.832956, 0.814648, 0.819646, 0.857489, 0.90498, 0.932841, 0.950221, 0.977687, 0.994734, 1.02369, 1.23616, 1.23483, 1.37599, 1.30329, 1.30479, 0.991797, 0.983399, 1.00005, 0.964563, 0.902737, 0.901362, 0.891135, 0.875069, 0.821977, 0.837405, 0.822916, 0.822175, 0.820567, 0.821757, 0.824258, 0.819565, 0.819015, 0.817917, 0.81633, 0.816058, 0.815042, 0.814448, 0.816381, 0.815179, 0.813321, 0.813166, 0.825337, 0.819205, 0.814357, 0.829864, 0.828307, 0.828798, 0.818145, 0.812145, 0.808876, 0.808864, 0.808606, 0.809133, 0.825592, 0.809463, 0.810503, 0.812989, 0.812366, 0.812055, 0.812775, 0.818364, 0.822909, 0.810213, 0.811071, 0.810093, 0.810507, 0.809999, 0.809404, 0.808546, 0.80877, 0.810112, 0.808536, 0.809859, 0.811846, 0.807359, 0.808033, 0.832155, 0.821277, 0.80641, 0.806327, 0.805324, 0.807265, 0.805116, 0.802655, 0.800959, 0.80395, 0.836447, 0.81064, 0.807875, 0.807652, 0.855852, 0.87814, 0.822818, 0.825557, 0.832232, 0.831627, 0.838738, 0.837336, 0.836907, 0.838756, 0.804341, 0.801159, 0.7981, 0.798546, 0.81626, 0.80079, 0.801119, 0.810616, 0.796898, 0.806614, 0.802485, 0.800611, 0.798614, 0.797629, 0.797868, 0.797893, 0.800213, 0.799285, 0.801093, 0.80081, 0.80441, 0.803953, 0.797793, 0.799504, 0.800724, 0.802236, 0.800525, 0.801088, 0.800451, 0.800558, 0.800176, 0.801023, 0.805013, 0.80405, 0.796416, 0.79867, 0.79587, 0.797752, 0.797957, 0.797885, 0.797597, 0.798809, 0.795672, 0.798095, 0.801609, 0.801965, 0.802289, 0.807071, 0.81122, 0.80132, 0.800301, 0.793501, 0.791829, 0.795101, 0.793661, 0.794668, 0.791125, 0.785424, 0.791152, 0.78539, 0.784861, 0.787991, 0.786669, 0.784663, 0.786905, 0.791202, 0.793973, 0.789843, 0.795941, 0.793768, 0.796523, 0.796317, 0.798293, 0.776686, 0.781854, 0.760267, 0.772827, 0.758675, 0.783738, 0.784854, 0.819209, 0.826673, 0.886828, 1.01222, 1.09265, 1.1176, 1.11816, 1.20488, 1.21776, 1.21333, 1.21024, 1.10709, 0.875226, 0.876114, 0.838392, 0.828804, 0.79468, 0.778096, 0.80201, 0.786272, 0.783948, 0.787724, 0.788284, 0.794323, 0.788856, 0.807957, 0.780559, 0.791129, 0.779064, 0.778588, 0.768915, 0.771358, 0.777031, 0.78061, 0.773674, 0.772812, 0.775919, 0.79451, 0.775596, 0.793935, 0.774207, 0.773316, 0.773484, 0.773472, 0.770568, 0.772411, 0.781861, 0.77471, 0.77359, 0.775305, 0.774284, 0.777783, 0.778367, 0.779709, 0.778332, 0.777276, 0.779682, 0.794974, 0.778047, 0.776131, 0.776244, 0.77603, 0.780967, 0.776201, 0.775987, 0.775262, 0.775181, 0.774373, 0.77463, 0.776494, 0.775978, 0.821765
0.834672, 0.831832, 0.828174, 0.842212, 0.829685, 0.832461, 0.83234, 0.833411, 0.83869, 0.825936, 0.827729, 0.836136, 0.835937, 0.835648, 0.835943, 0.83543, 0.835388, 0.857223, 0.85346, 0.835668, 0.840296, 0.833704, 0.828735, 0.830666, 0.833528, 0.830284, 0.835789, 0.830311, 0.83062, 0.841624, 0.828794, 0.843584, 0.845094, 0.833182, 0.832614, 0.842882, 0.842298, 0.845979, 0.835827, 0.839085, 0.833606, 0.845703, 0.838397, 0.851074, 0.832473, 0.858251, 0.816055, 0.819147, 0.812942, 0.811361, 0.835556, 0.877321, 0.867366, 0.875272, 0.870535, 1.06096, 1.04019, 1.04307, 1.06416, 1.07414, 1.36658, 1.35882, 1.0874, 1.04838, 1.05638, 1.05999, 0.916498, 0.918833, 0.905678, 0.815871, 0.812118, 0.809215, 0.80879, 0.818288, 0.821323, 0.822942, 0.838486, 0.819082, 0.818224, 0.824435, 0.815504, 0.821219, 0.8167, 0.81569, 0.815309, 0.812641, 0.812313, 0.812825, 0.811716, 0.824712, 0.825432, 0.812616, 0.813326, 0.813184, 0.819005, 0.811827, 0.81065, 0.807703, 0.809256, 0.809475, 0.80903, 0.809124, 0.809439, 0.80912, 0.81415, 0.813858, 0.819387, 0.809026, 0.822661, 0.825704, 0.81141, 0.808191, 0.808632, 0.809578, 0.809937, 0.808311, 0.808341, 0.808733, 0.809647, 0.808147, 0.807224, 0.807844, 0.807545, 0.828369, 0.821027, 0.806679, 0.804295, 0.805791, 0.805031, 0.803128, 0.803309, 0.803025, 0.802102, 0.808646, 0.816798, 0.817833, 0.798655, 0.812166, 0.825104, 0.821727, 0.821067, 0.824274, 0.825583, 0.86037, 0.831535, 0.836583, 0.834008, 0.829256, 0.804362, 0.795425, 0.796852, 0.795543, 0.796842, 0.82657, 0.798736, 0.79578, 0.796019, 0.798284, 0.815696, 0.812978, 0.800604, 0.802253, 0.795334, 0.795564, 0.798561, 0.797483, 0.797529, 0.799481, 0.798547, 0.799296, 0.797978, 0.798889, 0.798298, 0.800645, 0.800422, 0.800815, 0.802466, 0.805592, 0.808414, 0.805566, 0.800572, 0.799628, 0.802517, 0.800201, 0.797819, 0.79934, 0.799322, 0.797949, 0.804801, 0.800938, 0.807913, 0.798367, 0.798798, 0.79646, 0.803197, 0.784624, 0.784888, 0.780695, 0.79866, 0.796656, 0.796749, 0.793153, 0.791648, 0.788884, 0.792278, 0.786373, 0.785804, 0.791163, 0.786383, 0.784493, 0.794059, 0.783857, 0.788378, 0.788641, 0.790237, 0.796679, 0.795679, 0.796746, 0.796329, 0.79821, 0.79706, 0.795349, 0.781428, 0.765449, 0.766683, 0.759456, 0.798945, 0.774287, 0.837285, 0.847577, 0.883845, 0.913645, 1.14503, 1.15443, 1.16341, 1.09891, 1.09863, 1.23564, 1.23619, 0.897591, 0.887713, 0.839268, 0.828699, 0.819228, 0.791813, 0.787125, 0.769851, 0.769582, 0.785571, 0.786376, 0.786738, 0.785276, 0.784207, 0.782807, 0.780959, 0.795523, 0.780935, 0.777813, 0.788781, 0.779676, 0.770712, 0.770174, 0.774053, 0.781451, 0.785878, 0.859078, 0.868043, 0.875546, 0.901188, 0.779848, 0.773925, 0.773675, 0.787111, 0.779989, 0.77666, 0.773396, 0.774277, 0.779128, 0.773987, 0.776564, 0.776292, 0.776707, 0.777047, 0.791541, 0.776998, 0.800611, 0.776875, 0.777544, 0.777592, 0.775455, 0.774185, 0.7791, 0.774985, 0.773496, 0.801746, 0.777127, 0.776075, 0.776125, 0.777676, 0.785161
0.836281, 0.83145, 0.831599, 0.830416, 0.832016, 0.835366, 0.8336, 0.834236, 0.835618, 0.835039, 0.833967, 0.836697, 0.834794, 0.850409, 0.835056, 0.838247, 0.836707, 0.835025, 0.834307, 0.842407, 0.850064, 0.832897, 0.831258, 0.828717, 0.831206, 0.829549, 0.828616, 0.832232, 0.833323, 0.826373, 0.82876, 0.831435, 0.833217, 0.833144, 0.833905, 0.850004, 0.832473, 0.832629, 0.833579, 0.834233, 0.833233, 0.833157, 0.834749, 0.845728, 0.833969, 0.830071, 0.832841, 0.831957, 0.822281, 0.806461, 0.81848, 0.856919, 0.898446, 0.945885, 0.991508, 1.08057, 1.12162, 1.12713, 1.12592, 1.16992, 1.24326, 1.26767, 1.2708, 1.27791, 1.18027, 0.946674, 0.928413, 0.926383, 0.854916, 0.825168, 0.81923, 0.810852, 0.811124, 0.814871, 0.837553, 0.824711, 0.824359, 0.819324, 0.825001, 0.823033, 0.831304, 0.822591, 0.822842, 0.822243, 0.822655, 0.81436, 0.814101, 0.810677, 0.811799, 0.812538, 0.815502, 0.809621, 0.808766, 0.811955, 0.811297, 0.813338, 0.81474, 0.809241, 0.809897, 0.808593, 0.809421, 0.809195, 0.808025, 0.809006, 0.808825, 0.808915, 0.811262, 0.811978, 0.819761, 0.809096, 0.80735, 0.810335, 0.807523, 0.808222, 0.808186, 0.810697, 0.809663, 0.861445, 0.863277, 0.805942, 0.805764, 0.80711, 0.80678, 0.806274, 0.805885, 0.805419, 0.8053, 0.828064, 0.823565, 0.815101, 0.814472, 0.803412, 0.797907, 0.798316, 0.817851, 0.797436, 0.797577, 0.802086, 0.799634, 0.797441, 0.792086, 0.826294, 0.842686, 0.829982, 0.830618, 0.871297, 0.812494, 0.800814, 0.799408, 0.795595, 0.796293, 0.798054, 0.79784, 0.797407, 0.815427, 0.797933, 0.797754, 0.815196, 0.79733, 0.795784, 0.860395, 0.814968, 0.795936, 0.797756, 0.79636, 0.793748, 0.800653, 0.801096, 0.802103, 0.79485, 0.801711, 0.795364, 0.807466, 0.795444, 0.796891, 0.804697, 0.804196, 0.800152, 0.800584, 0.800616, 0.796884, 0.799895, 0.799586, 0.800877, 0.798279, 0.800575, 0.797545, 0.829973, 0.769908, 0.772879, 0.797701, 0.819791, 0.796892, 0.80063, 0.82275, 0.792439, 0.794429, 0.797088, 0.794814, 0.794614, 0.797049, 0.789018, 0.794291, 0.791377, 0.788458, 0.782626, 0.791523, 0.797759, 0.787931, 0.788405, 0.787435, 0.785245, 0.802692, 0.78817, 0.789944, 0.79065, 0.795025, 0.797632, 0.79796, 0.799115, 0.80149, 0.801172, 0.789023, 0.775541, 0.758877, 0.757331, 0.779088, 0.781501, 0.857196, 0.890545, 0.89113, 0.9419, 1.17858, 1.17941, 1.17931, 1.09168, 1.05168, 1.2088, 1.20169, 0.903946, 0.859604, 0.826469, 0.826285, 0.805309, 0.80176, 0.782894, 0.765912, 0.767261, 0.771914, 0.78313, 0.783221, 0.786718, 0.783819, 0.782452, 0.786412, 0.7806, 0.776726, 0.779505, 0.783066, 0.782432, 0.776355, 0.780071, 0.77461, 0.777077, 0.784543, 0.882756, 0.890771, 0.882534, 0.882214, 0.906873, 0.775043, 0.774859, 0.799226, 0.787244, 0.777402, 0.776121, 0.774228, 0.773767, 0.774634, 0.775765, 0.780375, 0.777548, 0.777022, 0.777492, 0.776407, 0.776353, 0.777, 0.776537, 0.776303, 0.776289, 0.775797, 0.774051, 0.776788, 0.777182, 0.774098, 0.774381, 0.775915, 0.779702, 0.774348, 0.773732
0.838019, 0.831719, 0.836321, 0.832505, 0.83473, 0.830194, 0.835442, 0.835998, 0.83175, 0.833746, 0.833994, 0.834958, 0.835322, 0.834094, 0.832859, 0.83606, 0.841832, 0.840524, 0.832311, 0.833471, 0.833655, 0.83427, 0.801997, 0.821657, 0.811689, 0.838233, 0.837907, 0.83947, 0.832082, 0.831833, 0.830586, 0.831763, 0.833884, 0.836309, 0.832748, 0.841639, 0.841971, 0.834148, 0.835769, 0.834024, 0.83358, 0.848818, 0.837222, 0.837342, 0.846565, 0.835795, 0.835516, 0.819861, 0.805312, 0.805606, 0.814006, 0.825304, 0.881202, 0.946045, 0.955229, 1.08977, 1.13052, 1.17611, 1.26044, 1.23615, 1.24637, 1.27265, 1.27932, 1.24474, 1.25275, 0.943477, 0.936367, 0.8698, 0.864582, 0.828247, 0.830971, 0.812429, 0.840177, 0.827022, 0.840002, 0.825167, 0.821708, 0.819107, 0.818817, 0.818779, 0.818244, 0.82114, 0.815473, 0.815945, 0.815251, 0.817392, 0.815228, 0.812204, 0.813641, 0.811061, 0.811736, 0.811039, 0.809594, 0.807803, 0.807591, 0.816674, 0.812425, 0.80861, 0.808597, 0.808333, 0.812038, 0.835144, 0.810319, 0.809082, 0.813125, 0.822623, 0.809108, 0.822757, 0.809768, 0.814373, 0.858344, 0.81606, 0.814616, 1.06624, 1.07256, 1.06652, 1.12582, 1.12575, 0.863162, 0.823223, 0.825101, 0.841976, 0.802135, 0.802792, 0.801184, 0.799578, 0.804222, 0.804739, 0.758228, 0.803426, 0.800831, 0.801394, 0.798393, 0.798899, 0.796628, 0.796059, 0.815145, 0.79638, 0.7949, 0.795812, 0.800522, 0.795227, 0.829644, 0.829182, 0.830364, 0.799668, 0.79365, 0.794855, 0.79879, 0.795616, 0.795396, 0.796559, 0.795564, 0.826333, 0.796912, 0.796898, 0.79732, 0.797333, 0.797169, 0.810534, 0.808976, 0.797045, 0.796746, 0.792743, 0.793307, 0.794072, 0.791373, 0.793245, 0.796464, 0.805826, 0.792128, 0.818054, 0.806231, 0.802212, 0.798158, 0.799528, 0.802592, 0.804595, 0.798199, 0.797817, 0.795315, 0.797958, 0.795112, 0.801084, 0.809143, 0.800739, 0.799319, 0.797526, 0.79858, 0.768699, 0.798389, 0.798373, 0.798226, 0.797155, 0.796374, 0.799148, 0.809293, 0.794386, 0.796118, 0.796019, 0.795137, 0.792969, 0.787436, 0.787589, 0.785284, 0.786614, 0.784664, 0.787976, 0.801017, 0.790156, 0.789029, 0.807939, 0.793921, 0.791388, 0.796742, 0.796803, 0.792646, 0.811106, 0.804132, 0.800623, 0.803761, 0.816627, 0.798753, 0.811605, 0.76546, 0.772949, 0.784609, 0.784232, 0.88184, 0.894408, 0.894215, 0.940614, 0.985314, 1.21233, 1.07103, 1.03267, 1.04377, 1.028, 0.960458, 0.87081, 0.871468, 0.84158, 0.850227, 0.801722, 0.801845, 0.776475, 0.768389, 0.770489, 0.79059, 0.78686, 0.785719, 0.784896, 0.784017, 0.782555, 0.783151, 0.783025, 0.78395, 0.778856, 0.779177, 0.774693, 0.775303, 0.775571, 0.783247, 0.774752, 0.776448, 0.77803, 0.782061, 0.784771, 0.775145, 0.776239, 0.776515, 0.776249, 0.776046, 0.777263, 0.775526, 0.774235, 0.790467, 0.774811, 0.776492, 0.777144, 0.77737, 0.776794, 0.776589, 0.783738, 0.77642, 0.790409, 0.793656, 0.776808, 0.776842, 0.801657, 0.776447, 0.774424, 0.775869, 0.776025, 0.774307, 0.773707, 0.774468, 0.771718, 0.772831, 0.773459
0.830418, 0.831728, 0.839369, 0.847422, 0.83727, 0.83244, 0.833026, 0.832036, 0.830613, 0.829485, 0.836005, 0.835694, 0.835037, 0.839939, 0.84081, 0.845593, 0.833889, 0.832531, 0.860895, 0.83332, 0.830809, 0.832044, 0.815674, 0.833839, 0.838163, 0.832915, 0.833426, 0.843253, 0.832389, 0.833545, 0.835039, 0.833164, 0.863374, 0.832023, 0.832384, 0.834549, 0.832902, 0.833325, 0.839625, 0.814884, 0.837325, 0.835252, 0.833356, 0.852562, 0.853543, 0.85689, 0.821748, 0.820825, 0.822942, 0.820039, 0.819386, 0.82307, 0.894912, 0.934212, 0.96432, 0.998797, 1.02453, 1.22315, 1.24553, 1.2483, 1.29637, 1.28543, 1.28295, 1.27107, 1.00114, 0.983602, 0.891281, 0.852526, 0.85028, 0.853842, 0.82643, 0.857842, 0.832918, 0.869683, 0.878387, 0.842428, 0.816431, 0.821149, 0.817463, 0.827283, 0.816787, 0.816222, 0.831778, 0.814864, 0.827623, 0.832643, 0.815535, 0.814391, 0.815668, 0.82197, 0.828598, 0.825398, 0.821428, 0.806976, 0.809682, 0.808502, 0.809297, 0.812835, 0.807294, 0.806114, 0.814448, 0.807994, 0.80827, 0.808352, 0.808884, 0.80791, 0.807823, 0.818076, 0.825476, 0.809653, 0.809623, 0.826389, 0.825889, 1.05061, 1.08289, 1.07333, 1.06934, 1.07526, 1.09536, 0.880171, 0.81802, 0.801195, 0.81214, 0.775199, 0.77806, 0.804444, 0.802432, 0.802504, 0.802876, 0.803098, 0.800726, 0.800699, 0.801916, 0.802283, 0.799152, 0.794328, 0.794585, 0.796946, 0.797669, 0.798683, 0.79755, 0.825311, 0.822762, 0.801698, 0.815245, 0.803625, 0.795967, 0.79612, 0.796274, 0.80877, 0.797861, 0.800546, 0.800838, 0.795932, 0.795705, 0.796354, 0.795273, 0.79625, 0.797254, 0.797699, 0.797528, 0.797466, 0.79464, 0.795249, 0.796876, 0.794497, 0.793841, 0.803698, 0.796903, 0.797053, 0.802142, 0.797877, 0.795488, 0.807784, 0.79812, 0.797997, 0.803401, 0.79578, 0.797858, 0.79379, 0.793373, 0.792205, 0.788512, 0.787525, 0.79752, 0.800604, 0.802539, 0.800252, 0.798438, 0.808909, 0.798462, 0.821242, 0.799944, 0.797378, 0.794464, 0.797088, 0.800024, 0.797342, 0.799714, 0.790725, 0.798611, 0.788392, 0.788853, 0.786733, 0.792349, 0.805897, 0.790455, 0.791543, 0.793559, 0.801101, 0.793871, 0.791419, 0.792344, 0.792447, 0.792264, 0.794659, 0.794654, 0.795537, 0.797735, 0.817744, 0.818386, 0.802315, 0.787735, 0.788424, 0.785946, 0.786118, 0.822647, 0.824707, 0.862949, 0.920974, 0.974336, 0.972121, 0.999134, 0.999779, 1.11425, 1.05974, 1.05717, 1.00175, 0.940973, 0.939319, 0.921291, 0.838421, 0.835387, 0.798082, 0.797959, 0.766493, 0.775073, 0.774626, 0.780565, 0.783633, 0.790855, 0.784274, 0.785788, 0.782348, 0.780019, 0.787702, 0.787385, 0.795319, 0.778427, 0.777728, 0.777919, 0.774838, 0.779579, 0.774259, 0.77689, 0.771998, 0.772304, 0.775798, 0.776614, 0.777175, 0.780183, 0.780558, 0.777595, 0.777474, 0.777639, 0.77778, 0.777544, 0.777635, 0.762321, 0.787556, 0.770908, 0.774677, 0.775807, 0.775661, 0.780587, 0.772048, 0.772445, 0.77589, 0.775243, 0.793535, 0.802436, 0.780461, 0.780642, 0.769557, 0.771435, 0.774113, 0.772005, 0.772048, 0.773855, 0.775159
0.832324, 0.836367, 0.834829, 0.835722, 0.840381, 0.832237, 0.835392, 0.836095, 0.835356, 0.834103, 0.83603, 0.836522, 0.831868, 0.833116, 0.83306, 0.839397, 0.859825, 0.851151, 0.83925, 0.842657, 0.838827, 0.840134, 0.832712, 0.836154, 0.831324, 0.831937, 0.854011, 0.834259, 0.834713, 0.835078, 0.83358, 0.833426, 0.833986, 0.849579, 0.853472, 0.836449, 0.844333, 0.8346, 0.836409, 0.83789, 0.848425, 0.836514, 0.838595, 0.83632, 0.840304, 0.838665, 0.82922, 0.822647, 0.814498, 0.844425, 0.821856, 0.835348, 0.896961, 0.913012, 1.00272, 1.0154, 1.02607, 1.17947, 1.25121, 1.28036, 1.28144, 1.29827, 1.3044, 1.28696, 0.999965, 0.957368, 0.898328, 0.873995, 0.836481, 0.860687, 0.838557, 0.822287, 0.830141, 0.82271, 0.832216, 0.824936, 0.823449, 0.825875, 0.824758, 0.825291, 0.815807, 0.814582, 0.8147, 0.827776, 0.825832, 0.812213, 0.813336, 0.836246, 0.812965, 0.810546, 0.807582, 0.809633, 0.817944, 0.820041, 0.821477, 0.813908, 0.846468, 0.812057, 0.808063, 0.806153, 0.807211, 0.8111, 0.808269, 0.808612, 0.808463, 0.807767, 0.808077, 0.809271, 0.80552, 0.804541, 0.824355, 0.845116, 1.03487, 1.04633, 1.08287, 1.08371, 1.08527, 1.07163, 1.09849, 0.83611, 0.805674, 0.803763, 0.818057, 0.803269, 0.804442, 0.803744, 0.802617, 0.804202, 0.804196, 0.806044, 0.803763, 0.805714, 0.798476, 0.795289, 0.794418, 0.795866, 0.795567, 0.794942, 0.796897, 0.796865, 0.818419, 0.797173, 0.81784, 0.810969, 0.794992, 0.794951, 0.796309, 0.800075, 0.797209, 0.799947, 0.795378, 0.808444, 0.807841, 0.79644, 0.796494, 0.794167, 0.796729, 0.796162, 0.797187, 0.797238, 0.797266, 0.826701, 0.817267, 0.795542, 0.807763, 0.792104, 0.789387, 0.795082, 0.79572, 0.795064, 0.80209, 0.800413, 0.802623, 0.799317, 0.799973, 0.798001, 0.796712, 0.800456, 0.794641, 0.769533, 0.784691, 0.785785, 0.797303, 0.795259, 0.797197, 0.798796, 0.79847, 0.80149, 0.80115, 0.798402, 0.804921, 0.804943, 0.795168, 0.796855, 0.793304, 0.797194, 0.788447, 0.791807, 0.80555, 0.795571, 0.791918, 0.794421, 0.796202, 0.793802, 0.792493, 0.803678, 0.787297, 0.789393, 0.791144, 0.791555, 0.792289, 0.80022, 0.795652, 0.793803, 0.794876, 0.798076, 0.796397, 0.796809, 0.798545, 0.797167, 0.796663, 0.815968, 0.77087, 0.782997, 0.782959, 0.793386, 0.811273, 0.881951, 0.854196, 0.888858, 0.968496, 0.995568, 1.03858, 1.03188, 1.11669, 1.12358, 1.12204, 1.02763, 0.980722, 0.93986, 0.872471, 0.832837, 0.830219, 0.801228, 0.800307, 0.771725, 0.76825, 0.770895, 0.781432, 0.783985, 0.783597, 0.786334, 0.783383, 0.784629, 0.783541, 0.78269, 0.783864, 0.778266, 0.787821, 0.791674, 0.780145, 0.77877, 0.778643, 0.787894, 0.780398, 0.777063, 0.776763, 0.777432, 0.775534, 0.776783, 0.776708, 0.776792, 0.777549, 0.798482, 0.777801, 0.777184, 0.771975, 0.770843, 0.771373, 0.767119, 0.768803, 0.778341, 0.77633, 0.775387, 0.773298, 0.774234, 0.777231, 0.775298, 0.775719, 0.785608, 0.788413, 0.859366, 0.860322, 0.787964, 0.789104, 0.773424, 0.771566, 0.774069, 0.773375, 0.784447
0.832154, 0.830178, 0.839123, 0.834693, 0.836025, 0.842403, 0.832861, 0.836582, 0.837391, 0.838614, 0.837815, 0.843207, 0.850107, 0.837783, 0.839972, 0.839242, 0.83968, 0.838821, 0.833115, 0.832624, 0.839136, 0.839916, 0.832078, 0.835203, 0.829407, 0.833079, 0.835113, 0.84848, 0.834916, 0.839915, 0.834324, 0.832789, 0.831891, 0.831853, 0.832213, 0.843029, 0.83626, 0.849219, 0.833093, 0.842162, 0.84382, 0.846366, 0.845725, 0.848784, 0.841966, 0.83282, 0.829671, 0.829354, 0.837826, 0.848659, 0.824968, 0.862247, 0.86676, 0.895722, 0.940753, 0.983124, 1.01977, 1.0559, 1.28497, 1.31987, 1.31682, 1.33343, 1.33042, 1.04679, 0.955315, 0.940539, 0.892006, 0.872688, 0.849601, 0.818942, 0.832967, 0.822818, 0.832202, 0.832377, 0.84587, 0.841068, 0.824134, 0.824981, 0.824233, 0.843037, 0.825514, 0.817042, 0.812752, 0.818472, 0.816019, 0.827056, 0.836098, 0.816376, 0.832398, 0.816074, 0.818757, 0.825681, 0.812761, 0.81197, 0.812774, 0.812539, 0.810846, 0.805888, 0.810398, 0.805389, 0.807748, 0.808447, 0.813007, 0.808059, 0.808106, 0.807529, 0.807704, 0.810814, 0.807049, 0.806882, 0.8081, 0.805843, 0.804713, 0.806732, 0.807164, 0.811754, 0.821717, 0.83211, 0.832843, 0.848991, 0.805269, 0.80367, 0.804171, 0.804686, 0.801695, 0.801921, 0.810152, 0.80379, 0.803855, 0.804386, 0.804279, 0.803685, 0.802915, 0.802583, 0.797377, 0.807914, 0.799173, 0.799617, 0.804153, 0.797756, 0.798124, 0.816462, 0.807693, 0.799582, 0.808571, 0.796329, 0.798442, 0.797303, 0.798403, 0.801532, 0.799018, 0.797339, 0.792935, 0.794972, 0.79576, 0.794773, 0.797108, 0.796721, 0.79656, 0.796959, 0.79719, 0.797361, 0.796839, 0.796269, 0.797937, 0.793348, 0.795073, 0.79377, 0.800502, 0.797201, 0.803299, 0.801132, 0.797871, 0.951087, 0.91786, 0.802542, 0.935679, 0.921347, 0.801359, 0.801979, 0.795613, 0.797055, 0.804399, 0.806291, 0.799425, 0.799371, 0.799723, 0.798995, 0.800137, 0.800629, 0.797213, 0.795071, 0.795589, 0.794643, 0.800983, 0.794057, 0.794489, 0.790366, 0.795645, 0.795549, 0.794564, 0.787906, 0.789485, 0.791237, 0.788751, 0.792355, 0.79117, 0.790908, 0.790591, 0.795392, 0.796828, 0.796794, 0.797013, 0.795622, 0.794528, 0.794411, 0.800691, 0.801799, 0.798406, 0.798696, 0.791768, 0.763263, 0.742992, 0.738242, 0.732309, 0.746343, 0.750474, 0.835321, 0.887295, 0.885525, 0.949366, 1.05042, 1.06834, 1.07055, 1.11395, 1.14529, 1.25039, 1.13974, 1.0596, 0.9084, 0.908469, 0.824492, 0.849309, 0.763523, 0.763589, 0.764816, 0.765967, 0.772519, 0.784471, 0.78356, 0.790634, 0.78554, 0.784563, 0.783481, 0.785278, 0.78217, 0.785615, 0.788271, 0.780381, 0.781804, 0.784086, 0.784615, 0.789668, 0.779444, 0.780814, 0.780464, 0.781856, 0.776823, 0.775226, 0.776401, 0.777195, 0.78103, 0.780091, 0.794833, 0.777512, 0.780189, 0.780108, 0.795772, 0.779131, 0.780283, 0.777711, 0.779302, 0.776262, 0.776779, 0.778678, 0.800591, 0.780108, 0.777984, 0.791222, 0.781362, 0.777292, 0.782124, 0.781514, 0.775046, 0.775183, 0.776628, 0.776547, 0.783106, 0.778178, 0.776487
0.834401, 0.83586, 0.833777, 0.850161, 0.835293, 0.848252, 0.835362, 0.838388, 0.839571, 1.03243, 1.03665, 1.07031, 1.05264, 1.07514, 1.05948, 0.846559, 0.843629, 0.843145, 0.834833, 0.832671, 0.833658, 0.83819, 0.834809, 0.835172, 0.831598, 0.839115, 0.837066, 0.835162, 0.836018, 0.835686, 0.834323, 0.835431, 0.859766, 0.845992, 0.831948, 0.84016, 0.839649, 0.832027, 0.83745, 0.839304, 0.835834, 0.842952, 0.83652, 0.837069, 0.842694, 0.848608, 0.847402, 0.820294, 0.821711, 0.84963, 0.828879, 0.870151, 0.867536, 0.918018, 0.918652, 0.998749, 0.999215, 1.00457, 1.0943, 1.12602, 1.33038, 1.36441, 1.06419, 1.0207, 1.02049, 0.934862, 0.884022, 0.876882, 0.840026, 0.82196, 0.807386, 0.815953, 0.835946, 0.835815, 0.823581, 0.833479, 0.816424, 0.816838, 0.815227, 0.815889, 0.816556, 0.815238, 0.815152, 0.813346, 0.81494, 0.816253, 0.818613, 0.813502, 0.822758, 0.816546, 0.815705, 0.815242, 0.815586, 0.81012, 0.808848, 0.8041, 0.805938, 0.808356, 0.807653, 0.81154, 0.808306, 0.811751, 0.811293, 0.815025, 0.807328, 0.811006, 0.809626, 0.808838, 0.81009, 0.807458, 0.807761, 0.808557, 0.810396, 0.812878, 0.806108, 0.805104, 0.811897, 0.806859, 0.804961, 0.805873, 0.8162, 0.804005, 0.805781, 0.806637, 0.804682, 0.804248, 0.803953, 0.804246, 0.805274, 0.805012, 0.803717, 0.821804, 0.803171, 0.808545, 0.806403, 0.801108, 0.802948, 0.803477, 0.801004, 0.802823, 0.797496, 0.798312, 0.798969, 0.797606, 0.798415, 0.820526, 0.797559, 0.797335, 0.797204, 0.805132, 0.797969, 0.797432, 0.807766, 0.797101, 0.794705, 0.79783, 0.798601, 0.819174, 0.797504, 0.812562, 0.798561, 0.797431, 0.836249, 0.807062, 0.800788, 0.79557, 0.797063, 0.795508, 0.803771, 0.798317, 0.797567, 0.805764, 0.818095, 0.914873, 0.918343, 0.932634, 0.92175, 0.797178, 0.800438, 0.790979, 0.797682, 0.795046, 0.795969, 0.799011, 0.798428, 0.799206, 0.79843, 0.798683, 0.798028, 0.79794, 0.797333, 0.796807, 0.797845, 0.797674, 0.795781, 0.794509, 0.794963, 0.792538, 0.790488, 0.790912, 0.793327, 0.791731, 0.799141, 0.788436, 0.793934, 0.794723, 0.798426, 0.790504, 0.792418, 0.797745, 0.799285, 0.792301, 0.797298, 0.795633, 0.794415, 0.795603, 0.79476, 0.814226, 0.792476, 0.791498, 0.802071, 0.801194, 0.759106, 0.77766, 0.745725, 0.747403, 0.770685, 0.856751, 0.881085, 0.883544, 0.933321, 1.00291, 1.09925, 1.16063, 1.1769, 1.27458, 1.2817, 1.1859, 1.16769, 0.942966, 0.898329, 0.835261, 0.812216, 0.793466, 0.763214, 0.777602, 0.776654, 0.773871, 0.786122, 0.78747, 0.788741, 0.79032, 0.783709, 0.783617, 0.783026, 0.783852, 0.781977, 0.781545, 0.782052, 0.784234, 0.777966, 0.779983, 0.787951, 0.78003, 0.779873, 0.777344, 0.775018, 0.775465, 0.777704, 0.779476, 0.779528, 0.779505, 0.779444, 0.793541, 0.819882, 0.780282, 0.780308, 0.78175, 0.778747, 0.786025, 0.780229, 0.77912, 0.781978, 0.778207, 0.779116, 0.801571, 0.77753, 0.778612, 0.778805, 0.779753, 0.778987, 0.777989, 0.776949, 0.776687, 0.776947, 0.777333, 0.778414, 0.777258, 0.778579, 0.777146
0.837712, 0.834114, 0.83651, 0.83558, 0.835297, 0.836008, 0.83639, 0.835812, 0.837202, 0.846854, 1.06166, 1.05889, 1.03218, 1.03561, 0.843344, 0.840535, 0.840344, 0.827978, 0.846801, 0.835228, 0.837234, 0.833378, 0.832813, 0.832736, 0.834438, 0.835552, 0.8355, 0.836235, 0.834094, 0.837951, 0.853141, 0.835947, 0.835518, 0.833306, 0.838916, 0.835185, 0.838269, 0.837485, 0.836799, 0.839192, 0.838282, 0.83545, 0.837148, 0.836329, 0.836864, 0.846594, 0.827759, 0.839443, 0.838233, 0.833553, 0.862672, 0.875142, 0.898681, 0.888826, 0.919163, 0.942578, 1.03262, 1.06062, 1.07759, 1.10585, 1.12563, 1.12378, 1.05252, 1.03294, 1.00798, 0.950385, 0.915406, 0.86332, 0.87063, 0.844212, 0.820854, 0.815264, 0.821324, 0.838152, 0.823571, 0.818973, 0.812037, 0.821882, 0.819647, 0.821884, 0.815434, 0.816422, 0.812717, 0.814303, 0.81543, 0.817085, 0.815848, 0.820041, 0.828059, 0.81844, 0.816344, 0.816303, 0.815313, 0.815087, 0.807914, 0.821183, 0.808538, 0.801124, 0.802047, 0.812276, 0.81072, 0.819254, 0.812165, 0.811445, 0.813563, 0.812621, 0.811319, 0.826201, 0.809878, 0.810799, 0.81458, 0.807223, 0.805789, 0.804365, 0.802262, 0.804628, 0.800369, 0.797187, 0.792657, 0.802206, 0.806895, 0.805205, 0.826995, 0.806355, 0.804848, 0.804477, 0.805747, 0.805657, 0.805991, 0.812482, 0.803508, 0.826398, 0.807465, 0.805103, 0.80728, 0.802806, 0.804018, 0.804306, 0.803169, 0.802661, 0.814449, 0.800319, 0.801041, 0.806719, 0.800516, 0.80027, 0.799317, 0.8003, 0.800722, 0.798769, 0.798552, 0.796582, 0.800697, 0.792839, 0.798615, 0.80179, 0.798899, 0.800081, 0.795928, 0.79902, 0.796306, 0.797938, 0.799324, 0.798495, 0.798285, 0.798244, 0.795696, 0.797795, 0.797687, 0.797301, 0.807848, 0.798277, 0.798524, 0.796897, 0.797661, 0.797686, 0.795829, 0.802008, 0.80066, 0.802091, 0.795758, 0.796711, 0.797984, 0.797582, 0.79709, 0.796606, 0.798314, 0.799584, 0.798383, 0.797716, 0.797125, 0.797813, 0.79653, 0.794557, 0.795384, 0.792042, 0.791435, 0.794806, 0.792184, 0.796375, 0.792369, 0.795878, 0.794079, 0.790412, 0.798212, 0.807648, 0.798278, 0.797827, 0.79592, 0.79892, 0.798321, 0.809314, 0.810335, 0.808142, 0.801579, 0.799538, 0.797332, 0.794682, 0.798126, 0.800961, 0.789158, 0.788288, 0.770036, 0.749742, 0.742689, 0.741834, 0.744597, 0.777894, 0.783925, 0.811231, 0.825273, 0.844223, 0.870507, 1.19262, 1.19862, 1.22357, 1.27627, 1.21848, 0.964745, 0.942674, 0.898392, 0.881339, 0.808046, 0.810578, 0.784138, 0.782293, 0.771651, 0.783414, 0.786271, 0.789057, 0.789381, 0.784824, 0.786482, 0.785421, 0.78546, 0.78688, 0.788787, 0.78355, 0.779767, 0.780923, 0.782329, 0.801845, 0.782493, 0.782014, 0.782333, 0.789294, 0.779852, 0.78023, 0.777422, 0.786482, 0.780356, 0.782419, 0.781552, 0.783174, 0.78109, 0.781747, 0.782787, 0.782873, 0.783316, 0.780483, 0.783288, 0.781995, 0.78255, 0.786693, 0.780366, 0.78072, 0.781338, 0.779793, 0.779435, 0.780448, 0.779707, 0.779553, 0.779659, 0.77996, 0.777572, 0.776995, 0.778553, 0.779112, 0.78182, 0.778559
0.835625, 0.835609, 0.835501, 0.837023, 0.83632, 0.836016, 0.837776, 0.836941, 0.836742, 0.852303, 0.837164, 0.849993, 0.840007, 0.839592, 0.838448, 0.846417, 0.840416, 0.838198, 0.833808, 0.834112, 0.834197, 0.833802, 0.83302, 0.846817, 0.83723, 0.838772, 0.838849, 0.836069, 0.835303, 0.836536, 0.836389, 0.854518, 0.838968, 0.848605, 0.839452, 0.837237, 0.834409, 0.836401, 0.837041, 0.838596, 0.838634, 0.833569, 0.835439, 0.836212, 0.838731, 0.836927, 0.843678, 0.824303, 0.826206, 0.833411, 0.841728, 0.860004, 0.88139, 0.907362, 0.938609, 0.956135, 0.996698, 1.07828, 1.09536, 1.19116, 1.20559, 1.18728, 1.08459, 1.03292, 0.968625, 0.93393, 0.908689, 0.865305, 0.863366, 0.829483, 0.807057, 0.806174, 0.82969, 0.822922, 0.822272, 0.81864, 0.821462, 0.820422, 0.823035, 0.82524, 0.821599, 0.823189, 0.822694, 0.817286, 0.81808, 0.817796, 0.81876, 0.817803, 0.830388, 0.820939, 0.819182, 0.81461, 0.81741, 0.819734, 0.809412, 0.813408, 0.810454, 0.800151, 0.811554, 0.807437, 0.818852, 0.809088, 0.818431, 0.815057, 0.810849, 0.811397, 0.818185, 0.813265, 0.810746, 0.810478, 0.810702, 0.808653, 0.805228, 0.802825, 0.800807, 0.800946, 0.800385, 0.797617, 0.811135, 0.798432, 0.804259, 0.803669, 0.804336, 0.825139, 0.805795, 0.817877, 0.805986, 0.819423, 0.805755, 0.806444, 0.804953, 0.805992, 0.807039, 0.807113, 0.933934, 0.934653, 0.939907, 0.805969, 0.805724, 0.80377, 0.802767, 0.801599, 0.80105, 0.801204, 0.803373, 0.803135, 0.801622, 0.803999, 0.79955, 0.796233, 0.794244, 0.794261, 0.797415, 0.795425, 0.800086, 0.801922, 0.796205, 0.799922, 0.804268, 0.798597, 0.807983, 0.808908, 0.807363, 0.811297, 0.801427, 0.801635, 0.796477, 0.797796, 0.804904, 0.804761, 0.79868, 0.812153, 0.801031, 0.798832, 0.79854, 0.798349, 0.798657, 0.794641, 0.794005, 0.800592, 0.794782, 0.808259, 0.80322, 0.801425, 0.801978, 0.795752, 0.794955, 0.798038, 0.796024, 0.804985, 0.802713, 0.795481, 0.795114, 0.794537, 0.794511, 0.796937, 0.792277, 0.796966, 0.801844, 0.802773, 0.794247, 0.792794, 0.797493, 0.81641, 0.798779, 0.805519, 0.797706, 0.80396, 0.804429, 0.814086, 0.807947, 0.808838, 0.809926, 0.801954, 0.800468, 0.798949, 0.801954, 0.79262, 0.78985, 0.786391, 0.787111, 0.784247, 0.768261, 0.747482, 0.739683, 0.773271, 0.766678, 0.75033, 0.769514, 0.790446, 0.787695, 0.787327, 0.862611, 0.858067, 0.844343, 1.27155, 1.23682, 1.25828, 0.946979, 0.901447, 0.900572, 0.824933, 0.819239, 0.792314, 0.789894, 0.778706, 0.789271, 0.779015, 0.786871, 0.789902, 0.793332, 0.793386, 0.790284, 0.788992, 0.790226, 0.788029, 0.785949, 0.786954, 0.787104, 0.785296, 0.797298, 0.794056, 0.784, 0.78503, 0.782691, 0.790317, 0.783551, 0.784015, 0.781385, 0.781182, 0.784999, 0.783054, 0.782401, 0.781306, 0.78045, 0.781215, 0.782383, 0.783952, 0.787435, 0.78385, 0.783642, 0.782992, 0.783052, 0.783507, 0.782924, 0.783118, 0.78138, 0.781527, 0.780561, 0.781213, 0.780824, 0.781143, 0.777788, 0.780121, 0.780313, 0.781049, 0.780658, 0.77971, 0.778351, 0.778285
0.835944, 0.835958, 0.837745, 0.83727, 0.836322, 0.83781, 0.837039, 0.841285, 0.842814, 0.836568, 0.842887, 0.837688, 0.838071, 0.837561, 0.836661, 0.836704, 0.839656, 0.839771, 0.839039, 0.836215, 0.835034, 0.834994, 0.835751, 0.83699, 0.837382, 0.838945, 0.838122, 0.838282, 0.842807, 0.850836, 0.836326, 0.83733, 0.839522, 0.857083, 0.858555, 0.833274, 0.835926, 0.835381, 0.838137, 0.837193, 0.842138, 0.843733, 0.843597, 0.849259, 0.853493, 0.853418, 0.838992, 0.835683, 0.823568, 0.821648, 0.836062, 0.835495, 0.905274, 0.92931, 0.947959, 0.946586, 1.02132, 1.01563, 1.25399, 1.25227, 1.25076, 1.2506, 1.12772, 0.988046, 0.948485, 0.9421, 0.91207, 0.876407, 0.874461, 0.795069, 0.81723, 0.823339, 0.821242, 0.814086, 0.815503, 0.816765, 0.82147, 0.828216, 0.824741, 0.821486, 0.820801, 0.820026, 0.812871, 0.814842, 0.819417, 0.821897, 0.817956, 0.825143, 0.8251, 0.818771, 0.819231, 0.815202, 0.812728, 0.813098, 0.809288, 0.816772, 0.809021, 0.800941, 0.81137, 0.809896, 0.814102, 0.811019, 0.809561, 0.809675, 0.81465, 0.811256, 0.81373, 0.815623, 0.815371, 0.813053, 0.808685, 0.803525, 0.80544, 0.805119, 0.799271, 0.797977, 0.797088, 0.795331, 0.795132, 0.797894, 0.808143, 0.816328, 0.799085, 0.799548, 0.82516, 0.805904, 0.804724, 0.804185, 0.804487, 0.807849, 0.805638, 0.805229, 0.805401, 0.805931, 0.823339, 0.9489, 0.803788, 0.804686, 0.819668, 0.803853, 0.803611, 0.804145, 0.803476, 0.802746, 0.801409, 0.799294, 0.806015, 0.803762, 0.798135, 0.799958, 0.79235, 0.793105, 0.798577, 0.80202, 0.805125, 0.800896, 0.795255, 0.796484, 0.79803, 0.797861, 0.815136, 0.748857, 0.746087, 0.815064, 0.804956, 0.807419, 0.805654, 0.794184, 0.794237, 0.797557, 0.811677, 0.799399, 0.797762, 0.799618, 0.799458, 0.812068, 0.799289, 0.794985, 0.794411, 0.7953, 0.792035, 0.804585, 0.805562, 0.797811, 0.797608, 0.798874, 0.799874, 0.797858, 0.795515, 0.798918, 0.797166, 0.797114, 0.803595, 0.795027, 0.79953, 0.803906, 0.812391, 0.798672, 0.795617, 0.796634, 0.798429, 0.803167, 0.809852, 0.806823, 0.806886, 0.808865, 0.809085, 0.80392, 0.802153, 0.806931, 0.802337, 0.798667, 0.797567, 0.795221, 0.804862, 0.797316, 0.795514, 0.788318, 0.800754, 0.795266, 0.794188, 0.783068, 0.762519, 0.74926, 0.747234, 0.746841, 0.742287, 0.75628, 0.75752, 0.75924, 0.777973, 0.79027, 0.81346, 0.834095, 1.19193, 1.18392, 1.17503, 1.17781, 0.987724, 0.939276, 0.836844, 0.828425, 0.819029, 0.815937, 0.78783, 0.779891, 0.773304, 0.7747, 0.79018, 0.793509, 0.792553, 0.791303, 0.7907, 0.789395, 0.789062, 0.787714, 0.791062, 0.78882, 0.787418, 0.788492, 0.798134, 0.791932, 0.792618, 0.789186, 0.798561, 0.785446, 0.785587, 0.792375, 0.805105, 0.809487, 0.784238, 0.786248, 0.783121, 0.784415, 0.784126, 0.78624, 0.783889, 0.783398, 0.804895, 0.783112, 0.784377, 0.783496, 0.784433, 0.783427, 0.781741, 0.797288, 0.782543, 0.781489, 0.78201, 0.78279, 0.783729, 0.782166, 0.790264, 0.783995, 0.777248, 0.77964, 0.780155, 0.779347, 0.779108, 0.774306
