0.756793830157612,0.757987115441672,0.758460347439765,0.758454253828007,0.761518012067715,0.765028680098129,0.76660287015951,0.768225358872951,0.768901649918554,0.769426571053372,0.770014301799194,0.770711494494884,0.771941209366902,0.774064610742897,0.774810968587377,0.776876410496821,0.779964499585934,0.779908331913025,0.782002985300663,0.781411755664932,0.781612676094984,0.778465729026843,0.779301511997327,0.775655770451295,0.77530897406575,0.774293989226536,0.772933874105331,0.771050247149227,0.772122970080542,0.77243990712003,0.7740588978527,0.775180677244782,0.776033797331518,0.776617291280716,0.785574142490821,0.798055997380229,0.796595617334377,0.800488182112824,0.79772071401433,0.805421958883898,0.799170453613743,0.804561368858997,0.799502152099088,0.805180403275974,0.789802870466584,0.789690973546464,0.791427539761136,0.790759094798696,0.793291360684033,0.793315242426402,0.796018126493339,0.795111845984323,0.800650324803313,0.801440677889195,0.801763883016288,0.802019986227947,0.802587421131115,0.803530959049345,0.804338460549612,0.806432180190236,0.806367567245021,0.808020637870436,0.80657454751394,0.806156007643968,0.805863172074534,0.806618451996002,0.808118047925227,0.809716684861036,0.811046793080449,0.812230793985302,0.813637852129803,0.815667479877803,0.830600263971515,0.828949307199564,0.831348169418212,0.831082555759707,0.832939864360835,0.831657866493459,0.834002043894602,0.833497844695116,0.836257256564414,0.838923931373231,0.837725355188305,0.838257679635493,0.836737103633852,0.837327899411335,0.833036334035287,0.829883955483745,0.831340440882781,0.829532364595956,0.830605628701769,0.827053826276062,0.830830336131636,0.82919079863258,0.832148582716208,0.830635678389152,0.833048452591805,0.815605041945383,0.816615656568661,0.818643061172813,0.817178772156095,0.816188893506872,0.824194900552815,0.831009496017471,0.832011003499819,0.833415442900092,0.834392800947976,0.836181443929979,0.83556601272981,0.837157167091949,0.836908362836641,0.838013902652404,0.838017549342033,0.838861241964429,0.839128813623473,0.841029015720161,0.839041475246741,0.844766863963832,0.843055947743477,0.845214708609187,0.845008958867492,0.846638887204404,0.847507358801836,0.849145567377952,0.853582867535745,0.860593199397296,0.857159044262612,0.00361495999997624,0.0828044662525311,0.00364104000058663,0.0641999153941849,0.00370152953423213,0.00368670206474159,0.00371994302247595,0.00368946781319931,0.00366078515576722,0.00370637598942862,0.00376383418674847,0.00373424426801277,0.00375695359963513,0.162441309925229,0.902919999999997,0.761705577367065,0.00327584999997608,0.456987407825852,0.904716240898382,0.905486062698419,0.906247142294298,0.906007317602389,0.905746706004948,0.903382151549258,0.899987019530212,0.897260931739128,0.899751906736904,0.898979495685402,0.899933957049727,0.898801422905241,0.899290966409948,0.89806115244153,0.899176135632881,0.86990878380459,0.869129739708601,0.866458372329426,0.863439411567069,0.864363683155966,0.865005878734546,0.866539330104595,0.868306339192179
0.757007759314096,0.758395310358247,0.759384236077682,0.761132566940494,0.762697458717217,0.76457496999597,0.76671868371825,0.769104974099008,0.771961005440366,0.774403028223879,0.774827371244575,0.775015452140592,0.775388241349165,0.776319144155586,0.777744630510028,0.779806704393782,0.781938117875092,0.782415598770034,0.783726792035911,0.783943323104499,0.784127035709398,0.784790448026341,0.783906550305633,0.785489187869496,0.786955053537376,0.787872795752864,0.788840315979373,0.789555014810262,0.790109126122823,0.790961791163018,0.791369433674721,0.792017853316501,0.792341931254115,0.793053936716509,0.793442221644432,0.79640467331689,0.794839612347636,0.794996053717127,0.795529569345327,0.794261222875515,0.79379356793454,0.793272718154502,0.792292104787237,0.791452337841197,0.790875719412897,0.790466026263799,0.791045351215004,0.791465459357196,0.7929142527064,0.794306608757018,0.797227440441549,0.79763178582569,0.800429678873942,0.800948119135586,0.801345475097117,0.801671373349483,0.802191336837783,0.802891484742111,0.803929690355881,0.805228811996802,0.806100768252245,0.80730015138228,0.808449491454321,0.809860353363112,0.811103961821374,0.811995336697452,0.812571273387168,0.812908188698155,0.813068536899662,0.813058241138877,0.813988284296975,0.814975101358373,0.831666307533223,0.831299964004836,0.83287804781161,0.833762609862551,0.834421487452044,0.834778210554962,0.835259296805206,0.835629746719323,0.835792796404271,0.835985237356762,0.835651948629711,0.83562860649405,0.83483885219532,0.834387438192163,0.833139864724907,0.832196461870609,0.832873408081454,0.832970037380435,0.832757258214731,0.833761701207072,0.833540317683835,0.834393951253027,0.83456270313518,0.83372565261637,0.834682334432459,0.835150033064126,0.83485085557001,0.833658679199083,0.831656484260312,0.829731420902079,0.829415803358428,0.830482817209976,0.831621464675318,0.832621850079438,0.833666291269032,0.834685506536513,0.835110277251711,0.835850666785859,0.836327180023304,0.836830982947206,0.837865452704077,0.83863555904539,0.839501614060634,0.412913332007056,0.412522202740497,0.411923149130745,0.411396947721708,0.411190550689092,0.41140134585416,0.411931415835929,0.412533341816832,0.412925999895542,0.861391272982121,0.860317641366479,0.858804160805052,0.185354138999619,0.154823587718327,0.124474893936046,0.0942801347502986,0.00358378534556327,0.00363075912710227,0.00367628015230095,0.00365789520128728,0.00363273946571588,0.0725148387820959,0.103264311199403,0.134027521539596,0.164790441075504,0.19553945180683,0.758904479966402,0.759457636088337,0.758669988246026,0.758244307910115,0.904778164017858,0.905415285917118,0.905963894131382,0.905944424443472,0.9055633210819,0.904327945915126,0.902150179852073,0.892055131141224,0.890012331657515,0.887723891748335,0.884397706200646,0.881019684502072,0.877752614214687,0.874773528398395,0.872117808303558,0.869488580929008,0.868538009707681,0.866561694930628,0.864555912613898,0.863667318776097,0.865061510317246,0.866698824182842,0.867947183582067
0.757800926318013,0.759088711233798,0.769247611950627,0.772921270732277,0.774691410924388,0.775532231011786,0.776638138588255,0.777060459335434,0.777944686262164,0.777114890101747,0.77991234562503,0.786108385965148,0.786556886647302,0.787285298070627,0.78678519989829,0.786393913529351,0.785628273286432,0.786908137474801,0.786476623661035,0.787359988229566,0.786395141759127,0.786313987371962,0.786141647983433,0.786641253809135,0.787524016694985,0.788719428067918,0.788762939550702,0.790907562225524,0.789647878065935,0.793521584204482,0.790763068278988,0.805259042685807,0.791692823901588,0.79477678590513,0.793125019102743,0.797003344361365,0.791439845861238,0.784878918876398,0.785837771616098,0.785731542122048,0.787049740048079,0.788161480079241,0.790767105433199,0.790585166281546,0.79148652360098,0.790084649725362,0.790747229230303,0.790967479264633,0.792600294333542,0.793523710183941,0.800662120754536,0.850705999980224,0.802573856174664,0.00373036999997629,0.801451843934541,0.820451202529501,0.820206652081947,0.820922353079278,0.820759469893316,0.822315350935734,0.822064917772496,0.8230205605089,0.823162229252474,0.8236129586802,0.823720558093087,0.823738566734705,0.824216181160471,0.824023319928623,0.817066737231411,0.812984706551972,0.814056966777762,0.815266038889296,0.832696864671802,0.8357397178551,0.835227406795612,0.836365078599796,0.836658612017272,0.837259259029494,0.837073046124197,0.837184512005075,0.83591602565009,0.833253956581585,0.834157496498747,0.831072488983493,0.833551518172071,0.831383736896676,0.833486530050643,0.831816371036412,0.835495184236835,0.838897600385912,0.839181664569829,0.840095216674767,0.839445352275579,0.839467266229602,0.837845760372115,0.838079530955341,0.836534161400564,0.835520018654374,0.835219845280852,0.835734800741905,0.830879832464906,0.828185288918912,0.829601711321021,0.830216302206701,0.831188912198955,0.831942343046594,0.832905338238431,0.833747217737507,0.834331590055687,0.834978498678146,0.835523992560544,0.835365374797148,0.840864531569622,0.85103605482135,0.841023476554039,0.00392158999997638,0.065691715125882,0.00385475999997635,0.065478683520772,0.00362178999997624,0.0654083070805939,0.00365570999997626,0.0654032198435569,0.00360860999997623,0.869976212297789,0.873992354503728,0.875855221094418,0.876599365482456,0.877337877109757,0.877107203278202,0.12643650592522,0.00341669592318103,0.00357855575335067,0.0036851047242227,0.00363918253926071,0.00357077023200544,0.107482375769518,0.899784999999997,0.44606294140873,0.900565999999997,0.444491982371525,0.903161999999997,0.758904479966402,0.903776999999997,0.849389679808422,0.904107738972862,0.905329510661254,0.906122850317429,0.906146262276079,0.906093690013467,0.906088141335694,0.907251774991253,0.88950458053225,0.890056394645931,0.886689314888236,0.876954010217562,0.871985583542839,0.862206647218207,0.861969602650368,0.862520260310693,0.860006563087268,0.854647190360858,0.854915268463355,0.855461980346561,0.860960394751246,0.878235606506138,0.867475411789603,0.868567422947954
0.772979692282838,0.774278014869272,0.77501711311431,0.774970872149873,0.775865536712852,0.776516646277338,0.778178392636146,0.778704317662606,0.780514568081117,0.782355332582599,0.782888651961679,0.7851357631674,0.786236699724289,0.786889298897875,0.786906106778136,0.786916007926208,0.787002194251716,0.787715567962747,0.787527361438252,0.78802242824287,0.78774344483479,0.787889150955141,0.787698630592265,0.788055062727579,0.78806077264339,0.788185307776236,0.78693530152076,0.787335781671174,0.788111551577765,0.787514416019317,0.787223028407257,0.787456501805109,0.788073340347016,0.78820042678476,0.788817830529664,0.788087535690614,0.788252136283821,0.786472366589785,0.786564202322368,0.786487881241508,0.787298635468078,0.788467614688662,0.791666152470686,0.792241987409387,0.794063802703417,0.797124723389812,0.799954399337053,0.801141665565289,0.802849675585524,0.803426189125332,0.803898213996259,0.80538370291737,0.804788421803124,0.0653725281163911,0.802316953278334,0.820023323352422,0.819125921067169,0.818645153533048,0.818922784416177,0.819613339557461,0.820698534776673,0.821933399309754,0.82269164587771,0.82322820419363,0.823725664440954,0.824063868083454,0.824880043866953,0.825846967160538,0.828370765756429,0.830383070507288,0.831808077893954,0.832785053523536,0.833384881873444,0.834694871924169,0.835395298318556,0.83758854943892,0.837513536286643,0.838301988475596,0.837592715210075,0.837710376859645,0.836502335516117,0.83586781906536,0.83586287891404,0.836932251031948,0.836205943176114,0.836434470762853,0.836713552075894,0.838189834381226,0.83790748593718,0.839083731352939,0.83920659800791,0.839574047067989,0.83948942322793,0.839557774586608,0.839121552760739,0.838995799653969,0.83757469496041,0.835203675592353,0.834441038952193,0.833839351277303,0.832386054809921,0.832102011641981,0.831065284002451,0.830917948343288,0.831325112999636,0.831697750923079,0.832494039228691,0.833145331689547,0.833691024418071,0.834434177862324,0.835727994248266,0.838112095322399,0.841174837101679,0.844945586137407,0.842844004715233,0.413575994066941,0.413184267130415,0.412584090602971,0.412056376823331,0.411848260394846,0.412057336163563,0.412585893773511,0.413186696835338,0.413578757243178,0.874170425159742,0.875753958853779,0.876865648729947,0.877689644131759,0.878137708133114,0.877803389592593,0.211253048070833,0.180934405313,0.151002064896736,0.12141331040154,0.0921068823524523,0.0630062289104917,0.138216078115863,0.44606294140873,0.445861106859525,0.445320946219623,0.444814509935695,0.444808023272906,0.444899349436059,0.444981712682425,0.849392852506543,0.9049138182467,0.905501495808221,0.906032598653415,0.906245052911816,0.906360277409551,0.906536788692746,0.906964735329913,0.886741678033138,0.885649639186993,0.884163211429097,0.877115034529258,0.869258718882896,0.862065004718483,0.861273033797798,0.859798601897102,0.858386059629671,0.855783155996687,0.854561360180196,0.855479046112447,0.859037496344259,0.860970686698022,0.863208452323391,0.865144435810541
0.773216737892481,0.774545621265327,0.775518070972211,0.776206781805234,0.776657974926811,0.777025800728652,0.780298466752344,0.783545159677639,0.783006960011779,0.783961239730603,0.78437241926619,0.785251656599459,0.786418477397834,0.786813718220812,0.787345351826234,0.787066461806091,0.787998876710776,0.789034182562197,0.78815352527433,0.78934431019878,0.788758657753356,0.789755160595107,0.78910928346306,0.7900419528207,0.789124030673455,0.789372303438669,0.783786106305701,0.00372329999997629,0.779351379755941,0.779470366197845,0.783258343967804,0.782503045666451,0.785365741001981,0.784322247910791,0.786416343157606,0.784213627560789,0.787174023917138,0.785836702214559,0.786855628571116,0.78602894136394,0.786805334698695,0.7866518526137,0.794920309620358,0.801759146408966,0.800754113081743,0.801545695348397,0.801427353110437,0.803395570082298,0.803938080350785,0.806211803914471,0.805850894672653,0.807449395480895,0.80633670085607,0.00347817999997617,0.804199723034238,0.820459603060782,0.817546344795014,0.815483204993398,0.816562073887418,0.816291966071296,0.819086326115208,0.821065597850492,0.82229795370484,0.822678314243638,0.823735107778913,0.823824797863675,0.825429061791339,0.825851923404168,0.828671191183472,0.830993046094079,0.831805856715745,0.832750981508434,0.833227554361124,0.833936412525451,0.834209321254684,0.840515189032812,0.838120046305174,0.840075898979711,0.837969948890702,0.838632317865277,0.837112821747402,0.83726527205269,0.83702220838606,0.838769586394199,0.838395013824218,0.84116565920829,0.839129576288854,0.840142413317741,0.839261094233171,0.84028148370818,0.839501834606142,0.839993323320401,0.83976143459614,0.840394251293978,0.840260904648733,0.84094939768171,0.839400549209102,0.833024313573263,0.833472416678389,0.832752350709133,0.832625259016547,0.832854614110518,0.831715186905451,0.831402624086552,0.831331365720132,0.831317940630882,0.847714729110617,0.852599733422557,0.85427300977203,0.855370778632612,0.857510431400228,0.85803333207189,0.860742225784924,0.861696874359573,0.864556417047679,0.866433791686474,0.866980927475242,1.09466,0.876045789649742,0.8795196277298,0.879706134101478,0.88042607874646,0.879828430593788,0.879920683834233,0.877789731476572,0.877673966729884,0.878062607334456,0.879011137656017,0.879467562933343,0.880341112451953,0.881740902529337,0.882702339143452,0.883323132753997,1.51557,0.132479724083295,0.003738770001458,0.168949780468497,0.893096999999997,0.301994137525556,0.00349547755698345,0.00349429909469172,0.00351399089384215,0.0636892565924075,0.00391919000112427,0.849397339660522,1.09411,0.924299109248083,0.00376771999997631,0.929029257597201,1.10206,0.971719086071546,1.10114,0.885065630865373,0.875421155518462,0.8783542372698,0.877233650127743,0.866455152777749,0.862650929875693,0.856266123583264,0.00386614999997635,0.847793957034234,0.849710599110982,0.851955346201568,0.853026562348395,0.85244447154409,0.852950726650252,0.852061765022791,0.852453413655598
0.774279744976484,0.775353286085816,0.776491041781831,0.777045922358403,0.778476597111711,0.780722462318461,0.783078283546036,0.78458960998475,0.784884620975979,0.785385847517616,0.785565675063609,0.786379752712324,0.786941747427848,0.787670181734142,0.787914319767611,0.788205379067548,0.788331268817619,0.788349542700564,0.786508682416354,0.787381073094258,0.788027533068037,0.787651227784413,0.786585619793046,0.784683601614131,0.781461325268355,0.780388147462762,0.7808269183129,0.779228963870142,0.779212774406454,0.779984690871224,0.783862296136619,0.785343343896617,0.786650735162469,0.787299207580991,0.788596275498902,0.790472067871502,0.790555376313055,0.792518229299378,0.793656756737787,0.795178396951374,0.797162146096235,0.797998428276691,0.798131743907717,0.800018982294996,0.800503167104254,0.801012795517738,0.801670918421373,0.802744770940616,0.804000593113961,0.805271864705994,0.806043668368388,0.806701751153134,0.806872540958381,0.807343328819645,0.806832656234746,0.814182095029518,0.815040673213628,0.814896202315195,0.815394678092274,0.816080992882819,0.81803833947144,0.821320227700274,0.822515562423299,0.823797452233195,0.824427897379438,0.825828829096743,0.826988902954253,0.828173089814257,0.829263218257585,0.830490982304688,0.831337136207522,0.83214011820806,0.832486142798037,0.83286710385619,0.83293743213988,0.832839803407423,0.834178399485732,0.834158434058287,0.834859303570557,0.835103943765937,0.835271601282018,0.835592555376883,0.83598330937431,0.836886469915756,0.837279127481483,0.838198100806454,0.837965761054478,0.838327856908542,0.838243471216298,0.838486505181079,0.838786989282544,0.839222317201222,0.839668101621183,0.840162606304993,0.840718088618285,0.841565764998139,0.84328360797016,0.845305789779533,0.84745007086462,0.849459837069998,0.851195826815417,0.852429162174017,0.853441905825914,0.854201580092744,0.85476130932226,0.855017977956268,0.854830051068585,0.854459891775312,0.855062197520327,0.85615253351716,0.859089864606162,0.859961153936135,0.862521501144995,0.863887182190245,0.865501017762865,0.866745059971424,0.867516241564075,0.869999364976513,0.872426884511739,0.879395859181305,0.879462544505487,0.879689720697728,0.879134129178704,0.87843297692428,0.877905138810033,0.877989678691617,0.87858866362527,0.879456481577532,0.880260817937329,0.881260701780232,0.882196700473757,0.883116397184132,0.883952223430082,0.884887352073895,0.648119739161388,0.648150331352742,0.648100884552238,0.648183084489074,0.303245244997699,0.00341863909537046,0.00346781838163094,0.00351335909452821,0.0931969699770709,0.123695260340722,0.849400512756504,0.945301352001433,0.934371889405257,0.913094866154739,0.943774814785068,0.960247713603511,0.944749332666812,0.926629195869991,0.88334039144168,0.881575771829272,0.87960629674777,0.87853200785262,0.85943614121912,0.855792244740404,0.850884649719512,0.843525368512101,0.845941955950679,0.849134921373687,0.850632129714983,0.85131082574119,0.851312295774414,0.851341514051037,0.850803285932128,0.850181811605968
0.775395805042579,0.776005233905034,0.778093225285918,0.787315052175674,0.78733716159537,0.787982284058726,0.786482367434308,0.787422495940875,0.786479367449771,0.787147717925458,0.786453834060694,0.787671046731362,0.787497082222941,0.788644088243473,0.788498523740035,0.789044090540251,0.788838780822734,0.789253247244342,0.782165133475986,0.774059863748638,0.774334082224471,0.77409195502234,0.775163307073782,0.776068732621392,0.778858170533366,0.778392258695533,0.779841721199048,0.77794639761635,0.778267625143447,0.777450833826921,0.786909779703935,0.7884388071768,0.788509212553521,0.789738021165554,0.790412900889461,0.792337587100576,0.792698317010659,0.794280352312384,0.795610292232756,0.798193798941323,0.798366702174916,0.799587483983026,0.799408954035462,0.800005411009782,0.800371738600402,0.800935811774622,0.801346788206975,0.802262799229114,0.803666110057111,0.805168112278574,0.806076662096331,0.806607489939799,0.807284222587576,0.808496381435267,0.809350572628438,0.813396595693446,0.813581771046635,0.813594648480196,0.814020185409871,0.81447776286706,0.815668126596822,0.823580347934097,0.822720261593572,0.825355707350012,0.824027781289648,0.830703740306922,0.828474322378772,0.830441633809035,0.829561797160908,0.830175650969788,0.830839813367354,0.831734503264998,0.831794252319891,0.83174553913983,0.831892025340376,0.831188355275223,0.832102950417423,0.831275751495381,0.832713952588932,0.832473991613113,0.833563623030906,0.833645025904014,0.834675535215041,0.835530469021207,0.836038679525582,0.836072078625768,0.8367050086244,0.836597933764127,0.837160007711173,0.836631908170213,0.8380199572681,0.838777664536382,0.839565454297031,0.840189571145256,0.840877356103401,0.841510013990246,0.845543639074374,0.951839999999998,0.852775463504935,0.8517510571191,0.85227964874156,0.852125881596331,0.853306330102427,0.854084258419256,0.854761246083885,0.855173395920012,0.855215808946911,0.855384227469406,0.855257560177355,0.855103875544787,0.862657742802252,0.865331703645559,0.865375110946641,0.866920709477681,0.866816671236488,0.867415921610987,0.866348845605593,0.865680802129299,0.869550500535183,0.879395055391185,0.879473495757862,0.879877774059997,0.878595944212187,0.876764333189296,0.877469788351203,0.877717240614203,0.878762128860397,0.879916027901718,0.880813611445329,0.882219650557395,0.882681079036875,0.883639400804422,0.884471179532442,0.885821960235133,0.648015492902482,0.888035999999997,0.64791408835315,1.08339,0.305146965982371,0.00328701089103711,0.00343769909520734,0.00355265755757798,0.123144744130744,0.985340999999997,0.874396585665206,0.986966978085217,0.947643179492417,0.880998000021568,0.959621333471814,0.993696239171482,0.921008318293675,0.00390092999997637,0.878497282555874,0.986143999995817,0.931050329604092,0.989494999998046,0.845261494878084,0.839654966088068,0.84063083422382,0.841174602518852,0.843402470348623,0.850510943134688,0.850457930990071,0.850503683109287,0.850132935327669,0.850278651306688,0.849722441625151,0.84819330456726
0.776087882273202,0.777988540143433,0.78175976510782,0.785825261022507,0.78712007482806,0.787795676231753,0.78756385695096,0.787584423169502,0.786232626375627,0.785675955736133,0.785622684321475,0.784967171772239,0.784629299181612,0.783369474890998,0.781613987780834,0.779704166382133,0.777834682373184,0.777345378261295,0.777944747892679,0.77549234022485,0.774910173851317,0.774535653953611,0.775252530711942,0.776406863674936,0.779190068271219,0.779985608768279,0.781942371920214,0.785074930608143,0.787621060301672,0.788056635959828,0.788497248557993,0.789035136392108,0.789329975181815,0.789987710130462,0.79117307128244,0.792621819473589,0.793729501846429,0.795016641509713,0.796472599337407,0.797872896226169,0.79886678886492,0.79947736376046,0.800003196894803,0.800205829840196,0.800341235934228,0.800202099400519,0.800709262282638,0.801344599976245,0.803520809115633,0.805699795698693,0.806720691784197,0.807424525794687,0.807625980133272,0.808465403694961,0.810029149404533,0.812009883427312,0.812239264087207,0.812214850438336,0.812614785083327,0.813202249130532,0.814476772947925,0.816076064245408,0.819745236539825,0.820708871075489,0.822157552019934,0.823224972057983,0.825701021409846,0.827383564844566,0.828270852832501,0.829174948882513,0.829920858690203,0.830572421436934,0.830976470330134,0.831215738334169,0.831268371450245,0.831169144609583,0.831253451382708,0.831253372133497,0.831648526645257,0.831915219393589,0.832485988345963,0.832798647098824,0.833705173888959,0.834481818416469,0.835231642838871,0.83562137693532,0.836069361901198,0.836628401584491,0.83789888339895,0.840060441501845,0.842951664661335,0.846115635152461,0.848991761283458,0.851430769242655,0.853104597203956,0.853993245970566,0.854503429770043,0.854309238217412,0.853843208536289,0.853437619798767,0.853118153515506,0.853087212344432,0.853428770811224,0.854118284871985,0.855061311826634,0.85669436689538,0.858895907138257,0.861335493446586,0.863485289514766,0.864983772887941,0.865389844595374,0.866457992966465,0.866801216122785,0.867436874225921,0.867343333091687,0.867031590706596,0.864830875524742,0.861240366681494,0.858105960987213,0.855513337561261,0.853380089401125,0.851567896580043,0.850286146421605,0.851698845858064,0.858785204863772,0.452009948078279,0.451941748452082,0.451845300193838,0.451777103852194,0.451777111954319,0.451845323379467,0.451941783390421,0.452009989489869,0.647848498094356,0.647875005620235,0.647779240253991,0.647742966544531,0.647613966490877,0.306793165871921,0.063491809607266,0.0930653002363916,0.123078903039293,0.153359744042732,0.183759163962215,0.869826140876713,0.988314103478764,0.989598638707538,0.990764599186515,0.991818961493432,0.992785868739631,0.89957828917391,0.834221547687091,0.835130555625911,0.836247281144298,0.836795323429627,0.837564614415358,0.839105405698141,0.840033413490536,0.840903879487965,0.841773035383686,0.843051072268595,0.843781767868451,0.844833908024319,0.846157894705522,0.848589576176111,0.84937158825704,0.849701842088188,0.850138375362519
0.775605673490261,0.786847928536404,0.785191227796638,0.787067418143532,0.787619202518547,0.788502557923045,0.788343308849678,0.788910991328435,0.785236258408048,0.783610469190594,0.779391019442278,0.774036322172094,0.774297821237908,0.774604977796107,0.775007857423914,0.775311357425718,0.776577981281484,0.776326034195594,0.77689374908189,0.775062415376714,0.775248416401621,0.773849219945222,0.774740079984743,0.77511831294294,0.78132090764125,0.789549057571727,0.788858804519907,0.790690908007931,0.789583020935263,0.791683527504144,0.789833082365055,0.789990668520024,0.789697357607476,0.789844185774603,0.791716303837002,0.79330019429232,0.794678638016754,0.79549062957598,0.797408417776147,0.798006320110748,0.79951633569333,0.799789650424014,0.800713116896231,0.800599527683887,0.800431038524206,0.798944305227805,0.799698378868936,0.799075734012801,0.803249140939083,0.807714378410596,0.807691795251847,0.809245688226188,0.807900640483576,0.800884423098766,0.810732789581656,0.812574693765916,0.81122426634489,0.81047834931476,0.811104698638804,0.811395839639783,0.813001298754151,0.814361789114209,0.81432756419224,0.00407724999997645,0.820679837695525,0.821820852736332,0.823917705041864,0.825152750715654,0.827014864309044,0.82821964635988,0.829126827013235,0.829508360491253,0.830390240867579,0.830663934817218,0.83105193010386,0.830596844559618,0.830976823088194,0.830663471094845,0.831103845221269,0.83082207455833,0.83155765724316,0.831322815100581,0.832888710902291,0.833692484725087,0.845963517316953,0.854052023999506,0.854714393093673,0.855137478234665,0.855291061930347,0.855449928334012,0.854694081711454,0.854312972014263,0.85368660818822,0.853203513557351,0.853505965109127,0.854319715100368,0.85488729716778,0.854460798411439,0.854784570132237,0.855012477266918,0.853934304959577,0.853759385574989,0.858561885589006,0.870785682291315,0.870516255428158,0.869996701338799,0.868775290340842,0.86717966677044,0.867262972723579,0.86707143661035,0.867090988319769,0.868239075863381,0.867932062612586,0.868670381489732,0.868175973376911,0.868503684228478,0.856819467582341,0.84897432522364,0.84809911407112,0.847220040363787,0.847828477051881,0.848457876748458,0.84913187396764,0.850220565462237,0.857918313495177,0.00372651999997629,0.0841654972234585,0.00377613000159162,0.0628377074064125,0.00368612103711716,0.00374954722185901,0.00383220760744121,0.124271394891629,1.54022,0.121379949756548,0.00367571237466652,0.125687835489785,0.868315999999997,0.307782872863319,0.00363954000106935,0.123563560312246,1.02264,0.183759166703771,0.00393883999997639,0.860349382874225,1.10386,0.9952277232312,1.10453,0.99745150892812,1.10525,0.878196882850604,0.83314369954605,0.834552984399188,0.83684351569132,0.836365638980388,0.836761413691236,0.833974111518171,0.827525458645171,0.827860602198871,0.827854209412748,0.837259851292453,0.843105223391081,0.844292893427143,0.844590064839341,0.833568498647434,0.773120000027046,0.830918784830296,0.852241279694579
0.774805327766639,0.773952263973547,0.773088254053195,0.7722080765723,0.771375159568196,0.770712942093094,0.770389169374558,0.77056707875746,0.771303041541189,0.772637709426738,0.773928721913366,0.773666750997173,0.774130799675881,0.774488895623692,0.774988333600517,0.775579478803993,0.776788573968665,0.77812248869181,0.778276695590644,0.778890156297348,0.77984897745337,0.780887253922161,0.782181914119133,0.782703989919536,0.783503290683209,0.786154620140882,0.787092699108857,0.78806754247825,0.788572749573691,0.789282624330351,0.789194694970609,0.789270355687973,0.789742861910818,0.790514204328457,0.792728144732344,0.794577236221613,0.796031099070601,0.797792456411427,0.799516550748254,0.799747043563447,0.801559995962502,0.801420556990278,0.802700745449035,0.801681938620248,0.801928079939766,0.799880775200655,0.799958240029507,0.800241804916082,0.803236231505071,0.805285842296236,0.807484091105653,0.808736455626256,0.808987642482569,0.809707892331029,0.809753083330179,0.809570317540365,0.809672974599573,0.809574199660388,0.810127869195249,0.810626473268866,0.812038442111479,0.813397111451064,0.814209526363316,0.816121594393375,0.818305118451752,0.821002917821635,0.823014552097184,0.824924251854523,0.826418395019297,0.827933161638692,0.828775217250413,0.829630413759942,0.830294069795763,0.830900063900587,0.831516515508964,0.832034146565129,0.833945898860901,0.833896979402314,0.833983847740423,0.833921355457394,0.83470524244398,0.837418688702455,0.840659984543672,0.844479782818861,0.84889951677866,0.854038121737902,0.85520483359881,0.855431790132485,0.855295875224205,0.854712146565528,0.85441251949594,0.853767411905269,0.853685500724509,0.853459131097771,0.853564396090047,0.855458265512983,0.856136826563487,0.85719100562386,0.859264345603894,0.862711128640178,0.866089541140104,0.86871879474299,0.870234293487382,0.870866491994095,0.870633713657976,0.870434532015113,0.869174804289269,0.868081440076923,0.867619280828541,0.867460527321312,0.867503831820121,0.867770779700248,0.867977022636188,0.868329679877716,0.515793273586874,0.515797194799876,0.515802089547644,0.515804281214271,0.515802130943923,0.515797269384003,0.515793366582368,0.836301290288578,0.838349451237338,0.85124771550383,0.8570529271979,0.182491439115888,0.152016291037423,0.121779605022081,0.0917558740876701,0.0036708317915975,0.00371409555767247,0.00374046991872697,0.00371403723267111,0.00367956631626431,0.00364834215925299,0.00361401309533031,0.0950507778253842,0.125687831843321,0.308247981043648,0.307215189369322,0.305784473513104,0.303457044314732,0.301279692569994,0.30047003009776,0.846658071883827,0.838973008459374,0.835976642212884,0.834377996897462,0.832936880596572,0.832579579622858,0.83205729477914,0.832574289554779,0.833268757078287,0.833489584567271,0.832781728300701,0.83164599204729,0.83140256020437,0.829281358018687,0.828120688405724,0.826467268836273,0.820746664241587,0.816151410818579,0.813283534426992,0.811294534091719,0.809982635538607,0.803288123451773,0.802096737059244,0.799806118058268
0.764991778518467,0.764147601978828,0.765408150673519,0.765957008531072,0.767081132264933,0.767740196085824,0.768958184946525,0.769141032767983,0.770992388917894,0.771111610835804,0.772962105202813,0.772571292022509,0.773838522521429,0.774381837879121,0.774866078940449,0.77540725187067,0.776794419052779,0.781170344834553,0.779356262675253,1.46119,0.781623931515662,0.78465054455033,0.782934752352441,1.46404,0.783971800274634,0.78471486469895,0.785704496598081,0.786063812973321,0.787461845984497,0.787635782837956,0.788340267647846,0.788203113740135,0.789303163235936,0.789989679967835,0.794196349725532,0.796189768932842,0.796728469057503,0.802260047928742,0.802781598742776,0.805177341361413,0.805043092690308,0.807692844200714,0.806392885761362,0.807641164026154,0.805546101512117,0.798489841091199,0.799156030073578,0.798688592397172,0.803999562654566,0.803592356534913,0.808254145384525,0.809797375904786,0.809741726272345,0.810760765279005,0.809037883052553,0.806409327323469,0.80822560880229,0.808185214291336,0.809208389982279,0.809233563120723,0.811201043861262,0.813227533405405,0.812948873434244,1.46951,0.815779791932566,0.00370728999997628,0.822304803719477,0.825059322279416,0.825985635033568,0.828342738513185,0.828481571899127,0.829892121499197,0.830285912835592,0.831051195822755,0.832139578881296,0.833825753772649,0.134198045886538,0.00372765999997629,0.0715832012537222,0.00360743999997623,0.849465687721324,0.855501131890479,0.857374834935791,0.857563250254754,0.85845730028269,0.858032543751333,0.856825544750178,0.856385139343836,0.855475049611172,0.853944028274716,0.85419686254605,0.852934971467752,0.853977458195298,0.00359207999997623,0.684264499034552,0.866931251841018,0.86130714751587,0.868371714082153,0.868773572547409,0.869480156979988,0.869815413872572,0.87116858628906,0.870679716494177,0.87178799125731,0.87056318277208,0.871920583454038,0.869384760394875,0.86845673111125,0.867961985092085,0.867648130194097,0.867719570899877,0.867300956902722,0.867877170464231,0.868306952820983,0.154837923527653,0.00389284678431562,0.00379280600372195,0.00368447643004747,0.00366511616502272,0.0035979700374898,0.169210103669638,0.833914105479155,0.836301286603067,0.928450999999997,0.860078589172103,0.922863999999997,0.809902481237484,0.925152999999997,0.121554285252232,0.00359667155854495,0.00366852436127844,0.00367939400772623,0.00367273939656215,0.00363274422965823,0.00360544420451524,0.00349163483114971,0.0645823376488134,0.00351295000024241,0.309314871672504,0.979600999999997,0.306293102007962,0.00346696999997617,0.30047003009776,0.837333973301277,0.838086222189981,0.833362229190583,0.83383587991523,0.833982872293246,0.831747983346181,0.829117468017343,0.830777173332178,0.831741639425112,0.83190006504012,0.83241069780978,0.831612805866758,0.830412716258752,0.830523111292077,0.830298765319508,0.829100742059947,0.829493373989345,0.819433248564994,0.00347172999997617,0.809915871791497,0.808761008150304,0.80922901718061,0.804684239673392,0.803649333419433,0.798113765476029
0.765969282382104,0.765575886613742,0.76621811383194,0.766665256648499,0.767627277797199,0.768228894945548,0.770206652155587,0.7715727201529,0.772650469948657,0.773549961473277,0.774139090819086,0.774368154818312,0.774388285999745,0.774406058999522,0.77491108915228,0.775545751698931,0.776804878292074,0.778307638365514,0.778669464215761,0.779052672524027,0.780545398047091,0.781897925690916,0.782292009797771,0.782706807866853,0.78361952160828,0.784375387891084,0.785013459074606,0.785361873162199,0.691970428594102,0.691970352085416,0.691970304800446,0.691970352085393,0.691970428594064,0.793841453393276,0.795198040578727,0.796523084892997,0.797015280535005,0.803019232339774,0.804201322033442,0.805400404243538,0.806021654453253,0.807311760515559,0.807741518147701,0.807824648584174,0.807284521655323,0.807867349129487,0.807912140768807,0.80714258557836,0.806802495564835,0.807276667550011,0.808530006535014,0.809191958220291,0.80981130605644,0.809948773223837,0.80943937024881,0.808716525310116,0.808949500098612,0.809171769035317,0.809532436751476,0.809844582700096,0.810593921891651,0.811252395929703,0.811636838428911,0.81191767594986,0.81355706900107,0.81388939820097,0.821804654798144,0.822832128885605,0.824182094926247,0.825728311067428,0.826930297413419,0.828893208828901,0.8298762502104,0.830467470802201,0.407707637866171,0.134198046092819,0.103469221309078,0.0715841651259516,0.10231274695308,0.133041805445936,0.852963519023589,0.857299207125769,0.858960729432629,0.859566361638792,0.859741423755047,0.859429608729415,0.85787837729419,0.857229896565709,0.856675244526579,0.856071653016756,0.855833844456873,0.855510403477251,0.855435578563173,0.684264499034552,0.684271160950082,0.684287690436031,0.684298849971217,0.868441674488779,0.868691735135253,0.869046719475025,0.869633202352388,0.870137799546378,0.869442085551422,0.867395972957723,0.867896649526246,0.867293971279838,0.867964351327108,0.867995070636072,0.868099685656652,0.868281867448279,0.868282172134067,0.868302034995525,0.160486763222604,0.12975864420778,0.0990305251929368,0.00373534523332828,0.00376084254521771,0.00375223654035448,0.00368652782356818,0.00360804786327447,0.138480215782665,0.807773015816393,0.807807775468166,0.807856935717046,0.807891699337801,0.809897603389878,0.809438319782467,0.18204690948055,0.151562356539334,0.116988592561903,0.0860747539485955,0.00363140060890239,0.00363980969234158,0.00362229700343636,0.00362080021008264,0.00359785274225478,0.0980936826706065,0.128820558780935,0.30987427131779,0.838193404743395,0.838712590365979,0.837316830192608,0.836677620643051,0.835031212057036,0.83447945714398,0.832362058661326,0.832019134760068,0.831703820168064,0.830747885919548,0.829795577584489,0.830094344400436,0.83034100839548,0.830482186865574,0.830585130984195,0.82962926226629,0.827967418757667,0.825435976335319,0.822782323267133,0.820601743153168,0.819660000977464,0.818869229158142,0.811853044502932,0.81120110343631,0.810451041100342,0.809291787376905,0.8060930806047,0.804638016064368,0.79943405030506
0.766759938610187,0.766139710739889,0.767141235358564,0.767047874399961,0.768148694426975,0.767923372853137,0.771988517505983,0.774745251991035,0.774496876833583,0.776470540271683,0.775551170258261,0.776428549302972,0.774941998611108,0.774098409151133,0.774730087185701,0.775146948867574,0.776283966745568,0.776672490303425,0.777887249757723,0.778070785463207,0.779642084027874,0.780230584801036,0.781681791956605,0.782183703253304,0.783418321871457,0.784059123080064,0.784694306419866,0.78493922206093,0.139849868189483,0.00365435431293448,0.0035882070093587,0.00356292223131395,0.136317895537359,0.796553771960918,0.796355719719323,0.797516105890861,0.797264107006668,0.809807384050035,0.805919779871771,0.806591309642917,0.805695041804233,0.81369212228392,0.809129342448682,0.809107652042285,0.808060068396722,0.80912774444025,0.808675787005934,0.809852884602634,0.808734639027256,0.809605203593043,0.809438712586046,0.809197685652745,0.81009009111632,0.809864407938338,0.809848590280603,0.810140149331856,0.809754446603195,0.810289733574921,0.809969191167089,0.810224945355817,0.810150256764697,0.809759111717298,0.810666058028689,0.810736983232857,0.812677819528135,0.814101077675994,0.82069029940376,0.820607799098374,0.822527865353064,0.823574157799099,0.824721557436802,0.00339696999997613,0.607877865596248,1.47535,0.407248669908809,0.0035376499999762,0.0727384469479901,0.00368672999997627,0.133041815986731,0.862537096277041,0.862654932811165,0.863191294494802,0.861464317119305,0.861868073166156,0.861505917678543,0.862815712181517,0.858032012138991,0.858139124895081,0.857635519517335,0.858164686715106,0.857298289381528,0.857957426768964,0.856702668202126,0.861314914315682,0.128343991487045,0.00396102061614963,0.122852603356634,0.868039462885551,0.868439091165412,0.868306995679487,0.125363830640032,0.00341458765506472,0.127588663927578,0.86479561477495,0.866177526646008,0.865870089088415,0.867079307557252,0.867401094602008,0.868171829470726,0.868975890297037,0.868853575090204,0.86926114505585,0.127694393951831,0.0032935516087999,0.00347497033003605,0.00348394141082882,0.00373153794783112,0.00381241614283681,0.00369541145691297,0.0035064278129786,0.107750327895627,0.831722999999997,0.125622611191263,0.00326464560851297,0.782443971960269,0.825572999999997,0.808117262402854,0.00340731999997614,0.18204690948054,0.828168999999997,0.147866844143133,0.00355557078414606,0.00359627328141547,0.0035719608129213,0.00362442952680584,0.00365947414530449,0.133760739717387,0.829618943272645,0.829931819456044,0.831205779724635,0.833793894398604,0.831008721170147,0.833127441378621,0.831546906777251,0.831539195733458,0.829452198613239,0.830333559440258,0.829846941487916,0.829863828764762,0.829005679184637,0.829376219913902,0.829048460453702,0.828659953898817,0.820100198334162,0.820476464765088,0.819751099035907,0.819634940194186,0.819863900457158,0.819619282089669,0.819500656896928,0.81821988008407,0.812573141692811,0.812710719068093,0.812650173096418,0.811705529743128,0.83057193514309,0.825099150669554,0.831851024683785
0.768701488328353,0.768309740178792,0.769335928867575,0.769841478757148,0.770619928622815,0.771610265768943,0.772719458657997,0.773612906044423,0.774535105574916,0.775117152938101,0.775342522205644,0.775240423633045,0.774991181743412,0.774548119303741,0.774944626833454,0.775329226161282,0.776658592299175,0.777849207159039,0.778359670721311,0.778760291935054,0.779926365680461,0.781019423572069,0.782122605273131,0.783059031885495,0.783795261161807,0.784416337238316,0.784695278895253,0.136517607236791,0.10578892887668,0.00353691200981721,0.00354173479836378,0.00354291950974713,0.104827227777932,0.135555931225449,0.503829728442338,0.795201862387807,0.796763401623036,0.800600697432859,0.803570451006568,0.803700781341231,0.804294995456756,0.804401084097197,0.806368843576815,0.806673816298983,0.807403065228278,0.807683199519141,0.808424355592528,0.808786706083065,0.809080397743566,0.809516440107162,0.811077234699858,0.811167577129985,0.811436623138727,0.812923061754155,0.813968828796597,0.814659346523033,0.815115492950194,0.815221307166742,0.814962916068289,0.814445354251052,0.813746211784175,0.812996057299357,0.812393272606488,0.812166189095469,0.812502383482256,0.813120364907524,0.820353609427005,0.820842540990644,0.822028481962084,0.823051023011855,0.823783781580162,0.607877865596248,0.607927509028385,0.406507749819529,0.406495386608809,0.405698145632675,0.405106053059042,0.405450068790625,0.405909456355347,0.862241769355818,0.862225916211175,0.862137590926013,0.86174632620868,0.861726512367231,0.861481839502843,0.86152293568979,0.263117870408328,0.233872340775932,0.206104496822026,0.179762580789382,0.154643730586475,0.130500718974103,0.107306173652069,0.0849352260878778,0.0628395041406313,0.00403282567275627,0.00414781032447409,0.00416478062129179,0.00405425258780757,0.00398039848062126,0.00358191356494489,0.00264771075120148,0.00076091180010977,0.000175435660392342,0.000137937295875088,0.000637951702929731,0.000715925017697586,0.00100998672496598,0.000886967008600915,0.000978772529569948,0.00062903296139222,0.000641894846793703,0.00108420464410375,0.00270121745213961,0.00341474985004636,0.00362540435575554,0.00375632088292999,0.00377964854798446,0.00369649349389265,0.00356703231510038,0.00352848301984862,0.00345452626599995,0.00345695226115814,0.00340818315604376,0.782372387709278,0.806604890010678,0.806586089245965,0.805056387516158,0.803832091905332,0.803151921984595,0.511585655516611,0.511589607435828,0.51159455753295,0.51159681823707,0.511594737002492,0.511589930788058,0.511586058689535,0.827787433886495,0.828438768869791,0.829498545653222,0.830845458379521,0.830595443702965,0.831097950220439,0.830669840424613,0.830234285599446,0.82969899055033,0.829755470973903,0.82984124557049,0.829510956146018,0.829430275958801,0.829345544080959,0.828930321751456,0.826455695665431,0.823053632880442,0.821196148985366,0.819863670434038,0.819252020694384,0.81873783163361,0.818338005286454,0.817794325802771,0.81677365665467,0.81496123675876,0.81441876783849,0.81433065358149,0.813330813623691,0.813321616293353,0.814139120961056,0.815447733112541
0.770921454632351,0.77330317935762,0.77164847974838,0.772686129783632,0.772506578263447,0.775311321179056,0.773517217359028,0.773160363536997,0.774568134022334,0.774415590175381,0.775215796051996,0.77447043038482,0.775039880580775,0.774455208561618,0.774964487612954,0.774853820002252,0.77697224881307,0.779959298504169,0.77880885890705,0.77885784570645,0.780178702731101,0.78195079933318,0.782659227072113,0.784177753847318,0.784249943106208,0.785072161095735,0.784889273109651,0.00369614999997627,0.0750602505166249,0.00340903722944473,0.00349162451020474,0.00351849181152295,0.074098524330434,0.00373749999997629,0.503850665680786,0.793054764737745,0.703505163055501,0.00379291999997632,0.802238684746803,0.800712261947346,0.803248373871069,0.802600291531918,0.805298747409826,0.804065902178252,0.806935911523869,0.806088026032271,0.808550832162538,0.807819722571458,0.80891359166245,0.808410487993104,0.813906162000483,0.819776602390911,0.820673291698668,0.822344865998795,0.822672342134471,0.824181946828068,0.824688472116411,0.825889353450282,0.827211664442352,0.828681519826425,0.829624305984411,0.830155761004758,0.831194441005527,0.831157871192661,0.825062391167112,0.0037567899999763,0.831131750707895,0.844947961958857,0.845603121417519,0.846310680516842,0.847001111320608,0.847648670062339,0.608060355008303,0.00340217999997614,0.247314809585671,0.859809999999997,0.404518795308186,0.861321999999997,0.406223389942325,0.86195606809635,0.861850617402449,0.861358909741561,0.861631309301961,0.861746177587704,0.861166787017265,0.860244649222569,0.128298738934274,0.00373992613817033,0.00374545290089764,0.0036822505408999,0.00373094478956551,0.00372903216272707,0.00368301486111641,0.00354139703031184,0.00373659076699082,0.00378251652286536,0.00403491176554355,0.00390370088872986,0.00400430503156203,0.00379904485125622,0.0037619157111175,0.00328364238095083,0.00227781930206601,0.00265214509873073,0.00179217091625671,0.00254457699242457,0.00184918383788903,0.0025608557542854,0.00189615896861094,0.00269348735895827,0.00202790182340794,0.00280267808452495,0.00249674263055478,0.00342137339702251,0.00360542232864042,0.966719999999997,0.00379911897859657,0.0037435993395279,0.00367412832521159,0.00348431944115528,0.00340258887508324,0.00326620225108299,0.00336611259137298,0.00343149588577874,0.782271152452235,0.81129372676224,0.812001710777674,0.812712025613627,0.813392727624291,0.814189868459054,0.814457543435529,0.81495930115282,0.815844013748254,0.816619852779511,0.818095617524624,0.819552925866116,0.819800412271839,0.825649541616314,0.826767928769076,0.82686042201391,0.828519001538003,0.82847824232002,0.829506331073266,0.829435539390044,0.82961060216467,0.82912982275877,0.829576784675341,0.829787874772417,0.829256474431932,0.829712761756915,0.829975861332889,0.831074331699166,0.82518753584331,0.824648042553566,0.82109760331404,0.819448717757078,0.818404631166946,0.817564765035293,0.817126852836234,0.816673767483798,0.816415342066178,0.816034784416262,0.815779408552151,0.817107039344142,0.814231702887526,0.812902826640194,0.814124663525334,0.817255344738984
0.770792133031149,0.771865489328014,0.771692343468127,0.771624106189699,0.772186581753648,0.772900146677173,0.773701096794557,0.774514193447804,0.776331413823742,0.77598697643352,0.776875033637755,0.776836511568262,0.776654229599003,0.776518503955765,0.776004942781087,0.775659301276707,0.776723995469071,0.777838040275071,0.778269391612236,0.778790194177241,0.780118299152492,0.781636643792213,0.78247490847947,0.783427898515035,0.783962313169237,0.784516333172947,0.784785016549222,0.459996105350229,0.459813455656559,0.459485563491871,0.459078922008324,0.458674779799435,0.458352503421756,0.458174357207509,0.50389720574571,0.503847175342882,0.703511824936925,0.703505163055501,0.802759038361971,0.803803599127001,0.805689381755385,0.80682712740409,0.808133334146216,0.809322210668713,0.810093762262827,0.811007057252463,0.811879860754919,0.81292058411971,0.814688407953345,0.815560595811889,0.816782998080772,0.819153200781143,0.820027391918955,0.820826801251366,0.821698323837686,0.822674979812008,0.823957409360497,0.825415772120521,0.826990024511572,0.82869821483471,0.829987046567637,0.8308416641671,0.832219031660149,0.833501762027504,0.83574014363096,0.837164950612508,0.837653024205637,0.844849380903254,0.845451504976984,0.846178047966554,0.84704111422334,0.847762254119393,0.608183669190474,0.247314869905549,0.219370420983178,0.196914949174754,0.176937963902292,0.162006721069292,0.148506034773124,0.13478165852281,0.121036441005666,0.107343312897148,0.0936742291366407,0.0798851896122028,0.0654252440060264,0.0497409793473398,0.0326648399667847,0.0038121343652828,0.00376957954943041,0.00374048191295928,0.00371493519695441,0.00371231402450076,0.00370367581164326,0.0037094298540876,0.00377413294385714,0.00386328642917446,0.00402978049386332,0.00413254342172937,0.0040806625831524,0.00400674578515629,0.0038732968977459,0.00358359139097524,0.0031735000842185,0.0030737137403271,0.00270882577571414,0.00272549913723952,0.00254039662538737,0.00268344373295053,0.00230519979635801,0.00251944091707965,0.00260486707744446,0.00310367436776966,0.0032229322819382,0.00350035499290231,0.00366522727885843,0.00372383125777246,0.00379752889389981,0.00382054894456252,0.0678968347874936,0.0975881251615704,0.127098021307268,0.15688709886573,0.187013941017103,0.217418334260483,0.782199568427103,0.811565266695512,0.812003306555602,0.812562811684188,0.813285555503742,0.81397358342788,0.814290505894195,0.815060235493923,0.815972252077328,0.816966158053561,0.818100267273966,0.819139340003138,0.819553595530726,0.825913564693828,0.82649754310296,0.82722341588965,0.827801738845844,0.82816943769684,0.828855520358166,0.829423780194913,0.829421220309024,0.829500396994213,0.829125180410807,0.82892750694993,0.827586241989911,0.82627011585698,0.825619672134642,0.825082648122045,0.824063000572774,0.821959318494164,0.819558415659845,0.818144066872679,0.817624626787123,0.816877885376956,0.816022861987383,0.816286417433406,0.816174156641026,0.815925313995339,0.815645093129541,0.815375898813157,0.813854072012921,0.813016830320217,0.812435742253996,0.813560880638811
0.770155375068353,0.772512695138332,0.77122946542183,0.770644014424284,0.771252576768937,0.771383638255731,0.773035153993051,0.780927794122105,0.779505612831916,0.781461310275847,0.778889983562531,0.779639438035009,0.777925478522596,0.779363125076948,0.776644451986008,0.77537368000694,0.776284110317143,0.776582173522767,0.777584108460246,0.778009344044102,0.779874573475751,0.7820797116693,0.782194667655841,0.783149876305289,0.783538920987137,0.784217108463286,0.784721244361958,0.78477934940889,0.786301721401088,0.786656626805137,0.476188288305952,0.787397999999997,0.475470622460368,0.790376999999997,0.504022024696257,0.00351909999997619,0.703528354338251,0.808995275610669,0.809629033062749,0.810434609433911,0.809437012168182,0.811825948456445,0.810901310381378,0.813091276962456,0.812866057210741,0.816157114138016,0.815177716377547,0.818277888778463,0.817200593723056,0.819865337101456,0.818644166527865,0.820155406351378,0.819800142255408,0.819047405225312,0.820698215764756,0.820494232361643,0.822995874308624,0.824651843140149,0.826515424464834,0.829126225211663,0.830619293274539,0.831012975008688,0.833141290988139,0.834841138186918,0.836386139934652,0.838096396641246,0.837974882691712,0.844134266895641,0.845153181005452,0.845865890051255,0.847169145036249,0.848596652552308,0.60825733994082,0.852994999999997,0.110943300778917,0.00347792791926783,0.00354465274247243,0.00354842953402544,0.00354873638380928,0.00349344464242071,0.00365509101089223,0.00383533705428401,0.00373637429020783,0.00369206961526937,0.00359894840221388,0.0034767638801323,0.00369208352240807,0.0038678374062917,0.00379641830970396,0.00366771715701872,0.00370286494301184,0.00356080676122019,0.00370690151867045,0.00369633608483529,0.0037474275900513,0.00367469429666769,0.00389401580671984,0.828382999999997,0.049612433977274,0.00389678232047794,0.00387076568722359,0.00365548887701913,0.00357353784138108,0.00363484321222808,0.00330135094348439,0.00331674761215765,0.00318932128065131,0.00349955553880992,0.0942304869979113,0.826344999999997,0.0965857411063814,0.00353171743036432,0.00347945986033861,0.00340353576087091,0.00359282427864698,0.00357552531112139,0.00376284372328209,0.00385196006750773,0.148923473011296,0.790582837454794,0.791188859894763,0.791497992325219,0.792183444342827,0.792647829833731,0.792986095434748,0.811401807739745,0.811886566678845,0.812258884801535,0.813238212768723,0.814208975198125,0.813802037867383,0.815102798803898,0.816069344848839,0.817181453833304,0.818125343595349,0.819081223211446,0.819564440512611,0.825785584461349,0.82665057747009,0.827958763995347,0.827744453336403,0.827646306500503,0.828786851879089,0.829775355348905,0.829560793235494,0.829872935822888,0.828829386254414,0.828763930410768,0.8259710309592,0.823202824689252,0.822263916283044,0.812945093615959,0.814698998860123,0.814797970381531,0.816875470552724,0.816202489838194,0.816975415290328,0.816366487377313,0.813662723902821,0.780489983693081,0.788817004543031,0.783053155530321,0.815633850402416,0.815035577893538,0.812862499038701,0.780586000781256,0.809113644047544,0.81506465562002
0.768913619058133,0.770823075507776,0.770984586678463,0.77118096458649,0.771742219580465,0.772299995948062,0.773662710447385,0.779387930329039,0.77959420537709,0.779783232263279,0.77790813108046,0.776958616885666,0.776415420486216,0.776409614789278,0.776152405472147,0.776228798631547,0.776640161610528,0.777241222543875,0.77752809909996,0.777998148582771,0.779311089431266,0.780569239821195,0.781198748800955,0.78189754073936,0.782890522054413,0.783824930435749,0.784857871793933,0.785506236666088,0.786728127175939,0.476188288305952,0.47609193974588,0.475828748754957,0.475565639689876,0.475468075658533,0.504145571486335,0.504190751927709,0.703539513816305,0.809489920759168,0.809677880687787,0.81016663347171,0.810165960304154,0.810923835669765,0.810817469997645,0.81135485409941,0.812320751507259,0.813717912457883,0.814536701117236,0.815654887175715,0.81634511363096,0.817326311638405,0.817819368833157,0.818470001173219,0.81976925239318,0.820914376107843,0.821098527419297,0.821174284847872,0.822586497459047,0.82422415545492,0.825385924832548,0.831796776039346,0.832421013903452,0.833287437207388,0.834511114394519,0.835825437124349,0.836831941196031,0.837704629749629,0.837989118767872,0.838079188660548,0.242051671709382,0.21243455576625,0.183879425512394,0.156293185950425,0.129543105632619,0.10346119414792,0.0778512639198808,0.00360823392768943,0.00360626463389303,0.00360330276703969,0.00360218204412833,0.00360488557970811,0.00363230101485992,0.00365928498163783,0.00367368645556331,0.00366976028442229,0.00361244948143104,0.00356950251865559,0.00368212256704818,0.0037945972714761,0.00373883678012909,0.00368826132055791,0.00367529202632696,0.00370413577623436,0.00368856896405042,0.00368391142465437,0.00371265483752322,0.00373046718091723,0.00381655443010487,0.0498006369466833,0.0581103743598238,0.0679516084110415,0.0783432018515775,0.0866066202077094,0.0944996302312085,0.102994822118177,0.111560496077096,0.12003229384358,0.128439252278807,0.136589534450894,0.143851082085775,0.152729184861312,0.161934332157278,0.170366673433776,0.18080744110471,0.192610766893134,0.204595117949063,0.219425929623523,0.241102237290845,0.265692985313033,0.293320657486193,0.791046052734537,0.791456843451822,0.791993182170685,0.792387462960975,0.792853206515326,0.79325735504255,0.795020602523184,0.797094937840193,0.799558587303327,0.802584851557216,0.80630856914884,0.810476531304256,0.812762398835226,0.687738233617046,0.687738157108356,0.687738109823378,0.687738157108318,0.687738233616984,0.825944936846665,0.826553166408292,0.827335806593711,0.827580128640784,0.828111099926832,0.828714337524589,0.829396487900512,0.828819973821653,0.828236061598052,0.827205739180734,0.826178949381315,0.823971130777373,0.821611629405101,0.819895762444118,0.816691567846528,0.816193007728018,0.816344715921183,0.816946724252968,0.817508427871542,0.817780584462281,0.817871413833757,0.81085074001298,0.792412554053942,0.794820147250018,0.803301264474615,0.81628878623557,0.816381157696136,0.809456672798535,0.802651132135296,0.805480515418345,0.808639536869171
0.766608598372645,0.77183231407797,0.770482745953721,0.772188438347206,0.771525746921592,0.773137895936244,0.773252642481565,0.780514826875408,0.780096717840335,0.780643018386862,0.77594561035296,0.774158050412277,0.774288484815204,0.773945297629522,0.775266064379496,0.776947529771419,0.776824510161829,0.778253298350485,0.77738918330576,0.777067151070863,0.778807276728127,0.779728521608624,0.780333650619327,0.780539592212516,0.782194937213512,0.783290326538981,0.784718666523938,0.784885384961866,0.78702852462242,0.00353048999997619,0.066248197204683,0.00342165999997615,0.0652308277175901,0.00362336999997624,0.504190751928718,0.809665002169521,0.808298324999629,0.809723058500281,0.809337447090208,0.810427468105842,0.810033833650354,0.811133524613046,0.81008302676547,0.809382666887691,0.811310234375656,0.811888763771787,0.813573339931433,0.813454794289109,0.815327258868808,0.815269797482206,0.81681154676655,0.815938817016362,0.820001659281001,0.823301685543846,0.821879331184838,0.820308340511662,0.822014639409992,0.00351393999997619,0.259633969167508,0.833853643646301,0.833842241900895,0.835226551206211,0.835626518108936,0.837089279390642,0.837274656308733,0.837868386172148,0.838006282853701,0.838169335242604,0.125663633195719,0.00352265695800703,0.00354313891475214,0.00359456241301717,0.0281985534349122,0.00367798999240364,0.0344945157065832,0.00373931471568388,0.00366713293181063,0.00365448352033535,0.00364903379038341,0.00368828307516056,0.00360470129985002,0.00348933355281565,0.00361999161344125,0.00368901872044289,0.00359900034038679,0.00348143239580232,0.00366807679540392,0.00381007522500068,0.0037106286745428,0.003496523957089,0.00366752726079399,0.00370580537749561,0.00367063386448995,0.00350766377660187,0.00363971726668753,0.00362096462419386,0.00373711786753744,0.00370910121649063,0.146683937954288,0.799558933844784,0.799412547250751,0.805893332816785,0.803568027196585,0.80368172046998,0.802215149605285,0.801972443512877,0.80108751740689,0.810652032933935,0.162267819637294,0.0033185299999761,0.176481193651622,0.809716643287653,0.810263985268436,0.811083002576101,0.8112604927731,0.811481510265078,0.70166174579391,0.810187999999997,0.701661745794515,0.808182000432147,0.791522649470372,0.792641876486836,0.792468719297081,0.793044955571376,0.792261364364828,0.791319315797064,0.791029931546807,0.79158534352987,0.79044620005831,0.00370950999997628,0.601699143581323,0.968107999999997,0.221332375893129,0.00349838381787293,0.00356032518762413,0.00355595865484832,0.128009037619959,0.82558686425202,0.826432993636285,0.827181866628508,0.82727029106665,0.82835168116558,0.828700988546508,0.829986454726196,0.828277106724883,0.82671447052291,0.825718490000641,0.824588361301088,0.822133167836973,0.819181997062841,0.818736002558081,0.817755397348977,0.817012135005463,0.817523750108786,0.817112814386111,0.819174856871345,0.818820557798209,0.819552712742088,0.807764220925201,0.78998188319262,0.797225262166073,0.822394014958302,0.817122129214484,0.817965058340132,0.80578610269426,0.799957205215241,0.801553642632319,0.812065027657114
0.765111960138925,0.765629790617001,0.768290830792848,0.768893082908015,0.769866795647865,0.769102482991975,0.768368034960317,0.767706763430759,0.767530505146511,0.768907016144392,0.770279061451109,0.771583895545327,0.772731989044258,0.773213113472558,0.774125781619239,0.774854335822853,0.775531057296828,0.776248007167046,0.776591136878133,0.777087430258009,0.778727417154407,0.779600071934466,0.780161914267922,0.780869237458849,0.782260544950564,0.783709540807596,0.785334791208402,0.786532503048525,0.787863309996464,0.591479563903376,0.591477351160007,0.591475184840685,0.591475311672571,0.591477697671347,0.591480037246919,0.804082759938413,0.805773799436188,0.80671017047524,0.807519878892518,0.808023747418407,0.808517591527716,0.808757531583524,0.809092522618888,0.809302438920342,0.811608217176142,0.81325786190313,0.814225692463057,0.815039599452404,0.816068358194912,0.817011208251138,0.81794878158725,0.818878092266344,0.8207090865023,0.822521306461594,0.822561321552213,0.822632444641689,0.823114736428834,0.259633969167508,0.23109924386992,0.206891793874386,0.184650334008099,0.164166757061976,0.145221988943298,0.12757542638204,0.111794709695173,0.0970124924902532,0.0815530020756339,0.0652349963032028,0.0488158274753483,0.0034552396892937,0.00350214130583258,0.00353022853912873,0.0377299623881947,0.0359812889673656,0.0337092180091018,0.0302606470990561,0.0266575718850463,0.0233247966042336,0.020753744910506,0.0193911853909562,0.0195025427548754,0.0210231461908201,0.0236292954143905,0.0269001882308303,0.0303116787842822,0.033200255286317,0.0349093104953838,0.0356795064448004,0.0193726447809452,0.00357728006075249,0.00363581764242943,0.00369238979977792,0.0591321645952473,0.0879539711956521,0.11645585228326,0.145166036323304,0.17428599242303,0.203778359886739,0.233805384020724,0.798879065010929,0.799283105090467,0.799984505661616,0.801249122068949,0.801359659582022,0.800881190530599,0.800245619939501,0.799865685657935,0.799137224461277,0.788666103352705,0.788830119079327,0.788921914368341,0.809408906651884,0.810026583331392,0.810749254710707,0.811249050692685,0.811648498152331,0.701661669285347,0.701661622000575,0.701661669285721,0.789149975669329,0.790444337048008,0.791377063310434,0.791765321425267,0.791893289949548,0.791163114860089,0.790160562135771,0.789746105239922,0.789334642533185,0.78930428019094,0.601699143581323,0.601748786811454,0.221332375912044,0.191478558019448,0.114424165921111,0.00358691471551642,0.00353201510555631,0.0930268023309513,0.123753679075915,0.160251641207479,0.824605354685971,0.825801907056758,0.826635977071657,0.827511095071373,0.828106291037373,0.827290408875015,0.825981629893117,0.824245429458877,0.822345022955553,0.820720153984603,0.819247943184146,0.818159557408968,0.817303545783415,0.816776805774908,0.816715945018901,0.814863823270232,0.81247999485402,0.809970048832183,0.807342241524012,0.804681366756748,0.80192914082491,0.799696738566366,0.799664625898059,0.800011918644676,0.800855791861089,0.80192237805643,0.800311003928501,0.799569870570435,0.791532760022186
0.76360536740442,0.763848054014463,0.763742089465618,0.00355829999997621,0.762579245850702,0.762164534444303,0.763427143444816,0.764654297964104,0.766148398074072,0.767337673344266,0.768564451987745,0.769035130325735,0.77170410949897,0.772064201116119,0.773154856621031,0.772848839299497,0.774322009394111,0.774614056770101,0.775675011581855,0.775799021925909,0.784823799490559,0.794422702370573,0.794902884443027,0.796227175887653,0.796808540078807,0.798013899877823,0.7984351296837,0.799558700990262,0.799504695285776,0.800198043533339,0.800171087048104,0.800675969883932,0.800888990031297,0.801336988430566,0.80181777870129,0.802234851465706,0.804015293949464,0.803941942698834,0.805915840959419,0.805713390266391,0.807176518124019,0.806381050993926,0.808096585357974,0.807100736928753,0.812845826981433,0.815000021250902,0.815301437156746,0.816161033252019,0.816979361448986,0.818598365213578,0.81911329222486,0.820684115438678,0.821572991702375,0.823271314156222,0.82344191614,0.824508129876194,0.824734429658091,0.826583672287054,0.119463022232462,0.00366714009730716,0.00373375976204082,0.00382633452111889,0.00372558260018409,0.00363674713070008,0.0036473508915777,0.00365665929491453,0.00357169938930911,0.0034647041543718,0.00343332625590183,0.00332747638880998,0.00346679113885435,0.00348298832021316,0.105360266280811,0.800875516341913,0.800386828363754,0.805438703084493,0.603592522663368,0.807278999999997,0.317067720510602,0.808953999999997,0.315032218308457,0.808783999999997,0.315008767782173,0.802527999999997,0.317012611339848,0.806398999999997,0.715004763440039,0.797458999999997,0.132431095386253,0.0035254501325837,0.00361781100385488,0.00365955670028951,0.138261212464509,0.797776702514561,0.790622978295773,0.79508862906265,0.792588357394434,0.796861812672458,0.793443285345117,0.797825782877826,0.798767467843997,0.799229396709659,0.800014597816179,0.799574382629781,0.799538385459846,0.798071479180553,0.798706957488814,0.798082528999725,0.788799333647099,0.789180559236467,0.78920353084182,0.808515994223017,0.809728105090037,0.810675980493409,0.811379202200786,0.812244631930098,0.143205864287461,0.00378647999997632,0.143029513158886,0.787802641262484,0.789647312338473,0.790662786212087,0.79130887177912,0.791451768515607,0.790268654956518,0.788053752917997,0.78856146944415,0.788010453375592,0.788363725854512,0.787815330860794,0.601881632250959,0.00389941999997636,0.163339386087191,0.959718999999997,0.00352847091902488,0.00345756507866434,0.00354123612910536,0.00379800372515121,0.129521525629474,0.82306427489666,0.824562866760024,0.824681106176283,0.826572501278796,0.827414965289957,0.826786827680847,0.825609001443904,0.823216132762069,0.819900114589363,0.819126517072928,0.818989985422378,0.817259881613623,0.816636172232734,0.816057457381922,0.817749167958839,0.813059750951339,0.798022425867851,0.799231683198736,0.800510141610673,0.801695986157012,0.801579549867511,0.799978529732596,0.799583939146383,0.799695546299073,0.801030677527103,0.801176485117314,0.818406080714257,0.797358603845595,0.756526999940468
0.762537305902841,0.762762040906258,0.763109941743722,0.762970639392971,0.762953717024199,0.762889415562168,0.763495620585335,0.764178664631504,0.76523170822651,0.766128590150734,0.767529864915639,0.768128896377777,0.772828509601311,0.774041530334802,0.77564898658882,0.778105692724133,0.780873889796631,0.783575347244429,0.785935132394558,0.788111568310232,0.790678582771395,0.792781897150128,0.794004081383953,0.795005484633907,0.796095930501882,0.796928337941459,0.797689207651266,0.798119730163143,0.7987460371069,0.79909583982943,0.79963244097424,0.799943191270774,0.800648932898582,0.801120424950126,0.801947841380959,0.802657078051355,0.804260986891598,0.805471343770346,0.806614970735519,0.807336021885357,0.808195614650237,0.808828746326186,0.809780102950747,0.810788962615985,0.813033154773389,0.814820073317639,0.815463438520211,0.816077950751801,0.71435970124007,0.263634134579205,0.234674040582967,0.207453903183371,0.181920361777014,0.157945144937745,0.135261252751544,0.113553327145868,0.0928001301455275,0.0725584767117438,0.0518763418863186,0.00363784494815274,0.00366925166220794,0.00370202525979231,0.00365513186792598,0.00361157710266625,0.00359755715946127,0.00358422121796819,0.00355954772405871,0.00352176699699827,0.00348513483872189,0.00346179907916982,0.0035380550066133,0.00360526150753566,0.136092737550415,0.800196129527055,0.799941870915704,0.799605239616692,0.603518852263601,0.317067720510602,0.316797812802614,0.316067383617211,0.315360886917736,0.315214203401661,0.315339911467832,0.316029932646643,0.316747191926099,0.317012611339848,0.715012271330346,0.715004813496017,0.677178930032062,0.677179213311482,0.677179747354421,0.677180374951893,0.677180809605768,0.7852451891696,0.786501722214681,0.787253904739657,0.790257283161282,0.790760733749836,0.791223513163633,0.790511728645416,0.789586966454982,0.788746418256957,0.788096435295351,0.78765371043571,0.787415077364954,0.787390541037212,0.787597959241948,0.788060028407966,0.788733217940937,0.789352752888093,0.789631298216999,0.790015421325972,0.789876502571479,0.789533321600934,0.782973063942385,0.143205534980987,0.110534574014467,0.066179118159646,0.0969062430490668,0.127633784351898,0.15836127733486,0.189088521242302,0.774099470763191,0.775857190076026,0.776518879847085,0.777376730106568,0.777876399757633,0.778667104889671,0.779084990359137,0.779457873801064,0.602004945931853,0.166024229565507,0.135947870788447,0.0918622291601289,0.00340173990905331,0.00331743551876675,0.00327111516106266,0.00335351336808067,0.0987914100514525,0.137868728219914,0.824911235387667,0.819893724350706,0.816900038300972,0.815899126613321,0.815527770467241,0.815859951240377,0.816383272416383,0.81704266329267,0.817150335333814,0.81679460253321,0.815297160757601,0.814108385290353,0.813084662114614,0.811462621719939,0.811162080749209,0.79855374505593,0.799244394862788,0.799876060267002,0.800189920061245,0.799976045760049,0.799419910872999,0.799083873188652,0.798567983818103,0.798762391502802,0.796620445207365,0.796127630305264,0.795462438641442,0.792388339635459
0.761670761100452,0.761684153059444,0.762713447568119,0.762979098192612,0.763498882944175,0.76315544280096,0.763327182181952,0.763479081889024,0.764387167966922,0.76469626413915,0.767196382305384,0.767824650178168,0.778462970901111,0.786934234579725,0.787727448440773,0.788341003299821,0.789278307869848,0.793198424359979,0.792811819002005,0.793372529753412,0.792087730553406,0.79218193349467,0.793419768821267,0.793570727589441,0.795503745169577,0.795878914946483,0.797154916266952,0.796506077301162,0.798202960787791,0.797815363770675,0.799303593820536,0.798799338190682,0.800631264945828,0.800550735946347,0.80218941047505,0.802261527527808,0.804888799365878,0.807165677556618,0.807651366129099,0.808926727115362,0.809392963761754,0.810979236821168,0.81133027834649,0.813201411498007,0.813940555493363,0.815539338630736,0.815853668089508,0.816531912090181,0.714347020926219,0.0035308099999762,0.0839750574785338,0.00397172895580878,0.00389318086934622,0.00371857197975001,0.00386578853777584,0.00389269141791975,0.00394318868362411,0.00394425502814931,0.00377335669121894,0.00349801160364526,0.00362940460523168,0.00355089069604655,0.00360004318151415,0.00343696041241349,0.00354918351123235,0.00344300471567612,0.00354943476696278,0.00353386802595886,0.00350831259078224,0.00347449087589919,0.00360301231413979,0.00378180782541605,0.166825208804485,0.799919187386054,0.79972043226096,0.799432477098722,0.603395538668647,0.00355866999997621,0.0669876391100135,0.00367866999997627,0.0715707235279393,0.00397775999997641,0.0716767933928212,0.00356184999997621,0.0664324632678752,0.00349420999997618,0.715030837744962,0.794576024668988,0.786799818100899,0.792789018200798,0.787402403709073,0.792869560643416,0.782694973001636,0.783882524688514,0.784626542999606,0.785204981930037,0.783203583124047,0.776858439097486,0.777412641985006,0.777287960583704,0.777936003046589,0.778210228211188,0.778741998228293,0.779558607705006,0.780564747034004,0.783872697260977,0.785948357492021,0.788056716063625,0.788874623807201,0.790003262404848,0.789990293301911,0.790390848969612,0.789881296942218,0.789158019503004,0.781381035951051,0.00364882999997625,0.0778568410081698,0.00366456999997626,0.066179119787447,0.0035172199999762,0.0739857852326418,0.0037311199999763,0.772324982317032,0.777355706103672,0.777189067594251,0.778252841338882,0.778168418507786,0.778903283789676,0.779188756858061,0.779518849674504,0.602078616382926,0.790434999999997,0.109835142480303,0.00351596959364099,0.00328554365558339,0.00327205569414625,0.00297011859193186,0.0032703464300763,0.00260659833900274,0.003083152816836,0.822062599144484,0.817700425855519,0.816626166929492,0.816518243598878,0.813718268430295,0.811497735580581,0.812024029949783,0.814967701139358,0.816013314360918,0.81610935594404,0.813042059533408,0.811432563581208,0.810668471582166,0.810079927329547,0.808909625862017,0.798460657902215,0.799390736511402,0.799682764309172,0.799205042623196,0.799022961103875,0.798524943098426,0.799262407108153,0.796693028077684,0.79340194546417,0.794840620943661,0.794092148863489,0.796047262593038,0.825061878124608
0.761688361119219,0.762534781968206,0.763028168973828,0.763637599173043,0.765012946411244,0.76796660830684,0.770920791383744,0.773836338080033,0.77647177173291,0.778864203345511,0.781026525862768,0.782991192709431,0.785235295280797,0.786685725243103,0.787692351814013,0.788632058209091,0.789714040133455,0.791135647653327,0.791810580726954,0.792142076880704,0.792266901072324,0.792616603206675,0.793774761879153,0.79475981438231,0.796393906936938,0.797688162224081,0.798595565505139,0.799140893590847,0.799799299149139,0.800271176845419,0.800973133481107,0.801670020345147,0.802502382008355,0.803326251415622,0.80400125054874,0.804765340912504,0.805906899612489,0.807148017276065,0.807951889520418,0.80882484828786,0.809552723200343,0.810321033383691,0.67652468608167,0.676524213513009,0.676523524481167,0.676522928896364,0.676522607528233,0.714320696778004,0.714328238872248,0.156801034714056,0.126068340531315,0.0953298300908473,0.00391086389674261,0.00385658074102482,0.00388230031351452,0.00386560488631882,0.00384956144975863,0.0038201688210767,0.0037055047555792,0.00362356778719967,0.00361781596146123,0.00363800116291212,0.00358890077578627,0.00357293305264761,0.0035718636052674,0.00356248351268586,0.00357927932652942,0.00359055390751741,0.0791468341826079,0.109875138694103,0.140602029101716,0.171349110164106,0.202076460693917,0.778169706785113,0.77474808762536,0.60321305012629,0.603262693321789,0.401797849623408,0.401397567001105,0.400781315844775,0.400231952423965,0.399999222818648,0.400183685444861,0.400690593500533,0.401275322032236,0.401658826818733,0.715043372473984,0.779790145192651,0.779556247520935,0.780215180715809,0.780759339421151,0.781157400253377,0.781382746999095,0.782297957773692,0.782961777452606,0.782909377857847,0.78102879063422,0.778190832573715,0.778080046573428,0.778537646725378,0.77834782742352,0.778421796926155,0.778443757131187,0.778693030522381,0.778341107115367,0.776929691504815,0.775334353887619,0.773904158806611,0.772974411646928,0.772608760715107,0.772202377840446,0.772141156051966,0.771661705870653,0.771584596089719,0.771341741097653,0.505033744192048,0.505037677971393,0.50504259537006,0.505044815288339,0.505042693267926,0.505037854355045,0.505033964116658,0.770392382001884,0.769920103876199,0.770128113007755,0.7705716948842,0.770834474890767,0.771105033693959,0.771155855791956,0.174593040318006,0.144162627534625,0.114028139110278,0.0841901428531882,0.00341344267397302,0.0031372523698454,0.0028930912743561,0.00257901166029206,0.00247815586129886,0.0023318832672859,0.00273231435192814,0.816251374158196,0.811465770428553,0.80850303167731,0.807434503472203,0.807683143825359,0.809138463253027,0.809643613151991,0.80965567274725,0.808800571458746,0.808695585974794,0.809499829872805,0.808951898952558,0.808078069121506,0.806984922184357,0.80544608109963,0.801941895390236,0.800271864360343,0.799137448963112,0.798155652157188,0.797016002717836,0.796842192689298,0.79632585395097,0.795475810626057,0.794332718076437,0.795208378982501,0.795866828693815,0.79676834405089,0.798348905256217
0.76189485439256,0.76381151207615,0.763396056511139,0.763461152104259,0.772157101069347,0.780815506085246,0.781782238245333,0.782364232952295,0.78310477352981,0.783491860088893,0.784916710617014,0.786513411399268,0.786194578133744,0.786908880026934,0.787774607341659,0.788370021847896,0.789572910705641,0.789490555116981,0.791239172703364,0.790934035310691,0.792424544565036,0.792035355447652,0.79429823704081,0.795165700039824,0.797521006906841,0.7999283230391,0.800271510326543,0.801748790568553,0.801509283827401,0.802528291571506,0.802629455911776,0.804396896773737,0.804378886531639,0.806231661591274,0.805710167257823,0.806888018212343,0.806794792154277,0.80758357684779,0.808146993760819,0.808913491249727,0.809639931103437,0.810462752514249,0.128995166890508,0.00343914615232626,0.00360179678818572,0.0036716572700136,0.129294621316811,0.801946999999997,0.714320641422872,0.803621999999997,0.156801031804755,0.803802999999997,0.00385603188874521,0.00376361960179349,0.00385522882308409,0.00363813038444515,0.00379000928074793,0.00363191405077211,0.00366463250166889,0.00341550254208338,0.003628378166739,0.00358489382857449,0.00360506968667903,0.00352055372710189,0.00359384508107397,1.06097,0.100392234107917,0.00361725600065198,0.136693933602337,0.780605595793473,0.77409709708064,0.781776629570683,0.774941003671585,0.781915028538096,0.77180688202758,0.00328580999997608,0.60321305012629,0.772450632361424,0.772265363972998,0.772742751432005,0.773143764888828,0.773520765403593,0.774395717338859,0.775053944522745,0.775475498454056,0.780876661044272,0.78080266909349,0.779856792451614,0.778390637008215,0.775076652580959,0.775908301786868,0.775510743031143,0.77922020312843,0.781077314607086,0.782088498245139,0.782665309101009,0.779557495533104,0.776799342365467,0.778171657870217,0.780454651688629,0.778674784344855,0.778643917053141,0.777982921979669,0.778427003910866,0.777360667185719,0.771349528817252,0.772519518764045,0.772666335376604,0.772963823665177,0.773189400562999,0.772559650022925,0.773231457037286,0.771892915175053,0.772235328595803,0.77160943851428,0.772732223044613,0.765709010033293,0.764251740463574,0.764813839279524,0.764724885452189,0.76591630021392,0.766507186088133,0.768682026444225,0.768885875004127,0.769874237474686,0.769939628241647,0.770858726178576,0.771199931419243,0.771441885761274,0.0037244999999763,0.0935140185318572,0.0034675400023353,0.0597260914943953,0.00367399818942435,0.125549910163404,0.940166999999997,0.841741753327778,0.915519999999997,0.127316811320489,0.00325395611229554,0.809902998889764,0.80764133402952,0.806516241514501,0.806660813157966,0.806904275994257,0.807874498508153,0.807203303352893,0.805443278675683,0.806569552176933,0.807249240707366,0.807084512429826,0.806943055857714,0.805686114845462,0.804368140453551,0.803918820458897,0.803644821344197,0.800649241252023,0.798554437219388,0.797288404264077,0.794400365239628,0.795414650402392,0.794180357751076,0.794355808973826,0.793461102880042,0.795932826405608,0.797583716042131,0.797063814264066,0.796998662477891
0.765663595314884,0.76870211797786,0.772123865166276,0.775591026377619,0.779131733697425,0.780825028706495,0.781978377072675,0.782722729489446,0.783322430385365,0.783832380633208,0.784712508727829,0.785538813327572,0.786106285795522,0.786817912202318,0.78775552722109,0.788893153686553,0.790320405148777,0.791337951560999,0.792424075977231,0.793392242403833,0.794187545534908,0.795044598810648,0.796024710737927,0.797189576651342,0.798581185678725,0.800079686160652,0.800896679434808,0.801755737980976,0.80202349294613,0.802414726634771,0.277422671014105,0.249085593344674,0.223072841830887,0.199250861859415,0.177438342390097,0.157446388665638,0.13908759405666,0.122795775919138,0.108095236093863,0.0929155650654916,0.0772496967691789,0.0611390248999317,0.045040094095159,0.00359057091646652,0.00364328757924637,0.00368810900579208,0.00371143620829154,0.00365299303202538,0.00343267820966409,0.00341820995886969,0.00339826939063583,0.00355534332822859,0.00375436130310862,0.00383216034384936,0.00390392715270053,0.00389202039737997,0.00384594620094547,0.00383801510978049,0.00372047129390178,0.00367491496683895,0.00362181378023321,0.00352422932856337,0.00354331484645633,0.00358346349932854,0.00357008496526452,0.100392089621478,0.131156736197951,0.16197715056888,0.192767176885803,0.765781030213873,0.766318789596115,0.767092347027756,0.767605653973297,0.768349927456408,0.769291904998115,0.768969187445517,0.769126581382314,0.77036178695517,0.771390831451769,0.772434881752234,0.773049072310883,0.773580999009602,0.774441246577817,0.775117314355959,0.77552315420737,0.781428151278822,0.781121065687858,0.780164878629158,0.778795207009841,0.777081915146029,0.776841766432582,0.777046919203117,0.778348386276331,0.778678972324256,0.778129685113839,0.777811155131809,0.777823157720974,0.777066639088579,0.777393031783073,0.777943007194995,0.777203653693656,0.77652519645236,0.776318291754534,0.776078160911687,0.77551116328476,0.773839035606263,0.773535743623622,0.77333353435204,0.773147459699257,0.772930759464734,0.772226150107315,0.771941277635262,0.770884774625925,0.770551579560126,0.770348321418042,0.769826222318468,0.767230732011076,0.765840115569644,0.765525274322715,0.765559788324997,0.766539596219205,0.767673783563866,0.768766094376973,0.76950814236319,0.770057555688878,0.770517872943653,0.771012374390523,0.771546056128094,0.772037305797496,0.582404414961952,0.582402141186613,0.582399869157138,0.58239987392578,0.582402154214793,0.582404432758785,0.790447583104623,0.791386253799738,0.792753609765022,0.795021365586088,0.798173269870584,0.802750819808025,0.801753522810193,0.803673158913858,0.805093215308599,0.805816521202555,0.806542690767359,0.806077210393625,0.805365110237199,0.80545722289232,0.805401379431572,0.804992433233748,0.804636021797078,0.803649384858632,0.802755883042952,0.802297982550489,0.801432727033064,0.800184239670843,0.798669607802091,0.79827907459678,0.797035165374703,0.796736468382894,0.796964067036075,0.797767463659708,0.799331019745889,0.801457550429542,0.803993884457544,0.806953780710825,0.81023476160791
0.778779302177498,0.779228959342485,0.780489301378472,0.781376484936339,0.781014479879379,0.78127119692663,0.78254591275576,0.782904323770122,0.783655636890029,0.783506992319759,0.784696975214552,0.784377673475044,0.786045472955584,0.786012412270428,0.787598029679762,1.41793,0.791468907447591,0.792875079916383,0.7937427566104,0.795804144180847,0.795942160905168,0.797759216184881,0.797586251477945,0.798926683938918,0.799490494859305,0.800953135942699,0.801416003773326,0.80240869282363,0.802377104527923,0.802706878880597,0.122584740636359,0.0036917123778956,0.00369302942900562,0.00369399155965688,0.00372753048027512,0.00372464733150325,0.0038018153238147,0.00366136955393539,0.00379500314056938,0.00381358991712246,0.00383393308219453,0.00363312727448562,0.00370496041467613,0.00360981007389013,0.00366631521869606,0.00352508845077573,0.00374696643787101,0.00369163739721368,0.00354281107388746,0.00348629319154573,0.00351372529071031,0.00358268647045046,0.003742533409231,0.00374180491247257,0.00391317670178969,0.775197143208612,0.772713709136994,0.775171387835132,0.769918350364489,0.772896841045776,0.11979937147034,0.00318142580158063,0.00345446564166541,0.00358614879995554,0.00348495869804683,0.00324878243943894,0.165179930174524,0.764297899936284,0.764606292134781,0.765077235519199,0.766018919599741,0.766592157181662,0.767323859338292,0.767729166773865,0.768202990444535,0.768468593282941,0.768112719416817,0.768284340644004,0.770657561686919,0.772423374093239,0.772904864699732,0.773147902899687,0.763979972304094,0.00365133999997625,0.76533239293884,0.880335999999997,0.763078250694779,0.755705269915453,0.756252299529507,0.757332721770418,0.758006756415108,0.759043818374467,0.758570341564317,0.757893876849976,0.776980551737848,0.776804989803156,0.776573225759218,0.776214520432635,0.776496932428004,0.776675628590998,0.775757565404989,0.773895745834257,0.774746697708565,0.774045767688397,0.774959335638152,0.7750017706898,0.774454207279796,0.774018506532297,0.773659079208415,0.773428763032027,0.772211126205508,0.767668544776169,0.769584662238293,0.768828089730903,0.769633797842122,0.7690528827712,0.767598515199399,0.766453897855315,0.765849823373048,0.765581869224095,0.76698102359116,0.768887187173932,0.769299259124003,0.770077326566799,0.770519136729673,0.770659613106017,0.771408952512534,0.771765632748342,0.773318864603599,0.775758972132065,0.776649087639291,0.778273125907183,0.778832709238547,0.78022512778344,0.782418634610325,0.78962462861757,0.791170932188101,0.792270002374205,0.794364961429003,0.795917320342318,0.799153692331469,0.799506255179706,0.801870722678076,0.80481718068008,0.804834975902092,0.806895617442125,0.805057743098348,0.804767391177493,0.804153483443766,0.804242157622336,0.802711256700088,0.800590549521479,0.801454020040057,0.800999190861396,0.801029735244625,0.799719059006067,0.800044948510613,0.79784218354693,0.800235125113411,0.798844329103581,0.797745051653453,0.79780844729098,0.805836158637378,0.813577488059861,0.814457684266602,0.814573730958657,0.815999344497066,0.823411036808197
0.779343836289085,0.779908247948639,0.78074462356328,0.7814310593014,0.782160484009094,0.783100986063355,0.783655640246154,0.784238019141267,0.784522304978068,0.785103292748049,0.785610452367146,0.786434128580744,0.78703585337607,0.7878015827377,0.788722894049666,0.790068078370032,0.791073596441996,0.791801899338785,0.281207896377348,0.252981729910594,0.227200423957524,0.203755631024304,0.182492844896549,0.163220063938073,0.147777602070547,0.133988189914422,0.119788856395604,0.105174056175191,0.0900361459589807,0.0742057835644945,0.0574509608288207,0.00367816460235707,0.00368079706137754,0.00368025340952867,0.00371089635244461,0.00374219777925086,0.00385270201254549,0.00384804906211148,0.00383037396881652,0.00388058796948829,0.00386595096289822,0.00379729439831504,0.00374129644070129,0.00370943809345949,0.00370101706642162,0.0037380022633529,0.00374123694889678,0.00372504857164137,0.00359593912054808,0.00358845734259643,0.0035934516355462,0.00368849664404855,0.00378530895749683,0.00380239857831506,0.00387147624828236,0.112504741529495,0.764740100671211,0.761434940550372,0.761545024221534,0.417469146974377,0.417184230733908,0.416400865179061,0.41558949840349,0.414907288234107,0.414433779303885,0.414165773715024,0.414053527734755,0.763909077502852,0.764442351120229,0.765028550401482,0.76576269101174,0.766389215922547,0.766888946629327,0.767229596312157,0.767128778602453,0.766990196523707,0.766364511217029,0.765617514656457,0.762159459316585,0.759832822682795,0.757348653649197,0.754927286681751,0.752631163554139,0.751792849059099,0.75218784024404,0.752843688485589,0.753778976693249,0.754906967212399,0.755838539657303,0.756599663420375,0.757913235026717,0.75860749278641,0.758863191209261,0.758851531161443,0.775452260323557,0.775148055304956,0.775320531596127,0.775306516600067,0.775633007109237,0.775676621551116,0.775275579348395,0.774589449105582,0.774739471252412,0.774754384152519,0.775267200114432,0.775634907613177,0.775255124436189,0.774913674681369,0.77399554866832,0.773027620622494,0.772204763076683,0.770815758422968,0.770989094936155,0.770744859834694,0.770203425580941,0.769141743290308,0.767852111282342,0.76608040714377,0.765973870454858,0.766075319854718,0.767042323422026,0.768169482893907,0.769381800990893,0.770651083704818,0.771005663725853,0.77155399018407,0.771961195891727,0.772814201113531,0.773657024727668,0.775120070574261,0.775997944689257,0.77728600062322,0.778119276905875,0.778805355983313,0.784599637404528,0.790714022581846,0.79163299324942,0.792875411522439,0.794554560210754,0.796123255781743,0.797767482089614,0.798523219457391,0.799851712073534,0.800591566851615,0.80201371870683,0.801948739892757,0.802812339298357,0.802640714706144,0.802508114482039,0.802057609117697,0.801661668351519,0.800865926170286,0.801164693882638,0.801094331484062,0.801407269908477,0.801611530022252,0.802743661330725,0.804122860321416,0.806064212774893,0.80823424559604,0.810725792296606,0.81265202427919,0.813972365693292,0.814527635441114,0.815077633990435,0.815584034660141,0.81716761802021,0.819744619635548
0.779917474138913,0.780155273395447,0.781036053981245,0.7812042838216,0.783046570657576,0.784963599688461,0.784782677236344,0.785593630695192,0.785245314778395,0.786402848120841,0.786229958949922,0.788244461915854,0.788075879479174,0.789060376579866,0.789400696236243,0.790295457928914,0.790933802638952,0.79138071817928,0.163014432675422,0.00351318275355638,0.00370741457758932,0.00374127678779452,0.0036788893440633,0.003538985711372,0.00354692627739428,0.0034680960256265,0.00352924993039458,0.00352231160018354,0.0518911102698543,0.0036709999928489,0.0428267740130854,0.0036464835774833,0.00365241098962155,0.00361614423982557,0.00364018023175343,0.0035677410847019,0.125179609638652,0.770006999999997,0.587384233767294,0.770173999999997,0.00384324345184767,0.00374615849311762,0.00373813317512556,0.00360995637802961,0.00373841757116654,0.00374047284140347,0.00375492137754836,0.00358209356263283,0.00365550137370521,0.00358835881626618,0.10810730651837,0.766528999999997,0.12671872795135,0.00366153295648601,0.00372275252815449,0.00353921870759841,0.759264747216908,0.755107048874138,0.757970930801819,0.00373476999997629,0.417469146974377,0.75356256096919,0.754918268875444,0.755684802716121,0.756863833555358,0.760841107062155,0.762128537205996,0.762995172102007,0.764264815561629,0.764839837969585,0.765707366278553,0.766200726205026,0.766663051930914,0.76696228708628,0.766287077027711,0.765820060763172,0.764974290189185,0.765349482371976,0.760958034331918,0.749749021482961,0.750529106761823,0.749810293416125,0.751385585838236,0.750919527933052,0.752283731920838,0.75291081072315,0.753854086541909,0.754553511044077,0.755563682451985,0.755631793957981,0.758376809852737,0.758770799306619,0.759151522342674,0.759692728458429,0.773881547545659,0.772779292504277,0.774193085752963,0.773918364238858,0.775031285495005,0.775120073594584,0.775060243278355,0.774569755049126,0.77485642801611,0.775048158745044,0.775728723682082,0.77702803469616,0.776159876630064,0.776367295659622,0.774590042638528,0.772394754459781,0.773057851799045,0.772281595164632,0.772871527631574,0.772629464836065,0.771387001625228,0.76960410265924,0.768808903460507,0.764311184418066,0.765715615100032,0.765831815677505,0.766938721362767,0.767410349788573,0.769493937203076,0.77195377169685,0.771463750799013,0.772306053099386,0.772257841248474,0.773709712110511,0.773544161481371,0.775105762297611,0.775101190391715,0.776852905965051,0.777658455115791,0.778089834854585,0.786526315602791,0.791230183811946,0.792152443749768,0.793325118905202,0.795162651708929,0.796464244555489,0.797193011408826,0.79714288875826,0.79840393330836,0.798396335058776,0.800108089832682,0.800453478909418,0.801016733892134,0.800946380217823,0.800779435804255,0.800374405488387,0.800512830283436,0.800679717321824,0.800846392270513,0.80124290412583,0.801978177894651,0.8029132140597,0.805403864941569,0.808377964874222,0.811330836646983,0.817951746693684,0.818610070791205,0.815174464902779,0.815290027796283,0.81541380413489,0.815665625681266,0.815275440500611,0.817018609290942,0.817426250369582
0.780553525934233,0.781273481140409,0.781863644668788,0.782639280432682,0.783556014384666,0.784507580608448,0.784688445791828,0.78488184050265,0.784124771048134,0.784546723889549,0.784515952193112,0.782711701515394,0.781203189560234,0.779854356470944,0.779610254011227,0.779836382848407,0.191316808108209,0.160532601778411,0.129720807938989,0.0989594518367478,0.00380153938493811,0.00374513487167556,0.00371351220208735,0.00365664347353457,0.00361384070411261,0.00356773152900803,0.00358742638824044,0.00360805477676051,0.0710697381043857,0.0906837692936834,0.110985562557106,0.132226501536663,0.154635623157059,0.178422543146168,0.203769201684779,0.230822796660025,0.25968670138579,0.587384233767294,0.587433877134801,0.117859122552938,0.00372682273639095,0.00367023561347434,0.0036695947735628,0.00368226590973401,0.00371170056330656,0.00374255656152918,0.00372776744798693,0.00370854569567023,0.00367448578188857,0.00363451467096493,0.138837035986014,0.680023286183477,0.680023209674093,0.680023162387991,0.680023209671807,0.680023286179779,0.755942413203717,0.754861577482358,0.755303129897454,0.754095322850856,0.753965971873589,0.754148976113066,0.755505549339411,0.756559684246616,0.757920867249701,0.760422471889855,0.7625893534714,0.763746379670657,0.764809407760655,0.765511940373953,0.766043666215526,0.766375711485825,0.76650797663082,0.766394920826853,0.765095275763722,0.763617125515675,0.762255943914189,0.759577823828056,0.756651267789667,0.751527951250551,0.751769790286162,0.751589589268136,0.752421782145668,0.752823434112566,0.753434914674447,0.753855872004126,0.75447744431687,0.754854383420057,0.756660224234183,0.75847921078679,0.76038020948672,0.764414595404693,0.768677116694417,0.771137265998539,0.773071309086736,0.773876012008655,0.774541065820667,0.774977741844734,0.775386928734502,0.775541281784915,0.77538815542685,0.774995498473975,0.775230878059385,0.775324717654784,0.775685276279319,0.775982836924656,0.776019638163232,0.775975867721661,0.775492055849828,0.774928193138987,0.77504516119939,0.774743151140611,0.77506021227417,0.77373016557548,0.772789218425157,0.770822512928646,0.768949306999777,0.767787723721233,0.766936427533536,0.767064724205756,0.76752494636102,0.768198623940732,0.769161216805357,0.770064977655308,0.770325456495141,0.770520908763236,0.770817036908905,0.771201244580481,0.771645520279201,0.772184962903048,0.772613325404652,0.778275944224002,0.780252945909685,0.782992077330422,0.787882889685417,0.790310044741727,0.792448544985483,0.795322909823907,0.79660023355376,0.797300761064143,0.797616325698348,0.79749008459523,0.798374329207255,0.798645780704849,0.799612996686369,0.799609504889219,0.800241652268574,0.799821849477731,0.800010775936737,0.799283351842624,0.799997150686243,0.800050510743732,0.80084083135346,0.801455875608871,0.802759575901096,0.804540331360755,0.806892779021822,0.81159872132967,0.81659390796671,0.821039636447999,0.820923933899257,0.817644339056715,0.816149625216734,0.816126128141757,0.816523741510032,0.817449573101464,0.817850112887257,0.818927597354611
0.781126682743967,0.782394275580272,0.782434943604738,0.783771495559241,0.784024024306362,0.78466859274542,0.78472995736499,0.784795697746735,0.781464384247831,0.777690834106258,0.777711117334244,0.777517680836698,0.778271945532824,0.779023660874618,0.779564303514423,0.780313547171387,0.130884588031396,0.00327345367988776,0.0989599640702493,0.777567999999997,0.00382616261237189,0.00364837478641259,0.00369951016038523,0.00372843697510073,0.00364965254416708,0.00358636285690724,0.00362980748030008,0.00370575687839895,0.12119323533303,0.763492999999997,0.561731977886764,0.764612999999997,0.545175824491932,0.765993999999997,0.546169178247601,0.767388002520811,0.761841652702083,0.768968999891305,0.587566722941816,0.00364065225606408,0.00358432211074805,0.0034030075156754,0.00358212041219712,0.00359247005896446,0.00368205653935116,0.00366048207358751,0.00372188943455024,0.00372334947467412,0.00367238549035829,0.00359008678798884,0.169566765453632,0.741960092840008,0.742378458083316,0.742775591660545,0.744452600831821,0.749530538087311,0.752289657225667,0.75206109960231,0.753264466179716,0.752568289695075,0.753411939907358,0.753565684275491,0.756300343471049,0.757266950356916,0.75763993638252,0.00327401999997608,0.764178754067909,0.764666927337716,0.765657809743064,0.766393403915411,0.76657242074796,0.76676817204319,0.766610065570868,0.766977449595304,0.764112038909011,0.761206549518474,0.760881470275241,0.750804502000881,0.753902733300759,0.752322478512685,0.7529696653706,0.7525219938536,0.753831706827317,0.754848438567761,0.754915463707663,0.754845074824937,0.75521901912499,0.754074879205442,0.757876382244917,0.768922872045733,0.770067912472785,0.771233605981984,0.770799391417908,0.771985144344383,0.773340946987626,0.774789843973245,0.775102060924685,0.7759198374174,0.775962401852159,0.776323569530616,0.775878008005812,0.774927476668095,0.775672311487696,0.775459836343022,0.775742034581089,0.775184344547037,0.776066736853207,0.775951099181592,0.776566550981756,0.776533218591676,0.777507339632626,0.779191256617352,0.778680512512082,0.780520268867362,0.779388384461283,0.780110535044589,0.780013322025873,0.779960693522016,0.767341925050716,0.768005847122215,0.768035968368239,0.768603427387227,0.7690270137946,0.768568508344656,0.769316808297138,0.768418952710482,0.76938636377731,0.768545816235547,0.769778860257149,0.769502651824872,0.770963611278752,0.804250012622836,0.803319994945997,0.806188903314152,0.805106952515035,0.806666216012445,0.800193136335315,0.799329052468416,0.798725663172871,0.798779800456932,0.79839524274065,0.797222186493771,0.798611475714257,0.79857988369962,0.799575398392763,0.798448940283389,0.799926715974757,0.798559922908281,0.799587604488103,0.797323690830253,0.799681531329612,0.799354199610463,0.800717309799672,0.80150501522791,0.802913891620893,0.805353718101306,0.805269340495914,0.00336076999997612,0.076620932744003,0.00368305999997627,0.139018380199101,0.827658659038531,0.82167484563259,0.829558193749103,0.828406991190592,0.830769434449579,0.828751442154375,0.831273383789776
