0.594571,0.59563,0.597626,0.597354,0.608965,0.610524,0.609326,0.608117,0.607194,0.603703,0.601016,0.600891,0.600721,0.590648,0.605671,0.605147,0.600078,0.600565,0.606012,0.608347,0.61136,0.611467,0.623185,0.623739,0.624361,0.617484,0.625496,0.62712,0.628949,0.628596,0.630174,0.630491,0.00315409,0.665802,0.665462,0.668266,0.668308,0.66856,0.672647,0.673294,0.674832,0.674553,0.67926,0.680566,0.680937,0.681844,0.681286,0.685139,0.688489,0.690128,0.693957,0.693528,0.693559,0.690745,0.690058,0.686073,0.686492,0.693442,0.683654,0.684389,0.696283,0.697789,0.69826,0.701017,0.708033,0.708942,0.713041,0.721106,0.718611,0.72575,0.726524,0.726425,0.733276,0.735327,0.735698,0.737617,0.742237,0.741883,0.751773,0.753086,0.761513,0.76776,0.770026,0.774205,0.775317,0.777778,0.786629,0.787999,0.790207,0.793106,0.794484,0.795571,0.800729,0.799116,0.802458,0.804204,0.776342,0.806797,0.810727,0.809798,0.80893,0.815359,0.815548,0.817937,0.825636,0.830191,0.83392,0.836717,0.838632,0.842428,0.850094,0.857858,0.859744,0.860741,0.860357,0.861743,0.863408,0.866962,0.867321,0.876078,0.877143,0.883327,0.887123,0.888636,0.890118,1.19153,0.00331526,0.00368613,0.00350876,0.923036,0.930046,0.937467,0.93973,0.942327,0.943779,0.947654,0.954416,0.954574,0.957804,0.958098,0.954464,0.954746,0.938153,0.941005,0.939128,0.941699,0.94147,0.938751,0.937537,0.938873,0.939282,0.947704,0.944439,0.950254,0.952157,0.95673,0.957491,0.956986,0.958599,0.959477,0.967883,0.97073,0.97228,0.97301,0.959118,0.959596,0.95993,0.960171,0.970421,0.972067,0.973539,0.976882,1.00083,1.00168,1.00292,1.01106,1.0122,1.01284,1.005,1.0089,1.01717,1.01849,1.02497,1.0256,1.03175,0.00381025,0.00334308,1.06348,1.06303,1.06513,0.00323508,0.00363078,0.00313425,1.07926,1.08364,1.0786,1.08222,1.07254,1.07258,1.07431,1.08245,1.08413,0.00339365,0.003716,0.00355414,1.08369,0.00330258,0.0036575,0.00341149,0.00366909,0.00324037,0.00345836,0.0032533,0.00366387,0.00339971,1.14513,1.14988,1.15822,1.1638,1.16447,1.16412,0.00360452,1.18916,1.19102,1.20601,1.21285,1.21215,1.2129,1.2227,1.22335,1.22316,1.22731,1.23269,1.23417,1.23564,1.23916,1.24406,1.24326,1.24233,1.24081,1.25105,1.25202,1.25302,1.25235,1.24459,1.26521,1.26525,1.27095,1.27102,1.27343,1.283,1.286,1.28667,1.29559,1.30588,1.30734,1.30918,1.31056,1.30746,1.30571,1.30913,1.30719,1.33079,1.33316,1.33441,1.33622,1.33718,1.33991,1.33843,1.34577,1.34791,1.34965,1.35331,1.35548,1.35685,1.356,1.35996,1.36692,1.36778,1.37296,1.37906,1.40796,1.41124,1.41352,1.41351,1.41173,1.41297,1.40572,1.40237,1.40387,1.40523,1.41637,1.41386,1.41503,0.00352643,0.00341227,0.00333414,1.44498,1.44868,1.45395
0.571557,0.572444,0.57262,0.573039,0.578875,0.60477,0.00357646,0.00316337,0.572679,0.00345158,0.589298,0.587056,0.588966,0.591244,0.593495,0.594766,0.599787,0.601464,0.602552,0.607642,0.608882,0.625279,0.625915,0.626397,0.626253,0.625558,0.626697,0.629097,0.62948,0.634899,0.638837,0.655716,0.657024,0.65797,0.666385,0.663845,0.669457,0.668931,0.667751,0.666938,0.673407,0.675897,0.679498,0.680631,0.681575,0.681516,0.684349,0.684296,0.687134,0.691418,0.691859,0.693628,0.694368,0.693582,0.689357,0.687894,0.686488,0.690813,0.691183,0.691991,0.696038,0.699673,0.701312,0.702407,0.705567,0.71108,0.707855,0.723653,0.735612,0.947771,0.94791,0.00332042,0.77052,0.771657,0.772854,0.770263,0.76997,0.768009,0.759156,0.770421,0.767021,0.767938,0.770512,0.771658,0.779812,0.780027,0.786539,0.787228,0.790684,0.799067,0.800671,0.802479,0.802044,0.790394,0.791429,0.792694,0.801218,0.800075,0.804405,0.807145,0.810495,0.809558,0.810837,0.815862,0.825963,0.83208,0.835205,0.839338,0.8408,0.842539,0.844199,0.00363277,0.850409,0.850698,0.852046,0.853134,0.864186,0.866244,0.870348,0.869453,0.871888,0.873394,0.882826,0.888195,0.889384,0.890457,0.902012,0.90565,0.912154,0.923486,0.924903,0.0031923,0.94383,0.945639,0.948821,0.949537,0.949729,0.952753,0.950306,0.948032,0.948909,0.948912,0.92715,0.9304,0.930306,0.93094,0.935484,0.935379,0.936305,0.937752,0.938979,0.945194,0.946327,0.948234,0.948357,0.949489,0.951274,0.957858,0.959505,0.960131,0.970607,0.973698,0.966258,0.962976,0.964606,0.965809,0.966549,0.973233,0.971979,0.978686,0.982179,0.00349697,0.00341839,0.00327148,0.990277,0.990963,0.995069,1.00123,1.00203,1.00942,1.02344,1.03264,1.03436,1.03644,1.04059,0.00345905,1.05629,1.0528,1.05486,0.00357612,1.05913,0.00340232,1.07019,1.07449,1.07954,1.05414,1.0568,1.05844,1.06379,1.06512,0.00357379,0.00332663,1.04595,0.00351713,0.00360035,0.00336824,0.00321112,1.06389,1.06828,1.06726,1.06637,0.00347241,1.09631,0.00358581,0.00358469,0.00332644,1.14506,1.14696,1.1468,1.15174,1.16484,1.17197,1.18485,1.18621,1.19105,0.00349444,1.20211,1.20712,1.21358,1.21648,1.21755,1.22749,1.22752,1.23263,1.24299,1.24287,1.24089,1.23856,1.2381,1.2428,1.24525,1.24635,1.24717,1.24976,1.25,1.26064,1.26411,1.26961,1.26894,1.27031,1.27065,1.27252,1.28445,1.28406,1.28404,1.29555,1.30258,1.30282,1.30385,1.3059,1.31995,1.31837,1.3193,1.32729,1.32761,1.33157,1.33418,1.32744,1.33208,1.33089,1.33172,1.33528,1.34015,1.34165,1.34528,1.35296,1.35325,1.35453,1.35454,1.35718,1.36013,1.39425,1.39583,1.39752,1.40203,1.39572,1.39488,1.39409,1.38638,1.38801,1.39105,1.39162,1.39196,1.40308,1.4092,1.40812,1.4075,1.42122,1.42493,1.42646
0.572281,0.573287,0.572885,0.552765,0.552484,0.553271,0.553516,0.562154,0.57053,0.567609,0.57522,0.575939,0.586706,0.587339,0.589546,0.596506,0.600009,0.600296,0.599773,0.597823,0.598714,0.621386,0.621726,0.619982,0.609459,0.615777,0.616261,0.614753,0.628408,0.634284,0.636583,0.660451,0.662586,0.662457,0.660637,0.660099,0.663692,0.665248,0.665802,0.665823,0.677044,0.680801,0.684691,0.683011,0.693175,0.69347,0.00322193,0.687699,0.00338802,0.00360557,0.00360218,0.738577,0.746556,0.731373,0.745707,0.746899,0.00359106,0.725092,0.726081,0.711209,0.712438,0.713142,0.71325,0.712535,0.715257,0.718692,0.724595,0.729108,0.730244,0.748845,0.753022,0.769919,0.770904,0.77679,0.780118,0.775056,0.779716,0.781738,0.781092,0.782564,0.783582,0.787035,0.785329,0.783655,0.786935,0.790502,0.794916,0.796899,0.794247,0.796366,0.777942,0.783128,0.78582,0.785911,0.787301,0.789615,0.789857,0.794501,0.795852,0.80002,0.800069,0.80131,0.806623,0.806703,0.00342148,0.00364429,0.829194,0.829975,0.832987,0.827315,0.832791,0.834578,0.841595,0.843821,0.852075,0.855711,0.856982,0.866313,0.871836,0.873268,0.874345,0.875697,0.888567,0.891387,0.893067,0.890455,0.890971,0.898443,0.00346285,0.00344571,0.918318,0.00354709,0.936295,0.940564,0.943984,0.960893,0.963978,0.965402,0.966495,0.952567,0.952368,0.946938,0.935843,0.931171,0.93127,0.930743,0.93372,0.935745,0.940003,0.943782,0.946959,0.947989,0.952873,0.953816,0.953465,0.952804,0.955019,0.956923,0.959752,0.961759,0.958704,0.962243,0.962953,0.95609,0.957314,0.969512,0.970506,0.973167,0.973045,0.974743,0.976504,0.97999,0.984552,0.987204,0.991684,0.995948,1.00091,1.00106,1.01183,1.0216,1.03192,1.03298,1.03549,1.03599,1.03779,1.04007,1.04193,1.04321,1.04553,1.04318,0.00349158,1.03694,1.03626,0.00351137,0.00362377,0.00373267,1.04246,0.00357755,0.0034284,1.03598,1.03637,1.03602,1.03652,1.03312,1.04015,1.0427,1.04443,1.05783,1.06258,1.06414,1.06474,0.00343905,0.00326697,1.1142,1.12924,1.12972,0.0036411,1.14378,1.14648,1.15852,1.1647,1.16684,1.16921,1.17913,1.17933,1.18771,1.18796,1.19325,1.19947,1.2,1.20245,1.20508,1.21573,1.21504,1.22319,1.22637,1.23362,1.23342,1.23559,1.23547,1.23557,1.24005,1.24062,1.24408,1.255,1.26272,1.26525,1.26959,1.26885,1.27184,1.27428,1.27404,1.27773,1.27887,1.28133,1.28721,1.2891,1.29519,1.29757,1.30523,1.31199,1.31116,1.31615,1.31511,1.31445,1.31475,1.31382,1.31665,1.31308,1.31331,1.31906,1.32689,1.33307,1.33282,1.34022,1.34105,1.34389,1.34177,1.35342,1.35228,1.35416,1.3777,1.3782,1.38246,1.37419,1.38438,1.3818,1.38203,1.37421,1.3795,1.37949,1.3809,1.37446,1.37779,1.3849,1.3992,1.39883,1.4102,0.00339506,1.42642
0.546961,0.546048,0.534945,0.531149,0.532093,0.540437,0.541384,0.00344443,0.555972,0.557338,0.558619,0.573753,0.581532,0.58254,0.588416,0.00337192,0.5956,0.00346618,0.597462,0.597926,0.602295,0.607635,0.607204,0.607101,0.609392,0.610715,0.612248,0.00358046,0.00345242,0.654906,0.656159,0.658344,0.660811,0.662306,0.660551,0.660089,0.655878,0.662249,0.65797,0.658888,0.658648,0.68273,0.684564,0.00342752,0.699577,0.00323828,0.739942,0.745168,0.746987,0.747901,0.748149,0.746772,0.748294,0.750323,0.749467,0.740467,0.745054,0.724454,0.724786,0.71626,0.717527,0.711996,0.71184,0.712116,0.714199,0.721213,0.724093,0.00353446,0.00354365,0.762362,0.763234,0.763881,0.770009,0.778212,0.780415,0.780458,0.780683,0.780296,0.773967,0.774247,0.776615,0.776867,0.778627,0.779733,0.780445,0.782683,0.781091,0.783022,0.783229,0.770193,0.776982,0.779756,0.775362,0.783063,0.784233,0.785032,0.789446,0.788966,0.797189,0.798086,0.800121,0.787728,0.789207,0.807577,0.808127,0.811397,0.810895,0.816155,0.821815,0.827388,0.827462,0.843331,0.843793,0.850961,0.852739,0.860444,0.861966,0.866758,0.00348605,0.878281,0.888665,0.898486,0.900655,0.902307,0.901831,0.885156,0.888606,0.889293,0.8939,0.893839,0.00355433,0.0033487,0.00354731,0.950219,0.953082,0.959061,0.959174,0.960247,0.96532,0.970893,0.975462,0.976784,0.982698,0.931641,0.939324,0.926705,0.934293,0.936772,0.946073,0.00346126,0.961694,0.964619,0.964281,0.965312,0.962926,0.957042,0.955803,0.956462,0.955424,0.954763,0.957727,0.953756,0.954647,0.956306,0.961125,0.967774,0.972576,0.975502,0.976437,0.975351,0.976777,0.00310304,0.00372133,0.988542,0.990856,0.99144,0.997717,0.997743,0.00364845,1.01636,1.02126,1.02591,1.02646,1.029,1.03201,1.03202,1.033,0.00332983,0.0034657,0.00334029,0.00365128,0.00330536,1.018,1.01735,1.01897,1.01916,1.01961,1.02046,1.02162,1.0217,1.02493,1.01917,1.02672,1.03082,1.03493,1.03408,1.04266,1.04956,0.00348713,0.00343438,0.00353964,0.00336997,0.00372483,0.00352002,1.11183,1.12396,1.13219,1.13528,1.14325,0.00339705,0.00357048,1.17391,1.17968,1.17977,1.18047,1.18397,1.18339,1.18709,1.18945,1.19341,1.19835,1.20047,1.20262,1.20613,1.20849,1.21035,1.21597,1.22193,1.22614,1.22415,1.22643,1.23205,1.23528,1.24114,1.25093,1.25779,1.25827,1.26481,1.27128,1.27332,1.27121,1.26892,1.27168,1.27004,1.27701,1.27588,1.28549,1.28765,1.28561,1.29847,1.3012,1.30527,1.30725,1.31256,1.30489,1.30684,1.29626,1.29944,1.30489,1.30291,1.30366,1.3108,1.32638,1.32422,1.33189,1.3301,1.33079,1.33587,1.34008,1.33967,1.35029,1.35056,1.35474,1.36023,1.35785,1.35098,1.36077,1.35852,1.36779,1.37899,1.38556,1.38456,1.37862,1.37369,1.37178,1.38465,1.38553,1.39348,1.39224,1.40244
0.00340223,0.534934,0.534168,0.532019,0.532988,0.531611,0.531547,0.533353,0.535356,0.536208,0.5471,0.547467,0.00343349,0.56978,0.570992,0.571081,0.580276,0.580147,0.577689,0.579845,0.58462,0.586292,0.603332,0.607474,0.61831,0.628074,0.629441,0.628865,0.630458,0.645079,0.639798,0.63961,0.659326,0.659262,0.637925,0.638717,0.653909,0.654734,0.657598,0.658279,0.651605,0.649281,0.649158,0.00366673,0.00345876,0.68509,0.685819,0.739532,0.742147,0.742426,0.00321229,0.722076,0.72144,0.00372942,0.00349217,0.681762,0.00329662,0.690679,0.693169,0.69321,0.693975,0.711918,0.713425,0.725679,0.726646,0.733821,0.73434,0.739266,0.752271,0.758856,0.757347,0.755608,0.767417,0.766993,0.769807,0.761479,0.758614,0.759297,0.759584,0.770273,0.766427,0.772829,0.772074,0.771096,0.777172,0.76385,0.756549,0.757519,0.761368,0.76353,0.767224,0.769755,0.772648,0.774442,0.776202,0.785122,0.786541,0.787483,0.772834,0.778308,0.780431,0.784717,0.784293,0.786531,0.805595,0.805588,0.815075,0.817083,0.00339797,0.830092,0.836654,0.838825,0.840815,0.844221,0.845941,0.850032,0.85329,0.857434,0.00338569,0.00337896,0.873199,0.884575,0.897366,0.888488,0.887538,0.889805,0.891113,0.911443,0.914144,0.918024,0.920213,0.00385679,0.93286,0.938367,0.937718,0.00320866,0.946318,0.956263,0.959349,0.00343874,0.00329692,0.965603,0.973806,0.975248,0.976449,0.966579,0.966477,0.964057,0.964822,0.964239,0.963378,0.00373932,0.959366,0.959339,0.943288,0.944604,0.943753,0.946853,0.947965,0.951245,0.951236,0.95409,0.956488,0.958388,0.961463,0.964825,0.00346126,0.00366049,0.953411,0.95719,0.956298,0.962648,0.965754,0.00357752,0.98311,0.990318,0.992148,0.996918,0.99969,1.00461,1.01638,1.02138,1.02015,1.02499,1.0257,1.01771,1.01893,1.01487,0.00359854,0.971326,0.971355,0.00328519,0.00350603,0.00322053,0.00328713,0.00347683,0.00330705,1.0023,1.00111,0.00348712,0.00344576,1.00742,1.02384,1.01991,1.02026,1.02588,1.02921,0.00363979,1.046,1.05377,1.05744,1.07015,0.00345262,1.09738,1.09922,0.00343155,0.00342885,1.12649,1.13316,0.00354309,1.1544,1.16205,1.17071,1.16386,1.1685,1.16895,1.17221,1.17552,1.17911,1.18168,1.1891,1.1899,1.19177,1.20481,1.20385,1.20982,1.2101,1.21296,1.21718,1.21901,1.21671,1.21594,1.23023,1.23006,1.24017,1.24279,1.24303,1.24333,1.25123,1.25073,1.25401,1.25509,1.25785,1.26231,1.26208,1.26852,1.27048,1.27449,1.27863,1.28403,1.2882,1.28973,1.29531,1.29841,1.29328,1.29427,1.29308,1.29355,1.29533,1.29326,1.29586,1.29459,1.29575,1.306,1.31259,1.31567,1.3221,1.32011,1.32295,1.32441,1.33637,1.33621,1.3351,1.33933,1.34629,1.34629,1.34684,1.34879,1.35509,1.36135,1.36439,1.36781,1.36712,1.36501,1.36096,1.36863,1.37301,1.37508,1.36951,1.37457
0.00325903,0.517746,0.519433,0.51936,0.519525,0.513525,0.528304,0.531341,0.523841,0.00379537,0.534077,0.536341,0.535911,0.558124,0.559226,0.562466,0.562232,0.559886,0.560114,0.576048,0.577168,0.00348335,0.594205,0.608301,0.616559,0.614673,0.629472,0.6189,0.62036,0.620187,0.620106,0.623903,0.626927,0.630569,0.638662,0.639299,0.640108,0.640662,0.648602,0.649441,0.649846,0.643273,0.643921,0.643875,0.644234,0.646464,0.647096,0.646731,0.646288,0.646222,0.64601,0.655629,0.662325,0.662917,0.677934,0.683461,0.685689,0.690094,0.692343,0.694293,0.696,0.697011,0.700339,0.697661,0.704846,0.70469,0.00345647,0.733571,0.735578,0.73079,0.738885,0.737014,0.743755,0.73608,0.741925,0.736428,0.757111,0.727449,0.756194,0.00332289,0.00321755,0.745308,0.749054,0.748217,0.743612,0.751016,0.752414,0.765574,0.766337,0.764066,0.762197,0.756228,0.756607,0.003163,0.767918,0.765088,0.76523,0.770756,0.768317,0.77368,0.773967,0.775838,0.783382,0.785203,0.0033311,0.811142,0.813769,0.822387,0.823702,0.82485,0.828189,0.833135,0.835602,0.840919,0.84598,0.848935,0.850846,0.856165,0.858107,0.86814,0.874378,0.876128,0.887142,0.889061,0.890224,0.89343,0.893646,0.893051,0.00338814,0.00323787,0.00330846,0.919776,0.918995,0.00315981,0.00332202,0.00323546,0.932027,0.00329201,0.941041,0.00327392,0.945959,0.00357657,0.00343321,0.00341575,0.960814,0.958069,0.961946,0.00337551,0.00332561,0.922678,0.926543,0.931002,0.932219,0.936374,0.934141,0.937223,0.940354,0.949934,0.952208,0.953608,0.94994,0.953169,0.954623,0.956156,0.942552,0.942917,0.942572,0.949088,0.952543,0.954135,0.956274,0.959313,0.965616,0.966688,0.985533,0.989234,0.991059,0.991404,1.00978,1.01418,1.01246,1.01399,1.0132,1.01285,1.01487,1.01546,1.01631,1.00206,1.00647,0.970405,0.00344951,0.988152,0.986136,0.990751,0.990448,0.985736,0.986878,0.991791,0.993057,0.995039,0.993814,0.994203,1.00795,1.00962,1.01447,0.00360072,1.03258,1.03719,1.03967,1.05359,1.05729,1.06406,1.0687,1.07991,1.08186,1.08815,1.09128,0.00335061,1.10166,1.10446,1.13086,1.15669,1.15774,1.15994,1.16458,1.16472,1.16846,1.16924,1.17695,1.18452,1.18468,1.18508,1.18767,1.18981,1.1938,1.19495,1.20201,1.20514,1.21236,1.2151,1.21163,1.2082,1.21127,1.21859,1.21927,1.23372,1.23295,1.2357,1.23745,1.24704,1.24646,1.24402,1.24765,1.24997,1.25755,1.25913,1.26449,1.26369,1.26479,1.26584,1.27582,1.28345,1.28737,1.28918,1.29263,1.29062,1.28908,1.29162,1.29291,1.2936,1.29477,1.2912,1.2951,1.29682,1.29927,1.30312,1.30512,1.30281,1.3152,1.31535,1.31608,1.316,1.31855,1.32612,1.32483,1.3335,1.33306,1.33535,1.33819,1.34285,1.3438,1.36461,1.36046,1.3596,1.35502,1.35649,1.36131,1.36255,1.36449,1.35754
0.496262,0.499965,0.508899,0.506914,0.513468,0.514019,0.514577,0.511891,0.515201,0.514908,0.520466,0.534706,0.525992,0.537894,0.53249,0.535044,0.00326545,0.558725,0.00351668,0.00349466,0.00346354,0.580296,0.594431,0.597465,0.602646,0.60373,0.607972,0.613751,0.618504,0.621603,0.622099,0.623466,0.627325,0.633508,0.629554,0.634799,0.635815,0.637167,0.636923,0.64855,0.631956,0.629769,0.629812,0.643089,0.635332,0.638745,0.639741,0.639343,0.637394,0.64599,0.644861,0.649872,0.6668,0.668114,0.666705,0.674026,0.67259,0.67416,0.687224,0.68911,0.691476,0.693766,0.695474,0.696988,0.697688,0.69892,0.691741,0.691537,0.00337546,0.712815,0.718619,0.722221,0.728315,0.728559,0.722664,0.731419,0.731441,0.728114,0.719226,0.719068,0.721372,0.720717,0.719989,0.72228,0.00323418,0.727931,0.72828,0.728049,0.725858,0.724693,0.72796,0.736063,0.738643,0.739785,0.742506,0.745342,0.748669,0.764636,0.777562,0.779636,0.779689,0.780962,0.795334,0.80079,0.805188,0.807514,0.815718,0.807392,0.822369,0.824025,0.00323272,0.823064,0.824137,0.819783,0.00331518,0.00328308,0.838827,0.839986,0.840651,0.849401,0.0033996,0.863112,0.00342743,0.867295,0.867092,0.86639,0.00342462,0.876379,0.878776,0.00365848,0.0034232,0.894232,0.00328979,0.00346228,0.00339358,0.906673,0.91785,0.922625,0.922039,0.922869,0.00358931,0.0035849,0.00322832,0.00359922,0.00328569,0.945816,0.94042,0.938188,0.931334,0.930703,0.93251,0.935553,0.934041,0.934736,0.935981,0.937542,0.939181,0.940345,0.941933,0.942894,0.00333488,0.925649,0.928072,0.930391,0.932277,0.939318,0.944176,0.946706,0.952068,0.95333,0.954333,0.95927,0.960593,0.00351658,1.00189,1.00489,1.00637,1.00758,1.00199,1.00146,0.992247,0.995994,0.0035127,0.00333583,0.0031599,1.00089,0.00347035,1.00134,1.00463,0.991217,0.99649,0.996597,0.997855,1.0001,1.00088,0.977285,0.979881,0.987075,1.00549,1.00665,1.00741,1.00493,1.00383,1.00432,1.00573,1.01519,1.01988,1.02687,1.03593,1.03735,1.04433,0.00351632,0.00352538,0.00331759,1.07012,1.07248,1.07526,1.09126,1.08847,1.0921,1.10427,1.10541,1.14577,1.14862,1.14867,1.15096,1.15505,1.15862,1.16308,1.16631,1.16908,1.17189,1.17496,1.17745,1.17893,1.18936,1.19158,1.19627,1.2002,1.18958,1.18867,1.18814,1.18716,0.00331202,0.00342908,1.22098,1.23231,1.23281,1.23209,1.23473,1.23662,1.23824,1.23979,1.24167,1.24119,1.24244,1.24522,1.25031,1.25891,1.25868,1.25974,1.26482,1.26713,1.27264,1.27714,1.28103,1.28002,1.27855,1.28556,1.28619,1.28968,1.28931,1.29126,1.29274,1.29346,1.29126,1.29182,1.30592,1.30836,1.31501,1.31859,1.31153,1.31201,1.30792,1.30668,1.30934,1.31465,1.31451,1.31628,1.32078,1.32212,1.33667,1.34331,1.33489,1.34424,1.34422,1.34303,1.34153,0.0033548,1.35358
0.488483,0.486923,0.495553,0.494866,0.497918,0.503635,0.501975,0.510564,0.510862,0.00331477,0.523913,0.524486,0.52683,0.529867,0.52242,0.524192,0.537404,0.539437,0.00365697,0.00333886,0.00353736,0.563115,0.564027,0.602152,0.604858,0.606965,0.607584,0.601352,0.614329,0.00342281,0.00325941,0.622873,0.623703,0.624753,0.620055,0.602756,0.604321,0.6054,0.606254,0.613567,0.613677,0.60951,0.610392,0.610854,0.625559,0.633504,0.637599,0.639125,0.640249,0.640428,0.639492,0.641679,0.648184,0.651581,0.655522,0.654097,0.66002,0.660327,0.668818,0.677851,0.679162,0.684574,0.673728,0.677358,0.678308,0.682559,0.68293,0.69167,0.700029,0.700959,0.701934,0.703284,0.707215,0.707869,0.707503,0.706348,0.710016,0.712082,0.71583,0.714737,0.717412,0.718067,0.71445,0.714905,0.709131,0.705642,0.707506,0.714106,0.720354,0.719829,0.738341,0.738515,0.742048,0.747179,0.748258,0.749118,0.753605,0.755385,0.762879,0.776567,0.772583,0.774306,0.775915,0.784153,0.799348,0.801526,0.795428,0.805913,0.803746,0.800909,0.794729,0.812168,0.814355,0.816437,0.821771,0.825267,0.825096,0.8335,0.838425,0.843694,0.842587,0.848386,0.852982,0.862303,0.865835,0.867508,0.866907,0.866892,0.868089,0.873507,0.878461,0.882692,0.88419,0.887905,0.894619,0.898843,0.00366184,0.912744,0.915556,0.913166,0.914409,0.00345876,0.00330233,0.00333925,0.00362147,1.30888,0.00387006,0.00348703,0.92569,0.926413,0.925029,0.907492,0.933611,0.934791,0.934491,0.936119,0.935285,0.934522,0.934949,0.922979,0.924016,0.922076,0.927617,0.930624,0.931861,0.941219,0.943167,0.942853,0.943386,0.948965,0.950155,0.00335708,0.00389331,0.00333281,0.991267,0.988963,0.991181,0.986732,0.988303,0.990176,0.00337349,0.977433,0.981215,0.982415,0.00361717,0.982772,0.984888,0.99029,0.990131,0.989859,0.989849,0.991481,0.99373,0.998534,0.997996,0.983381,0.985363,0.989071,0.990879,0.998709,0.988369,0.990595,0.999679,1.00161,0.999266,0.00331145,1.01596,1.01999,1.0255,1.02548,1.02351,1.02639,1.03363,1.0479,1.05583,1.05773,1.06812,1.07709,1.07675,1.07907,1.07966,0.00346344,0.00331792,1.11864,1.13647,1.14029,1.14256,1.14472,1.15354,1.15423,1.15877,1.16515,1.16686,1.16887,1.17384,1.17859,1.18485,1.19481,1.1961,1.18844,1.18805,1.18942,1.20224,1.21077,1.2143,1.22023,1.22429,1.22536,1.22584,1.23001,1.23455,1.24399,1.24451,1.24627,1.24552,1.23976,1.24064,1.24327,1.24418,1.24321,1.24736,1.251,1.26688,1.26761,1.26639,1.26777,1.2663,1.26374,1.26768,1.27603,1.28344,1.2875,1.28902,1.29171,1.29476,1.30439,1.30343,1.30634,1.30615,1.31219,1.31322,1.3135,1.3192,1.31913,1.30927,1.30012,1.30189,1.30235,1.31482,1.31425,1.3169,1.31971,1.32002,1.32289,1.323,1.32279,1.32503,1.32558,1.31484,1.32334
0.482759,0.482821,0.482579,0.486724,0.486588,0.486397,0.500179,0.502018,0.50307,0.50269,0.515271,0.5159,0.521589,0.521818,0.523339,0.525981,0.52789,0.535416,0.00344963,0.00341383,0.00327191,0.557784,0.00350778,0.00366278,0.549928,0.606643,0.00324884,0.578847,0.58606,0.585077,0.00340332,0.00346866,0.592099,0.592228,0.592211,0.591834,0.605041,0.594277,0.605193,0.605318,0.604378,0.605039,0.609782,0.614401,0.61043,0.611157,0.612371,0.63832,0.627205,0.63033,0.632429,0.638007,0.631663,0.639233,0.638356,0.642057,0.652541,0.662057,0.665568,0.665714,0.657143,0.65986,0.659508,0.673057,0.665958,0.669999,0.677276,0.677188,0.688921,0.693688,0.698071,0.701638,0.702334,0.701097,0.707164,0.708145,0.710898,0.700964,0.689386,0.691488,0.692946,0.688879,0.691765,0.693431,0.719177,0.71871,0.721019,0.723163,0.723915,0.724541,0.725061,0.733563,0.7354,0.740064,0.740891,0.743267,0.743894,0.746093,0.753582,0.759472,0.762078,0.762408,0.776972,0.77626,0.781897,0.78227,0.782137,0.791723,0.794137,0.795991,0.796562,0.79456,0.796934,0.799023,0.805719,0.807938,0.817863,0.817924,0.00340833,0.00364502,0.840254,0.840355,0.84255,0.851079,0.857135,0.857991,0.863209,0.866285,0.868565,0.872536,0.876813,0.875684,0.884914,0.880974,0.883249,0.885025,0.88771,0.898372,0.908179,0.908932,0.89764,0.898679,0.890225,0.892589,0.893155,0.899605,0.901355,0.902037,0.00358538,0.00344797,0.916044,0.922125,0.922785,0.930603,0.929785,0.935639,0.935955,0.936611,0.936586,0.943977,0.944416,0.944458,0.948917,0.94992,0.951858,0.953399,0.952296,0.957456,0.960988,0.961861,0.963364,0.972297,0.973278,0.00349536,0.00333829,0.975391,0.974323,0.973683,0.97484,0.974692,0.97682,0.971965,0.977465,0.976744,0.976427,0.977041,0.0035175,0.97131,0.973431,0.972719,0.970447,0.970609,0.976707,0.978674,0.979937,0.977484,0.972474,0.972814,0.980475,0.983553,0.985963,0.988065,0.990628,0.978626,0.992291,0.994911,0.00331294,1.00768,1.01396,1.0163,1.0197,1.02874,1.03282,1.03915,1.05257,1.06441,1.06551,1.06785,1.07014,1.07502,1.07459,1.07741,1.08445,0.00305094,1.12728,1.13356,1.1364,1.13678,1.14131,1.14075,1.14752,1.15299,1.15518,1.16059,1.16559,1.17333,1.17568,1.17621,1.18159,1.183,1.18427,1.18824,1.19244,1.20234,1.20273,1.21572,1.21561,1.21292,1.21973,1.22281,1.22225,1.23774,1.23565,1.23981,1.23913,1.24228,1.24691,1.24442,1.24513,1.24701,1.25046,1.25046,1.26513,1.26771,1.26581,1.26847,1.26776,1.26785,1.26922,1.27481,1.27374,1.27617,1.27723,1.28394,1.29519,1.2928,1.299,1.29229,1.29203,1.29172,1.30193,1.30288,1.30858,1.3169,1.31511,1.3121,1.30584,1.30293,1.29646,1.29739,1.30039,1.30002,1.30732,1.30785,1.30756,1.30839,1.30913,1.31064,1.30977,1.29628
0.470769,0.474086,0.477532,0.476065,0.476975,0.479275,0.483209,0.491683,0.502929,0.504136,0.516489,0.517568,0.518982,0.518779,0.519653,0.511848,0.513692,0.513592,0.515001,0.520812,0.00347514,0.532923,0.540102,0.54196,0.545503,0.546385,0.54758,0.560675,0.560848,0.00344313,0.00390457,0.00343044,0.591654,0.591981,0.591758,0.592523,0.594524,0.595472,0.596817,0.594302,0.594789,0.604605,0.605673,0.600145,0.600402,0.612457,0.615067,0.624407,0.62689,0.629977,0.630866,0.632444,0.634627,0.633942,0.639734,0.645257,0.645334,0.646402,0.653967,0.654805,0.656348,0.656713,0.659488,0.656816,0.664557,0.673877,0.676576,0.674898,0.684062,0.69726,0.6974,0.697916,0.697325,0.700765,0.706216,0.674031,0.670591,0.679103,0.680475,0.680346,0.678582,0.678366,0.712603,0.71288,0.717659,0.720738,0.716282,0.721389,0.720158,0.718271,0.715576,0.728414,0.720943,0.719634,0.724358,0.738039,0.742568,0.740684,0.742863,0.746558,0.749464,0.747216,0.753328,0.755459,0.767397,0.767457,0.770775,0.777186,0.777304,0.779003,0.790693,0.786945,0.792215,0.796447,0.791367,0.798989,0.801908,0.814997,0.817238,0.81835,0.823616,0.828431,0.00358553,0.00341758,0.851379,0.853737,0.857689,0.860071,0.863706,0.86444,0.00396983,0.875183,0.874833,0.87603,0.876673,0.876834,0.8705,0.871768,0.885607,0.00314464,0.898235,0.899648,0.899792,0.896734,0.897416,0.899011,0.895841,0.896976,0.897251,0.00314837,0.901403,0.917532,0.920163,0.921785,0.00335506,0.930527,0.00361445,0.00302794,0.00345028,0.00341595,0.00336525,0.00322676,0.932884,0.933804,0.00363391,0.00330492,0.00329307,0.00317665,0.00353328,0.00337753,0.954498,0.00328824,0.945698,0.951064,0.949361,0.00328459,0.958161,0.959328,0.960923,0.963945,0.964888,0.00314274,0.962936,0.00348333,0.00352853,0.00338465,0.957942,0.00347606,0.957428,0.963245,0.958518,0.96202,0.970176,0.970363,0.964096,0.965409,0.976903,0.978955,0.98373,0.990308,0.993416,0.993552,0.98328,0.994959,0.991467,0.994995,0.99475,0.995202,0.99905,1.00568,1.00809,1.01329,1.0171,0.0033746,0.00347014,1.03892,1.04117,1.04493,1.05385,1.06299,1.07046,1.07751,1.08005,0.00356069,0.00349727,1.12682,1.1278,1.12937,1.13213,1.13515,1.13697,1.14263,1.14308,1.15438,1.15587,1.16389,1.16793,1.17001,1.16817,1.17113,1.17125,1.17241,1.17485,0.00306378,0.00347543,0.0031271,1.19478,1.19823,1.2049,1.20726,1.21044,1.21384,1.21697,1.2245,1.23129,1.23338,1.23711,1.24325,1.25103,1.2519,1.25032,1.25065,1.25657,1.25997,1.26351,1.26551,1.26373,1.26015,1.26679,1.2638,1.26444,1.27593,1.28114,1.2811,1.27277,1.27967,1.27303,1.2719,1.27575,1.27616,1.2818,1.28636,1.28887,1.29067,1.2923,1.29114,1.29047,1.28945,1.27767,1.27994,1.28092,1.2815,1.28718,1.28829,1.29482,1.29271,1.29795,1.29983,1.30202,1.30426
0.463305,0.46354,0.475592,0.475858,0.476664,0.478548,0.47854,0.488691,0.493062,0.493867,0.504089,0.00333755,0.529648,0.52797,0.514365,0.503691,0.512573,0.508373,0.51314,0.522254,0.522408,0.536444,0.529209,0.529098,0.53443,0.543202,0.00372046,0.547851,0.548244,0.558589,0.554818,0.560252,0.563554,0.564087,0.565326,0.00349043,0.62886,0.629394,0.00379969,0.0034976,0.00319561,0.607425,0.608439,0.6101,0.61323,0.614158,0.615726,0.626189,0.628509,0.628793,0.631191,0.632396,0.641807,0.64502,0.645117,0.642672,0.644195,0.647649,0.649719,0.645376,0.659214,0.661002,0.670268,0.670838,0.670981,0.674745,0.675242,0.677492,0.666916,0.666499,0.66403,0.65594,0.654359,0.656488,0.656591,0.657754,0.65933,0.661987,0.659263,0.65935,0.676692,0.677108,0.678013,0.711226,0.710439,0.710264,0.704314,0.699682,0.709592,0.700707,0.705017,0.704749,0.709096,0.708956,0.713296,0.725058,0.723209,0.725763,0.72675,0.731301,0.732147,0.743853,0.744931,0.752253,0.752812,0.76126,0.760149,0.00336312,0.764426,0.00375375,0.779258,0.777035,0.779729,0.780543,0.788647,0.790255,0.798003,0.798583,0.803387,0.805184,0.809469,0.817618,0.820783,0.829065,0.829961,0.831965,0.00349322,0.843883,0.843743,0.841592,0.844012,0.850034,0.00346075,0.853532,0.856632,0.862579,0.86873,0.86446,0.00315645,0.881065,0.879765,0.882007,0.889232,0.891428,0.891719,0.890693,0.893411,0.894943,0.888834,0.897038,0.897506,0.900646,0.900886,0.902812,0.902812,0.910195,0.910988,0.00354835,0.922372,0.921944,0.00355535,0.914561,0.916081,0.921839,0.923403,0.923108,0.924853,0.00314928,0.00317346,0.935173,0.935286,0.00357164,0.930634,0.932052,0.00351356,0.0035563,0.00326815,0.940079,0.940597,0.942618,0.946193,0.938957,0.940627,0.942265,0.944697,0.944118,0.00320175,0.946666,0.952732,0.952147,0.951306,0.953396,0.954169,0.948012,0.950789,0.960615,0.962429,0.00357422,0.00345641,0.974853,0.980675,0.984949,0.987462,0.00342206,1.00019,0.998448,1.00222,1.00686,0.998891,0.997513,0.997952,0.998366,0.00346457,1.01816,1.02203,1.02929,1.03377,1.03995,1.04067,1.06522,1.06519,1.0657,1.075,1.07847,1.08518,1.09046,1.0994,1.13006,1.13177,1.13297,1.13586,1.13838,1.14415,1.14649,1.15253,1.15437,1.16085,1.16335,1.15682,1.16544,1.16914,1.17002,1.16963,1.1704,1.17697,1.17704,1.18113,1.186,1.19143,1.19781,1.19862,1.20562,1.20864,1.21422,1.21348,1.22333,1.22757,1.2273,1.23476,1.23571,1.24206,1.24674,1.24704,1.25458,1.25495,1.25196,1.25459,1.24756,1.24719,1.23968,0.00338798,1.27485,1.27259,1.27154,1.27172,1.27464,1.27616,1.26601,1.26429,1.26737,1.26741,1.26927,1.2726,1.27599,1.27749,1.27949,1.28406,1.27447,1.27272,1.27309,1.27384,1.28069,1.28201,1.28875,1.29164,1.2961,1.29632,1.29751,1.29885,1.30289
0.459547,0.462514,0.474112,0.47626,0.475932,0.476631,0.478203,0.48774,0.48993,0.49013,0.493758,0.489584,0.491408,0.513971,0.515322,0.505755,0.506542,0.505738,0.50499,0.520965,0.521808,0.521858,0.523166,0.0034979,0.525004,0.523785,0.528024,0.527308,0.530932,0.526756,0.00352366,0.00347405,0.00328084,0.565905,0.00337361,0.00341353,0.00351071,0.635628,0.63859,0.639193,0.638604,0.639272,0.631553,0.630663,0.618414,0.620042,0.620413,0.631592,0.631872,0.632939,0.633674,0.635158,0.635731,0.638781,0.638721,0.641752,0.640368,0.633067,0.64637,0.639315,0.638942,0.640562,0.639527,0.646543,0.650352,0.650639,0.649722,0.646415,0.645757,0.647563,0.649461,0.65423,0.641705,0.656407,0.657287,0.658134,0.658718,0.658117,0.658621,0.660365,0.66407,0.666163,0.67114,0.671117,0.671466,0.680884,0.681152,0.682365,0.684705,0.691989,0.691791,0.691476,0.00327436,0.701365,0.705232,0.706471,0.714816,0.715515,0.715469,0.714386,0.729061,0.730014,0.729813,0.745303,0.741641,0.00346754,0.0034269,0.758548,0.759023,0.00317457,0.760101,0.772582,0.765146,0.768586,0.776666,0.776346,0.787597,0.00335689,0.794042,0.784611,0.00320906,0.805755,0.818608,0.819808,0.813275,0.824664,0.823678,0.82761,0.83183,0.833713,0.830252,0.832025,0.84339,0.844238,0.849147,0.852561,0.854893,0.857788,0.860727,0.867672,0.868761,0.871352,0.874322,0.873809,0.876603,0.871277,0.871857,0.873144,0.880422,0.88057,0.00353533,0.887915,0.88907,0.889589,0.890371,0.889141,0.8934,0.891919,0.894267,0.894694,0.900416,0.00332223,0.907592,0.914031,0.908315,0.00332243,0.90745,0.913467,0.91216,0.914561,0.915393,0.917825,0.921515,0.922115,0.924066,0.924821,0.922814,0.929051,0.925833,0.926504,0.931459,0.928533,0.930827,0.930694,0.935671,0.935611,0.939026,0.942041,0.945012,0.945093,0.943112,0.944633,0.948777,0.948302,0.948881,0.950072,0.957658,0.956857,0.960848,0.963001,0.973658,0.975366,0.97447,0.977234,0.981638,0.00329088,0.99011,0.997258,1.0011,0.998994,0.999285,0.0034413,0.00351341,0.00346974,0.00364573,1.01813,0.00347855,1.03873,0.00353696,1.06041,1.06362,1.06108,1.07179,1.06838,1.07096,1.07734,1.08472,0.00347093,1.12106,1.12586,1.12794,1.13068,1.13603,1.13733,1.14917,1.14909,1.14398,1.14654,1.15956,1.15971,1.16542,1.16552,1.17084,1.1706,1.17244,1.17645,1.17532,0.00359673,0.0033605,0.00346084,1.1994,1.2049,1.20819,1.20998,1.21245,1.21765,1.21699,1.21798,1.2204,1.23125,1.23616,1.2372,1.24286,1.24123,1.24858,1.24867,1.2208,1.22248,1.22272,1.23265,1.2338,0.00343189,1.26053,1.25505,1.2446,1.24931,1.25036,1.25485,1.25647,1.25521,1.25934,1.26068,1.26342,1.26134,1.26128,1.26677,1.2701,1.26727,1.26991,1.27081,1.27045,1.26761,1.28554,1.29154,1.29499,1.29962,1.3055,1.3046,1.30478,1.29978
0.441389,0.442536,0.443142,0.443504,0.00344111,0.476276,0.466416,0.46221,0.483819,0.00340512,0.466926,0.467621,0.467738,0.00358954,0.487221,0.487507,0.487485,0.50435,0.503775,0.499543,0.003525,0.515323,0.524677,0.674238,0.675428,0.676205,0.517486,0.519439,0.625919,0.626727,0.00313317,0.545225,0.546349,0.559163,0.560062,0.561101,0.571032,0.571527,0.581531,0.583465,0.00323084,0.00348426,0.614263,0.614017,0.617292,0.61854,0.615401,0.61261,0.00320654,0.621577,0.62332,0.639748,0.638282,0.640468,0.641858,0.639026,0.651762,0.637724,0.641872,0.639237,0.641097,0.642342,0.643343,0.64939,0.650382,0.648774,0.637584,0.63794,0.634359,0.631089,0.631396,0.646668,0.644787,0.644597,0.647497,0.650297,0.655984,0.652738,0.65317,0.65397,0.654681,0.659311,0.663047,0.663682,0.664365,0.673495,0.682709,0.683,0.683112,0.68694,0.685453,0.677482,0.00338658,0.690809,0.689677,0.696796,0.00338606,0.710728,0.704109,0.704818,0.70701,0.720314,0.721925,0.719335,0.719978,0.732596,0.00335767,0.00358648,0.733103,0.734996,0.736959,0.748816,0.756345,0.764441,0.753824,0.765276,0.768643,0.769283,0.772424,0.777487,0.779438,0.787634,0.792878,0.798941,0.801587,0.801396,0.810558,0.811226,0.811902,0.81708,0.824404,0.823927,0.831417,0.837404,0.843094,0.00346585,0.852277,0.849302,0.850403,0.853417,0.857715,0.00339309,0.85275,0.860219,0.859277,0.86226,0.861093,0.86389,0.864552,0.868826,0.86915,0.869566,0.877435,0.878958,0.884959,0.888633,0.888906,0.891303,0.894035,0.886202,0.88408,0.892084,0.897321,0.8968,0.892412,0.894105,0.895112,0.889277,0.898339,0.898832,0.00348002,0.904914,0.905536,0.90814,0.910792,0.909287,0.910182,0.910008,0.913885,0.916126,0.919183,0.920168,0.0031832,0.92036,0.922861,0.926228,0.927244,0.927971,0.932772,0.937066,0.939377,0.938084,0.941104,0.938318,0.939251,0.937912,0.94586,0.948981,0.954098,0.958511,0.961412,0.964228,0.970127,0.971842,0.974944,0.979191,0.985441,0.991692,0.99948,1.00198,1.00434,1.00755,0.945757,0.00360446,0.00321932,0.00344525,1.01908,1.02207,1.02326,1.03179,1.03475,0.00351673,1.05555,1.06061,1.06091,1.06286,1.06822,1.06845,1.0677,0.00368833,1.11225,1.1126,1.11688,1.11896,1.12294,1.13002,1.13397,1.13347,1.13125,1.13082,1.13317,1.13942,1.13946,1.14254,1.14081,1.14617,1.14796,1.15483,1.15707,1.16353,1.16557,1.16919,0.00315042,1.19203,1.19191,1.19516,1.198,1.1982,1.19292,1.19767,1.20789,1.20655,1.21352,1.21353,1.21946,1.21772,1.22507,1.22382,1.21913,1.2214,1.22166,1.21223,1.21734,1.21977,1.22781,1.23238,1.23391,1.23728,1.23769,1.23851,1.2402,1.24234,1.24278,1.24394,1.25058,1.25124,0.003322,1.26269,1.26211,1.26228,1.26354,1.26983,1.27843,1.28504,1.28396,1.28879,1.30235,1.30471,1.30508,1.30497
0.416945,0.00336162,0.434149,0.00326814,0.00348566,0.00348592,0.449561,0.00325631,0.440344,0.441595,0.441466,0.467751,0.458823,0.459257,0.460352,0.486817,0.487468,0.496635,0.497605,0.499117,0.500221,0.00331711,0.492262,0.492823,0.493459,0.511294,0.511204,0.510114,0.51589,0.00352851,0.00348673,0.00325919,0.00369035,0.559903,0.561061,0.561205,0.571211,0.5727,0.582979,0.00339255,0.590597,0.00347546,0.00351914,0.612983,0.613254,0.614494,0.612011,0.610894,0.611736,0.612149,0.618128,0.620669,0.624929,0.627059,0.628373,0.629574,0.637917,0.641175,0.641514,0.636617,0.625965,0.629374,0.635229,0.636011,0.628835,0.628708,0.627176,0.629186,0.631052,0.631599,0.632321,0.631814,0.645081,0.00348754,0.652195,0.649931,0.651499,0.64918,0.651019,0.653088,0.645258,0.648286,0.649386,0.651799,0.65321,0.655253,0.666556,0.680726,0.672437,0.670355,0.670499,0.676319,0.671059,0.673934,0.67324,0.680081,0.680661,0.683914,0.685983,0.689785,0.6954,0.700644,0.710972,0.00312822,0.711623,0.711701,0.713284,0.715907,0.72153,0.73264,0.730451,0.737751,0.741396,0.749775,0.749147,0.755362,0.756728,0.760382,0.766593,0.774147,0.773874,0.775136,0.781897,0.790367,0.789672,0.793956,0.794187,0.801873,0.806271,0.813909,0.813379,0.814245,0.81481,0.821614,0.822501,0.825136,0.828509,0.834633,0.834624,0.842312,0.846323,0.846089,0.85243,0.854065,0.855295,0.845716,0.85405,0.856446,0.859291,0.860627,0.859687,0.86091,0.00330378,0.00325869,0.874516,0.876177,0.00369307,0.881834,0.883519,0.883554,0.881662,0.8853,0.884329,0.888733,0.884525,0.887079,0.888069,0.890314,0.881932,0.882804,0.00362932,0.891935,0.896544,0.894601,0.894471,0.904033,0.903645,0.00360644,0.894406,0.896931,0.901621,0.897772,0.905021,0.903936,0.909002,0.912467,0.910593,0.916965,0.916779,0.920341,0.921379,0.92294,0.925841,0.920357,0.922858,0.932715,0.940197,0.944634,0.00354519,0.956762,0.959733,0.962727,0.00336042,0.963805,0.970456,0.970894,0.976725,0.98147,0.97946,0.990487,1.00169,1.00382,1.00423,0.00350644,0.966851,0.00338713,0.00346607,0.00350969,1.01597,1.0219,1.02339,1.03575,1.03849,1.04592,1.04752,1.05412,1.05532,1.06093,1.06018,1.06321,0.00339755,1.10869,1.11019,1.10848,1.10765,1.11487,1.11406,1.11539,1.11585,1.11673,1.11379,1.11553,1.11812,1.1199,1.12872,1.12913,1.13898,1.14464,1.15112,1.1548,1.15863,1.16062,1.1682,1.17746,1.17812,1.17451,1.18104,1.18103,1.18587,1.18812,0.00365804,1.20288,1.20512,1.20226,1.20235,1.20846,1.2101,1.20868,1.21111,1.21368,1.21687,1.21802,1.21925,1.22233,1.21332,1.21385,1.22169,1.22253,1.22416,1.22631,1.22619,1.22874,1.23254,1.23706,1.24397,1.24818,1.25295,1.25632,1.2569,1.25669,1.2574,1.2645,1.27065,1.2702,1.27455,1.27486,1.27516,1.275,1.27578,1.28081
0.4171,0.417865,0.421591,0.421914,0.0033104,0.431214,0.428754,0.431197,0.441554,0.444688,0.442993,0.448949,0.449204,0.458845,0.459275,0.449372,0.456872,0.00334177,0.465589,0.0035216,0.00344311,0.48318,0.484055,0.495974,0.494698,0.491291,0.00321748,0.502686,0.00323885,0.00342748,0.526261,0.534622,0.533225,0.537013,0.539204,0.541513,0.541897,0.561219,0.563168,0.563729,0.564759,0.563206,0.00309911,0.574826,0.597402,0.59502,0.00352493,0.597791,0.609965,0.608589,0.612159,0.616024,0.624793,0.625328,0.625772,0.628726,0.61013,0.61,0.625799,0.62495,0.620741,0.621106,0.622873,0.632428,0.634723,0.635331,0.626871,0.626265,0.622342,0.628852,0.629198,0.627425,0.631568,0.631327,0.641885,0.646498,0.649081,0.648824,0.651628,0.652258,0.649584,0.647369,0.64801,0.644148,0.652192,0.653923,0.646892,0.648861,0.669007,0.655949,0.657125,0.656671,0.666994,0.670251,0.669615,0.667274,0.670483,0.671549,0.680744,0.684778,0.691177,0.683772,0.685059,0.695951,0.694481,0.0035659,0.701661,0.705682,0.725163,0.69021,0.69816,0.00326102,0.726336,0.732059,0.736873,0.740284,0.744975,0.744412,0.752908,0.753617,0.757093,0.770286,0.772157,0.77217,0.77254,0.787142,0.788386,0.796567,0.799003,0.794474,0.795865,0.802062,0.813332,0.817089,0.819237,0.821291,0.824679,0.823125,0.823169,0.828181,0.821116,0.822034,0.831891,0.844818,0.845413,0.839127,0.84533,0.840798,0.84595,0.848327,0.849798,0.849898,0.852026,0.853306,0.00330795,0.859461,0.863152,0.862977,0.00337615,0.866464,0.85111,0.85519,0.85648,0.856642,0.00337881,0.00349079,0.00332639,0.00326932,0.879546,0.00356817,0.878321,0.8789,0.88287,0.881999,0.888142,0.883253,0.885153,0.888156,0.889818,0.892932,0.892956,0.894491,0.893841,0.895325,0.891368,0.895378,0.898345,0.890884,0.892812,0.895747,0.902412,0.904409,0.907904,0.908926,0.916834,0.922446,0.925757,0.92647,0.931823,0.933486,0.938196,0.940604,0.945505,0.949503,0.00364953,0.961206,0.966641,0.975129,0.977942,0.981917,0.985138,0.992517,0.996681,0.00364815,0.96477,0.968526,0.970223,0.998997,1.00311,1.00551,1.01342,1.02286,1.02666,1.03076,1.03423,1.04132,1.04545,1.04792,1.06833,1.06828,1.06148,1.07036,1.09006,1.09449,1.10142,1.10199,1.1022,1.10003,1.10165,1.10596,1.10836,1.11106,1.11462,1.11502,1.11862,1.12911,1.13119,1.13459,1.13933,1.14292,1.14128,1.14604,1.14747,1.15132,1.16134,1.16215,1.1672,1.16996,1.1755,1.18085,1.17873,1.1851,1.19203,1.19252,1.19574,1.20081,1.19362,1.19181,1.19442,1.20547,1.20723,1.20768,1.20628,1.20764,1.20729,1.20858,1.20731,1.20887,1.20879,1.2172,1.21892,1.21781,1.22069,1.2228,1.22794,1.23188,1.23094,1.23333,1.23574,1.23656,1.24414,1.24486,1.2471,1.24928,1.25152,1.25839,1.26384,1.26335,1.26876,1.26733
0.414083,0.413768,0.412357,0.41779,0.411183,0.421107,0.421356,0.422826,0.425834,0.425793,0.434079,0.434197,0.447851,0.449343,0.452032,0.450194,0.450748,0.453501,0.455553,0.462939,0.461218,0.466916,0.470723,0.00335195,0.476018,0.487627,0.490769,0.492434,0.493109,0.0032494,0.528538,0.521789,0.523187,0.51984,0.519697,0.542145,0.541954,0.545365,0.548311,0.560945,0.563482,0.563038,0.564435,0.575965,0.579155,0.575856,0.584297,0.597119,0.580316,0.00340983,0.00334156,0.596409,0.598585,0.601084,0.60751,0.610604,0.610898,0.598941,0.600994,0.613929,0.606545,0.621516,0.621508,0.605211,0.622818,0.615703,0.622018,0.614736,0.611014,0.612369,0.615977,0.620904,0.623499,0.625118,0.630346,0.632603,0.631352,0.632672,0.634797,0.647616,0.647328,0.645321,0.642466,0.644057,0.644337,0.645323,0.646747,0.635651,0.637531,0.64006,0.64493,0.64732,0.650092,0.650028,0.656017,0.655061,0.666436,0.666469,0.66503,0.666483,0.667641,0.00349178,0.00352947,0.684095,0.686955,0.687607,0.688975,0.689541,0.686636,0.00322462,0.714084,0.713769,0.715624,0.721905,0.722988,0.731925,0.732823,0.735528,0.736244,0.743603,0.748957,0.754667,0.756685,0.762914,0.764738,0.763616,0.763,0.00344617,0.786753,0.788566,0.797921,0.800673,0.798388,0.801217,0.803363,0.806539,0.810674,0.814537,0.81515,0.817874,0.820428,0.821156,0.825438,0.827073,0.83099,0.830843,0.829904,0.830756,0.833349,0.83495,0.831247,0.833048,0.830446,0.828945,0.824375,0.00358859,0.843623,0.003193,0.00349324,0.850164,0.851432,0.852392,0.854423,0.856484,0.85337,0.0033479,0.860369,0.862458,0.863871,0.866698,0.869048,0.87272,0.875195,0.878789,0.877215,0.880036,0.879652,0.880301,0.879444,0.877892,0.878924,0.884098,0.880573,0.885974,0.886328,0.888013,0.880898,0.884222,0.887445,0.885102,0.00357528,0.898497,0.902202,0.909039,0.911408,0.91495,0.918512,0.921154,0.924524,0.926889,0.934433,0.939051,0.941597,0.947402,0.952856,0.952926,0.953643,0.961223,0.967251,0.969356,0.963789,0.960638,0.966822,0.969962,0.973359,0.974227,0.977998,0.985637,0.988444,0.00321057,1.00156,1.00317,0.00358272,0.00327161,1.03615,1.03772,1.04428,1.04951,1.05106,1.05779,1.06008,1.05074,1.06192,1.06352,1.07057,1.0748,1.07629,1.08862,1.09649,1.09981,1.10422,1.10885,1.11231,1.11611,1.12576,1.12637,1.12784,1.13003,1.13084,1.13013,1.13098,1.1311,1.13349,1.14177,1.15031,1.15123,1.15897,1.16111,1.1587,1.16252,1.16392,1.17339,1.16686,1.1778,1.18581,1.18852,1.18767,1.19495,1.19334,1.19773,1.19642,1.19843,1.19868,1.20084,1.19769,1.19662,1.19435,1.18959,1.19137,1.19574,1.19873,1.18852,1.19477,1.19636,1.2027,1.20345,1.20531,1.21422,1.21836,1.21527,1.22187,1.21996,1.22756,1.23158,1.23451,1.39709,1.39601,1.39641,1.3974,1.39896
0.419683,0.417221,0.420954,0.421299,0.421916,0.421613,0.420539,0.42312,0.420126,0.422212,0.418619,0.417501,0.445232,0.444663,0.451555,0.445428,0.449975,0.448531,0.456303,0.457702,0.463355,0.46441,0.464698,0.469825,0.47039,0.476538,0.49258,0.493868,0.494561,0.494547,0.00316871,0.5222,0.515708,0.521548,0.521426,0.521612,0.521255,0.522204,0.00332776,0.542737,0.560542,0.561332,0.00318951,0.569214,0.570087,0.57234,0.575729,0.574847,0.57439,0.577587,0.00356073,0.584697,0.584179,0.593285,0.591634,0.593145,0.592678,0.600308,0.593309,0.594558,0.604673,0.608379,0.604962,0.606146,0.608359,0.610509,0.612664,0.60961,0.611392,0.614718,0.617205,0.611351,0.614672,0.621886,0.625197,0.621354,0.622375,0.62873,0.630855,0.62544,0.625422,0.625278,0.625369,0.642003,0.626819,0.620039,0.622268,0.628919,0.628148,0.631105,0.632492,0.631513,0.633678,0.636302,0.635821,0.638569,0.644945,0.644682,0.646384,0.65359,0.661295,0.660836,0.664226,0.668216,0.00334576,0.686823,0.680905,0.685659,0.687001,0.697505,0.703967,0.701746,0.713929,0.712466,0.715155,0.717558,0.732441,0.732576,0.719111,0.720012,0.742775,0.739628,0.740293,0.755712,0.733117,0.737631,0.00318849,0.00356766,0.00335465,0.78475,0.785425,0.78241,0.782667,0.792328,0.792074,0.797782,0.794325,0.797584,0.00361468,0.801869,0.809028,0.810476,0.811747,0.811212,0.817815,0.815946,0.822682,0.824909,0.826858,0.822275,0.828742,0.826909,0.82019,0.820929,0.821255,0.819268,0.822634,0.820038,0.824743,0.825793,0.821962,0.824653,0.823934,0.822893,0.82644,0.829671,0.00353634,0.838267,0.838751,0.839589,0.840359,0.8418,0.850606,0.00353874,0.850163,0.860695,0.859532,0.86441,0.873856,0.876269,0.873217,0.879406,0.876554,0.876272,0.876354,0.879302,0.876692,0.877905,0.879853,0.878629,0.882797,0.889173,0.892761,0.900246,0.902283,0.906651,0.90848,0.912547,0.00328831,0.921825,0.925277,0.931625,0.934092,0.933968,0.937968,0.940124,0.00348603,0.00352801,0.00349807,0.939306,0.941459,0.950401,0.963576,0.96303,0.967076,0.966681,0.966591,0.981192,0.983497,0.989343,0.994,0.996064,0.998811,1.00659,1.01321,0.00351424,0.00351238,0.00368451,0.00331998,1.04022,1.03994,1.04043,0.00320453,1.0503,1.05096,1.05119,1.05797,1.06804,1.07745,1.099,1.1051,1.1075,1.11093,1.11092,1.10947,1.11373,1.11547,1.12076,1.12571,1.12677,1.12462,1.12376,1.1234,1.13455,1.13539,1.13992,1.1414,1.14319,1.15423,1.1577,1.15776,1.15716,1.16027,1.1657,1.17166,1.17338,1.17463,1.17491,1.17517,1.17537,1.18498,1.19872,1.19581,1.19788,1.2015,1.20121,1.19892,1.19623,1.18843,1.19105,1.19097,1.18977,1.18921,1.18956,1.18802,1.19111,1.19847,1.20815,1.21396,1.20799,1.20993,1.20311,1.20708,1.21146,1.21147,1.21467,1.22564,1.22514,1.22434,1.22969
0.409214,0.420363,0.422045,0.422097,0.442615,0.420768,0.419903,0.419033,0.419229,0.420426,0.420081,0.419357,0.427164,0.00337229,0.442779,0.442762,0.4435,0.448488,0.449968,0.462167,0.462614,0.463767,0.463712,0.464174,0.00341219,0.479875,0.481119,0.48075,0.481569,0.490682,0.49665,0.49814,0.498128,0.507358,0.507712,0.519329,0.519154,0.522172,0.525003,0.527243,0.527982,0.548253,0.551947,0.551047,0.555346,0.55913,0.569652,0.567637,0.57653,0.575927,0.560969,0.574933,0.574475,0.570237,0.573602,0.5764,0.579713,0.587581,0.584036,0.597061,0.590975,0.587761,0.585756,0.584162,0.584397,0.590457,0.590388,0.594341,0.596898,0.597863,0.602326,0.607809,0.607935,0.60948,0.619678,0.614474,0.620617,0.620512,0.622793,0.618311,0.619979,0.621632,0.622854,0.618256,0.621375,0.617526,0.619714,0.629839,0.636648,0.636409,0.632241,0.632627,0.631971,0.635777,0.63821,0.639054,0.637007,0.638962,0.640244,0.646639,0.648403,0.659757,0.662441,0.00347376,0.664002,0.667362,0.678469,0.676215,0.68193,0.689135,0.689105,0.697058,0.705267,0.707684,0.693113,0.695136,0.704775,0.701096,0.70685,0.707718,0.708943,0.720732,0.721245,0.723332,0.725597,0.728047,0.729504,0.738443,0.760577,0.76652,0.763052,0.773343,0.775059,0.781051,0.770849,0.784433,0.779717,0.783674,0.790807,0.794333,0.795798,0.803495,0.803892,0.00328039,0.807249,0.00332308,0.811596,0.80053,0.80206,0.80329,0.804549,0.808169,0.817724,0.810758,0.810036,0.806662,0.809105,0.81519,0.814557,0.81857,0.819154,0.819283,0.821039,0.818878,0.817577,0.8182,0.818038,0.818247,0.828999,0.829202,0.83242,0.833128,0.833734,0.836842,0.844324,0.846782,0.849519,0.00339848,0.853146,0.852634,0.853346,0.00362576,0.864347,0.868959,0.868313,0.876479,0.875861,0.877194,0.876079,0.877991,0.880665,0.883256,0.89212,0.894831,0.897813,0.899248,0.905521,0.904408,0.912111,0.915982,0.919355,0.920628,0.929119,0.889302,0.891843,0.893752,0.906447,0.0035849,0.924786,0.00333355,0.94273,0.947205,0.953341,0.964232,0.966353,0.968067,0.972484,0.973624,0.974955,0.975539,0.976992,0.988551,0.982833,0.985564,0.98617,0.992539,0.998519,1.00446,1.00792,1.01127,1.00921,1.00768,1.02543,1.02746,1.03605,1.03672,0.00342627,0.00334609,1.04963,1.05108,1.0565,1.07432,1.07569,1.0788,0.00335469,1.11198,1.117,1.1167,1.11588,1.10549,1.10725,1.10188,1.11136,1.12198,1.12285,1.12842,1.13116,1.1451,1.15151,1.15073,1.1511,1.15506,1.15471,1.16003,1.15795,1.15771,1.1568,1.15981,1.16058,1.16636,1.17005,1.16141,1.16352,1.16482,1.1632,1.19276,1.19317,1.19175,1.17711,1.17376,1.1733,1.17394,1.17647,1.17707,1.17745,1.17841,1.19153,1.19827,1.1993,1.19645,1.1966,1.19826,1.20427,1.20396,1.2058,1.20279,1.20164,1.20456,1.20491,1.20526
0.398285,0.445391,0.446624,0.0035229,0.44825,0.447254,0.440324,0.445004,0.44231,0.4349,0.442479,0.439799,0.439517,0.42844,0.42864,0.437222,0.444723,0.444147,0.444484,0.445731,0.456974,0.465387,0.465991,0.465753,0.466086,0.479044,0.479376,0.481431,0.485947,0.486691,0.494402,0.497124,0.506761,0.507716,0.506956,0.514992,0.518406,0.520993,0.52127,0.521225,0.524742,0.530789,0.53384,0.555683,0.542236,0.540469,0.53992,0.541715,0.546341,0.547976,0.548782,0.562783,0.566258,0.565115,0.568764,0.571104,0.574536,0.582486,0.581329,0.586851,0.579395,0.58074,0.578297,0.582197,0.580258,0.581551,0.583263,0.588874,0.590631,0.601122,0.607162,0.606658,0.607091,0.605255,0.611677,0.61525,0.614483,0.617312,0.61839,0.620104,0.618312,0.615205,0.615592,0.614885,0.61719,0.618867,0.62417,0.627488,0.638128,0.633108,0.63328,0.634896,0.634515,0.634488,0.635525,0.63224,0.626516,0.629538,0.637634,0.638984,0.641719,0.642633,0.64949,0.649068,0.649818,0.666369,0.667684,0.673129,0.67473,0.675384,0.678708,0.680065,0.679753,0.679676,0.686471,0.684736,0.693562,0.698326,0.699503,0.701694,0.70843,0.710353,0.709604,0.715411,0.724351,0.723146,0.726596,0.737219,0.740521,0.744824,0.746359,0.746376,0.753562,0.753325,0.758868,0.762368,0.769328,0.775522,0.781365,0.782611,0.787129,0.786868,0.787287,0.787964,0.788975,0.793195,0.78622,0.790731,0.795065,0.787445,0.798095,0.798655,0.795463,0.795946,0.795212,0.800032,0.804918,0.806714,0.804668,0.814464,0.802211,0.812373,0.804001,0.804069,0.804552,0.815209,0.816699,0.818349,0.821901,0.821833,0.823304,0.824962,0.830194,0.831805,0.830555,0.83366,0.839687,0.83899,0.83926,0.841922,0.844764,0.845647,0.846343,0.851873,0.855991,0.856127,0.859172,0.859315,0.857271,0.860382,0.864896,0.872165,0.880606,0.881211,0.00323272,0.895989,0.900596,0.902829,0.905294,0.897866,0.874889,0.880939,0.884572,0.89158,0.8947,0.90327,0.907341,0.908549,0.908875,0.927046,0.933686,0.935563,0.945173,0.949466,0.955168,0.966335,0.968489,0.974337,0.978548,0.98761,0.99117,0.991203,0.9793,0.982396,0.984355,0.985097,0.988342,0.997562,0.998541,0.999664,1.00404,1.00783,1.00956,1.00752,1.01154,1.00224,1.00497,1.00542,0.00333254,0.00363886,0.00305224,1.05471,1.06135,1.0679,1.08454,1.08528,1.09233,1.09431,1.10311,1.10856,1.10816,1.10922,1.10733,1.10836,1.10987,1.11382,1.1182,1.121,1.12079,1.11994,1.12921,1.13005,1.14003,1.1454,1.14078,1.13935,1.1383,1.13716,1.13779,1.13731,1.14718,1.14102,1.14141,1.15427,1.1537,1.16191,1.16432,1.17032,1.17463,1.17555,1.16943,1.16976,1.17113,1.17038,1.16906,1.17012,1.1689,1.17785,1.17983,1.18371,1.18252,1.18762,1.1817,1.18645,1.18796,1.19187,1.18903,1.18932,1.19522,1.19652
0.398996,0.00337404,0.391671,0.377973,0.393408,0.392739,0.392699,0.446366,0.445394,0.407689,0.439209,0.432148,0.43298,0.434719,0.435056,0.435691,0.428108,0.428133,0.446229,0.44617,0.448167,0.448377,0.454108,0.460946,0.462198,0.476046,0.480004,0.00363886,0.484556,0.487464,0.489631,0.495165,0.497365,0.506529,0.491198,0.508165,0.511686,0.519509,0.515054,0.00330058,0.524636,0.52507,0.529497,0.529038,0.538783,0.539176,0.535988,0.538668,0.538871,0.53893,0.545755,0.545306,0.552867,0.565168,0.56526,0.569866,0.570028,0.576302,0.575794,0.573971,0.572855,0.573899,0.57524,0.574053,0.57625,0.578467,0.580844,0.581004,0.583588,0.591146,0.597885,0.598096,0.606485,0.603423,0.604454,0.605767,0.608373,0.612336,0.615279,0.604561,0.604525,0.614271,0.600996,0.604883,0.605073,0.600403,0.600489,0.599814,0.600395,0.602106,0.600594,0.608824,0.607168,0.607517,0.616379,0.619665,0.627242,0.629905,0.631525,0.633274,0.63487,0.639792,0.642276,0.64516,0.647364,0.65046,0.65974,0.659262,0.658156,0.661276,0.662949,0.670078,0.674881,0.689736,0.683564,0.683682,0.694396,0.698241,0.700946,0.704252,0.705592,0.713313,0.718169,0.716696,0.722913,0.00341585,0.730115,0.740384,0.743051,0.744425,0.746372,0.739087,0.743583,0.742175,0.748141,0.00323786,0.00359578,0.755722,0.762041,0.764654,0.767288,0.776402,0.766239,0.770488,0.772847,0.776602,0.775394,0.775335,0.784413,0.786544,0.787591,0.790095,0.790578,0.792988,0.790689,0.79274,0.793751,0.788405,0.790226,0.792419,0.793781,0.796748,0.802065,0.797936,0.799326,0.800602,0.801527,0.807938,0.809183,0.815553,0.81749,0.819084,0.82172,0.826422,0.832414,0.832643,0.8352,0.832787,0.83339,0.836372,0.84066,0.840351,0.847276,0.849818,0.852757,0.855519,0.857006,0.858219,0.860308,0.862453,0.864143,0.874802,0.880133,0.888594,0.892866,0.895631,0.897736,0.899919,0.851522,0.856224,0.863257,0.867443,0.868684,0.878807,0.88548,0.901394,0.905306,0.91048,0.911109,0.932088,0.933109,0.93948,0.939279,0.940857,0.94728,0.00332961,0.00342086,0.970755,0.975848,0.978957,0.982377,0.987118,0.998375,0.998796,1.00004,1.00237,1.00428,0.978022,0.981206,0.987581,0.993773,0.992418,1.00408,0.99597,0.997809,0.999802,1.00176,1.0046,1.00863,1.02266,1.02557,1.02916,1.03262,0.00347558,1.04834,1.04781,1.05478,1.06415,1.06791,1.06449,1.06357,1.06351,1.07751,1.08199,1.08652,1.0918,1.10075,1.10162,1.09819,1.09925,1.11427,1.119,1.11955,1.11802,1.12187,1.12015,1.12115,1.12131,1.12728,1.12855,1.13274,1.13867,1.13857,1.13828,1.13887,1.13878,1.13721,1.1377,1.14476,1.14533,1.14605,1.14491,1.14989,1.1534,1.1508,1.15169,1.15703,1.16373,1.16711,1.17221,1.17124,1.16978,1.16891,1.17218,1.17945,1.18144,1.18273,1.18359,1.18311,1.18411
0.367941,0.0031683,0.38011,0.379815,0.380838,0.393279,0.39359,0.393536,0.00335177,0.406785,0.407798,0.410069,0.00350203,0.422526,0.423488,0.422626,0.421997,0.431095,0.427503,0.438402,0.0035384,0.468707,0.469334,0.465996,0.46636,0.469955,0.47243,0.46998,0.00339549,0.472088,0.476186,0.4749,0.489693,0.490362,0.490977,0.478042,0.00339617,0.49703,0.49846,0.498962,0.499138,0.00334644,0.515692,0.518893,0.532023,0.537456,0.537742,0.539086,0.539622,0.539668,0.542767,0.544152,0.547746,0.552289,0.562828,0.559609,0.558947,0.576139,0.570962,0.572198,0.571811,0.570663,0.575817,0.575854,0.576397,0.578359,0.591234,0.592144,0.593073,0.593461,0.593897,0.595931,0.599658,0.601708,0.604353,0.603704,0.607649,0.610183,0.603939,0.606469,0.585125,0.588602,0.590093,0.589813,0.597454,0.598836,0.600806,0.591785,0.596305,0.592246,0.593334,0.59402,0.601276,0.603129,0.60612,0.620353,0.00346646,0.623158,0.629124,0.633059,0.63577,0.637713,0.639564,0.648882,0.649688,0.651332,0.652452,0.655096,0.654951,0.662895,0.663425,0.00323828,0.67885,0.683489,0.687832,0.698723,0.701278,0.704498,0.705679,0.706132,0.704933,0.714815,0.715717,0.716624,0.706457,0.718663,0.720904,0.00368569,0.716687,0.716822,0.722154,0.729772,0.734425,0.735547,0.736165,0.737285,0.0033465,0.00368216,0.753782,0.763058,0.762582,0.76262,0.763492,0.761137,0.766442,0.767498,0.770478,0.773002,0.769967,0.774341,0.774183,0.783732,0.783328,0.78003,0.779849,0.78311,0.787763,0.784142,0.784415,0.790397,0.79034,0.786778,0.793711,0.79716,0.796379,0.796955,0.796859,0.797604,0.809169,0.811392,0.811241,0.816942,0.817594,0.818353,0.820427,0.827555,0.830097,0.829776,0.833247,0.837092,0.839561,0.842728,0.846217,0.846941,0.849866,0.852035,0.857302,0.86241,0.863941,0.864514,0.869877,0.880491,0.880483,0.00337553,0.833566,0.839253,0.842276,0.842289,0.845508,0.850371,0.855798,0.863472,0.863721,0.875981,0.88172,0.879747,0.003454,0.907391,0.90904,0.912964,0.919814,0.921272,0.927722,0.929215,0.929908,0.938076,0.00319343,0.95615,0.00324281,0.00347819,0.00351038,0.00347622,0.995615,0.998656,1.00203,1.0019,1.00172,1.00488,0.978302,0.97883,0.983393,0.984819,0.989935,0.987946,0.988846,0.999011,0.999544,1.00563,1.01099,1.01206,1.0159,1.01674,1.01963,1.02058,1.02852,1.03619,1.03915,1.04039,1.04194,1.03962,1.04779,1.0482,1.0496,1.05279,1.0562,1.05912,1.06834,1.07215,1.07522,1.07684,1.07999,1.08086,1.08524,1.08843,1.0934,1.09489,1.09494,1.10649,1.10608,1.11113,1.11516,1.12166,1.12292,1.12419,1.12151,1.12115,1.12388,1.12466,1.12498,1.12917,1.13001,1.13187,1.13422,1.13553,1.13969,1.14411,1.14837,1.15164,1.16534,1.16723,1.16041,1.16074,1.16163,1.1678,1.16514,1.16755,1.17671,1.17757,1.18303,1.18328
0.360501,0.362683,0.355757,0.35579,0.368791,0.369621,0.373429,0.373622,0.384409,0.38431,0.403909,0.405778,0.408778,0.410807,0.424134,0.419318,0.423779,0.419006,0.424865,0.444046,0.444672,0.443467,0.442172,0.471597,0.445432,0.452373,0.451873,0.466355,0.466017,0.463601,0.464038,0.468113,0.469971,0.47344,0.473738,0.478814,0.479924,0.481688,0.485946,0.486748,0.493817,0.503065,0.00341062,0.00324176,0.525849,0.524943,0.524798,0.526022,0.526075,0.540184,0.54029,0.546249,0.545054,0.545818,0.546768,0.547744,0.550839,0.590481,0.586217,0.575726,0.575829,0.572833,0.572915,0.587674,0.587034,0.576031,0.579667,0.586561,0.595311,0.586262,0.596382,0.594301,0.595307,0.601068,0.603222,0.602453,0.584809,0.601404,0.587094,0.596066,0.58727,0.585968,0.584128,0.584845,0.588379,0.590402,0.590267,0.591186,0.592272,0.594049,0.596603,0.593903,0.592914,0.594803,0.602269,0.604332,0.605844,0.607097,0.598885,0.598816,0.599997,0.00347398,0.627913,0.635819,0.636701,0.64127,0.641884,0.64626,0.65285,0.659377,0.663437,0.663391,0.673076,0.67435,0.675942,0.678543,0.68071,0.669506,0.66879,0.671585,0.697411,0.700896,0.704268,0.702474,0.698786,0.700032,0.707215,0.707036,0.705764,0.714683,0.714014,0.715262,0.729079,0.734742,0.731603,0.731092,0.730458,0.736649,0.739007,0.740467,0.743164,0.745877,0.00348095,0.00348016,0.75872,0.760515,0.7627,0.763697,0.765086,0.767052,0.765662,0.76881,0.769567,0.767375,0.776793,0.77432,0.770055,0.77008,0.770986,0.777761,0.779464,0.782771,0.781163,0.787687,0.787737,0.790613,0.791818,0.794204,0.797678,0.803123,0.804273,0.809193,0.81135,0.81499,0.817912,0.821997,0.824449,0.825288,0.831786,0.833072,0.834287,0.842327,0.849021,0.853103,0.8605,0.863163,0.867672,0.871061,0.00351328,0.00351777,0.00351894,0.82454,0.827342,0.829173,0.834015,0.83592,0.837451,0.841874,0.842131,0.84581,0.853421,0.859625,0.867838,0.872946,0.873589,0.872104,0.873957,0.00321915,0.00302046,0.903954,0.90406,0.928612,0.930124,0.933829,0.936256,0.00321068,0.948688,0.953818,0.957867,0.959586,0.963857,0.97299,0.974061,0.974363,0.976478,0.974054,0.983327,0.980263,0.985782,0.990322,0.991483,0.980756,0.981749,0.987521,0.98957,0.993957,0.998363,1.00194,1.00748,1.00912,1.01235,1.0105,1.01153,1.01308,1.01437,1.02116,1.0232,1.02659,1.03391,1.03329,1.03449,1.03687,1.03914,0.00304881,0.00353774,0.00352152,1.09116,1.095,1.09084,1.08583,1.08118,1.07792,1.07765,1.07787,1.07512,1.07397,1.08121,1.0793,1.08675,1.08849,1.08796,1.08817,0.00341845,1.10336,1.10758,1.11041,1.10762,1.11012,1.11373,1.11492,1.11691,1.12606,1.12311,1.12937,1.12906,1.12977,1.13294,1.13601,1.1547,1.14837,1.15214,1.15269,1.15637,1.15677,1.15855,1.16172,1.16551,1.16631,1.16489,1.16468
0.371417,0.354171,0.354949,0.356407,0.368145,0.372894,0.384737,0.385928,0.387187,0.387222,0.00349708,0.4047,0.407085,0.408687,0.418432,0.419028,0.430992,0.431431,0.437889,0.443931,0.445877,0.445162,0.444752,0.445367,0.445067,0.449537,0.450187,0.466221,0.453471,0.455051,0.456797,0.456673,0.467786,0.473718,0.475727,0.476568,0.478135,0.47956,0.48697,0.486535,0.502105,0.50404,0.504244,0.50635,0.504766,0.528002,0.526824,0.528773,0.531287,0.532613,0.533482,0.536149,0.539912,0.566031,0.566492,0.566608,0.00329042,0.622598,0.623532,0.631137,0.631597,0.606219,0.595411,0.596805,0.59664,0.569622,0.571892,0.571026,0.557838,0.56254,0.563349,0.586606,0.572551,0.576773,0.576772,0.584111,0.573684,0.573121,0.580338,0.57956,0.579607,0.576869,0.576749,0.575686,0.574292,0.573252,0.579528,0.579422,0.577296,0.577374,0.579691,0.588095,0.590019,0.591235,0.593764,0.60471,0.606365,0.607747,0.608156,0.608568,0.613994,0.613133,0.614995,0.628628,0.63084,0.63284,0.639296,0.64021,0.646794,0.649671,0.65262,0.659102,0.657406,0.666528,0.670321,0.673153,0.673945,0.675564,0.672425,0.67311,0.685168,0.689658,0.690348,0.694092,0.697943,0.700722,0.706378,0.706369,0.705759,0.698971,0.711728,0.71332,0.709857,0.720799,0.712282,0.720008,0.719745,0.733061,0.736112,0.739462,0.733049,0.734909,0.73646,0.738083,0.738944,0.740752,0.74543,0.752639,0.749642,0.750315,0.75567,0.758136,0.758936,0.763992,0.76323,0.769272,0.767056,0.769471,0.769463,0.769183,0.776928,0.773977,0.773787,0.775431,0.77676,0.781306,0.785163,0.793139,0.795513,0.801144,0.800688,0.807535,0.808114,0.814463,0.818812,0.820252,0.822176,0.828659,0.834921,0.834404,0.00312681,0.808486,0.00352469,0.00351122,0.00345837,0.808629,0.00344376,0.811617,0.799345,0.810789,0.805185,0.814907,0.816937,0.817797,0.818845,0.826435,0.829246,0.838235,0.00325971,0.849174,0.846517,0.85672,0.8621,0.861539,0.86662,0.870983,0.879475,0.00355423,0.892986,0.00346226,0.9233,0.927005,0.931951,0.928576,0.929478,0.930197,0.00325748,0.954191,0.959288,0.963869,0.965667,0.969736,0.969351,0.955955,0.95715,0.973738,0.973708,0.974011,0.981427,0.987701,0.990086,1.0013,1.00447,1.00625,0.00341201,0.995142,0.998749,1.00073,0.998699,1.00132,1.00322,1.00322,1.00617,1.01222,1.01577,1.01657,1.01955,1.02094,1.02476,1.02774,1.03111,1.03819,1.04236,1.07889,1.08225,1.08391,1.08522,1.09003,1.08662,1.08497,1.07873,1.07755,1.07662,1.07525,1.07872,1.07817,1.08088,1.08027,1.08054,1.08134,1.08159,1.08399,1.09054,1.08631,1.08874,1.09048,1.09006,1.09106,1.09867,1.10265,1.1084,1.11167,1.11708,1.11565,1.11525,1.11549,1.12179,1.12852,1.127,1.12719,1.14385,1.14458,1.14101,1.13662,1.13663,1.14371,1.14992,1.14939,1.15274,1.15086
0.355415,0.360039,0.356201,0.356111,0.369794,0.37589,0.386859,0.389434,0.386647,0.386263,0.380942,0.407277,0.405641,0.41059,0.413251,0.414618,0.430792,0.00339582,0.441739,0.444233,0.446227,0.446936,0.447027,0.446672,0.427695,0.431665,0.430872,0.451783,0.45311,0.455276,0.453688,0.456044,0.45853,0.464824,0.466159,0.457399,0.465628,0.459662,0.473817,0.00329327,0.00342616,0.506157,0.506919,0.506765,0.507147,0.54739,0.549394,0.548853,0.532904,0.534536,0.534451,0.537662,0.53951,0.540351,0.567363,0.00327462,0.604275,0.612309,0.613175,0.617802,0.602165,0.603,0.604601,0.604112,0.559322,0.562244,0.562248,0.561746,0.553104,0.546612,0.54895,0.547393,0.546204,0.547894,0.562351,0.563009,0.562648,0.561313,0.576693,0.560246,0.57339,0.574118,0.576684,0.574654,0.574912,0.573115,0.571958,0.568242,0.571952,0.569373,0.575494,0.575589,0.580885,0.586457,0.58373,0.585614,0.587643,0.581511,0.608463,0.614257,0.612901,0.616741,0.616991,0.625572,0.627931,0.626505,0.634314,0.637955,0.640265,0.644097,0.64497,0.644755,0.640615,0.0034396,0.651408,0.65122,0.672783,0.674752,0.671392,0.680865,0.683979,0.688895,0.690538,0.690516,0.688558,0.694673,0.693552,0.69587,0.694863,0.693029,0.694041,0.695651,0.699385,0.70064,0.705786,0.710511,0.711677,0.715646,0.716715,0.720381,0.721927,0.726546,0.728941,0.738634,0.742441,0.74144,0.740172,0.742177,0.741824,0.749433,0.74765,0.752419,0.753328,0.756522,0.757905,0.759124,0.761021,0.7637,0.76732,0.769046,0.770864,0.7729,0.774812,0.774106,0.776058,0.776283,0.787855,0.790231,0.792797,0.798678,0.799828,0.804599,0.806594,0.805964,0.805241,0.804267,0.803585,0.00338705,0.773214,0.784016,0.77091,0.00317832,0.774758,0.776733,0.78355,0.783335,0.789013,0.790261,0.794448,0.798029,0.800609,0.798627,0.802381,0.802912,0.821357,0.824844,0.825561,0.831497,0.83891,0.00332528,0.851152,0.859,0.853412,0.856898,0.856901,0.866045,0.865897,0.00351401,0.00361013,0.00323712,0.00337783,0.908733,0.910184,0.91227,0.914584,0.925661,0.927573,0.932806,0.94249,0.949815,0.960545,0.957969,0.956252,0.960015,0.957153,0.957486,0.958747,0.961719,0.967103,0.974986,0.976889,0.98932,0.993421,0.00335841,1.01616,1.01823,0.00346892,1.00797,1.00449,1.00677,0.995841,1.00161,1.00598,1.01304,1.01689,1.01784,1.01964,1.02551,1.02719,1.03236,1.03713,1.054,1.05667,1.06455,1.07596,1.08173,1.08965,1.09002,1.0874,1.0873,1.0882,1.07594,1.0799,1.07743,1.07815,1.07941,1.08058,1.07848,1.07621,1.06775,1.0719,1.07254,1.07054,1.07347,1.07286,1.07229,1.07697,1.08279,1.08055,1.0908,1.09534,1.09751,1.10553,1.1049,1.09969,1.10486,1.11009,1.10617,1.10672,1.11662,1.13259,1.13584,1.13944,1.13999,1.12652,1.13026,1.13033,1.13226,1.12945,1.13899
0.00345039,0.349161,0.361947,0.360741,0.00333797,0.369135,0.369521,0.369502,0.363749,0.375483,0.376544,0.381996,0.383742,0.395089,0.396344,0.397138,0.407267,0.409015,0.417215,0.42009,0.0035085,0.432956,0.434703,0.435695,0.435468,0.00350374,0.405764,0.406944,0.00315153,0.0034835,0.435825,0.43409,0.434936,0.452612,0.456528,0.447385,0.45803,0.458816,0.459663,0.472982,0.471949,0.472692,0.474126,0.00346396,0.00341389,0.00343253,0.549604,0.518816,0.532384,0.533693,0.535594,0.538365,0.538866,0.00354581,0.00327342,0.00348177,0.0033083,0.00334172,0.00347672,0.608953,0.609102,0.603442,0.542262,0.00346153,0.556512,0.558883,0.5574,0.535169,0.542407,0.542495,0.542639,0.548369,0.545828,0.544614,0.545337,0.544951,0.582464,0.54271,0.547726,0.545482,0.554851,0.563052,0.568051,0.568661,0.566737,0.562696,0.565738,0.566692,0.569616,0.570337,0.571242,0.572693,0.574459,0.576002,0.576424,0.580287,0.579779,0.58291,0.58418,0.585053,0.590854,0.599198,0.600219,0.603576,0.627761,0.629363,0.630079,0.63327,0.641354,0.642805,0.643699,0.629424,0.63324,0.634853,0.635762,0.637261,0.639603,0.652389,0.646091,0.646844,0.646434,0.648261,0.679722,0.650646,0.689398,0.687964,0.693393,0.691767,0.691467,0.69219,0.696049,0.699218,0.700546,0.701215,0.00322794,0.709859,0.714775,0.71628,0.717574,0.722356,0.724452,0.725718,0.727143,0.728811,0.731474,0.732965,0.733518,0.740168,0.742036,0.745211,0.74778,0.748899,0.753524,0.75666,0.756429,0.75794,0.759463,0.761576,0.750435,0.765479,0.755651,0.755229,0.764963,0.767327,0.770546,0.00352597,0.0033583,0.00360634,0.00345249,0.772742,0.00332176,0.00330836,0.00350566,0.00352547,0.759505,0.74655,0.746499,0.742962,0.746849,0.748852,0.751894,0.752291,0.755941,0.757039,0.759844,0.767338,0.768216,0.780921,0.781704,0.788028,0.787553,0.797901,0.815366,0.81773,0.820659,0.823914,0.82408,0.830962,0.832475,0.834903,0.839182,0.838963,0.00318735,0.849475,0.85959,0.86169,0.863238,0.867955,0.871207,0.878934,0.893099,0.898726,0.899865,0.903248,0.909916,0.917008,0.00333987,0.00349011,0.00332536,0.00348679,0.942844,0.943425,0.930203,0.933522,0.94263,0.945989,0.953532,0.962942,0.969266,0.970782,0.00345419,0.971734,0.979043,0.976287,0.97865,0.982081,0.989685,0.992142,0.994451,1.00069,1.00118,0.00333749,1.01192,1.01478,1.02619,1.03097,1.03917,1.04104,1.04691,1.0483,1.04976,1.05431,1.05557,1.05739,0.00346492,1.07416,1.08291,1.08412,1.09144,1.08998,1.08898,1.09107,1.08341,1.07107,1.06681,1.07079,1.07056,1.06584,1.0707,1.06827,1.06725,1.06504,1.05994,1.06168,1.0598,1.06233,1.05845,0.0035636,1.06855,1.07654,1.07781,1.08094,1.07984,1.08,1.08188,1.08262,1.08692,1.08737,1.09021,1.10183,1.10636,1.131,1.13156,1.13414,0.00344409,0.00341389,1.11203,1.11358,1.1152,1.12085
0.343985,0.344575,0.34449,0.344582,0.365223,0.365847,0.345581,0.351834,0.351789,0.0031898,0.00342932,0.405213,0.403333,0.00315191,0.396497,0.400691,0.411083,0.411402,0.412253,0.00326593,0.00329732,0.393031,0.396499,0.397913,0.399606,0.400799,0.407417,0.409003,0.409091,0.00318269,0.421312,0.422595,0.422464,0.422946,0.430246,0.431624,0.446304,0.446395,0.444581,0.00320156,0.47182,0.472494,0.473491,0.00318189,0.0034667,0.475689,0.00376814,0.00340748,0.00354315,0.00338285,0.00335287,0.003448,0.00335194,0.514509,0.516897,0.51895,0.518804,0.517781,0.517854,0.00330261,0.52597,0.532062,0.534954,0.535579,0.523586,0.52412,0.52601,0.526275,0.535471,0.5353,0.529165,0.530003,0.544953,0.534469,0.534872,0.535189,0.542473,0.54328,0.545106,0.548481,0.549303,0.55134,0.556199,0.559644,0.562345,0.565254,0.565374,0.565994,0.570769,0.571806,0.575527,0.574866,0.575823,0.577377,0.57904,0.57873,0.579721,0.582807,0.584147,0.58481,0.587029,0.59033,0.587672,0.600578,0.600308,0.00321169,0.610471,0.611386,0.6123,0.616518,0.619389,0.625628,0.628554,0.624183,0.634699,0.635805,0.626869,0.629827,0.631732,0.633579,0.641848,0.640013,0.64149,0.64541,0.652595,0.652216,0.651724,0.691015,0.691666,0.695148,0.698335,0.700479,0.701054,0.652859,0.654348,0.655498,0.717616,0.72545,0.724694,0.726599,0.725949,0.728449,0.729377,0.731145,0.731476,0.732694,0.737523,0.741553,0.742218,0.744959,0.743958,0.711434,0.714766,0.717455,0.719289,0.720171,0.739358,0.00349156,0.752773,0.755886,0.755919,0.00340814,0.00334341,0.726003,0.00369804,0.00329482,0.00339448,0.00328124,0.705556,0.701896,0.715222,0.711726,0.715827,0.71264,0.728971,0.739031,0.738483,0.73703,0.73919,0.74371,0.746362,0.00338032,0.00355377,0.753435,0.751159,0.753334,0.75975,0.767371,0.773185,0.797183,0.799244,0.800777,0.802543,0.81073,0.818119,0.818849,0.819433,0.828187,0.829302,0.832039,0.834573,0.837469,0.839224,0.849139,0.849617,0.00341424,0.859842,0.859313,0.863363,0.86463,0.865984,0.00355998,0.00333954,0.873776,0.879779,0.00342238,0.898071,0.89892,0.90416,0.00334155,0.896448,0.00318307,0.00330216,0.00345011,0.920198,0.00334707,0.0034963,0.00344394,0.947686,0.950061,0.952129,0.951867,0.941052,0.00352275,0.0035085,0.00327124,0.00342889,0.00331834,0.00356281,0.988021,0.99786,1.0042,1.00205,1.0068,1.00887,1.01084,1.01618,1.02666,1.02975,1.03351,1.0438,1.0449,1.04936,1.04958,1.05086,0.00338849,0.00346986,1.06893,1.07012,0.00350877,1.07489,1.08192,1.08105,1.08139,1.06647,1.06052,1.0597,1.06055,1.06352,1.06097,1.06192,1.06288,1.06386,1.05977,1.06278,1.05522,1.05158,1.05126,1.05852,1.05854,1.06429,1.0662,1.0715,1.07369,1.07467,1.07463,1.08179,1.0839,1.08416,1.08027,1.08413,1.09197,1.0947,1.10936,1.11535,1.11677,1.10601,1.10664,1.10865,1.10946
0.317534,0.317974,0.346751,0.347508,0.347625,0.341215,0.341667,0.351527,0.353798,0.354677,0.35554,0.353809,0.357585,0.397979,0.00349413,0.372921,0.375224,0.376974,0.376029,0.00347761,0.388642,0.38973,0.389728,0.391453,0.400631,0.399864,0.396859,0.396113,0.396225,0.397224,0.00325404,0.424152,0.424172,0.417874,0.424816,0.434302,0.435382,0.428976,0.429812,0.434749,0.43553,0.00353329,0.00343059,0.00352185,0.00333011,0.460814,0.461375,0.46194,0.00364306,0.485657,0.483929,0.483172,0.483453,0.00348638,0.00327229,0.511795,0.507836,0.585106,0.586949,0.587956,0.00338848,0.527933,0.516816,0.518105,0.517741,0.518588,0.521727,0.520549,0.519652,0.520934,0.523152,0.527874,0.532432,0.530696,0.534231,0.535608,0.537012,0.537306,0.545423,0.547703,0.0033949,0.0034622,0.607283,0.601103,0.562313,0.603582,0.604131,0.60023,0.592155,0.590258,0.577031,0.580016,0.578685,0.579455,0.580074,0.571214,0.572435,0.572993,0.585961,0.585169,0.58799,0.588328,0.587166,0.594992,0.597144,0.598663,0.602962,0.601728,0.606921,0.604236,0.608965,0.00360048,0.62523,0.62412,0.00317623,0.618622,0.620357,0.631707,0.632089,0.628382,0.628614,0.63051,0.631037,0.626405,0.626949,0.630111,0.631939,0.636894,0.639886,0.64542,0.647961,0.00326249,0.658903,0.660291,0.662474,0.659745,0.651257,0.653705,0.652915,0.65992,0.667134,0.663307,0.673907,0.671037,0.669702,0.668591,0.668523,0.661417,0.659989,0.664334,0.664603,0.664442,0.668168,0.66963,0.00304363,0.676038,0.674232,0.672659,0.664445,0.673952,0.671308,0.671681,0.675211,0.676216,0.677202,0.683568,0.689545,0.69054,0.699393,0.698203,0.698665,0.71448,0.715498,0.719768,0.721951,0.719693,0.00324471,0.731786,0.721063,0.724878,0.727066,0.730068,0.738903,0.738525,0.739571,0.748764,0.75276,0.755562,0.766829,0.771369,0.00359957,0.798336,0.80072,0.803486,0.807994,0.80776,0.815961,0.815667,0.820314,0.824992,0.826631,0.82972,0.83303,0.834769,0.837168,0.839401,0.842414,0.849357,0.850478,0.850612,0.850443,0.852191,0.855002,0.863671,0.865259,0.871889,0.871907,0.878183,0.875583,0.878037,0.881783,0.884366,0.00344824,0.898599,0.905026,0.904095,0.906472,0.91223,0.915241,0.928753,0.930372,0.932008,0.936777,0.942233,0.943281,0.949698,0.00343349,0.961582,0.967532,0.975773,0.00321392,0.984136,0.988059,0.991661,0.995021,0.997429,1.00377,1.00352,1.01338,1.01618,1.01725,1.01485,1.01919,1.02382,1.03251,1.03528,1.0362,1.04471,0.00328963,1.05701,1.05648,1.05939,1.06024,1.05323,1.05338,1.05412,1.06352,1.05806,1.05994,1.05965,1.06115,1.06303,1.0575,1.05593,1.05619,1.05703,1.04476,1.04814,1.04906,1.05105,1.05776,1.06017,1.05995,1.05908,1.06138,1.06661,1.07686,1.08244,1.08137,1.08741,1.07617,1.07708,1.08446,0.00360382,1.08187,1.08805,1.0894,1.09786,1.09837,1.09906
0.316995,0.315705,0.321728,0.327586,0.340135,0.344445,0.35029,0.345235,0.355714,0.353498,0.351354,0.352121,0.355342,0.355321,0.363541,0.369287,0.368169,0.376431,0.378709,0.378147,0.379834,0.390934,0.393242,0.39434,0.394772,0.394494,0.392979,0.397453,0.399027,0.401156,0.400641,0.404363,0.411476,0.401692,0.00348175,0.00323116,0.430815,0.421529,0.433813,0.422665,0.435148,0.425739,0.00347941,0.442149,0.00353733,0.00342644,0.449444,0.449197,0.00344961,0.480918,0.481283,0.483355,0.00343058,0.00322612,0.00354137,0.496228,0.00353161,0.00340472,0.00336687,0.594229,0.596111,0.502533,0.503103,0.504432,0.511692,0.512262,0.514073,0.520487,0.520553,0.519166,0.520433,0.527617,0.52305,0.524723,0.535651,0.537862,0.536872,0.538429,0.541431,0.00312839,0.595732,0.589322,0.590259,0.587538,0.584196,0.582781,0.582589,0.583476,0.576237,0.00331237,0.566079,0.56417,0.568083,0.572461,0.573395,0.572951,0.574621,0.575679,0.57352,0.00333882,0.58729,0.579251,0.590548,0.585417,0.587461,0.600542,0.59439,0.590873,0.584105,0.587828,0.58887,0.593682,0.600447,0.602671,0.604934,0.617495,0.617631,0.618385,0.618302,0.619766,0.62992,0.629941,0.630525,0.625987,0.628285,0.629016,0.624102,0.61963,0.620526,0.00338553,0.632234,0.634649,0.642296,0.631162,0.626364,0.632108,0.63654,0.638523,0.640022,0.644339,0.643294,0.00322327,0.653384,0.656565,0.657867,0.658851,0.657201,0.662933,0.656788,0.663101,0.662316,0.661503,0.661068,0.661622,0.659304,0.660826,0.663475,0.663613,0.663886,0.671809,0.672399,0.673324,0.665782,0.66675,0.668969,0.679161,0.684442,0.00318232,0.68915,0.00319849,0.690866,0.693863,0.695906,0.700951,0.704145,0.704217,0.716579,0.718876,0.721967,0.724562,0.726036,0.737932,0.7399,0.741616,0.739291,0.740353,0.00351615,0.00344197,0.769591,0.777564,0.778268,0.782132,0.788738,0.800107,0.801312,0.805133,0.807019,0.811356,0.813908,0.822205,0.821912,0.823055,0.824809,0.827601,0.828515,0.830819,0.839223,0.83926,0.836969,0.84673,0.844328,0.844282,0.839613,0.842423,0.842466,0.851023,0.851976,0.851405,0.848199,0.00329561,0.868669,0.870318,0.878386,0.881978,0.889942,0.891852,0.894465,0.00333466,0.00380427,0.00334615,0.914787,0.00344726,0.91974,0.922768,0.928127,0.00331019,0.941872,0.945666,0.945457,0.953053,0.0035946,0.00340124,0.971252,0.971216,0.97749,0.981276,0.980959,0.00326924,0.00355211,0.00321178,1.00249,1.00466,1.00712,1.0092,1.01837,1.01679,1.01913,1.02538,1.03321,1.03558,1.0324,1.04912,1.04917,1.05056,1.05023,1.05072,1.05292,1.05362,1.06027,0.00317387,0.0037817,1.04924,1.03933,1.03821,1.04698,1.04551,1.05351,1.04797,1.04713,1.05133,1.05706,1.05813,1.06036,1.06095,1.06166,1.06135,1.06437,1.06788,1.07465,1.07591,1.07518,1.06929,1.07338,1.07368,1.07518,1.0802,1.08151,1.08189,1.08865,1.08863
0.00323509,0.00332319,0.331087,0.332904,0.334663,0.335563,0.336257,0.336579,0.34885,0.347226,0.353156,0.353838,0.364363,0.365286,0.365969,0.365751,0.376779,0.378505,0.380759,0.380797,0.382518,0.382676,0.383882,0.385246,0.394537,0.382489,0.386714,0.389213,0.387548,0.387915,0.38905,0.390965,0.393303,0.396719,0.39715,0.406941,1.00958,0.421122,0.00332591,0.421842,0.418402,0.425324,0.427088,0.428523,0.428717,0.433742,0.450732,0.451084,0.00337991,0.459885,0.460255,0.461324,0.46182,0.461857,0.461577,0.0033708,0.00335868,0.468528,0.00336054,0.479032,0.49063,0.493257,0.491207,0.0035293,0.500239,0.00347435,0.514464,0.508449,0.511519,0.509012,0.509898,0.507662,0.527708,0.528113,0.525229,0.525923,0.512313,0.513044,0.514316,0.591085,0.59002,0.594564,0.593081,0.590865,0.583578,0.573867,0.57345,0.572969,0.556284,0.558001,0.560218,0.559902,0.560095,0.561669,0.562061,0.563305,0.565551,0.566133,0.569027,0.572474,0.575156,0.57575,0.576011,0.577687,0.579926,0.581736,0.569754,0.581265,0.574636,0.582299,0.58467,0.590355,0.591022,0.59624,0.597698,0.604467,0.605874,0.607612,0.6142,0.611432,0.606263,0.604727,0.614081,0.613645,0.613409,0.615111,0.617333,0.61361,0.615199,0.614705,0.622173,0.615856,0.618086,0.625259,0.620466,0.625641,0.624834,0.634924,0.640769,0.63818,0.627581,0.629323,0.630271,0.00325158,0.00347876,0.633347,0.634866,0.642943,0.643641,0.647664,0.643296,0.644508,0.659572,0.652534,0.654535,0.655081,0.653414,0.656748,0.66043,0.660606,0.661763,0.661688,0.663132,0.664391,0.663582,0.664182,0.666982,0.667628,0.68676,0.687661,0.69071,0.692426,0.697013,0.696459,0.690572,0.705099,0.703668,0.70189,0.711629,0.722231,0.724111,0.725194,0.727605,0.728304,0.742543,0.757377,0.756672,0.76023,0.760524,0.7717,0.774307,0.00342172,0.787811,0.790239,0.794316,0.799153,0.804362,0.805256,0.810937,0.814283,0.81367,0.814433,0.82035,0.823242,0.824854,0.824208,0.819646,0.824674,0.822337,0.82317,0.825463,0.824896,0.827104,0.835315,0.833329,0.832934,0.835763,0.83687,0.838883,0.842358,0.00317797,0.861161,0.864619,0.872029,0.875555,0.87317,0.875721,0.882978,0.885217,0.889205,0.890833,0.901844,0.910937,0.906739,0.918856,0.919381,0.920449,0.924783,0.926052,0.928835,0.929549,0.00333332,0.00349415,0.00364929,0.00329996,0.957851,0.959553,0.963678,0.00348502,0.00343148,0.982084,0.980535,0.984094,0.986387,0.99345,0.99645,0.992869,0.996106,1.00238,1.00478,0.992871,0.995259,0.00337975,0.00369657,1.00532,1.00511,1.0151,0.00349438,1.01753,1.01801,0.00339524,1.02578,1.02996,1.03326,1.03799,1.04026,1.04477,1.04558,1.04645,1.05501,1.05649,1.05974,1.06274,1.06453,1.05386,1.05811,1.0574,1.05745,1.0607,1.06069,1.06987,1.06746,1.06669,1.06985,1.07872,1.07937,1.07827,1.07476,1.07694,1.08071
0.00352639,0.315707,0.315924,0.31676,0.335881,0.338294,0.34009,0.339905,0.338393,0.33767,0.352871,0.354943,0.365072,0.365307,0.365762,0.36581,0.367345,0.380418,0.379494,0.376423,0.376595,0.374363,0.374662,0.376076,0.376763,0.377683,0.384297,0.384822,0.387198,0.385783,0.385592,0.390731,0.393378,0.392839,0.389917,0.391834,0.392373,0.392559,0.39997,0.404207,0.406536,0.407198,0.409886,0.423493,0.423837,0.42604,0.434852,0.434004,0.00357191,0.438871,0.446873,0.449876,0.455291,0.459803,0.460625,0.460364,0.456034,0.458266,0.00326103,0.00350341,0.0034523,0.481533,0.481542,0.484133,0.485895,0.00346103,0.00343583,0.00340182,0.509526,0.508961,0.510368,0.510384,0.508299,0.508481,0.511542,0.510748,0.502126,0.504201,0.504679,0.507623,0.507489,0.586465,0.587649,0.586035,0.580785,0.577465,0.567138,0.567927,0.557507,0.559293,0.559948,0.560461,0.55914,0.558836,0.557538,0.559632,0.556309,0.565971,0.555289,0.55442,0.572212,0.00337815,0.574594,0.575713,0.564778,0.567059,0.56927,0.569063,0.572424,0.57418,0.578318,0.583679,0.591059,0.584522,0.58744,0.587988,0.596537,0.594859,0.606813,0.59747,0.596376,0.595711,0.601822,0.601277,0.602772,0.603517,0.607353,0.610631,0.600996,0.604143,0.609168,0.611653,0.610094,0.613776,0.614087,0.615711,0.62324,0.622704,0.623718,0.622211,0.620915,0.621021,0.621351,0.623399,0.624878,0.625532,0.626304,0.635561,0.641373,0.633003,0.637301,0.640093,0.6376,0.645238,0.641569,0.639187,0.641671,0.642829,0.643761,0.64491,0.652157,0.652371,0.654675,0.656519,0.659131,0.654783,0.656015,0.66128,0.00351595,0.674101,0.674457,0.680679,0.687023,0.688478,0.692998,0.692651,0.692445,0.708456,0.714756,0.718972,0.718635,0.728043,0.728202,0.728617,0.00338811,0.00337902,0.755974,0.758036,0.759346,0.760454,0.767797,0.0033996,0.0034721,0.793663,0.791095,0.791521,0.789917,0.791761,0.797242,0.799938,0.804405,0.800593,0.799404,0.00343092,0.00345069,0.00327411,0.797317,0.0033442,0.805208,0.0032647,0.806696,0.809805,0.810727,0.813126,0.815016,0.815749,0.0034542,0.83843,0.8415,0.843689,0.851414,0.856722,0.861488,0.862357,0.858721,0.860273,0.867747,0.867318,0.874699,0.877828,0.87852,0.873901,0.874075,0.00324184,0.886957,0.00316113,0.892176,0.00320065,0.898498,0.00338824,0.00345904,0.915207,0.918594,0.925678,0.930313,0.94074,0.948152,0.949308,0.952078,0.00341344,0.966481,0.976972,0.979846,0.98053,0.985842,0.987126,0.984262,0.984768,0.990906,0.985116,0.986999,0.990287,0.989368,0.99416,0.994499,0.995588,0.990526,0.997359,0.00333583,0.00343916,0.00329962,1.00487,0.00332366,0.00333513,0.00337504,1.00936,1.01008,1.01265,1.01525,0.00311104,1.05576,1.05767,1.0589,1.06377,1.05283,1.05197,1.04825,1.05253,1.05553,1.05692,1.06114,1.06215,1.06831,1.06933,1.07033,1.07839,1.08062,1.08227,1.07962,1.0844
0.302219,0.302077,0.301623,0.32023,0.0031236,0.327895,0.327785,0.32927,0.339095,0.327753,0.325756,0.327403,0.338165,0.338163,0.349589,0.349845,0.349698,0.376955,0.374776,0.375564,0.375917,0.375313,0.375962,0.379115,0.380445,0.382706,0.380478,0.378817,0.386203,0.386754,0.391166,0.392468,0.389157,0.385987,0.385005,0.386583,0.394171,0.387173,0.392951,0.40428,0.406491,0.406526,0.408082,0.407054,0.407703,0.4178,0.00351949,0.4224,0.422777,0.00373358,0.427959,0.431071,0.454709,0.448659,0.447308,0.444223,0.445702,0.446839,0.452544,0.454176,0.454634,0.455847,0.465465,0.470017,0.467519,0.469513,0.470686,0.0034797,0.483373,0.483551,0.481598,0.483209,0.496453,0.498572,0.500534,0.50028,0.500648,0.50113,0.501487,0.503471,0.507509,0.587255,0.589177,0.589853,0.579775,0.576929,0.569188,0.569195,0.569408,0.568553,0.549278,0.559059,0.553564,0.541319,0.54913,0.549091,0.550204,0.553352,0.554105,0.553936,0.552729,0.552667,0.55258,0.551755,0.554045,0.565312,0.553507,0.566761,0.569029,0.57601,0.576845,0.580256,0.582451,0.582633,0.584577,0.584673,0.586015,0.588388,0.578532,0.592403,0.577984,0.576948,0.58312,0.581051,0.581941,0.582666,0.585145,0.591595,0.590529,0.604222,0.597465,0.596276,0.595197,0.59701,0.598553,0.604726,0.60509,0.618431,0.620797,0.621994,0.622654,0.622771,0.623027,0.623389,0.626887,0.626458,0.624405,0.623626,0.624643,0.634714,0.634372,0.633794,0.634309,0.634675,0.634691,0.638329,0.63486,0.625994,0.62802,0.633095,0.634627,0.636584,0.638598,0.650914,0.649575,0.651663,0.655042,0.653345,0.654701,0.658512,0.658963,0.663812,0.00321223,0.684992,0.689898,0.694257,0.695325,0.703655,0.70499,0.711378,0.713187,0.718852,0.715873,0.71833,0.00337687,0.0035924,0.739326,0.743189,0.749481,0.748811,0.759235,0.763024,0.760351,0.763765,0.76679,0.770709,0.769037,0.776302,0.774468,0.77689,0.778895,0.781594,0.785222,0.786742,0.785829,0.783085,0.781736,0.786279,0.798822,0.799467,0.8019,0.804089,0.805395,0.805491,0.80736,0.809925,0.816555,0.824631,0.00344864,0.839586,0.844843,0.846147,0.846891,0.8447,0.843838,0.849662,0.850984,0.853894,0.852897,0.857269,0.85934,0.865165,0.869245,0.870882,0.871522,0.877799,0.872363,0.875313,0.88535,0.893806,0.896169,0.00338796,0.910962,0.913491,0.917084,0.924867,0.926248,0.93255,0.929127,0.93002,0.00317268,0.944303,0.948899,0.959666,0.959584,0.95935,0.957459,0.00346753,0.965762,0.964305,0.970327,0.966218,0.974704,0.977061,0.976641,0.977142,0.00342894,0.981493,0.957926,0.960062,0.00329017,0.00370401,0.00312975,0.987379,0.00346462,0.00342219,1.00782,0.00332887,1.00881,1.01078,0.00346839,0.00355387,1.04792,1.04955,1.05634,1.05449,1.05337,1.05322,1.05404,1.05329,1.059,1.06012,1.04736,1.05528,1.05973,1.06185,1.06364,1.06872,1.07081,1.0774
0.309803,0.307968,0.305004,0.309449,0.319916,0.328599,0.328528,0.327983,0.327828,0.329171,0.330796,0.332321,0.331336,0.33532,0.339483,0.341271,0.35132,0.352731,0.376112,0.358433,0.375578,0.373919,0.373887,0.379983,0.386094,0.38604,0.384979,0.385677,0.38633,0.386475,0.386475,0.381223,0.382828,0.386104,0.378299,0.376151,0.378716,0.379742,0.383038,0.392245,0.388017,0.406626,0.406836,0.406807,0.407079,0.405319,0.405768,0.410652,0.411423,0.411855,0.415234,0.00328218,0.417611,0.00334113,0.00363857,0.00313085,0.00329635,0.443285,0.44355,0.446958,0.45698,0.46096,0.462649,0.461617,0.461657,0.461816,0.474109,0.476128,0.478892,0.482858,0.484795,0.486419,0.487003,0.491519,0.500813,0.500337,0.493105,0.502098,0.503012,0.501116,0.502212,0.588928,0.589117,0.589494,0.589772,0.560895,0.56156,0.563203,0.00338918,0.537112,0.539142,0.550057,0.55347,0.538086,0.545181,0.544069,0.546602,0.54033,0.554848,0.548427,0.546659,0.545572,0.545643,0.548796,0.54679,0.551387,0.559907,0.560386,0.566561,0.567899,0.568758,0.571487,0.575637,0.573335,0.56915,0.569895,0.571396,0.568814,0.568734,0.569979,0.571022,0.574179,0.579218,0.581417,0.581398,0.581976,0.584337,0.584271,0.585918,0.589832,0.594825,0.594638,0.59671,0.595663,0.600598,0.602184,0.604696,0.604649,0.611148,0.611939,0.613789,0.615734,0.616211,0.615909,0.6181,0.6185,0.618702,0.622879,0.621997,0.623243,0.624516,0.624699,0.633352,0.627847,0.627258,0.626604,0.625535,0.61997,0.623797,0.631828,0.63344,0.636673,0.640123,0.641199,0.642645,0.64162,0.64308,0.651741,0.65371,0.658176,0.65934,0.660474,0.661185,0.680929,0.684046,0.685686,0.686813,0.69074,0.696943,0.69731,0.698026,0.70359,0.703356,0.706932,0.713965,0.715031,0.723325,0.00346302,0.734174,0.00324827,0.751951,0.753113,0.754263,0.757677,0.758915,0.761086,0.763087,0.754983,0.760994,0.766292,0.775186,0.77377,0.778401,0.781338,0.783947,0.778379,0.779494,0.783215,0.780809,0.788909,0.790358,0.794973,0.796024,0.796196,0.798684,0.811757,0.821845,0.825088,0.00325913,0.00325015,0.00354787,0.00349166,0.00362743,0.00322894,0.842288,0.842094,0.843532,0.834574,0.838868,0.845664,0.855231,0.858553,0.861354,0.862271,0.866053,0.869241,0.871437,0.877043,0.879172,0.88238,0.887392,0.891233,0.897396,0.901599,0.899842,0.904289,0.00336008,0.918474,0.921741,0.922509,0.916384,0.918899,0.924251,0.925701,0.931435,0.93867,0.938468,0.940739,0.945482,0.950871,0.955341,0.960174,0.968147,0.969673,0.971235,0.970754,0.973258,0.974885,0.976802,0.959577,0.95695,0.960305,0.00376983,0.971231,0.970975,0.976659,0.977426,0.979361,0.00371603,0.986249,0.00359237,1.03117,1.03332,1.03609,1.04689,1.05159,1.05316,1.055,1.05527,1.05687,1.05995,1.05965,1.04889,1.05031,1.04752,1.05809,1.0609,1.06006,1.06215,1.0684
0.29719,0.298471,0.307809,0.316303,0.316819,0.316465,0.318263,0.328867,0.328712,0.329416,0.33538,0.334947,0.336052,0.336588,0.335299,0.335074,0.350234,0.35723,0.359021,0.361199,0.360042,0.357101,0.356605,0.358302,0.386319,0.386091,0.389431,0.388386,0.389307,0.387363,0.374629,0.374006,0.376075,0.37714,0.376077,0.374213,0.37915,0.379481,0.380212,0.384683,0.384158,0.379299,0.380208,0.385774,0.00335803,0.388709,0.405526,0.406398,0.411559,0.412687,0.43947,0.440782,0.441953,0.426973,0.426696,0.42423,0.425045,0.438712,0.00348366,0.448135,0.454259,0.463362,0.46376,0.460046,0.466696,0.469039,0.473711,0.475395,0.475421,0.484456,0.485243,0.487347,0.489167,0.490464,0.494613,0.494064,0.491908,0.491865,0.489809,0.485113,0.494887,0.560711,0.56139,0.56638,0.566114,0.56102,0.557956,0.559244,0.559254,0.535452,0.536369,0.534859,0.534476,0.534554,0.5346,0.536119,0.537176,0.537614,0.538259,0.53927,0.54174,0.543045,0.541798,0.536802,0.541746,0.542891,0.555249,0.558132,0.561354,0.568604,0.569401,0.570206,0.567204,0.569835,0.564266,0.564573,0.567499,0.567225,0.569454,0.569199,0.569548,0.563429,0.568649,0.568653,0.570439,0.572856,0.574216,0.572929,0.57589,0.579253,0.58029,0.582799,0.585344,0.58548,0.580975,0.587987,0.58987,0.595305,0.59971,0.601743,0.605824,0.606102,0.61419,0.61798,0.621057,0.60794,0.00344891,0.625491,0.621708,0.619779,0.617416,0.626847,0.617699,0.617289,0.617423,0.620662,0.619515,0.621995,0.622758,0.628141,0.616561,0.618185,0.618502,0.623186,0.627579,0.625089,0.627989,0.644858,0.00342677,0.638452,0.642439,0.659054,0.652996,0.00347899,0.684121,0.683779,0.687331,0.68947,0.693783,0.690694,0.692663,0.69563,0.699099,0.703575,0.707552,0.710463,0.712496,0.718966,0.724758,0.725844,0.730027,0.732286,0.00345431,0.742906,0.00334571,0.758813,0.762483,0.759755,0.762343,0.758008,0.76009,0.766469,0.777715,0.776808,0.779186,0.766213,0.767712,0.775602,0.775258,0.780824,0.767954,0.769208,0.771495,0.786601,0.790262,0.790322,0.79509,0.798015,0.807383,0.810062,0.812506,0.814664,0.816118,0.818438,0.822612,0.823378,0.825969,0.832404,0.833269,0.833373,0.839313,0.854063,0.854384,0.855569,0.857807,0.863336,0.864059,0.868022,0.882631,0.883229,0.887057,0.890285,0.892407,0.893852,0.894053,0.893961,0.894785,0.895693,0.901409,0.904717,0.90766,0.907392,0.913516,0.918089,0.919757,0.925575,0.00334043,0.936332,0.943173,0.947125,0.952701,0.959566,0.964949,0.97143,0.976074,0.977309,0.976448,0.970266,0.00344471,0.99016,0.994221,0.00366231,0.959114,0.963013,0.964174,0.966278,0.97139,0.974004,0.976477,0.98015,0.984957,0.988422,0.00328035,1.02759,1.02953,1.03267,1.03486,0.00339903,0.00335631,1.06119,1.0636,1.05661,1.05685,1.03973,1.04106,1.04042,1.04285,1.05983,1.06036,1.05597
0.291116,0.297386,0.298649,0.300108,0.315353,0.317078,0.317701,0.317634,0.319479,0.332609,0.3349,0.334532,0.335932,0.334429,0.333689,0.321533,0.32398,0.00348789,0.328949,0.358414,0.335184,0.00326459,0.357798,0.357875,0.356343,0.358716,0.355552,0.357809,0.355295,0.355123,0.353488,0.355424,0.37643,0.375765,0.375752,0.37677,0.375741,0.388095,0.386149,0.383893,0.382551,0.382607,0.381995,0.383654,0.3874,0.390428,0.3963,0.396821,0.397624,0.401495,0.408307,0.441682,0.441838,0.441942,0.00360758,0.425052,0.444738,0.44609,0.442593,0.4459,0.445395,0.453006,0.460529,0.463675,0.46733,0.47203,0.471164,0.473504,0.485294,0.48921,0.487984,0.486761,0.489459,0.490121,0.490578,0.489886,0.489435,0.49155,0.491879,0.489072,0.489414,0.487854,0.5637,0.565643,0.566197,0.565059,0.563336,0.558616,0.557502,0.55314,0.551174,0.535597,0.536941,0.537679,0.535156,0.535619,0.536127,0.536109,0.537793,0.538108,0.528412,0.529585,0.529947,0.530133,0.00369406,0.00332782,0.549809,0.553106,0.562995,0.563125,0.56457,0.567015,0.56754,0.569182,0.569143,0.565906,0.550193,0.551309,0.567673,0.554223,0.556807,0.569165,0.564534,0.56869,0.569756,0.563681,0.568073,0.568693,0.570444,0.571787,0.576585,0.574872,0.573829,0.582094,0.581349,0.582149,0.582711,0.58738,0.587738,0.00334932,0.598454,0.600214,0.592434,0.596263,0.608102,0.601814,0.604198,0.604446,0.61031,0.611532,0.611535,0.613886,0.615095,0.615565,0.616857,0.611263,0.609311,0.610312,0.607972,0.608272,0.615951,0.598883,0.615899,0.610443,0.611426,0.622362,0.626807,0.00348454,0.63234,0.00336321,0.638646,0.639154,0.641269,0.64302,0.645415,0.652594,0.653723,0.68344,0.686965,0.688643,0.689836,0.00319004,0.701809,0.704857,0.706652,0.710222,0.712875,0.719392,0.723121,0.725158,0.727236,0.728257,0.733278,0.735343,0.739613,0.750846,0.751687,0.756513,0.757989,0.758858,0.757896,0.756694,0.756529,0.757473,0.758936,0.759346,0.762474,0.746922,0.748998,0.753225,0.767552,0.7673,0.772915,0.77365,0.7827,0.785448,0.786917,0.78762,0.789274,0.792334,0.795023,0.00342999,0.00335749,0.814331,0.823054,0.82645,0.826197,0.824939,0.828115,0.835576,0.84315,0.849027,0.850656,0.857414,0.855003,0.867396,0.855219,0.862345,0.864602,0.868474,0.872183,0.874281,0.879745,0.88004,0.876714,0.87945,0.879816,0.880171,0.888717,0.891036,0.894796,0.899646,0.901894,0.902775,0.910383,0.917823,0.921596,0.924143,0.930171,0.00322707,0.937474,0.935358,0.945592,0.00304098,0.960418,0.960109,0.96378,0.96517,0.970893,0.972298,0.985872,0.989538,0.990702,0.954665,0.960712,0.962077,0.966587,1.00697,0.97515,0.976521,0.978616,0.980748,0.98429,0.98551,0.993066,1.02474,1.03055,1.03161,0.00358516,1.04038,1.05937,1.05999,1.06143,0.00338953,1.03701,1.03585,1.03934,1.04494,1.04624,1.04784
0.286546,0.297736,0.300184,0.302369,0.303125,0.298533,0.304572,0.308746,0.00317999,0.314217,0.318877,0.33249,0.332503,0.318559,0.31934,0.318592,0.324228,0.327488,0.329173,0.333461,0.332591,0.3355,0.342529,0.3515,0.3504,0.353403,0.354875,0.355567,0.358432,0.35847,0.358841,0.359353,0.361847,0.359528,0.362629,0.360096,0.359503,0.38308,0.377881,0.374692,0.37688,0.378905,0.381159,0.381434,0.391112,0.39432,0.395901,0.396099,0.39617,0.399437,0.409624,0.411043,0.411788,0.409041,0.00316239,0.00362186,0.00326672,0.447021,0.00339298,0.00360329,0.454959,0.456729,0.458854,0.457745,0.467287,0.475776,0.478137,0.47938,0.48791,0.489728,0.490471,0.488549,0.488685,0.49098,0.4927,0.49365,0.493339,0.492181,0.491521,0.493166,0.487382,0.489179,0.489611,0.493449,0.55441,0.549526,0.549793,0.549159,0.55148,0.55027,0.552221,0.547541,0.542324,0.533576,0.536697,0.53621,0.538012,0.535464,0.536211,0.526468,0.525827,0.527372,0.531549,0.53351,0.00332537,0.538006,0.552399,0.548148,0.546232,0.548841,0.549452,0.54723,0.545148,0.539102,0.541484,0.544071,0.543068,0.543844,0.544655,0.545943,0.547558,0.549841,0.549646,0.5538,0.556153,0.562684,0.560419,0.564061,0.565108,0.566196,0.566175,0.570323,0.573168,0.573958,0.574994,0.578862,0.579754,0.581456,0.583357,0.579539,0.58112,0.592367,0.593419,0.594218,0.592352,0.594675,0.598611,0.60035,0.602815,0.605679,0.611236,0.613271,0.601502,0.608173,0.607409,0.614396,0.610416,0.610487,0.604977,0.603841,0.598398,0.597255,0.598747,0.602654,0.598648,0.610555,0.604457,0.606736,0.605843,0.610025,0.612564,0.00347939,0.00324678,0.6317,0.63809,0.649787,0.656981,0.662742,0.670602,0.672259,0.669455,0.6728,0.677422,0.682146,0.685234,0.689096,0.692065,0.69965,0.00334474,0.706216,0.709984,0.728942,0.730005,0.717805,0.718324,0.00331025,0.0035146,0.756759,0.756887,0.760297,0.762688,0.760629,0.759107,0.753815,0.759239,0.762099,0.761322,0.756726,0.756422,0.757036,0.759176,0.762716,0.762309,0.767151,0.772849,0.773096,0.773839,0.78656,0.781676,0.790383,0.783902,0.797112,0.797743,0.796724,0.805812,0.809483,0.813245,0.817961,0.821207,0.825144,0.826529,0.84373,0.850235,0.849963,0.852332,0.856979,0.846432,0.846491,0.856002,0.858425,0.858264,0.875223,0.875934,0.868983,0.872394,0.8729,0.873852,0.874812,0.88441,0.898436,0.900101,0.902583,0.901505,0.901909,0.90154,0.00341189,0.912871,0.910701,0.913736,0.922206,0.923168,0.926375,0.93596,0.944423,0.949588,0.953433,0.96046,0.964548,0.972965,0.00340291,0.977485,0.98088,0.984192,0.946768,0.949401,0.00346485,0.963842,0.969551,0.974761,0.976879,0.979962,0.979194,0.982348,0.00341799,0.00331852,1.02271,1.02403,1.02573,1.02835,1.031,0.00352876,1.0517,1.05137,1.02374,1.02909,1.03284,1.04209,1.04415,1.04666,1.04393
0.284664,0.283873,0.301148,0.301388,0.301607,0.302131,0.29762,0.299365,0.300485,0.303138,0.302797,0.310796,0.311073,0.307959,0.318613,0.318558,0.320607,0.327205,0.327488,0.337869,0.339026,0.337597,0.342,0.344907,0.34685,0.347136,0.346632,0.345824,0.359346,0.360131,0.361632,0.36141,0.363038,0.360546,0.362293,0.360233,0.361852,0.361779,0.362518,0.383237,0.381857,0.380496,0.381529,0.379768,0.377902,0.381429,0.381581,0.383007,0.393481,0.397264,0.39849,0.399778,0.408533,0.408481,0.409841,0.00348228,0.434086,0.00346199,0.438017,0.00327468,0.467107,0.468511,0.469648,0.469267,0.473317,0.475435,0.479199,0.479723,0.482074,0.489419,0.492594,0.493217,0.496394,0.496943,0.496067,0.496142,0.496495,0.491716,0.493844,0.500625,0.50095,0.498918,0.498443,0.00335198,0.546307,0.549739,0.550098,0.550783,0.552726,0.55266,0.551578,0.551406,0.544977,0.538068,0.53822,0.535654,0.538576,0.539275,0.53809,0.538699,0.520771,0.521762,0.528356,0.531584,0.532003,0.537079,0.538185,0.539203,0.541839,0.541998,0.542534,0.537587,0.537127,0.538024,0.535624,0.538031,0.533186,0.535916,0.535556,0.536822,0.539453,0.540594,0.542743,0.55259,0.55657,0.55736,0.560181,0.559653,0.565288,0.565598,0.567189,0.569139,0.571719,0.57316,0.579928,0.582659,0.583925,0.582858,0.578523,0.578999,0.583524,0.585227,0.586764,0.587021,0.587483,0.58947,0.591666,0.590146,0.589465,0.588419,0.590259,0.590684,0.59963,0.596521,0.587868,0.589122,0.589825,0.580615,0.583371,0.584872,0.586174,0.596948,0.595456,0.595719,0.595372,0.601051,0.602554,0.603169,0.605859,0.611586,0.611757,0.614381,0.62075,0.623406,0.628645,0.00350738,0.00356015,0.659549,0.657656,0.00337988,0.673362,0.668793,0.670091,0.684369,0.68566,0.691202,0.693543,0.694079,0.69748,0.69842,0.702337,0.702834,0.701205,0.70841,0.708148,0.00336417,0.0034566,0.718977,0.00349302,0.00346191,0.00332314,0.00332206,0.734187,0.735853,0.00342281,0.00316917,0.735192,0.736372,0.742245,0.741074,0.762615,0.763908,0.76239,0.760487,0.764215,0.765058,0.768582,0.771223,0.774307,0.774378,0.775076,0.780934,0.780963,0.785046,0.800816,0.801612,0.80709,0.808187,0.815664,0.820744,0.832248,0.823261,0.828434,0.841921,0.84279,0.848757,0.849082,0.843861,0.846981,0.844048,0.848741,0.849414,0.855724,0.85812,0.859194,0.867427,0.00352814,0.00315961,0.00346098,0.894346,0.889939,0.89062,0.885193,0.887384,0.888877,0.888939,0.888483,0.89305,0.00343795,0.0033729,0.912405,0.91483,0.924,0.926148,0.00316666,0.00309865,0.94651,0.952657,0.959163,0.960219,0.965823,0.966393,0.920773,0.936001,0.00342033,0.00331674,0.959605,0.964781,0.970182,0.975028,0.972533,0.975448,0.978139,0.975241,0.977338,0.978706,0.974915,0.974411,0.953378,0.00327596,0.00330493,0.00328316,1.02766,1.03089,1.03343,1.03582,1.04617,1.04801,1.04824,1.05037
