1.66213861579958,1.66078027887982,1.68055892136597,1.75814162195626,1.74748568181752,1.81815538214889,1.80690184397498,1.80690557216487,1.75033735263734,1.72824670194958,1.74206853010151,1.8051867544397,1.80516704409808,1.72346396066209,1.74379388724811,1.72331996946692,1.78316822530908,1.80035435660318,1.80401284073458,1.71980074230634,1.73694602573799,1.71712132319185,1.715069073241,1.71593973756221,1.74084103707742,1.79175984722933,1.78996345070914,1.78954914603783,1.79326251837894,1.83091011703071,1.78380695806652,1.70801480311183,1.72906777073795,1.7071290966494,1.78239762601611,1.78362587389329,1.78206763999777,1.78172830969807,1.77861301644549,1.83282011703071,1.73501017554206,1.70357859154808,1.70364997630534,1.70301424359616,1.7334125413313,1.82782011703071,1.79195230750594,1.90354011703071,1.78004734850153,1.78412034725907,1.75632595748616,1.70786821579809,1.70990916325477,1.70967843002665,1.74365780187227,1.79094779598744,1.7904349228113,1.79457217883889,1.75066028735551,1.72135000644533,1.73721134779772,1.72798539313474,1.78768058252114,1.81523621973207,1.8109979035154,1.79861541108117,1.79955492033139,1.7996041225878,1.85035626882335,1.87555096653824,1.86067165940996,1.8728367544397,1.85919644894903,1.88268310536313,1.8577651217917,1.87408915496042,1.85602737564942,1.79903547891863,1.81459256388004,1.88017011703071,1.8055908343021,1.79655761234689,1.81312647781825,1.87670465532842,1.80579121360244,1.7958269132827,1.79608655590714,1.79634321293117,1.79569635415434,1.79290552289681,1.79398169318537,1.79386835183674,1.79262820241428,1.87674508777304,1.82893519106532,1.79361591702336,1.85425899658925,1.89069553264429,1.85703298272439,1.86151406992486,1.82455517009093,1.86358005851536,1.85832639148106,1.87058825524755,1.84801620067994,1.78585396132005,1.78412598227014,1.87439011703071,1.83854646611287,1.86125380119755,1.81226964388832,1.77892946831155,1.78712831147423,1.85801805491321,1.77898605363098,1.7792759521642,1.77784050939688,1.77624204677883,1.77609675839569,1.77480899995406,1.78574088534828,1.87812011703071,1.80000520176344,1.79090763845973,1.78174799629335,1.70625988074651,1.78039833439398,1.77954753531596,1.78107886493073,1.77824183814532,1.69390659373638,1.69460975512762,1.76873128875142,1.77008407727622,1.77130153049106,1.76627510536388,1.76436478091326,1.76476004193848,1.71234322309874,1.68445744950445,1.68776328755438,1.76468765602122,1.76364271765063,1.76397764282904,1.76285773503071,1.76300217805297,1.76189425986416,1.76319497708602,1.7622912757848,1.7642160973112,1.76272642520398,1.76428316806281,1.76369330650657,1.76497153341563,1.76392329098257,1.78979094766752,1.76339996994592,1.76530951268651,1.76440823869359,1.76736181602475,1.75361486987754,1.76774792616985,1.76678867234055,1.76739312295862,1.74543668658451,1.76927011703071,1.71175623116984,1.69020114900961,1.72239660193382,1.77015481620284,1.76700817914559,1.68913657844608,1.77227518059057,1.78173385561092,1.77164993229963,1.77451006669213
1.66183074743911,1.66023285346004,1.68772967832264,1.75664725272148,1.74298185841484,1.73039643428022,1.73874911924049,1.72885456000165,1.74232326251627,1.72774047673904,1.74679827232951,1.80585342110637,1.80486972573574,1.80313071535448,1.79866066953893,1.799307634608,1.79871888327031,1.79993401277802,1.80416471915095,1.91701011703071,1.74782885732071,1.79581011703071,1.78934117173335,1.79272008961029,1.74693966956017,1.71346984588844,1.78934671250133,1.7907703413449,1.79397882970563,1.7108298432582,1.78380386229964,1.78598064544163,1.73886109502443,1.7074490923998,1.78200087661249,1.78265997747113,1.78147731254434,1.78130807591577,1.77883284772097,1.77971667331937,1.77890090800105,1.77930249332748,1.78005439588363,1.78052625452236,1.77822610034333,1.77908655380321,1.77871162779744,1.78058348875884,1.77871122646217,1.82688011703071,1.75672055318726,1.70759929057844,1.71052460440801,1.71036195448232,1.74081164843226,1.79029202622913,1.78944532345421,1.79681292086943,1.79630324600335,1.79869292636401,1.74986086943872,1.72810669705443,1.78766286936925,1.82390728016659,1.81046407064694,1.79650182881169,1.79845908070656,1.87410613302328,1.8502347207871,1.87268770308812,1.84207958283268,1.79923568600869,1.80436969992705,1.79870582803181,1.81637337925094,1.87336777921826,1.86174161219772,1.88863979811068,1.81195540906796,1.79708889009824,1.80190013322368,1.79725966027228,1.80733550197042,1.79619315637767,1.80199853938848,1.79666036402172,1.79543407339953,1.79685959289912,1.80881484201681,1.87903549371086,1.85625015054695,1.88093585811313,1.79196170357669,1.79263460891316,1.82880010878144,1.87900886409284,1.85535931861563,1.88717870137642,1.85712163198611,1.87280610562121,1.81107737432799,1.78773985850214,1.85342226764961,1.86771868953726,1.84795016877958,1.78675204990549,1.78506208929348,1.78396685206796,1.83892087165124,1.87962866479358,1.81263610238012,1.77928026433441,1.79200636547317,1.85522212063286,1.77904745159429,1.77861666115308,1.77797956516006,1.77644137988992,1.77650515148102,1.85402011703071,1.80742400462697,1.84927,1.79876642936841,1.71034986855211,1.78178856998615,1.79842005851536,1.78101243798519,1.77991519294517,1.78005472733076,1.69699040991771,1.69486739379972,1.69484641671823,1.76846681422707,1.79876267724242,1.7770007828847,1.79955201386694,1.7634887986723,1.68605335344188,1.70502501667856,1.68377448381055,1.68801159782763,1.76459539833923,1.76287508103042,1.76297437802793,1.76267112651272,1.76351910764437,1.76222147974362,1.76242122965772,1.76213551022572,1.79544172323245,1.7617189369537,1.76426251663673,1.76394497655929,1.76536511559324,1.76424040484955,1.7647893948861,1.76329753167856,1.68658575242114,1.70830189660297,1.68823984763728,1.68864554521015,1.68869546381422,1.68961396251779,1.68800145261137,1.71254362494091,1.68836291852519,1.70447110252516,1.6899811603332,1.71156336552541,1.68925604297885,1.76710719094162,1.76960134400477,1.77029806728123,1.77003660932764,1.76878375714185,1.7665399175515
1.6741859946675,1.83628011703071,1.69563515063117,1.66496986075912,1.73884557383726,1.73007596039458,1.74386605356801,1.80770011703071,1.75577598877191,1.80467011703071,1.75167025669801,1.72663507516451,1.80454090460692,1.80201548821188,1.79860237734432,1.79895296657049,1.79782816980906,1.79723207000246,1.76874669087835,1.71742410223616,1.73604720373369,1.71437515229334,1.78932471619136,1.79125259914369,1.78943207932329,1.79080012912514,1.78953364987286,1.79022687709938,1.79260514266766,1.78930408301468,1.78684184456731,1.78702743615423,1.78433772036807,1.78456795892426,1.78205936475209,1.78289386069658,1.78091064286087,1.70570987859351,1.77863839020163,1.77933217468904,1.77906512192578,1.78020932039408,1.77957366094418,1.77990746772621,1.77809099838021,1.70256987867331,1.77884474879872,1.78097789331744,1.77995228791553,1.7072297576526,1.75770484738891,1.82515011703071,1.79679797392939,1.82426005851536,1.73598490659902,1.71252063538707,1.7446666322802,1.8238017544397,1.79616636585936,1.79963838679952,1.80467945927078,1.82487011703071,1.7875425074456,1.81056673416277,1.80718219153588,1.75418091298903,1.79778699013833,1.87312061324673,1.8502461827882,1.7992297281519,1.8424462682011,1.87241508777304,1.80967886472083,1.79834238978866,1.81206444589895,1.88216329988275,1.86183375202266,1.8794547196623,1.80872134785453,1.79616942665468,1.80540756590133,1.87465702701735,1.8680833926918,1.88984441812048,1.807478914838,1.7950860971215,1.79379696524527,1.88737165513145,1.85817276180903,1.86885657528593,1.85606224666708,1.86929431743294,1.79258408095962,1.79289317150622,1.82885156943327,1.88243569776539,1.851609915125,1.79104420777425,1.80407121145699,1.79280295879427,1.80562100938807,1.87949011703071,1.85299116379091,1.86965303494955,1.85625283207612,1.86026767050915,1.84868870445272,1.87896011703071,1.83919981149476,1.87536781306001,1.83095346067824,1.87183011703071,1.79654852669319,1.77872898357602,1.77900003330196,1.77891396322228,1.77871697579791,1.77571888507495,1.77623391569704,1.77584680030267,1.80586571440724,1.87569011703071,1.79892180395774,1.80100725853256,1.80029098178788,1.87667005851536,1.78103974123803,1.78084318634655,1.77883336403623,1.77719932514279,1.77223315644579,1.77209052977619,1.77013397706628,1.76900535079037,1.76803720090905,1.76774192968145,1.76528533204762,1.76652718827985,1.71999145431612,1.76590011703071,1.68782587117924,1.68468717201244,1.76217086821686,1.76426153725863,1.76268670278488,1.763366668254,1.71611117618027,1.68278633122739,1.76451606609598,1.79190845231363,1.76065724144097,1.68517481270908,1.70603690313391,1.68367431343002,1.71818587808946,1.76426335824052,1.76363730277376,1.76770180056701,1.71788166723633,1.68826451415183,1.68851020953803,1.68818710372429,1.68999657332382,1.76831011703071,1.76360802085072,1.78229342110637,1.75958589000471,1.76875013386628,1.76669165177122,1.76769086805748,1.76734320989073,1.77704940833558,1.76964264020524,1.76890496732399,1.76848194323853,1.76905763907057
1.68129939563817,1.75867005851536,1.70611784075766,1.76137999244819,1.74615633345762,1.80470011703071,1.74965682755914,1.72761792756943,1.74527990044294,1.72736174353672,1.75576181266987,1.80348329400357,1.8044504498654,1.72375991172212,1.79824594446638,1.80030806258499,1.79772583000457,1.79819876094623,1.7683104132825,1.71861075560504,1.74556983852024,1.79316005851536,1.78929678609382,1.71614981076076,1.78890206076419,1.78988684636201,1.78922285035916,1.71249990315687,1.78671152196355,1.78647893331027,1.78531825605492,1.78575978736203,1.78373057371812,1.83089011703071,1.780378339542,1.78215015292072,1.78046007000002,1.78157906944865,1.78097018793741,1.78187531156288,1.76394025907567,1.70235983291672,1.7782871044061,1.82726011703071,1.77947241142199,1.78161311319101,1.77976947577394,1.70513989965265,1.77991057491701,1.78217011703071,1.75849249961597,1.78425317516076,1.79269360883089,1.89981011703071,1.73073523341544,1.71149836084289,1.73434127073622,1.82360842110637,1.79752652518079,1.80188918652008,1.80471759837635,1.72639824001785,1.75253591709553,1.73439146367571,1.80481598651928,1.7970717125661,1.7985722849824,1.87003349515494,1.85033639995395,1.89088011703071,1.84312661469908,1.87211508777304,1.81426241467978,1.79460117155127,1.80693893368391,1.79836129326051,1.83330150048345,1.89088571628844,1.80636588930335,1.79555041151236,1.80961218096157,1.87196314852872,1.86796741569039,1.87050181496431,1.81236509003336,1.79520307868278,1.79298486481772,1.89232852041462,1.85818020710189,1.86941742022902,1.81398622490289,1.79290200285965,1.79398164526068,1.87683011703071,1.8290311239385,1.87139567220321,1.85186948549404,1.87198848820754,1.80934531853871,1.86482011703071,1.80231173040091,1.78912665189921,1.8092949782422,1.87963564778966,1.85611814700505,1.87473060077947,1.84888446824887,1.78296306159178,1.83937972279554,1.87169561024249,1.83047694408927,1.7818091827056,1.79862805535541,1.85316991818712,1.79240681040173,1.77857538674974,1.79027398891411,1.8538506947444,1.8171643320338,1.85456011703071,1.80292229506214,1.73367983709607,1.79894630801156,1.80145188521705,1.80023356681622,1.90424011703071,1.78035665996639,1.7010798808557,1.7779431490231,1.77680545878301,1.77290252001731,1.774207837977,1.77071930998277,1.76915603846688,1.76813860895176,1.76764835435531,1.76537955725157,1.6857166683171,1.70882789921218,1.68727175221453,1.68732809496142,1.76174502183945,1.76155693494658,1.76428831684871,1.76149103389874,1.68537388287773,1.70488041616916,1.68389261600221,1.76519348654399,1.76352293773769,1.76274462099433,1.76412230588883,1.71561507180437,1.68385431078759,1.70708636970427,1.68494597148802,1.76394586368065,1.76561117712492,1.73013629076837,1.78852011703071,1.70291693131539,1.68885371341318,1.68955642596102,1.68789749543836,1.76377779142826,1.7829467544397,1.75990976779769,1.69040987021201,1.76630181322347,1.76789832686837,1.76831086663813,1.77072231463961,1.76938986801121,1.76885120100055,1.7678090718319,1.85078011703071
1.68732949227806,1.65854929502136,1.69300174568754,1.75822529725298,1.74079658504298,1.72987784917744,1.7547157440144,1.80779653693855,1.75376126040486,1.72742172629651,1.7586084757665,1.80426978311073,1.80206342184014,1.80168627021841,1.79954502333975,1.80103553466165,1.75111217587556,1.72134076266317,1.76798073071822,1.7963243959991,1.79310649930205,1.91080011703071,1.79124274791972,1.79389711970459,1.79084249763829,1.90103011703071,1.79039209377691,1.78869222518691,1.78708926272177,1.70801982439235,1.78377186063489,1.78602310329257,1.7838640733373,1.70588984759638,1.76448060680277,1.78253474137605,1.77975605184662,1.83061011703071,1.78271558346595,1.70411660169041,1.76391889461127,1.78012457808812,1.77920022382992,1.78105985902724,1.78036702765486,1.78087928208082,1.78055395324791,1.78066288694441,1.77983583421744,1.70496849232251,1.73035438102466,1.70668703850806,1.78145991723561,1.78680005851536,1.7260039831344,1.71227204610929,1.71819035560911,1.71700906922529,1.79954108108735,1.79839638721835,1.80324042186399,1.80870011703071,1.79880758749806,1.89921011703071,1.80893523739027,1.79807205194665,1.80052444428038,1.87425005115184,1.81261860254582,1.79819809158458,1.80958877011188,1.79700260019545,1.81748691898784,1.88661598291675,1.87490876523118,1.88687552822081,1.83325005640973,1.7957051032098,1.80279974909376,1.88349011703071,1.81303964786128,1.79583058999946,1.86788111943255,1.88784902028882,1.83213935476706,1.87651011703071,1.79295213775982,1.79535029638786,1.80878519097848,1.89115080335098,1.81167354392269,1.79315734604057,1.79537764284356,1.79296815851517,1.79061133544972,1.79022335196929,1.8105590559598,1.87933168733853,1.80478466498752,1.7866679733122,1.79866642817566,1.88006011703071,1.80677993090574,1.78717404845689,1.85121219414555,1.86299359434218,1.86782994615678,1.87187719581379,1.83943652902996,1.78147093142176,1.82992103004788,1.86286469387486,1.83339507754927,1.87272025735895,1.84680921595417,1.85477269767383,1.86039551644863,1.85682366031147,1.81740161774931,1.77653875328685,1.79929475741476,1.79781172410111,1.7972801950852,1.78915000651715,1.78836646589802,1.78181248389164,1.78095556877281,1.78168417834558,1.77754583104412,1.77691606126556,1.7736248770011,1.77266222853632,1.77096112439562,1.77065667740381,1.76861584304504,1.76830988023402,1.76529122723396,1.76540983989735,1.71982347587649,1.76472011703071,1.68697474085443,1.68500799486267,1.70620519030851,1.68413610987014,1.76012471971043,1.79647011703071,1.7161407211682,1.68381033121995,1.76438570970074,1.7648749125435,1.76452760387631,1.76472650482894,1.72810375428004,1.76441965575698,1.76379179455083,1.7642378509789,1.76429685278033,1.7661621514757,1.71962592156516,1.68863379399178,1.71036254861919,1.76577579011556,1.76521074760603,1.77195627105467,1.76381480338797,1.68889988176418,1.76022831009636,1.76828087553999,1.76750598104199,1.77096386196338,1.768810741162,1.7746799358152,1.76890930733252,1.68985988342947,1.76835545293774,1.76993400804473
1.69725180151896,1.66149831989683,1.68191570987076,1.66258309699925,1.73877004391218,1.73009252561556,1.75828519589172,1.8069026174291,1.80537353650342,1.80497462398464,1.80323625443564,1.80323969827764,1.80121269777924,1.80195948483582,1.8001839540787,1.80120452007058,1.74494883693605,1.72167554485367,1.76810282004475,1.79560992814519,1.79424838299532,1.79397280560918,1.79237429155978,1.79286066381155,1.79175845773986,1.79205239957069,1.7913088910655,1.78799874425007,1.78739297408419,1.78606629959931,1.7837933716512,1.78493188402728,1.78464517801055,1.78510247522504,1.76433095003425,1.70412954560656,1.77825671045136,1.77953866181346,1.78219700942033,1.70390326835707,1.7637645042857,1.78143932485063,1.73338809105477,1.70170455538019,1.73422481760204,1.78203330881352,1.78151066120238,1.78268931091399,1.78092129869781,1.78360916932588,1.74205388277321,1.82369011703071,1.78149037639196,1.70919274146531,1.72282934084261,1.71089098285926,1.71809812348133,1.71668320091767,1.80060948925228,1.79860748334162,1.803162409971,1.72943466615835,1.79858787899896,1.82129,1.81120402610533,1.79528368674128,1.79461218152394,1.7958423540725,1.8078145532772,1.89365011703071,1.81524465332661,1.88040011703071,1.81827191095782,1.87241468235825,1.87510436233494,1.87248420062544,1.83329383262709,1.79693694859789,1.7998309143535,1.79594399226587,1.81561889106119,1.88306508777304,1.86784601735631,1.88165945840873,1.83225908173713,1.79261321542161,1.7923388281958,1.79369707086351,1.80421353275059,1.79345207458842,1.80862261813943,1.88948189798391,1.80597113619871,1.79231965784419,1.7902229473208,1.87873011703071,1.80687732280292,1.79025229166505,1.79987472122216,1.78734190079282,1.79499433526986,1.78866658554232,1.80301919886308,1.86873011703071,1.85097521931116,1.87945473459851,1.86862903567029,1.86589787593241,1.85472057197196,1.86671198634052,1.85222819463522,1.87202591229618,1.83321823207257,1.78195020974571,1.84699267814861,1.85466543600088,1.86064685849864,1.85614616136524,1.81755532782521,1.77648828360938,1.79741055158241,1.79635702731479,1.79512011177946,1.79365536997917,1.73816545873693,1.70512629115798,1.72448484818692,1.700357449401,1.77698988776525,1.775123394604,1.77570755816944,1.69296925005029,1.71875483920114,1.69095986879467,1.7679357270351,1.76761310124067,1.76471325678913,1.68574899484901,1.6864504814886,1.68482193730955,1.68542797625892,1.68421697012461,1.71686100905093,1.76320228379892,1.76149165618459,1.76062560408751,1.75818851124905,1.79342011703071,1.76207794589568,1.7640609998595,1.76601548503625,1.68633041709732,1.72487711386508,1.7645041697504,1.76449364769815,1.76499149787985,1.76443265975693,1.76568563995456,1.71335449028293,1.68909659431705,1.71725956772859,1.78632358669159,1.76625562505669,1.7671283352031,1.76373134689519,1.77023011703071,1.76035819258131,1.76861273441602,1.76822878296626,1.77063511101059,1.76877366696915,1.86891011703071,1.76819118036268,1.76938173259383,1.76818082780491,1.77656880745228
1.73386001829072,1.75653305415808,1.69350759889602,1.66320308637626,1.7433350678546,1.80752121028554,1.80763545611271,1.80915520575715,1.805197680823,1.80393174724086,1.80293487403013,1.80272569176389,1.7472350005296,1.72136608379188,1.72154680710432,1.72159671084762,1.73675205028208,1.72136472662131,1.76840592543143,1.79568073344979,1.79643881953454,1.79453719052344,1.79288364143415,1.79241115083689,1.7915862340203,1.79190655776439,1.79054054753089,1.82986011703071,1.74335299147824,1.70962989135586,1.78324845223648,1.78520569629624,1.7852665141404,1.78591439340463,1.76399344948234,1.70488954638147,1.77825147328159,1.82883011703071,1.78266006418037,1.7825654954618,1.76356784293714,1.702265123011,1.72376610711018,1.7029312332053,1.72421514074781,1.70255533468824,1.78087726917012,1.78157065104921,1.77978259780003,1.70262979357884,1.72960625253282,1.70631676237838,1.78142938727002,1.89811126740711,1.73950299909981,1.7127506070566,1.73317655108261,1.82299011703071,1.80095690622657,1.80113090091826,1.80372318596338,1.72739515595231,1.79837206530614,1.9174167544397,1.83675775522544,1.92223011703071,1.79484582877371,1.79542488309869,1.79609252326998,1.79668185607864,1.79698116431398,1.79630948623434,1.81661842393258,1.87224056792829,1.87535913999712,1.8723354751206,1.83335116307428,1.87605391434836,1.857502038306,1.88073382241679,1.81732279280504,1.88432508777304,1.86784478664262,1.87290558079394,1.83231683926355,1.7961792918374,1.80884421146125,1.87599893315154,1.80889288070632,1.7938339477821,1.80442233871542,1.87224827756216,1.80945646152324,1.87860011703071,1.789816836225,1.79139677115238,1.80146507450876,1.87186011703071,1.80340377263485,1.86632011703071,1.80201163204441,1.88287011703071,1.79865205745762,1.78587297670146,1.80046589278084,1.78521116957983,1.86814592339566,1.87443573809067,1.85463403335877,1.85922818920555,1.85236965543136,1.85462962789039,1.83287779624932,1.85573467101591,1.85199145845376,1.85899607172987,1.86112283895239,1.85509695388942,1.81753206963095,1.85440549775418,1.84014372539755,1.88678011703071,1.79322501573324,1.71045234923481,1.72881029556118,1.70419961351784,1.73449742336117,1.77982845428544,1.77795000169478,1.6941898815622,1.77615375489945,1.77170978302831,1.77015685857328,1.76900570206623,1.76708519841902,1.76719701675772,1.76477915728946,1.76551624112248,1.68700225795908,1.68447385140383,1.68580981353058,1.76558848751567,1.76686023929119,1.76561714683794,1.76310841401697,1.88169011703071,1.75816414423737,1.76067355349302,1.76114658529074,1.76470200051841,1.76687271258083,1.68297938025084,1.72536893888826,1.88685011703071,1.7663743924902,1.6848596362933,1.7111942186576,1.68729293629115,1.70575710771549,1.68851376374992,1.72217836352694,1.7855302455235,1.7676174360415,1.76852657295921,1.76370050107179,1.68979989499055,1.74521660734863,1.76934532723736,1.76897408370993,1.68822295346666,1.71113190590977,1.68937556116366,1.76839904474377,1.77001789630822,1.76837917220143,1.68989484786033
1.73459654369365,1.75621030094644,1.75574168058455,1.75796240968868,1.76144357014859,1.80697400347711,1.80689611490438,1.80806131480483,1.80034128179989,1.72744612342554,1.72827787263596,1.72810631910183,1.73670803022484,1.72221689694395,1.72211199596488,1.80180011703071,1.76757062684482,1.7980522611853,1.79505395999875,1.91566011703071,1.80040069256948,1.71616646225646,1.79307559386135,1.79240899418333,1.79144552131542,1.79092514200648,1.78913200965167,1.71060799022901,1.73794981666201,1.78601530589147,1.78442710798898,1.78611811327587,1.78655199357431,1.78851697400186,1.76364940306804,1.7041695464583,1.77789354073149,1.77616304203003,1.78205466520026,1.83019011703071,1.77869746285047,1.7794480566148,1.78043806825061,1.78114268563967,1.78028695407496,1.78090803923793,1.7807190251966,1.78153808828677,1.78036316013646,1.78144732945854,1.78095294232999,1.78154738108123,1.77982326722931,1.90124890813896,1.78699602151759,1.79002737678206,1.74154974080088,1.71741669936031,1.80062649514321,1.82060028120409,1.80194925239299,1.80366270913974,1.80451396084754,1.91788342110637,1.83390329791654,1.79869898514028,1.79580323391639,1.79552836229699,1.79636713958103,1.79844921986432,1.79766818917866,1.79744169456377,1.81252050708439,1.87284605271593,1.81662561030909,1.79694131547084,1.81269523667988,1.88712626119771,1.85754233776187,1.89167635312928,1.81235847489277,1.7977826823705,1.81058959081902,1.89735011703122,1.83236010847703,1.8697844821686,1.8735060835642,1.87135640574989,1.83971689952425,1.87523011703071,1.80001767820822,1.79262157095518,1.79191806600623,1.79071123771986,1.79016648118611,1.79089546944905,1.79708477361825,1.78977247527469,1.78929450150629,1.78844324004764,1.78862084785088,1.78949539064063,1.7944985927108,1.86166011703071,1.83479209092616,1.87448176945494,1.87249375399444,1.86955543468174,1.84889377943669,1.78243397839194,1.79558895901629,1.77900810717833,1.79588659616474,1.86787550453017,1.85224903875302,1.85360952956847,1.78928998161626,1.77650633475286,1.79051932358156,1.84800417973436,1.83964872304454,1.8027388499625,1.79409358468413,1.78792195650567,1.78504586051552,1.80068347496394,1.78336061819957,1.77974725428847,1.77822033954259,1.80047011703071,1.77633830548616,1.77236348068776,1.77051354659759,1.79952011703071,1.76497688810422,1.68842917388816,1.71414868392579,1.68856633839449,1.68780620652763,1.68674811848371,1.68601266598198,1.68390536695102,1.76646006753241,1.76205041851377,1.76308116087509,1.76641546549635,1.7541114090986,1.68525051755491,1.72189199993845,1.76444172648603,1.7668859549683,1.79307011703071,1.72616828602938,1.68358862938761,1.76694891032008,1.79080011703071,1.72412445442493,1.76560733770521,1.76459037614151,1.76449966368898,1.74760298647305,1.76950701281258,1.76875141499441,1.76955345363164,1.76356699427232,1.68927989499052,1.74480041057554,1.76887073502987,1.76899094844539,1.68899628545764,1.7218178634361,1.76941150733402,1.76892842423578,1.76972526231344,1.76906397475099,1.69115484785826
1.73569544828762,1.75606756345062,1.75549497540334,1.75603503285993,1.76631042286455,1.80682522172082,1.80639336570055,1.8082480054216,1.80045164352553,1.72788935345896,1.72853548145225,1.72481964378595,1.74192332878413,1.80039011703071,1.72287711976245,1.72304555187909,1.76660378246057,1.79867732312961,1.79622953360943,1.79692183240159,1.7988147150533,1.71659312892316,1.79326255495566,1.79263485558359,1.79081897097359,1.79005267338882,1.78843728320374,1.78918153788367,1.7320403079731,1.70930306907162,1.74198996028662,1.78445616697667,1.78501446251683,1.78479477427627,1.78331836774376,1.78235537772383,1.7820864583606,1.78157036195719,1.78073512684032,1.70217988089743,1.77872429834073,1.77921786581969,1.78021048467488,1.78119367388498,1.78002435979814,1.78049262227926,1.78058363298253,1.78152181976484,1.78028391564471,1.78062564364897,1.78098849062001,1.78263338624798,1.781125105816,1.78728187054168,1.7872114721488,1.78941302472077,1.74982995333702,1.79747306182447,1.79996968838114,1.82077586959269,1.80175502553532,1.80303492246995,1.80381932631575,1.82466358082768,1.82959137739853,1.89123011703071,1.79588902595823,1.79586480330405,1.7957914151467,1.87770011703071,1.81069475248591,1.86890011703071,1.80765340227073,1.79674319519912,1.81166036116302,1.87040011703071,1.80785339833809,1.79625075528229,1.79572141081801,1.79573777324119,1.80700273849598,1.79678936192108,1.80221684975847,1.7945725710853,1.8226088286496,1.87164172051994,1.87389389896803,1.87075929262579,1.83931018748043,1.79343606054515,1.79731029438683,1.7919501975857,1.79105066374928,1.87962011703071,1.80765486166979,1.88007011703071,1.80484662419589,1.87888011703071,1.78944712182181,1.78968732979983,1.78790480546675,1.78685403960345,1.79178134235613,1.78513151328034,1.83484168525385,1.86712514814359,1.87123587565381,1.8740444223228,1.84862717298554,1.85634011703071,1.79986751356979,1.86619011703071,1.79121756786198,1.78003299188358,1.77934974001741,1.77840275211793,1.7780380380226,1.77683038802526,1.78565064917243,1.85494055657289,1.84008284282816,1.85465011703071,1.79494818432427,1.78740708257768,1.78494167644245,1.78499740669395,1.78331068576129,1.87637011703071,1.73121917277553,1.6969698385431,1.73210288101071,1.77160858611484,1.76997505560567,1.76893627491962,1.76615127202445,1.76703090628814,1.7638945272915,1.80017011703071,1.76180195464299,1.76247179679458,1.76236842837642,1.76337001796563,1.76598284262709,1.68294988288201,1.76256848500976,1.76292931797287,1.75448408094019,1.68537733000704,1.71192201431579,1.79305011703071,1.71207953972618,1.68544747428468,1.72670139260747,1.79293011703071,1.7669663960085,1.68744788025393,1.71174847158232,1.68490986719492,1.76544302527984,1.76707369862169,1.74741778585706,1.68725478924539,1.72149694787412,1.76895348088438,1.76333748921366,1.76644011703071,1.74446933914574,1.69245860170223,1.76899638626782,1.76943438159044,1.77406606046576,1.77803434097486,1.77526545201573,1.78235440852711,1.77314856653781,1.77537478508945
1.73591780667303,1.73647456654991,1.73504538508609,1.6607198829656,1.76944549661515,1.80531005360461,1.80617317720011,1.81493867155126,1.80071181776552,1.8039347509022,1.8010722620984,1.80165037481515,1.7487925146876,1.7234039002245,1.72332868773182,1.72321015092844,1.76562660561948,1.79930394595233,1.7971680522416,1.79690910853189,1.79604664052835,1.79506132792121,1.79367615043758,1.79293506792849,1.79048323172751,1.71265775032315,1.7371465967605,1.7117808292712,1.72479514267762,1.70789222313396,1.73933707434496,1.82798011703071,1.73758191316525,1.70648925680536,1.78312770230863,1.78336478871614,1.78281637957797,1.82989011703071,1.78003320943243,1.78125636588524,1.77885371288993,1.77761861207927,1.77984882046104,1.90325011703071,1.77957032824125,1.78130080722606,1.78061110476807,1.78096261408851,1.77920900954553,1.7804426342663,1.78051190160666,1.78652668723687,1.78308116677914,1.71038939668552,1.736308283902,1.71129464752375,1.72862456071965,1.71738718329044,1.74451715144855,1.82380408326466,1.8042428079004,1.80287343012074,1.80338884346436,1.82387457594964,1.8088675400175,1.79715715494238,1.79619750085712,1.79841805056183,1.79668052062607,1.79667333557738,1.79675848075646,1.79669338186625,1.80362854700068,1.88241011703071,1.80581296229084,1.79854329458136,1.79658410484505,1.79617617028196,1.79530366055169,1.87919011703071,1.83153704292213,1.86480005851536,1.80659596085897,1.79410766283072,1.82298820870125,1.87518161701106,1.87329086901309,1.86940014653161,1.83887761206923,1.86924011703071,1.80702537788713,1.87705011703071,1.78969486659824,1.7902482354811,1.80227835178055,1.78932088158817,1.80024607231399,1.78924781803741,1.78906655521491,1.78628754107241,1.78676157060238,1.86971011703071,1.8019739804365,1.86929356076539,1.83470755893835,1.86835520010187,1.87040078513847,1.86629827471306,1.79773864630854,1.78033587449533,1.79257249772256,1.78111734567504,1.78036821404463,1.78030895755464,1.77945681859831,1.77878375573324,1.77810054574559,1.77772905394397,1.77669981699492,1.77599303318742,1.78826687515629,1.79243371172759,1.79305730090313,1.70781732520569,1.73194207026179,1.7055999504051,1.71779921132226,1.70026608220151,1.72437640886918,1.77626011703071,1.72828029095718,1.69255225493533,1.70808483222201,1.69053520666773,1.72075666038638,1.79819011703071,1.76316317679301,1.76522622249167,1.76291142803433,1.76293721840836,1.76274879068889,1.76451495898237,1.76489550631242,1.7658016518589,1.762107233066,1.76226281905438,1.75486344869544,1.68525847925012,1.70445682291694,1.68495720257845,1.683781197585,1.68371958015408,1.72670380285375,1.76648619486226,1.76590996498991,1.76608519587023,1.76594956024361,1.76791675408391,1.76608689378264,1.76775798330472,1.74743848973366,1.68655992801718,1.71045344872653,1.78595430103148,1.71784356966268,1.6885408291882,1.744569986242,1.76854178728701,1.7722594449147,1.77977509189925,1.77702664739254,1.68917988305761,1.77381731814156,1.77007710496298,1.7731729471534,1.77534228992343
1.73588947779534,1.73665099231249,1.73510170676661,1.84427011703071,1.772179468461,1.81088691713025,1.8119206317782,1.72690982649208,1.80097903824422,1.81601616219448,1.80025392388231,1.80356816082109,1.75338401091514,1.72203300070386,1.74702352678295,1.80016005851536,1.76558856162197,1.71774754521515,1.74328688828105,1.79827158785482,1.79453259212278,1.79510176931792,1.79309789958054,1.79186376862686,1.78999488641341,1.79101693327922,1.78763262930688,1.78854375471173,1.76218212976318,1.78835011703071,1.73764700747532,1.70736269183357,1.72766246635732,1.70528925988026,1.78275221204086,1.78392927502067,1.78296452276403,1.78193179820987,1.78038515652207,1.70168988050949,1.7792669038496,1.77879625431654,1.7790306470744,1.77832631601871,1.77644806944848,1.7004198731392,1.72854543183306,1.70302893826188,1.77657532716714,1.82370011703071,1.78150881135776,1.78299606635135,1.78310286564571,1.78687293221541,1.78620593546132,1.7896552155472,1.73267999459669,1.71662051394933,1.72036958218983,1.72105516846088,1.80786676363194,1.80733460983023,1.80429012523246,1.91457011703071,1.80716895504144,1.79441946174025,1.79411886627877,1.87289011703071,1.79660794115914,1.79773168525294,1.79685845264134,1.79698402317242,1.79487309653496,1.79451776324417,1.79427817985456,1.79657731730693,1.79562162128132,1.79525355758071,1.79486201338077,1.79551208647789,1.83135417794786,1.89336323762581,1.8106673910439,1.79499067124666,1.82308278381156,1.88572877026246,1.82883536261406,1.79232507567505,1.79554061512097,1.79083599713232,1.79142418707777,1.79137265449865,1.78975662558414,1.87304630779096,1.8704181552805,1.86484243959733,1.805085466082,1.78877642556633,1.7886021872024,1.78682578923644,1.78671244865383,1.78684860052905,1.79750904716092,1.87986661478068,1.80070995067501,1.782467853874,1.78257938653978,1.78242237758423,1.79266743004508,1.86807011703071,1.79732699601757,1.88571011703071,1.77946815242798,1.7788814100881,1.77901903899894,1.77829059363185,1.77818899400118,1.77638040062149,1.7766915139356,1.77578593740872,1.78483090921424,1.80293386238511,1.79292645074186,1.79312589521793,1.78450889572213,1.78391011703071,1.7257084638054,1.69982608863173,1.71659144304818,1.69880106297722,1.72417531734357,1.77363011703071,1.71589920851573,1.69004853946854,1.71017913608811,1.6858576996419,1.74426635574497,1.76353398346398,1.7641948371458,1.68549988291442,1.76256139063548,1.76412071305696,1.76371428754952,1.76383606702558,1.76255541110379,1.76277919494134,1.75502909545687,1.76402167251129,1.76364812412472,1.76427871012453,1.68335452202771,1.68460500838639,1.72614252491131,1.76560332685407,1.76558297399408,1.76537250105847,1.76636183668926,1.76326240252858,1.7670801459927,1.76790117970704,1.74796376168523,1.68910446668658,1.68933766704249,1.68865831409375,1.70704537768296,1.68931417699961,1.74485769156804,1.779153610881,1.77262160962925,1.77531917876844,1.77711129636464,1.77608759116902,1.77449399571206,1.77749543712235,1.77085231376634,1.77117517212224
1.73177566202195,1.65665988289285,1.6887395834763,1.66288932542892,1.74226560672382,1.72765806212206,1.81465943572525,1.81676342110637,1.801020106448,1.72447983603607,1.79968056041892,1.80231340136753,1.80060533862988,1.79964087466948,1.79594969208231,1.8198110493848,1.76651125052496,1.71951338721811,1.73203673249636,1.71642983159348,1.74309566323733,1.79456194146119,1.79397820847836,1.79183119904637,1.78934342926888,1.71285979198111,1.78746960914757,1.78841945623977,1.76183729808775,1.70904493577267,1.73450056890379,1.78409361886015,1.78210383731631,1.82781011703071,1.78044954166968,1.78228751064342,1.78268842761107,1.78228525308599,1.78107331323932,1.78166974617069,1.78046518961788,1.78038614393988,1.77919988910014,1.77875789653992,1.77780172390301,1.77828420009833,1.77850649300776,1.77876453214789,1.77731092550214,1.77908754789002,1.78208290036569,1.78387567786025,1.78305738911012,1.78740544167676,1.78630702575453,1.78841118310642,1.73770074816359,1.71666364812022,1.71948414514248,1.80130134735948,1.80700097522973,1.82054651432957,1.78849424328544,1.73113979590174,1.79313613573514,1.79456857444672,1.79408258776535,1.79551512711306,1.79616932344174,1.79700472030167,1.79610365379041,1.79576191769754,1.79409876553521,1.88070638848758,1.7932261378558,1.79555565601135,1.79498049692109,1.90018011703071,1.80099351611718,1.79494073374897,1.83126082543129,1.88345262372707,1.8135121826734,1.79567926241254,1.82236701514755,1.86882937326739,1.82887894269489,1.79208868104775,1.7996412388501,1.86826011703071,1.79144940688645,1.79106437732195,1.79021197251056,1.87368632102154,1.87121732365335,1.86678389628892,1.87070810740115,1.87056332354363,1.87017576332658,1.87624344766231,1.79777018365559,1.78597469814515,1.78612436393721,1.78585064502632,1.79601657169658,1.86959011703071,1.78299064283307,1.78289610971374,1.78308200154343,1.78323470814425,1.78243406120946,1.77931262279277,1.7793564576598,1.77932834599271,1.77937034718815,1.86003270377334,1.78689792055572,1.77685327446373,1.7764659270413,1.77619475550483,1.77736479724609,1.73135794658408,1.79450963249066,1.79028775772091,1.78444653256372,1.70299895552114,1.73136425803405,1.77655011703071,1.73212277885652,1.87570011703071,1.71948730402354,1.6923493531613,1.7218331669996,1.7688017544397,1.72543717075158,1.76782011703071,1.74392262716531,1.68677987611692,1.76603039658118,1.76641731353707,1.76224642877272,1.76323700216916,1.76416425964356,1.68301116715792,1.6835914542821,1.68375513659208,1.74209448466539,1.76241895421394,1.76273939657141,1.76446275990591,1.68229769420606,1.68232422342777,1.72523825517527,1.76551747702161,1.76507202731357,1.79132253224132,1.76498097890583,1.77016935742623,1.7656218455984,1.78926808505698,1.74856769117943,1.68870731456685,1.68932574936257,1.68933220586355,1.71820032538675,1.77125491332262,1.76981644221161,1.77168357504747,1.7691527574494,1.68839988272156,1.76872074048859,1.78017993380073,1.77196752208457,1.77071641164869,1.76972904311778,1.69099902081017
1.73114154594886,1.73984827080166,1.74806750325264,1.75784909854897,1.76395507361261,1.80604269525311,1.81167190530816,1.8163767544397,1.80093981369093,1.81684520044881,1.80045704901567,1.80205498931331,1.80136002386986,1.82012179016968,1.79672898328972,1.80027968301583,1.76744702904055,1.79763011703071,1.73965606398729,1.7171365019406,1.73364435065126,1.71638858768868,1.79749987295808,1.79607834808847,1.78975760018158,1.79135761922477,1.78900882868413,1.78885656988695,1.76161641244382,1.70879232952742,1.73043513358047,1.78253519953091,1.78205458328704,1.78403326025496,1.78074973339179,1.82806011703071,1.77667462852119,1.70395822716939,1.72885947940651,1.7001299036104,1.78096923005735,1.78108558753786,1.77924410034863,1.78054858109731,1.77943850226623,1.78123369843501,1.77970119639765,1.78105822064775,1.77604142887579,1.70200465114412,1.72311309995855,1.70804056231627,1.78130299403104,1.78537057160396,1.78433356084559,1.82358011703071,1.7430919867732,1.71662278565729,1.71999943977459,1.72044999997735,1.7487794619597,1.72731424099112,1.78885110346336,1.90763011703071,1.79559614033408,1.7960177947735,1.80566326327614,1.88293603490461,1.81479940473525,1.87177011703071,1.79518449230086,1.7953818525213,1.793599600063,1.86981378705849,1.79350595589368,1.79538786192858,1.79530921248337,1.79560889012471,1.80543175729439,1.86790011703071,1.83133105132702,1.89041437270854,1.81462833563273,1.88958725904676,1.82101750242931,1.79259804533823,1.82918079836593,1.8686759934162,1.80441092133331,1.79131389404913,1.791365068809,1.79084679456179,1.79183241562408,1.88531760524893,1.87383359502117,1.87493655361878,1.87250112897833,1.87094210024863,1.87023859477305,1.88652727973911,1.80133210174228,1.78671342126805,1.78640326306921,1.78455157043837,1.79177195179148,1.78318036050841,1.78325303760626,1.78296807107252,1.78286121804191,1.78213041509672,1.78210266196158,1.77893297248658,1.77898560599011,1.77907259669423,1.77915390738243,1.86442747177273,1.79233907680058,1.85011011703071,1.77689135815179,1.77646705985358,1.77819146555447,1.80202846910302,1.79835085865989,1.71024987250033,1.78409277241434,1.7822269507509,1.73797347599272,1.69877605136256,1.72107037980927,1.69577526448815,1.71515168176786,1.77047011703071,1.73032733022871,1.76844842110637,1.71559626423881,1.68728201527454,1.74370599739407,1.7649917642201,1.76655299622251,1.79912011703071,1.76131881984753,1.76373707528727,1.76412712979519,1.68294570419881,1.68349276720236,1.68308976519118,1.741498615797,1.76393046359723,1.76177609722204,1.68344429627886,1.68271591135948,1.68335215532623,1.72462566985618,1.76508899385416,1.76517702675226,1.76386345397267,1.76676427652707,1.7631283375674,1.76734760139887,1.78618163822151,1.76509707425341,1.76625006254248,1.7695279445794,1.77198490409894,1.77028317290842,1.76854770739041,1.76848962099069,1.7679731076974,1.7681728438253,1.76903889502069,1.76885885126084,1.69050985425433,1.77051589062053,1.77976070227557,1.77584522157256,1.77810686668113
1.72845513051973,1.65781988296471,1.75093581562453,1.75663543536701,1.76583475367045,1.8135970003937,1.81128545905361,1.72539982718122,1.80094154745669,1.80396123542522,1.80354059187452,1.80320564448842,1.80152371572322,1.79579755627268,1.79679854024337,1.72211425605605,1.74326109393283,1.71690869769112,1.74553152314263,1.82069011703072,1.74319378783063,1.71539523724676,1.79956278851997,1.82425011703071,1.78965221027258,1.79124906508321,1.78972820002615,1.82364011703071,1.76181072367498,1.70847693186516,1.7260054000346,1.78267647463031,1.78218993860258,1.78257450896188,1.73513008902482,1.70306919869532,1.77657416839683,1.78094282408543,1.77905378742559,1.77949736994214,1.78189937595753,1.82448011703071,1.77741118615107,1.70147972008836,1.72771126756126,1.70146972855368,1.77922910131066,1.78009925301022,1.77608793105546,1.70322636427455,1.73059738651186,1.78526150181019,1.78130264581424,1.70828322442031,1.78204940019638,1.79054338775483,1.74765110448119,1.71657486329123,1.73930614065386,1.79767242368065,1.8030394365209,1.82151284558626,1.78925528078221,1.73704507321818,1.80125339025142,1.88987011703071,1.81261290120606,1.87154414064146,1.81107757411058,1.79617615164041,1.79497774575283,1.88843011703071,1.79367483346488,1.79523641420661,1.79469802518113,1.79614099938314,1.80866470501015,1.8701259226996,1.80986366676829,1.79524051739239,1.79533435234329,1.79444270633495,1.81306856496394,1.87643168496849,1.81977330425911,1.86921011703071,1.82958383876821,1.88268418212987,1.80841836390802,1.79202624263253,1.79162549274086,1.79121115677404,1.79307514296471,1.78970680769144,1.85369970883566,1.87487610826873,1.87217662556817,1.86853108090701,1.87044050048083,1.86910950666001,1.8066538433984,1.85846005851536,1.79650328220732,1.78548289247739,1.7960402275547,1.87744273022003,1.79554700836113,1.78271788565748,1.79463491012255,1.86697806106184,1.78738694384111,1.77924427244308,1.77896354307284,1.87389011703071,1.77886106678923,1.77846647530886,1.77750599628526,1.77777975679173,1.77647539022306,1.77695590428853,1.77986325006742,1.79890899883291,1.79905077637218,1.79955196415575,1.79185197793099,1.78931047571494,1.77545282675252,1.7771458168839,1.77440817924986,1.77490824756864,1.71105216649,1.69122362384096,1.71138978520757,1.68921113581001,1.70832316328476,1.68757535556422,1.74391118862136,1.7650242594923,1.76690632371798,1.68370988318022,1.75980610487844,1.76196600500535,1.76355011648553,1.68397127677356,1.68379184468665,1.68339524620691,1.74091198113222,1.76460117373066,1.76119912996311,1.87737011703071,1.7204601999022,1.76468724049933,1.76688361695727,1.76597173351058,1.76478845018322,1.7664315604064,1.76325157796745,1.76847668395497,1.76476464530697,1.76674114291257,1.76502506666156,1.78604373485509,1.7750224323289,1.78443853360431,1.77861979401973,1.78185326167452,1.76807612133756,1.76895173312636,1.76793912217634,1.69042988230587,1.76897158859908,1.77167584692997,1.7710139418121,1.77250092652223,1.77375525780986,1.77485457437265
1.72842479556488,1.83827011703071,1.75176916503185,1.83881410250887,1.80630516630226,1.80542946958836,1.8073866729906,1.80602790969162,1.80088522118296,1.72419984836986,1.80693332494658,1.80319477214452,1.80089301436366,1.91362011703071,1.797615945409,1.7989473190811,1.79067915042406,1.79650011703071,1.78105254856099,1.79543252998748,1.7947212593512,1.79566742311965,1.79741904342087,1.7927111201917,1.79043974760221,1.79085339568895,1.78971309737175,1.78995095178369,1.76213803501642,1.78472011703071,1.72242572589621,1.70607431117066,1.72987640000273,1.70474402921996,1.7253322492644,1.70310920225833,1.77645152224217,1.77955822084248,1.77860029035053,1.70195985233241,1.78393145415438,1.78469622744475,1.77797877130099,1.77867442198089,1.77865830736228,1.77917713893529,1.77931355302952,1.78113574889597,1.77611555179578,1.70379666188339,1.73745441127135,1.78539422968837,1.78129123840041,1.70825655775361,1.78206943444407,1.79163672927589,1.75172989620397,1.79318011703071,1.74841329747054,1.81894011703071,1.80525824784793,1.80570132911526,1.78942295151508,1.89751711781003,1.80288048661611,1.7506707628565,1.79460425378584,1.79694791258904,1.80514115591198,1.79587532825637,1.79496801942799,1.79624284254603,1.79438735833299,1.79475882578315,1.80861575760564,1.88660011703071,1.81368390795386,1.88403425284647,1.81347782430558,1.79466045087147,1.79567323545148,1.79622605171288,1.80747889679017,1.88271129004618,1.8098839111365,1.7936503101754,1.80241190795983,1.79212521298031,1.81097441826509,1.877294897309,1.80860299771471,1.87690011703071,1.80577938863812,1.87835011703071,1.8533431807837,1.87419256106218,1.80941740443587,1.78945976367592,1.79290380422933,1.78688478927456,1.80512261099058,1.87866011703071,1.80091298815579,1.88425011703071,1.80079357198583,1.87280744532604,1.81141398440339,1.86978907510299,1.82156803936148,1.87452211448423,1.79069692881659,1.77989197463194,1.77900654937518,1.77897648178079,1.77903332171032,1.77831457067145,1.778219784094,1.77505909295682,1.77699749013531,1.77512824931603,1.7825291746415,1.79518271699054,1.79738212808578,1.79299709676533,1.79530112710288,1.78183572964309,1.77515357702741,1.77638471433749,1.77450540995085,1.69380142387238,1.70653893252306,1.69037029045258,1.72169617590443,1.76837906507337,1.72508036640289,1.76687011703071,1.74424508779944,1.76544540615211,1.76717290264475,1.87294011703071,1.75913465866661,1.76197396619866,1.76171544063159,1.76323945829536,1.76190402189039,1.76410832494577,1.74081298751971,1.6856292908547,1.71145229623978,1.68506776550415,1.70933322607398,1.68483796077162,1.76712855892513,1.76348354533516,1.7645778372669,1.76243639797055,1.7650425503412,1.76239069401674,1.76729651210445,1.76451517049379,1.76605560740715,1.76600567157938,1.76726430514204,1.7679983644365,1.7752108856752,1.78279857459944,1.76778931778994,1.68895988288633,1.76870970282259,1.7710707331291,1.77099187625206,1.77153066905652,1.77028811722472,1.77891498935006,1.77283913834883,1.76961368186871
1.67334964590952,1.65636243656169,1.74678912344197,1.8334360730372,1.80650488624366,1.80635599473578,1.80575830793436,1.80617190311838,1.80068958034756,1.81494011703071,1.81407520611362,1.81434273054503,1.79938597694776,1.79959388108638,1.79774743521855,1.82003101272161,1.790437912893,1.71996329200975,1.78103555200985,1.79553506972025,1.7945158321583,1.79494208728272,1.79799413214302,1.71343982901294,1.78310853469359,1.78787622035032,1.78216975036203,1.70976369857411,1.72981529140584,1.70905399189362,1.72009900661719,1.78568011703071,1.76694395141638,1.78340600574293,1.78491571209357,1.78253308588707,1.78392521695366,1.77999250440473,1.77939026428669,1.77946348901152,1.78142397612743,1.70346981821279,1.7766445701468,1.77846431798783,1.77853459183978,1.77944395271698,1.7791471913177,1.7800191889992,1.77960986551604,1.77992880435951,1.78018433334735,1.7829315313585,1.78348536666636,1.78807998951708,1.78207819965892,1.71066515521341,1.73211459093875,1.71515830710416,1.72123826625314,1.71926136625272,1.72885074858479,1.72768895832802,1.75142999750506,1.91311305773604,1.80029310669609,1.79511604762832,1.79368135834388,1.879736950483,1.81639013623506,1.89331011703071,1.79410472873372,1.79624773902553,1.80930728676618,1.88528689872159,1.81220860982912,1.79596559516174,1.80856148671234,1.79382063510254,1.81586758630292,1.87583772945799,1.80808673101378,1.79463363672429,1.80135828396281,1.7944879298127,1.80388070148082,1.79290442048415,1.80868623714131,1.87304466525347,1.81221388618185,1.88975527823707,1.8051876921574,1.78991164718668,1.80132558240205,1.78761080702974,1.80979226082132,1.86886021726934,1.80605152730015,1.78878522942712,1.79703927733982,1.87276011703071,1.80119355164623,1.78602694161531,1.78619226613168,1.78540572376789,1.78527279178266,1.78293088469206,1.81216350688792,1.85643014286626,1.82148153602527,1.78196833698892,1.7939100039544,1.86565207035231,1.77859221979798,1.77915818258026,1.77878915257481,1.77842679451714,1.77721132796772,1.77933525041024,1.77609352854086,1.77694546939727,1.78544308317936,1.80020453096122,1.79661026710426,1.79787226538702,1.79898390880887,1.70365988065192,1.7754228324823,1.77739772069104,1.77561778459778,1.88309011703071,1.77468591163324,1.77083073757339,1.77180157775335,1.77037629773255,1.71524222186382,1.68875520939755,1.68842820193496,1.68554287789768,1.68486845507945,1.68457290037136,1.70605351875961,1.68321650412142,1.76056665553895,1.76162845437768,1.76036918117866,1.79531011703071,1.74098865825219,1.76574592395938,1.7641197561523,1.76439599414664,1.76437255046206,1.76470263283705,1.7665290414233,1.68559988288478,1.76618009678095,1.76505356875498,1.76422090661243,1.76817551116154,1.76559956558146,1.76803971931607,1.76635112450367,1.76748075142452,1.7675674204358,1.76859447315615,1.76812534557294,1.76877694588335,1.76864658815833,1.85892011703071,1.76944610942233,1.77113360527823,1.77033511551469,1.77025384775915,1.76939878473742,1.77870248155383,1.77246626785111,1.68896988323743
1.68048623219225,1.73691028521208,1.74298903361012,1.75804210239336,1.75952722559826,1.72209979478008,1.80456092217525,1.81291413753481,1.80054136088199,1.72589332630978,1.80792710217107,1.802821481334,1.80034913370843,1.91798011703071,1.79725387061169,1.79787657753523,1.79017856673023,1.71893662534309,1.78089138531201,1.7955651892394,1.79439725134525,1.79472565236393,1.79679929231265,1.7937375039883,1.78292843154946,1.71308590492451,1.78207128605555,1.78802630760705,1.73907764648528,1.71001292349095,1.71864637057948,1.70679379137659,1.76667569413696,1.78320302691913,1.78602829633964,1.70385987377546,1.78511408588489,1.78194948769212,1.77991681988307,1.77898725750238,1.77849989190629,1.77744790824961,1.77659576760616,1.77814719107058,1.77812292317932,1.82512011703071,1.77860082528224,1.78023000099441,1.77948367801249,1.78142783857155,1.77998784708925,1.7841852021657,1.78343226812124,1.8251617544397,1.82176940481009,1.8245467544397,1.73907629954608,1.7150229360025,1.72159836216384,1.72027697921299,1.72853288408535,1.72673546990118,1.74404394250476,1.73056531641708,1.76568554595139,1.79585526860191,1.79414723426131,1.88780322506307,1.81468364061635,1.79571206919841,1.79327902178578,1.88407011703071,1.81961986984306,1.88866218151344,1.88253509716235,1.88891247150038,1.87439552213909,1.87133206277656,1.85930312121751,1.88850487199922,1.81646177758051,1.88611011703071,1.84055140390112,1.87164005851536,1.83927580924146,1.87960011703071,1.8114151038165,1.8821855102926,1.80778048855527,1.79032550296264,1.79975720278021,1.87246011703071,1.80575244692095,1.87697011703071,1.80545402209743,1.78911768858929,1.80099346767863,1.87754011703071,1.80222114109082,1.78868201804462,1.79500475746537,1.78781173476277,1.78698436167994,1.78518106725138,1.78486495920201,1.78353786916272,1.81281635001214,1.87937101609219,1.82123736542713,1.78261493744935,1.7981149299422,1.86231810519376,1.7785386115423,1.77883261091072,1.77902801062326,1.86125011703071,1.77801615106736,1.77395934575672,1.77731065951742,1.77590375625516,1.78766428117887,1.79381734896754,1.79463353492861,1.8018210194432,1.80192583973887,1.80236247518166,1.77600971413264,1.77871946390909,1.77618974500003,1.77377599209231,1.77645178803352,1.69228988023038,1.77137287398673,1.76701531971397,1.70749992748917,1.68642630840676,1.68766206746965,1.76523011703071,1.68475648636382,1.68510877299585,1.71705742572296,1.76569101237205,1.76061650530728,1.76136915772397,1.75950194898758,1.68504919398362,1.71078636489786,1.68401987177113,1.76286177067953,1.76640326257396,1.76330456752237,1.76669606094245,1.76433436842158,1.76508087175425,1.76718941005285,1.68395988281934,1.75193434939458,1.76530196370975,1.76637149112675,1.76623549350657,1.75109125570321,1.68966677032042,1.71149353550753,1.69067131370863,1.7114412650576,1.68874783894762,1.769132793795,1.77121285275493,1.76964624616275,1.68961988332185,1.76939892127478,1.76933897502649,1.76800872566343,1.76905966544732,1.76826456502176,1.76978021638287
1.68693237106599,1.73601473433429,1.73943352383539,1.75430930307813,1.76097988545364,1.91134343863592,1.80458811735253,1.80665333024641,1.8005106393027,1.72514665964293,1.8056366049351,1.80352593801161,1.80120663882562,1.8007224267527,1.79826579308771,1.79802542360376,1.79841207566439,1.81686011703071,1.780700626121,1.82022011703072,1.74227304475844,1.71134324012403,1.78175742506365,1.79390237919463,1.78271824601766,1.71015389626012,1.78195139371413,1.78864472740725,1.78674953669546,1.78650070546476,1.72752500106691,1.70409518628356,1.76616092116921,1.78325705902685,1.78543993446586,1.7831440653381,1.78437862244584,1.78090866844781,1.77937060721917,1.77864072414577,1.77682571637435,1.70006988169669,1.77604352696976,1.77897233291264,1.77816988456924,1.77951958509094,1.77878723399617,1.77842013237663,1.77901097696504,1.77869552229379,1.77875697403089,1.70486981814816,1.7827325112781,1.82520842110637,1.82176958444486,1.82437342110637,1.74940561328484,1.79079011703071,1.7606677358374,1.79561584079602,1.79790342910197,1.80626991919535,1.752888570586,1.73109196461172,1.7603971825212,1.74947779381446,1.79426172992203,1.79528289357556,1.81224730265463,1.89678011703071,1.79315064536824,1.79421286863408,1.82047054124738,1.88358629559746,1.87937327310091,1.87204112077031,1.87435074811306,1.89009628241269,1.85927245524531,1.89178763260422,1.8136738519472,1.79529159993305,1.84074915613928,1.89571611269287,1.83963970172523,1.79137921285323,1.8052223354038,1.79265202567452,1.80247881300581,1.7900985059348,1.78901626624959,1.78943584523089,1.78842177980713,1.79001324371408,1.80171988861049,1.86939011703071,1.7967658605175,1.78691485670827,1.80670473611737,1.88202186298136,1.80604365557968,1.87491011703071,1.7968806575249,1.78486731297738,1.78912481122525,1.85685011703071,1.81297104300546,1.78243354755757,1.82100084281317,1.85629443900784,1.80133552098565,1.78110133466099,1.77910481405303,1.77852840542869,1.77873536794849,1.77845942188184,1.77745268475097,1.77841629959757,1.77609883248296,1.77626566816445,1.78948788007853,1.79310107812606,1.79377056454166,1.78746078067652,1.78652405789359,1.70293987990113,1.7765138337806,1.77832642809542,1.77634600161472,1.7739928083632,1.77713450781221,1.79931508777304,1.77119495292543,1.68793236468049,1.6858607276363,1.68745430426942,1.68705772159579,1.6858850469071,1.68485131195209,1.76259153758099,1.76065399344712,1.7610529522735,1.76040588853111,1.76164686504161,1.76161036928384,1.76309557453885,1.76608339558425,1.76385629136409,1.76365740249134,1.76313023601925,1.76499741911714,1.76120559362546,1.7636068297951,1.68607988289965,1.76643423211794,1.76504576679383,1.75203033568974,1.68676137333915,1.71310336278726,1.78425496099899,1.75112081190809,1.68692186053828,1.7219134976043,1.78527210194673,1.72204147186439,1.68974117028541,1.76966752424309,1.76901752909454,1.77036924012042,1.76908820798147,1.76966964873198,1.76885284294889,1.7671429041246,1.68858657919646,1.76723552774095,1.76872644150908
1.69666269879099,1.73566415708901,1.7356566069792,1.65913988296811,1.76262614677828,1.90317673691015,1.80522366668603,1.80249170112778,1.80064214555009,1.80204086498319,1.8013515545138,1.81647608831678,1.81544670114289,1.89306011703071,1.79847808300486,1.79996601390477,1.79870423580811,1.7180167367624,1.7416454732991,1.71644083848166,1.73347175806535,1.71427112477038,1.78179512044883,1.79073734229612,1.7918001101091,1.82098011703071,1.78840970774909,1.7890823510829,1.78633198264931,1.78623541088915,1.73458813534346,1.70478127354199,1.76569161076075,1.78444575542876,1.78638779115267,1.70189985808073,1.73635658981435,1.78123151962833,1.77847253257542,1.77821088204121,1.77677501371731,1.77759936503311,1.77616615296145,1.77802534405775,1.77730980123409,1.69999988230512,1.77868035429639,1.78056585952698,1.77911892441577,1.70401988379129,1.77864681831911,1.78239941614024,1.78312896246485,1.78497605360779,1.7818210085531,1.71088891836475,1.7370123282002,1.71405623574648,1.76013566371649,1.79928435782137,1.79905796144805,1.80635946678648,1.81336613906517,1.89787005851536,1.80834026594781,1.79553873991807,1.79407322276619,1.88726124668553,1.80893320281741,1.79603163736555,1.7947004860328,1.79558430461715,1.82172746239867,1.87254283491883,1.877006827087,1.87208798311366,1.87432196219376,1.87905389313338,1.81252717073192,1.79564450034292,1.80925209940741,1.87690011703071,1.84097338068032,1.88443406285321,1.83985804177631,1.87750011703071,1.81765350990442,1.8760264970155,1.82340776696808,1.87626011703071,1.78819230124226,1.78816692948214,1.78732656198613,1.88241495294074,1.79796833126219,1.78665474879086,1.79372404639303,1.86281011703071,1.80928801699283,1.87605831256471,1.80351345364543,1.78704406475944,1.80049446447054,1.87879011703071,1.79322677373373,1.78499186080763,1.81290140216887,1.8761632281577,1.86637777517316,1.85834548351529,1.85149582532212,1.8553967544397,1.84899354594156,1.85300842110637,1.79116620368753,1.77833937314897,1.77813311599347,1.77554705972335,1.77757919976414,1.77756399283778,1.79147336610366,1.79290714336335,1.79398607001753,1.8006402010431,1.78449007861868,1.77988487299773,1.7782201815086,1.77838116205587,1.77662519272969,1.69389657814786,1.77153443276328,1.79805508777304,1.76782246787909,1.76781510530721,1.68441873284436,1.68609417425242,1.6865608392458,1.68567880112806,1.68501519315691,1.76366347090734,1.76064766561414,1.79719011703071,1.76027077300095,1.76209338964909,1.76414816587059,1.68265988306458,1.76802149313005,1.76494056890309,1.76283591915559,1.76605792905612,1.76174439735913,1.76731067947181,1.76222740094399,1.76471722831017,1.76448301369194,1.78757223025888,1.7520494686164,1.68672701214977,1.68711820609266,1.68680680146436,1.75104321103714,1.76811949776057,1.76759368236248,1.78874807359934,1.77362286317507,1.76997904222107,1.76979200974857,1.77303935265665,1.76950553206312,1.77280897367202,1.76901834365436,1.77009366685976,1.76698532359433,1.68893324586313,1.76741116175964,1.76929338171021
1.73501762736167,1.73716005430098,1.73697242469672,1.75539075546319,1.76435961481886,1.81028964744126,1.80614031850571,1.80347280047854,1.80114793502542,1.80281964433232,1.79966128107954,1.80006893107972,1.81022810302425,1.81619005851536,1.79764525658478,1.79736784729038,1.79755274963371,1.89577011703071,1.79156582709675,1.79323661243348,1.74250297785056,1.71308149983577,1.78177327335838,1.79136345720288,1.79169519570805,1.71083977496624,1.78730246780037,1.78571370644607,1.78605568955916,1.78565873042217,1.75645806302945,1.78362481561181,1.78559233222456,1.78425585650866,1.78525196892987,1.78131253298099,1.7279064364563,1.70161879187161,1.77696474986203,1.77837994697681,1.7767813778768,1.69969984026656,1.73496237696902,1.7784152728281,1.77758633911139,1.77872005367158,1.77914352554718,1.78038521961679,1.78046595348497,1.7816408956204,1.77851041109156,1.70567959057889,1.73208115153492,1.70666875529008,1.78173706839767,1.78794319370479,1.78967982480727,1.79491079976775,1.7599104038811,1.71939343969607,1.72342807407265,1.72409673830745,1.81733070006457,1.92039011703071,1.80941820405395,1.79633359279037,1.79369340007183,1.89224892886054,1.80468787563974,1.79645263571958,1.79545999682998,1.79492804468774,1.82267320255973,1.88374790442465,1.87798059723362,1.87006136478214,1.80942913549161,1.7948222269601,1.8083759191939,1.87497011703071,1.80464789544866,1.79637821344187,1.80784070573975,1.86968005851535,1.8103827958694,1.79205821844227,1.81842312591626,1.88061367853057,1.82309162325544,1.79007610017565,1.78854018620788,1.78857038408376,1.78717371154884,1.86949522260533,1.7948205055716,1.78786897854585,1.78765775596972,1.78730889158366,1.78721995565213,1.78619674277933,1.79899526507498,1.85951011703071,1.80520935002949,1.85869005851536,1.79805852341856,1.78202650333373,1.81287110528263,1.85854915403441,1.86605123180738,1.8633883623275,1.85157431824086,1.85526342110637,1.84899248185715,1.8543217544397,1.83054592518224,1.85224436374678,1.788212154743,1.77654937354137,1.77699971020654,1.77778877065509,1.79335414012255,1.7969258752899,1.79447048246277,1.78908525169228,1.7646636833021,1.70331656327704,1.78031263270836,1.77882082739444,1.77676205477978,1.69368324481453,1.77177347658507,1.77175967254859,1.76672395670508,1.7670666886723,1.68412353259095,1.68603042376379,1.68644357646403,1.68529299487599,1.68457360815639,1.68297353500032,1.68124771585635,1.68284220241136,1.70829542945722,1.68221958700816,1.76660191455138,1.79670011703071,1.76787409319492,1.76381398786295,1.76351237572448,1.76058742081411,1.7644376010018,1.75990940270799,1.76463355224696,1.7633444932371,1.76479894965238,1.76527330770709,1.75198034261642,1.68591956399478,1.68720192963532,1.68747461677435,1.75090426284399,1.76824348662312,1.76780172696374,1.68859988327185,1.7749255643406,1.78331328838076,1.77026868441923,1.76805371281597,1.77069558802756,1.76726357815018,1.76992754791065,1.76972991121717,1.76805381108545,1.77932803751031,1.76816673728843,1.77062459512735
1.7363694905503,1.73373835368039,1.73829756288106,1.83040011703071,1.76542706505245,1.72667235715712,1.80414794085509,1.8133769549658,1.80110985874645,1.80140661468107,1.79898869281944,1.79906661390625,1.79825336297214,1.79768347855077,1.79803593522485,1.79865295939433,1.79668879728273,1.79562779956056,1.79310049920675,1.79457809065153,1.79383580768597,1.79468358964337,1.79600830199619,1.7917399520851,1.79157579366727,1.79063038062643,1.78852783831579,1.82350011703071,1.76561680100251,1.70611984606423,1.75545469512343,1.78387351759338,1.78571095111817,1.70550711759409,1.70585021881629,1.7016369493821,1.72075099369617,1.77840331247498,1.77704818988135,1.77832515345617,1.77770253830534,1.7785920053777,1.72929310582002,1.70080403007139,1.77585374224969,1.778681529485,1.77888853530108,1.78084418947939,1.77988084902023,1.78122560517202,1.78446563123052,1.82290011703071,1.79528493563818,1.82306011703071,1.78163065090168,1.70958985545221,1.78986387436456,1.79311107054687,1.76031669977232,1.71669187883086,1.72324950638263,1.82204710299669,1.82533902076226,1.89672005851536,1.83105898976001,1.86904011703071,1.79414081490583,1.79583538115551,1.80083736540462,1.79673394146883,1.80577329412471,1.87514011703071,1.82239261364719,1.79513208806677,1.80263200686639,1.79565658607063,1.80584332285897,1.79253230751369,1.80234032292036,1.79384919628757,1.8011233755934,1.79239903933257,1.7907850249351,1.79216406167167,1.8072649898207,1.8858447337193,1.81946245491008,1.79005584451195,1.82291291820654,1.88564578764585,1.80312785395949,1.78969601940101,1.78737609329839,1.7871425251275,1.78669631131088,1.78754899180033,1.78726587060968,1.78748721801898,1.78728262892469,1.78642090964108,1.79331613489283,1.78541160636017,1.79888740306037,1.78341912255466,1.80208218109096,1.85616011703071,1.83301078867376,1.86636653824421,1.86981766972003,1.88481011703072,1.79472979763511,1.77852456910033,1.7783836904468,1.77916800090305,1.83110563989258,1.85154150656788,1.85110136266306,1.8527713395719,1.78824623320887,1.77637102503939,1.79470751588222,1.8034312134722,1.80245675619856,1.80284406814438,1.76493290878228,1.70282322994373,1.78118697208716,1.77927943011313,1.77630293048151,1.77409704785759,1.77193752005247,1.7707194210242,1.76738682756397,1.76812842445109,1.68445215089835,1.68573191190095,1.6870604996811,1.76465011703071,1.68473780308233,1.68265841454355,1.68086704638314,1.79667011703071,1.76080974773083,1.76355418314117,1.76589059640526,1.76491717147949,1.70848238738669,1.68441733510519,1.71810071331466,1.7644476642623,1.76277962976217,1.76732855913308,1.76357170411765,1.76612634968464,1.76450564440709,1.76562722604131,1.76539268739743,1.76650102900095,1.76821823862109,1.76887907505874,1.76754653302756,1.76801036405259,1.7684902697069,1.77007426689903,1.77294605756979,1.85790011703071,1.76853021023842,1.770609245093,1.76843579813043,1.77141102259819,1.76772485973081,1.76728645332332,1.76793226791248,1.76880075465828,1.76806575465614,1.76774800712413
1.73794770303271,1.73821399932426,1.73914336336928,1.66433988275369,1.76673211400507,1.80234582215909,1.80128788290277,1.80324081655545,1.80310538603457,1.72509991460348,1.79646066406068,1.79877484142708,1.79859660262427,1.79908821165024,1.79872232283201,1.7977469039772,1.7953632245716,1.79338577733455,1.79200716841193,1.79314543537777,1.79342162277651,1.79381921849111,1.79786822558338,1.71200798613533,1.73670692412088,1.70971981117513,1.7873166191036,1.78699256040167,1.76550067973983,1.70684441632752,1.75487316161778,1.78334304316502,1.78531557037304,1.7840567032319,1.70524321082676,1.70312126129078,1.70287560708203,1.70164734148011,1.7479638662508,1.77875121671777,1.77815084151817,1.77834012259043,1.72221641683773,1.70018403448817,1.77590763191245,1.77853858981534,1.77898179308673,1.78019064778244,1.77984677781251,1.78088874773615,1.78373193659288,1.70332987892935,1.79094977290917,1.78709462177221,1.78787058750371,1.78946134841295,1.78985740638344,1.79249836374681,1.76074076338983,1.71704380674606,1.72377524285246,1.72482824582633,1.82571617102637,1.82355048848015,1.82691152082619,1.79591586079736,1.79542010394002,1.79697333448152,1.80872703289841,1.88869511728902,1.81116773804562,1.79611291314904,1.82098635086463,1.87643011703071,1.80931859060725,1.79552713728787,1.80932664796177,1.88126553347633,1.87333523627121,1.88482543259497,1.85857725747395,1.8775787927119,1.78991966531138,1.79197351919596,1.80308384206408,1.87261544182677,1.8201517304681,1.78986285226613,1.82307270935274,1.86843956677079,1.83671496913696,1.86631011703071,1.8305216505362,1.8612867544397,1.78648801448705,1.78751443529691,1.7870992283157,1.86262011703071,1.83954807112669,1.89001011703071,1.83410587600322,1.88339011703071,1.85003593071179,1.85765006260922,1.80436726900241,1.78232482639026,1.83255172894657,1.85851407477609,1.84891355079206,1.78280173046638,1.79067756149482,1.77831209535572,1.77813874917809,1.85305508777304,1.83152142475706,1.85292436374678,1.8509989602155,1.85816681405602,1.7937130003086,1.85544011703071,1.79550321057705,1.80251861154564,1.80144648942546,1.70686954719671,1.76518745865121,1.78405011703071,1.78204754188862,1.80136018013753,1.75851482162913,1.69335175676927,1.72088822746545,1.76864199439191,1.76864417977766,1.68810880587238,1.68576403109546,1.68635975068668,1.68691412020294,1.6856600009997,1.68486670628785,1.68299589542497,1.68099813359778,1.76297546556108,1.76148747610471,1.76264272922841,1.71008951598135,1.68504211481711,1.68503203166901,1.68450091235251,1.70705276541347,1.76307815363425,1.76394310524973,1.76339988162107,1.76409720877302,1.76340406141655,1.76361482314511,1.76431554783073,1.76489723830162,1.76591075247676,1.76787347704112,1.68612988219367,1.7664551479503,1.76815874682793,1.76864378778634,1.68802988342239,1.77071387225818,1.7672629612638,1.76741776689043,1.76806115491168,1.76899892715616,1.76801586858838,1.76766671707848,1.77166858108257,1.76903826625889,1.68935957114112,1.71570229353995,1.69192678117115
1.73794708092599,1.65491988295653,1.74009379467515,1.75395174137407,1.76871360812007,1.81215601859713,1.80088940707661,1.80311928374235,1.805436095598,1.80553459492117,1.79659546778835,1.72314990110861,1.77027925483889,1.79923446598778,1.79925330602946,1.79811036066308,1.79396882995347,1.71648973140646,1.79106255783054,1.79293874382159,1.79280881778954,1.82088011703071,1.7974705660391,1.79199258682621,1.78922324171947,1.78923114041228,1.78717193755831,1.78666347281357,1.76519963702082,1.70607184067341,1.75537476746429,1.78252665490112,1.73198834766308,1.70323826940422,1.70446532696527,1.70289286948029,1.7027604468517,1.70147392673969,1.74716443101744,1.77684570732021,1.72721087332343,1.70029806779114,1.71472824404881,1.77622011703071,1.77595014009945,1.77809541867674,1.77846985799298,1.77906402017455,1.77831730388278,1.77767110114717,1.78200075588899,1.78259292350394,1.78716881455699,1.78532764739041,1.78725691926383,1.70981919971665,1.73613113737569,1.71481496021865,1.76030716531329,1.82055115671611,1.81634955808789,1.82145259980609,1.82319121483102,1.8234891944015,1.82570677736099,1.79657528839354,1.80841613870037,1.86880011703071,1.81336686951991,1.89270505825705,1.81506513858205,1.90025631777099,1.8197120603977,1.79591781321773,1.81416357090001,1.88018382948845,1.8570899547319,1.88485598623697,1.87353874688385,1.88925519030262,1.85832524095753,1.87260138283417,1.79041096449787,1.79213224645508,1.79857881330594,1.78983077868943,1.82039041519369,1.87257011703071,1.82326510733538,1.88671487964479,1.83625863947991,1.78873864383037,1.8303080785531,1.86259342110637,1.78586531975701,1.78650708943495,1.78693884623953,1.78816616353161,1.83981287077983,1.86888247392899,1.83451287006739,1.78555596787273,1.85026455497434,1.8576900544215,1.8495321975443,1.85627011703071,1.83193671580494,1.8757146693131,1.84868865881075,1.85590005851536,1.79532599126898,1.78015619108247,1.77899923394157,1.85227508777304,1.81695330500921,1.77944442961023,1.84457966601985,1.85859208043351,1.78874811234539,1.77515776306862,1.78947741772985,1.80130594730657,1.80034220190998,1.78884708315512,1.76527294898257,1.70236984026238,1.77729836457904,1.77608359250763,1.75922180740651,1.69377177510986,1.710348221203,1.69190788577155,1.76793295759402,1.76564022654116,1.76394749663746,1.76553903031729,1.68688906369277,1.68480324426318,1.68476026377473,1.68287263522121,1.68105411369234,1.76383222334648,1.75219384815395,1.68372300492546,1.68480463239045,1.68351037965566,1.6845255414338,1.68381656340038,1.69860378558563,1.68230511377102,1.68382593260531,1.68281367616045,1.68627297316566,1.6860631918017,1.76310567044784,1.76751113306393,1.76458694867371,1.68608988267262,1.76665900011623,1.76672412950087,1.76507939950318,1.77127956516764,1.77043490431733,1.77047323331651,1.77141803051821,1.87543011703071,1.76513961092058,1.69194902281922,1.71753802976627,1.68843988027553,1.76679455810093,1.77816495079079,1.77583575346403,1.77825905499049,1.72786070088777,1.77536871946797
1.73816651602952,1.73635435208123,1.73922477173857,1.83720011703071,1.77061389263056,1.81088936761424,1.75171166179041,1.72363420546534,1.80810875768714,1.80427096793584,1.79673240634211,1.80044011703071,1.76998493062171,1.71833963297068,1.80034098861368,1.81698422932605,1.81205442670465,1.81675508777304,1.79247504143619,1.79241693656106,1.79199571671441,1.79220892766616,1.79634904770244,1.71261975276353,1.78802395582986,1.78866424716108,1.7866127661539,1.70773985552457,1.7648800209557,1.78536103350448,1.75650328839527,1.70255323961227,1.72061777417915,1.70316003298419,1.70451668211829,1.78109011703071,1.77736299319295,1.82143011703071,1.74637119684951,1.70108864479,1.70127952922347,1.70002238189124,1.70038095826886,1.69936729997111,1.71094311708056,1.69975144533768,1.73263895937133,1.82312011703071,1.77752282164442,1.77806221628645,1.73505652923299,1.70337988155765,1.78707528871886,1.78571291999776,1.78757398040826,1.82047011703071,1.74705121218415,1.79521011703071,1.75935125855696,1.79596802281518,1.80085149675745,1.80284612613777,1.82352510637901,1.82251340642394,1.83346970037784,1.9007915740974,1.81370684224122,1.79559433913061,1.80363689222846,1.79415219239169,1.81060606519798,1.88926385777508,1.84759994019834,1.87931379652537,1.84220581627034,1.89113634605762,1.85721060158961,1.87811871434813,1.87381037319182,1.88962433309746,1.85406573774852,1.79334040048106,1.79135926211707,1.79277514163729,1.80569537017758,1.8681372892906,1.82046309296049,1.79033068335448,1.8035120919257,1.78968315972116,1.83574330479209,1.87533814328748,1.82992925813863,1.78788024703024,1.7859093107666,1.78572598905628,1.79899907645027,1.8670151614619,1.84011066929345,1.85912764310172,1.83484274651847,1.85989912663998,1.85480388204017,1.87898948854252,1.84995660441135,1.78322452172438,1.79055557538288,1.78192592824071,1.82690913605171,1.87729011703071,1.79748146538719,1.779441506233,1.77945472946591,1.78095271541436,1.81674339128607,1.85903022458744,1.84452805028086,1.77637159677222,1.78259514561555,1.77557691991875,1.7881762820355,1.7993391905443,1.79945502096894,1.79987735592716,1.79282615552466,1.80107011703071,1.7776836500965,1.69879991931575,1.76002341326898,1.77247842110637,1.71932681266113,1.68866779691481,1.76791519104575,1.76688983613656,1.76400148610844,1.68585965578339,1.68665836467156,1.68568791410824,1.68534494776918,1.68433887714185,1.68192987304203,1.68226993441088,1.75253567641341,1.76180011703071,1.6854796255516,1.68357452689699,1.68494989633936,1.76177011703071,1.70524153015503,1.68522290922647,1.68518114026932,1.68503595109852,1.68523375532567,1.68333493010197,1.76219632689099,1.76399419246185,1.76369754786199,1.87849011703071,1.76339696873139,1.76474089068383,1.76407978304091,1.78293028993037,1.77096839213063,1.6868698828279,1.75140734706944,1.76714087173412,1.76542241544592,1.77663644584285,1.76636933304399,1.76829292624838,1.767902063543,1.77115149134777,1.76924278976335,1.68987855281764,1.71515799831363,1.6900883745999
1.68705144825829,1.65558992409235,1.68098302370067,1.65813654651163,1.74102371142694,1.72355633647695,1.74315978233817,1.7243408855233,1.80936645813986,1.80447040209899,1.75078602776672,1.72112796188897,1.76987961182885,1.79922547662365,1.80090343454698,1.79938486536596,1.80952598103527,1.81737508777304,1.79748061932163,1.71585991829009,1.77164998770415,1.79292546093262,1.79457917829347,1.7913378893202,1.7886735840031,1.78862049279748,1.78628777665523,1.81895011703071,1.76974519422074,1.78872914204159,1.75738847343341,1.78299842110637,1.72945502907317,1.70273539447735,1.70371645328662,1.70241565214403,1.77735595709141,1.77974131085214,1.74640329691047,1.70055720753755,1.70127952069114,1.70102078276718,1.70065788383162,1.69925815327887,1.7154657309534,1.77866011703071,1.72300435786883,1.70048684231555,1.70198875923939,1.70247087430225,1.72539992511273,1.78131959710837,1.78534025147864,1.7849646151056,1.78796690244311,1.70846886645101,1.73454387863422,1.71386427781204,1.75407431260539,1.82017147918378,1.80139343746775,1.80334443724656,1.82368653913362,1.89944011703071,1.83824769785183,1.90585109360967,1.88555041739603,1.87486130729087,1.80998482117997,1.79542661176289,1.80475796516932,1.79453308654302,1.84768687791315,1.8856471309007,1.84193940222064,1.79408408703985,1.80012220306627,1.79362504370934,1.80876278392604,1.87999533658174,1.85389282818051,1.87152011703071,1.81137773065099,1.86820953454382,1.85718901041808,1.86813729774793,1.82417658340377,1.87277011703071,1.8381938140553,1.87298246924279,1.8763232581007,1.87086944477406,1.82966369498941,1.85918011703071,1.79312790668235,1.78624878544941,1.80229201836244,1.87687890485987,1.8402307816282,1.78558432882319,1.80230404011045,1.85508104890609,1.85503891112273,1.88613414712115,1.8535449661481,1.88674556617278,1.79757288638353,1.78081399792683,1.82725101856371,1.85689285369338,1.86522252885924,1.87225561698687,1.79185212805242,1.77865658974792,1.81654774281003,1.85831733620062,1.85984200718673,1.85297329299483,1.7882640062752,1.77554803682962,1.78455508252736,1.70977984623076,1.78601079312878,1.78623284707679,1.78580333152514,1.77906196672187,1.77799948277331,1.77784005851536,1.76044799280301,1.7725517544397,1.73129079161333,1.77071942471003,1.7656613297079,1.76559625529066,1.76433338419997,1.76458639058399,1.76373626196651,1.76387792565766,1.76134134844675,1.79963011703071,1.75991340554715,1.7632999763056,1.75288518121026,1.68253131517772,1.68504234813235,1.68477178783112,1.68456296500451,1.68277176119525,1.7142298713828,1.76188873471105,1.76175132291281,1.76226640964853,1.76259246601885,1.764920433009,1.76314431793748,1.76438316195132,1.76370983028286,1.76407823160061,1.76245783775562,1.68849988337175,1.76479361545781,1.76680788061718,1.76992881381519,1.78497011703071,1.75123341917133,1.69079986117206,1.76596435771296,1.76792573494896,1.76660350753988,1.76796652189159,1.7682785521337,1.76921379386028,1.76883095023621,1.77679064596324,1.72822023560833,1.7702948317016
1.67526689142717,1.65563660044769,1.69251777464038,1.83795377595526,1.81622401803143,1.80321427332678,1.80840124311446,1.81386690846356,1.8089609987878,1.80267418262696,1.74517051140608,1.72172905310215,1.77021718042193,1.79963283612082,1.80317347572544,1.7167470189933,1.73791826305233,1.71762402523483,1.79834102121121,1.79359843034169,1.77150190338531,1.71304491586467,1.74121935171888,1.78954002074844,1.78870359119959,1.78847426967593,1.78611916841592,1.78600686385827,1.76941014429038,1.70570667955922,1.72885044360409,1.7833517544397,1.74013948123467,1.78262308655361,1.72767339254603,1.70134634111453,1.77733735137496,1.77919872736563,1.74724944684217,1.69983921416928,1.7176748249217,1.77689674827619,1.7761782908197,1.77805873723361,1.72095791405749,1.69948573694399,1.71577382019032,1.70075322848426,1.70178012480765,1.70218205542486,1.70368723642996,1.70349818464451,1.78556574326249,1.78473194928851,1.78920986161418,1.82002011703071,1.74589056460583,1.82021011703071,1.75476794968539,1.71824642320738,1.75455285779273,1.82089198237786,1.82238512935726,1.82387195851489,1.83735385873229,1.89865112803868,1.89046296871149,1.8930494362622,1.81363948624559,1.79602359279218,1.80993065999944,1.86882751387579,1.84780039134945,1.86916930663535,1.84147542613498,1.88692011703071,1.80647204905098,1.79268440806337,1.8044283382041,1.79305409677042,1.79397532921064,1.79585488720108,1.80735262877177,1.88290448356027,1.85710494120226,1.8824856470229,1.82404348077971,1.78927613147306,1.83850579756231,1.88050336180969,1.87961208236415,1.87956882602195,1.82995078261682,1.78706570607887,1.79657510522773,1.869067099984,1.8544708822332,1.87265389234503,1.84007758356487,1.78596335451358,1.79615368932562,1.78274490267199,1.80082421014082,1.87323659839776,1.85378441366071,1.87691530939791,1.80100060037349,1.78259705044855,1.82746753084632,1.85823039912127,1.86653234041121,1.87072895880072,1.79599152457944,1.77853958509014,1.8164559751265,1.85664945700667,1.86099982894624,1.85612745770229,1.79158054153291,1.77578607129794,1.78702163157275,1.78938425940939,1.78931082912431,1.78586842271745,1.72896953693781,1.70034901300073,1.73125527165585,1.8004867544397,1.7272033812662,1.69243126561351,1.7202785884764,1.76991049496677,1.76564214542172,1.76602265922577,1.76511635754961,1.7658876594682,1.76400306196366,1.79846011703071,1.76085063026465,1.76140778347906,1.75987881499474,1.76083188293911,1.75303834254123,1.76122018989508,1.76096340927499,1.76342530192793,1.7608576331852,1.79254011703071,1.72543719931793,1.76228527714117,1.76210328126364,1.76396151448222,1.76326732741973,1.7650613304842,1.7631590927277,1.68528988304037,1.76342372581959,1.76488470500278,1.76356584788598,1.76528065473363,1.76510926592511,1.76627431592373,1.71535417831238,1.68719422920757,1.7508595146399,1.76764620612971,1.76659292136852,1.77714690915436,1.76592221099213,1.6889298786052,1.7164183412583,1.69062925290924,1.72493783285597,1.77811967978244,1.71702983135778,1.69155885097958
1.68798511847943,1.73107078769308,1.72978921649344,1.82851773948496,1.81651416048789,1.81019421720555,1.80893120601062,1.80991123215196,1.81153251982232,1.72277119615532,1.73696477078327,1.7210959246725,1.77063860245869,1.79760417733614,1.80235994112865,1.7170603457431,1.74689181566433,1.79657819469227,1.79800736394713,1.79531457110297,1.77116702737153,1.71199159210045,1.73201879797075,1.71015519441071,1.73528524337174,1.70936931183375,1.78492746479594,1.78664642506982,1.76868736669014,1.70572208715629,1.70524813595684,1.70459222556924,1.72802043309678,1.77868987634773,1.7768117785549,1.77824884324774,1.77764078482692,1.77739374721152,1.7480829309218,1.69926627604732,1.72495590759956,1.82330011703071,1.77558490025719,1.77796162855029,1.72605368857325,1.69956571816132,1.72662303436776,1.77897497660326,1.72766952914537,1.70133356458278,1.70369674889712,1.78244607505553,1.78467205845224,1.91033011703071,1.791748436783,1.70641980242739,1.73395404495216,1.71223513231612,1.75568098493024,1.79542011703071,1.74914676171588,1.72391523221444,1.74951122758513,1.72881395777172,1.83623777539906,1.88701725128236,1.88984987724499,1.88624415659521,1.87959601409174,1.87332005921064,1.87665558031789,1.87180804379255,1.84823531760092,1.79466785536485,1.80661706809973,1.79476122180469,1.81054938715308,1.89129105645646,1.80869698243069,1.87552011703071,1.7929671133605,1.79266211245737,1.80294443880972,1.88917621595734,1.84135682609797,1.78967016543558,1.82405321425165,1.86621011703071,1.8386580664455,1.87588631674677,1.87605812759514,1.86563472226772,1.83051212807428,1.78691930711757,1.8004887266468,1.87706307556207,1.85434538877664,1.87402547389357,1.8707993215979,1.86826741651739,1.86846885803825,1.87687079060828,1.79791210941722,1.78265649743181,1.79781145820423,1.87630935849074,1.85150424248652,1.87567747291083,1.85290842542475,1.86365371419936,1.86917593572296,1.88292061624321,1.85198872301118,1.86959493973896,1.8464395844141,1.85808137352908,1.86144450323846,1.85653364660425,1.79299723539294,1.84845011703071,1.79750427064748,1.79871257363986,1.79590186059927,1.70663539933303,1.7084567423831,1.69981716661241,1.72087650210624,1.80083342110637,1.72167120903344,1.69411357666306,1.71199060203686,1.68924305385223,1.71042007217847,1.68706547902345,1.72074628788868,1.76578201992757,1.7636962216276,1.76392076969533,1.76163659780262,1.68385275852957,1.70071209183352,1.68245691630464,1.71729622499133,1.76266794630987,1.76197932141927,1.76281719240735,1.76158870980057,1.76347224802667,1.71368974293626,1.68194289750354,1.71738784335186,1.76316463853834,1.76230908201975,1.78838008777304,1.77984944232637,1.78924011703071,1.76394800825219,1.76508971865838,1.76425732424231,1.7643841592986,1.76640491922591,1.68601401568753,1.70413528099797,1.68594090958941,1.7504954966364,1.76882722349881,1.76746157246889,1.77106674293289,1.76799009512132,1.77623458043022,1.7658735132106,1.76831226304145,1.71612463253305,1.68868479543176,1.70796873439729,1.69052553363779
1.6754091294238,1.73166478646364,1.72998721128828,1.82828454005422,1.82334177224881,1.8088535510778,1.80879397486932,1.81072922504344,1.81071818102977,1.81293455692782,1.79757979807824,1.79997750554135,1.79832397577839,1.79724533264879,1.79834118637424,1.79659145567588,1.79443558389525,1.79546374070959,1.79862204141019,1.71441975023338,1.77083274724184,1.79056114104525,1.78770503879364,1.7882417986145,1.78407530827318,1.78529818986967,1.78505733244631,1.78714987965474,1.76801157467741,1.70435832486065,1.70476346606216,1.70407669248523,1.72017617266365,1.70344057400946,1.77698781461378,1.7789857917664,1.77836560740103,1.7786165117903,1.77875979667879,1.77813525443631,1.73394388231882,1.69926517591768,1.72066915611144,1.69826102765971,1.73010769155497,1.77672103666626,1.77743154925534,1.77934583866737,1.78101839856226,1.77983855236728,1.70396547028359,1.702652000392,1.72813483038721,1.81830005851536,1.79044096916723,1.7865810248509,1.78510705531919,1.79298011703071,1.75621914843666,1.71789322370308,1.74368883621779,1.80271011703071,1.79505492671577,1.81998077080517,1.83861665354096,1.88207150854107,1.88688842696526,1.89365923896429,1.88009165896359,1.87471356166893,1.87766592926524,1.87118886379155,1.84872845719801,1.89243011703071,1.81190218563003,1.88160011703071,1.81411086004393,1.87286911908961,1.80404297975987,1.79262352708733,1.79218414126003,1.79249763703946,1.7906976634522,1.79136503615577,1.84161734361788,1.86609842110637,1.82451049811298,1.78916974373124,1.8212963534124,1.8740496650179,1.87805906939771,1.87890665193613,1.83081174220797,1.8719145969021,1.80424761473398,1.7871361302385,1.84827806024671,1.88639056597544,1.86782917151281,1.86049241277294,1.86407481165045,1.85747574208133,1.7939773897181,1.78234707570825,1.79325489098451,1.85537005851536,1.85150688487331,1.86528718197037,1.85276062618815,1.85851659055172,1.86755792383444,1.87725510054598,1.85182975266111,1.88211523580711,1.8467023758056,1.77638218508512,1.7742215526159,1.77457694364348,1.77539520996951,1.77502794224237,1.7974540235122,1.8014242530826,1.79732921153792,1.70704025170197,1.70860271196058,1.69915319841115,1.69942615797157,1.69860867483674,1.71355581153764,1.80026011703071,1.77171659204643,1.76989465210109,1.72135005992375,1.68892196248557,1.70978699461346,1.68560766037649,1.76290909163528,1.76231239744787,1.76206994331332,1.76235456127782,1.70843160399263,1.68273230065183,1.70963497791607,1.76246990746383,1.76243790123737,1.7642601203726,1.74871607988125,1.68475400013527,1.70464873565457,1.68187623255627,1.70677132334907,1.68581477951155,1.76197204506463,1.78838008777304,1.77574891567378,1.76624663744101,1.76437299274779,1.76502994892046,1.76455647442901,1.7651883614632,1.76679778006692,1.68819079146025,1.71224705915406,1.76818508777304,1.75745710366782,1.76897517763438,1.76808911770492,1.76839162348074,1.76839855017182,1.76826656795953,1.76687348729121,1.69014351925425,1.70905203278369,1.68975812718726,1.71893165457369,1.7753503001496
1.65632130271119,1.65521189849805,1.68627636430409,1.83792423708234,1.82690702745349,1.88778011703071,1.80747306304784,1.80168565144929,1.80030936534407,1.79911258289219,1.79777673207308,1.79978478901592,1.79876120791763,1.71917978803856,1.79698493817126,1.79773711203386,1.79388560731652,1.79513240875168,1.79736026715821,1.79442491385704,1.78927291426613,1.7951068886372,1.79115364882151,1.82077011703071,1.78298934374061,1.78570733289454,1.7844404715757,1.78428515341715,1.78280003447273,1.78337134413557,1.72689935272782,1.7032520481238,1.72764132682988,1.78204834827624,1.77952224980488,1.78063036934914,1.7791915223844,1.70237987939215,1.77896250046857,1.77819165603271,1.77746290343689,1.77700663327718,1.73089186886498,1.69734769143117,1.73437234767061,1.77761524527422,1.77716326412832,1.77711522507022,1.78077337020191,1.69955178639906,1.70371325439908,1.702842186563,1.70566057445276,1.70535735675462,1.73399640569267,1.78621360691615,1.7849959125457,1.71054931489354,1.75606990896521,1.79354011703071,1.73691918297411,1.72292680811109,1.79474240082301,1.80617735757975,1.84044176492641,1.88067021797823,1.88257552537238,1.87449652305884,1.88031324721097,1.88638197896265,1.8825001582111,1.88606623794831,1.81496326917219,1.79418621576784,1.79441465642954,1.79454848465021,1.79350832072954,1.79304444600405,1.79260412060113,1.7922640176013,1.79206387599332,1.79139617346795,1.78989297251772,1.8856265531844,1.84184930969006,1.8652917544397,1.8250295010619,1.87607011703071,1.82116224843041,1.78894926265423,1.7918428465808,1.78817102232093,1.80863224521581,1.88186493415755,1.80684431189091,1.78737672561899,1.84829290654943,1.87250009507089,1.86715426483448,1.86035940904137,1.86341931769068,1.8584033996943,1.78913022605815,1.78253007470893,1.7828411221966,1.78314875567103,1.79992187448243,1.85434782150193,1.8473066598694,1.77877856937664,1.79495085649642,1.77847785956717,1.84593925571678,1.8528749699616,1.85121703501905,1.84943768703749,1.77336257579994,1.77385245737483,1.77554791984745,1.85199011703071,1.79520413638766,1.78988662983819,1.79332202140485,1.79016108221052,1.78221723028462,1.77970295507374,1.69928943786114,1.69559590466085,1.70725254240699,1.69232187683106,1.7710687432833,1.76915881216926,1.7681722745509,1.76764565632194,1.76439903731148,1.76427803859512,1.76327970196769,1.76432932345189,1.76175378461105,1.76191408612697,1.71435173957519,1.68322491686941,1.70218744137339,1.68477227016664,1.70896724900002,1.68183987252234,1.74876245328483,1.76266113429005,1.76465373202635,1.76341301008243,1.76313325076881,1.76437065655086,1.76342756952559,1.7644467260969,1.7645385663002,1.68472591424869,1.76464017856648,1.78589445188652,1.76564476234424,1.76684702119206,1.76692312444674,1.76875011703071,1.72258831324166,1.76824508777304,1.7572299322996,1.69015983847475,1.76918562647625,1.76900694995852,1.76933083891006,1.76996050834493,1.7686945528301,1.7703404745904,1.76906525661068,1.85144011703071,1.76379979266198,1.76562775200945
1.65551757471242,1.65310364006403,1.67512206667389,1.65765162909158,1.73422479178039,1.72110013996997,1.74515954658801,1.72150604058013,1.74667422227951,1.72178784557253,1.79677269398272,1.79864314351642,1.79818981389903,1.79699197767269,1.79621078530553,1.81399465540072,1.7661566300388,1.71439158947981,1.74264568147094,1.7930022567129,1.78886472881564,1.71154987813119,1.78540336014416,1.78803460961962,1.78374221703286,1.70917317476592,1.73823878805891,1.78466003524772,1.78289076538674,1.78459805955969,1.76497769567926,1.78228011703071,1.73857698473213,1.78024753456597,1.77984428039928,1.78130266165931,1.77954795120281,1.77989161569,1.77899058449857,1.77705199635499,1.77636726476165,1.77664185454559,1.77591754272669,1.7757453075805,1.77560666212682,1.77697468596977,1.776797621493,1.77783068960968,1.78045959884586,1.77971664946139,1.70370272208555,1.70302300135872,1.70482492001062,1.70473847882356,1.72362957209427,1.70679158384012,1.78487303422524,1.82094792089362,1.75530732028399,1.71558014593403,1.73247626962523,1.72155742942758,1.79444248844743,1.80557341515897,1.84141342982712,1.87277094856795,1.88215077102294,1.88209867474653,1.88244111935681,1.89291011663518,1.8831284602628,1.88236924925726,1.81242041254623,1.7944456284357,1.79417611961145,1.79467758186923,1.79320071768086,1.79234664220025,1.79221706586129,1.79209012964225,1.79165640807669,1.79166599483318,1.789289728804,1.88006362236167,1.84179349302642,1.78944333254678,1.80313064403917,1.7894888853836,1.82112550088249,1.88523011703071,1.79583785913791,1.78754255206978,1.80855821910032,1.87587070300178,1.80801569001223,1.87875595879559,1.8528172352032,1.85851037336946,1.80240717828199,1.78352392770949,1.78376746828236,1.78318428260884,1.78233698891558,1.78161647067343,1.78233844106575,1.77934249948334,1.79854178175643,1.85502781619366,1.84710160224979,1.85464971245841,1.82980089317373,1.85454011703071,1.84581572698574,1.85135514706911,1.8514526560798,1.85523022919768,1.77372333749127,1.77354541141847,1.7757282741315,1.77656838622417,1.79178504412675,1.79692395351523,1.79442986460927,1.78262978449343,1.78317916074951,1.69981651301053,1.69989876164241,1.69548936093365,1.71386954567088,1.76936085800363,1.77051672415493,1.76848079085237,1.76732615701956,1.76741625467308,1.76481419035607,1.7648284014442,1.76254491248668,1.76218755841808,1.76155773124399,1.76143509322109,1.72402077661835,1.76250011703071,1.7509016595992,1.76145877224269,1.75964797191209,1.76045809265208,1.74870961313147,1.6819732450853,1.7650760658582,1.76299625349337,1.76306000692386,1.76369417157024,1.76381504311392,1.76490050965842,1.76446278872416,1.68462991409288,1.76457697673082,1.76550407465897,1.76712934650836,1.68714570654592,1.68796140368165,1.68734036791459,1.68887518385927,1.68676532936285,1.75674197622491,1.76804156600266,1.76916728185128,1.68908157853947,1.77035006551862,1.76979558806897,1.76902084420596,1.76907935321262,1.76886256544357,1.77473396002191,1.76505024767806,1.76665767023681
1.6765354826159,1.65230481847285,1.6835589633515,1.74883814906347,1.75136853166244,1.80167833220988,1.80254857968903,1.81019355115464,1.80147552801134,1.79973855198859,1.79697164786709,1.79852916179555,1.79820831908912,1.81349496745805,1.79649611893062,1.79555530034947,1.76576229882651,1.71360493196728,1.73388221892121,1.71309434988294,1.78844673406572,1.79028274340615,1.78739531832431,1.78824301124463,1.78384906700981,1.70839318433342,1.72840455599349,1.70614572800679,1.7810919765121,1.78232827820028,1.76489242225958,1.70145374932091,1.72577452440058,1.7795254592486,1.77913455808671,1.77841892475734,1.77822114295935,1.77719887730732,1.7787069197205,1.69885988185743,1.77478286730386,1.7764502252565,1.77580268387407,1.7759089946116,1.7751558340102,1.81762011703071,1.77543893840089,1.77751804485158,1.78130549808206,1.69969154737255,1.70336758362233,1.70293222323022,1.70483089089125,1.70426584110896,1.73201888127814,1.82057011703071,1.79819518429885,1.82042768238916,1.75437300876619,1.71635346212309,1.74124087457459,1.81949608472169,1.81753009753619,1.92369011703071,1.85892550804163,1.8952515407627,1.87130475877499,1.79270361288309,1.8072867740143,1.79326975792638,1.84533045886811,1.87094691036057,1.80873566421911,1.79423665391519,1.79310265479158,1.79305938421163,1.7927514095352,1.88168011703071,1.81113498944047,1.86634642382931,1.80189144119524,1.79007927887866,1.78931700820087,1.78972120825963,1.841380411049,1.86489672979841,1.85266540636887,1.86817011703071,1.82116303077441,1.78650172272069,1.80059844911844,1.87572011703071,1.80980304453091,1.78615224684423,1.80311616778633,1.86940421675048,1.85307628656861,1.87557605966206,1.79967477737276,1.78467046171787,1.78448807211459,1.78216533734473,1.78198747507159,1.7803937896851,1.7924006265054,1.85515666021615,1.79578840887179,1.78012994658658,1.79615636943396,1.85489917469065,1.82964924154393,1.77571088492354,1.79027053144571,1.77581560508047,1.78939856919145,1.7761507959862,1.77550178081215,1.77755092380401,1.77516737389635,1.77483057613481,1.79017413626231,1.79743676935536,1.79509291383751,1.78289724497459,1.78290842008979,1.78108670334495,1.77459194463409,1.77572317782656,1.72152134939941,1.69196657610434,1.77114599198047,1.87205011703071,1.76599831131449,1.76645004466406,1.76436558355013,1.79711011703071,1.76169070324215,1.76267686668474,1.73173283161966,1.68346793539399,1.70784510194501,1.68189926779734,1.75093124428607,1.87632011703071,1.75871246366598,1.76102152592086,1.74858892212057,1.68206657841863,1.76453455468213,1.76392803683401,1.76337150157898,1.76372969606447,1.76401957330083,1.76496808833817,1.76436740571431,1.68361391426269,1.76449665008005,1.76489087368423,1.76737317172182,1.6881680578567,1.68816428269104,1.68747002208751,1.6908615162092,1.69162008920698,1.75627917658525,1.76860160316256,1.76917875624113,1.68876824520614,1.77270160442825,1.77565869360417,1.76895324145085,1.7715209291242,1.76912263872331,1.76857290075576,1.7669372983618,1.6891326324181
1.73583803224723,1.75106965284452,1.6943841890895,1.65998988293248,1.7534767084584,1.80960350270778,1.80245122390968,1.80137542732005,1.80155225265958,1.72187982936349,1.79608279618356,1.79826819973934,1.79781048458383,1.79711661262033,1.79861659745145,1.7149175850906,1.7655019971169,1.81480011703071,1.74770800192722,1.79157678900103,1.78810918042638,1.78974374560265,1.78765028015676,1.78892062393089,1.78394616109525,1.81363011703071,1.74117828650895,1.7845812941263,1.78168304091441,1.78256915797963,1.76464726125862,1.70349306611963,1.70383753344309,1.7007778376829,1.71995677307103,1.69987424322874,1.77758912358867,1.77792989234488,1.77880921837105,1.77950425660041,1.77501810867541,1.77638963700713,1.77587714868345,1.77616812425067,1.77622836589946,1.77569772471978,1.7735681700072,1.69827988142257,1.7821626352912,1.89254011703071,1.72099163867264,1.69931442379316,1.7199632467187,1.78255997673602,1.75447458962509,1.78652541587414,1.7944427379909,1.81656463077864,1.75386726122814,1.81704011703071,1.75331530428959,1.81748687162536,1.81698824623812,1.89717005851536,1.85910921183063,1.88932906872227,1.87177388792658,1.86938760391598,1.85712157320022,1.86969994008924,1.84547865436455,1.79481883171382,1.80454755133239,1.86971011703071,1.79135969219012,1.7922263437223,1.79229883654994,1.79158997911063,1.80836656336789,1.87598684424094,1.80573926007754,1.79032202454851,1.80270621630654,1.87954011703071,1.84092298040567,1.87566625203362,1.85294959473665,1.78933544143054,1.82110292254217,1.8825137740434,1.80474577399638,1.78742636477242,1.81115807549335,1.86115571054983,1.80109077512875,1.78540556502145,1.78490063582756,1.78415061636134,1.79587022240813,1.87606348886846,1.79493472381592,1.78244177878345,1.78232795579159,1.87901011703071,1.79820614910015,1.86972514005696,1.79177607714233,1.77975250003132,1.79229757244253,1.85119134691236,1.82937019067042,1.85444011703071,1.79409596494128,1.87702011703071,1.79361686110462,1.84848011703071,1.78964789331089,1.85114011703071,1.77530055616537,1.77489923961012,1.78863357462956,1.87296011703071,1.7956189225624,1.70443988064198,1.73471461796578,1.77953670945957,1.77493712489538,1.77548802615802,1.72795344731584,1.69115324277103,1.76933069710793,1.76731454384281,1.76578300078107,1.68660988318742,1.76211736836919,1.76353253629032,1.76156075468875,1.68267985246604,1.73128140483525,1.76225011703071,1.71992409737144,1.75897011703071,1.75085369068933,1.68192988095022,1.75835871731882,1.76098706351033,1.7592149397348,1.76139176376693,1.76204386113227,1.76305557863243,1.7501795386582,1.68312192778336,1.74377097655501,1.76561840500579,1.76832013309005,1.78614011703071,1.77323150529908,1.78659151826681,1.76785461592118,1.68576946631276,1.70966474985889,1.78319011703071,1.76547241635379,1.7685421694203,1.76765578465516,1.76799081014502,1.76811836711976,1.7756724743086,1.77244185628413,1.76780041949651,1.76879706457409,1.76888735049411,1.76952824407304,1.77501019494526,1.76914355976166,1.77085443016988
