0.7858019569579,0.786456095503884,0.786340729169279,0.791597164838658,0.785834511512816,0.799694640630974,0.787462143795316,0.7844273731812,0.814861890797573,0.787329782858964,0.791773237718103,0.78859025183003,0.788532743978486,0.788081201729575,0.788143938647219,0.829681275916735,0.791041959555497,0.790532807564159,0.814585267484548,0.789396406526751,0.78781291886303,0.786344372255402,0.786414408956112,0.786679636217712,0.785064633024428,0.784509469950254,0.806993556425617,0.806517036188816,0.824470399383078,0.816108159005909,0.794624260375516,0.794854838762217,0.820677405692478,0.812566704456292,0.812585035560787,0.856339747674287,0.810956057225953,0.807331580348655,0.793840852392062,0.785521779221571,0.819493004744726,0.780104785612449,0.779457357885657,0.778713362947337,0.785334029486387,0.786038054578811,0.786040140774099,0.780104866380612,0.777714978064904,0.776998936732244,0.807388180491257,0.799628053071721,0.776595643498477,0.824206480318394,0.777092928465897,0.777211372469975,0.77759244053023,0.777089188555835,0.776636270632644,0.776375485088516,0.776963703610973,0.782179310008949,0.783095240634706,0.776202923299124,0.790825542747137,0.792111880022212,0.776821145754295,0.776780342046771,0.794422004202919,0.79152980616582,0.775468493133581,0.776878166307151,0.776171961400303,0.796507265007223,0.78839546148435,0.788571091621443,0.780873681484086,0.786000320288475,0.767097280434174,0.767448233971225,0.768038910490934,0.771715954519443,0.773471285559607,0.770527354057918,0.76958569152792,0.769052356162769,0.774838764845039,0.780283862850333,0.779749576084598,0.779846918108937,0.779954742384596,0.777400327018424,0.777350610701869,0.777105819681479,0.791156356420596,0.776368278916193,0.776518918834443,0.790269791229245,0.778320079642983,0.775121523952348,0.797093596310112,0.790571722534883,0.776815770004461,0.77657376029135,0.77682989252345,0.776564204326623,0.779502299698623,0.779066294834232,0.801015883848355,0.800258684633022,0.800392656440001,0.790872111557027,0.789879575258842,0.807651387254236,0.809713352514844,0.803877949437521,0.801274064804202,0.805380062099334,0.806690370546048,0.807265402627608,0.779547644150562,0.778995141172619,0.780793131389908,0.782695519276664,0.774921683313271,0.776784901462249,0.778678088834406,0.781704533112683,0.776602467173425,0.77663064391667,0.777695456908389,0.778901241809337,0.780334748120105,0.781151145980617,0.781685950832375,0.781744308376848,0.780983769099392,0.780492212725597,0.780169579507035,0.779660270157797,0.779574168224739,0.779052397170277,0.777940791754379,0.800421763070527,0.776505872594363,0.77589703909894,0.787247846964519,0.807069519308139,0.775908870432746,0.775395042419342,0.776140149610886,0.781082561633369,0.766907692623221,0.767585190742396,0.76791633100855,0.76934375416999,0.770357746292122,0.770124758454533,0.766273546449534,0.760656472553997,0.766387757209819,0.769534646829759,0.770010447743247,0.772007934575751,0.771685703183397,0.772327598413189,0.772527825051901
0.785734198925186,0.786483394451083,0.786842294667235,0.786604198946396,0.787581564408412,0.78855325139386,0.788862729960087,0.795677033343308,0.789320063037854,0.78934472892692,0.789484280799535,0.788774611941426,0.788722767550691,0.789426525861638,0.791133297996837,0.789920786918897,0.790464362197739,0.790105151303989,0.791542410077019,0.791244112871097,0.806926150630957,0.806344897559863,0.794594950042968,0.801979350759189,0.801887604000919,0.799436373309525,0.805743744170385,0.804190013168254,0.841377052148885,0.841574152443294,0.82766416129831,0.818398734161588,0.819847044049289,0.812073598544332,0.811637211173608,0.820051275456524,0.814426545256912,0.804722779820878,0.806036313904851,0.804513080308546,0.817682334364005,0.818840838413169,0.799240514727403,0.802903510682293,0.803248131403389,0.789366520043297,0.787941899914464,0.790427075507291,0.78339598777385,0.778493701720324,0.777787779673763,0.776886521098612,0.77670611355787,0.777190086724549,0.797938995558901,0.778513501541974,0.777826965427287,0.776430199358682,0.776204003401433,0.776700087828715,0.777260355193117,0.776902458296342,0.778520171481563,0.777772098875729,0.776621817376447,0.783771245455124,0.77764478741421,0.777465262822403,0.776893270726544,0.777335486136825,0.80412734237402,0.793174818853488,0.780174705546973,0.785826311595129,0.795422288482693,0.778557524316692,0.779374820441007,0.747179107089049,0.777298859147334,0.77695765702735,0.756042782876989,0.77718789094533,0.771354370591723,0.772758215178705,0.784674955579276,0.784595582180355,0.774559915331591,0.773770757311317,0.773926173159162,0.775408931391756,0.775775663503107,0.77586635134815,0.776172794074992,0.787340210015455,0.778580586476196,0.776760364494514,0.775822499882595,0.802787107479259,0.803599641138912,0.796914605460862,0.776564378952574,0.776695198137628,0.776652283932192,0.776958311307513,0.804543743623394,0.781476617550035,0.779727882682437,0.796466895001786,0.797274351255192,0.778735649608768,0.781540528113064,0.782785857961352,0.787828856879017,0.778040474365774,0.794010075369928,0.794123942968538,0.795224617320442,0.796717382559724,0.7989615660358,0.778672224382141,0.779072841333025,0.777813352738491,0.777399532612069,0.778765481372661,0.777311866530892,0.777317453465262,0.778738189796363,0.777697510142109,0.773962121902002,0.783572158072345,0.777478806872851,0.77807444010886,0.779589443557537,0.789826287227728,0.789461038688057,0.796809112752777,0.790384501136894,0.795884702227482,0.780701003474008,0.779579838363706,0.779354619859272,0.778941610011865,0.778425461683927,0.777355708165365,0.800445025490631,0.80069645425665,0.790114465533038,0.79532158007812,0.775715157011543,0.775622643447899,0.779099740163877,0.78004439673481,0.775457911054892,0.78300411533172,0.771907436398517,0.77162007855472,0.771285453901481,0.769859979852689,0.775711195353461,0.779918104675511,0.770963306282802,0.770733017262538,0.769631891282428,0.770394292810603,0.783159725195715,0.772560133296545,0.77295133845644
0.786938928876881,0.786801351636322,0.788797028202058,0.789275595286911,0.78850632389473,0.789587162133004,0.789721015070524,0.789575540377917,0.789694248227997,0.789842141320504,0.789554555415889,0.789561398757676,0.789315347746852,0.791062061374236,0.792354399791729,0.821059034894843,0.790779833198779,0.789560823816733,0.789995710762982,0.790639616723563,0.815391326829234,0.814829903003078,0.816420938848357,0.816596269207983,0.829491647451527,0.854420978738713,0.842935788518973,0.843740580613628,0.842628959805052,0.839195302856316,0.828260758557498,0.828902027255228,0.835775715477488,0.836996474359276,0.838510229193077,0.837666961556349,0.823952005954813,0.824118859960711,0.832294541857243,0.831440223298409,0.794398770965489,0.793984976672012,0.822233539330136,0.823180225289079,0.790052787717098,0.783849279592559,0.785875861835114,0.777812733169788,0.777551997183407,0.777437991605006,0.776859821526108,0.776771318504552,0.776855795611778,0.77777940788252,0.778389936416018,0.778956800457679,0.778524946216358,0.778980631087717,0.813862918989581,0.778558080048389,0.779249842364441,0.777401282286861,0.778281796645706,0.778187256430172,0.793781647886222,0.793327501420253,0.778549616030246,0.778861967958761,0.778151951576391,0.778236466142742,0.778827443947351,0.779771763074703,0.778561899299332,0.778318665319468,0.777944703854216,0.778376748920793,0.778759875130239,0.77910429839501,0.778294309942167,0.77979341267163,0.779301172104278,0.774770068280275,0.777982950462149,0.77375018179856,0.773974019163672,0.775659281611845,0.775033765165281,0.773560880726715,0.773313939490333,0.773368734029285,0.774028732932414,0.775561054664583,0.779256339494799,0.789621021084104,0.773856380118016,0.773790736546918,0.774512128747156,0.774249226176799,0.774890456063665,0.775168313331832,0.774804243258382,0.776456755073152,0.775991390707667,0.776304466982615,0.777322154882533,0.777516170300748,0.778520308652305,0.778782300373869,0.778162395303164,0.794425990127154,0.784490323375043,0.781318276238728,0.779966940121363,0.778394911160349,0.782249543411614,0.77705876721022,0.786153540704287,0.777064111247301,0.787235614719029,0.779731688011889,0.802095187307073,0.791880651752007,0.77951188415503,0.779628186633208,0.780438491276429,0.78121890847553,0.780422916499457,0.781869931581417,0.7734291156995,0.775689260408043,0.778154095920157,0.781905382818678,0.794761688110495,0.794331009474089,0.79404920344268,0.810980367255853,0.785990551280587,0.779436956944864,0.779659783325106,0.779069495414121,0.77844235832202,0.808173732181417,0.809787205241144,0.778521345069506,0.777285249677266,0.800666324136674,0.788477658518616,0.775949933248813,0.776465625186103,0.776655145616293,0.776593556128155,0.776030521999281,0.777453864405384,0.771121334736831,0.772350332705175,0.773337369508445,0.774347345051032,0.775985813677164,0.773702925617664,0.779602743144065,0.771814321009451,0.770086573519129,0.770672228718995,0.771549923553219,0.771189677656563,0.77200932900551,0.773663671478808
0.78621003071323,0.786226398125375,0.786690503234214,0.792227020886053,0.791927656888177,0.79021654841107,0.789984490920662,0.790047389594743,0.790273736816822,0.791097216040715,0.799608210926007,0.793818816069946,0.794372866809157,0.792977605308545,0.791982728734881,0.790728258000425,0.791491359178729,0.800192641230938,0.789735615157472,0.813452464766114,0.815754829705142,0.826739467718037,0.82669406862536,0.826546812047465,0.838825433823632,0.841992857889113,0.842333731351732,0.849263874680841,0.849406093168979,0.844496956351987,0.843416134796656,0.840287682992323,0.841441777306852,0.83521577715916,0.837278804432316,0.82414604667612,0.823768495538068,0.82319523164652,0.844554269939162,0.837885315331329,0.833390950027335,0.810975260468012,0.818807250541547,0.818826114717268,0.804371709336957,0.797930288155567,0.79394021859207,0.792709619758539,0.793434737379965,0.778486492064465,0.788150881645557,0.787014540286697,0.806866206456759,0.778492702096794,0.784589223408078,0.803850971067369,0.788745122927189,0.789353975022485,0.777517786915185,0.783551322087564,0.803337548692588,0.789148810013385,0.777210603105686,0.777456454017594,0.786513365440565,0.779599313708178,0.77914981693644,0.778968797815552,0.778726837979607,0.786705365242885,0.779515139024351,0.780572784116862,0.782530130522323,0.77821026560836,0.777710716642969,0.778030597358708,0.778355478201628,0.777943191704798,0.777147704318029,0.777022923023203,0.778823958329768,0.781910790204939,0.776763358201244,0.775819493616018,0.776312916893878,0.776310681124984,0.77640369227391,0.775993212893005,0.776682234501377,0.787649573657357,0.788599496785082,0.776461084430879,0.77766796318175,0.777151666038839,0.775730021192051,0.773762256738168,0.773971936092675,0.773551925207104,0.776353456956025,0.787975691438404,0.775729301587222,0.776043335107856,0.775824205070123,0.77604836398508,0.777457746771667,0.777338569604244,0.778019435132895,0.777079726399635,0.776444463110282,0.77694943200558,0.785204978774084,0.776388143581962,0.779541840517942,0.778778046671195,0.77905602447673,0.810780963792692,0.798202285662292,0.810532687018597,0.789597593932906,0.779855123579831,0.779963202149096,0.779801670893381,0.777718882384712,0.800135365055379,0.778409828651474,0.778927749829798,0.780454750828193,0.78032488762917,0.778709280594027,0.777427048281697,0.778851716700271,0.779248418943157,0.788947322718812,0.796805809132193,0.796363677892924,0.77970058966539,0.780075824183105,0.779832833168639,0.791501576187718,0.779679022526844,0.79004887947024,0.778987427077578,0.779884559579215,0.795155496541234,0.794808815199928,0.777963312400539,0.786861954751768,0.794312575263421,0.778133447365288,0.790253168216667,0.775982682324661,0.775994171692848,0.775948837244724,0.773877586645149,0.776414889357514,0.778145027970929,0.776230227592773,0.771159466351781,0.771284189358744,0.786871358742963,0.771355566937469,0.77185227293989,0.776270815291825,0.776956205492244,0.770068400613005,0.772193242094295,0.774017965054737
0.786922954332895,0.787497548858118,0.787535252823953,0.786800249684643,0.798702894723984,0.808942352815546,0.79803358215744,0.799534221676335,0.800271994547016,0.802749291413524,0.789751883113863,0.789903501178146,0.790837100300681,0.791748067496413,0.791536385621188,0.808265941331288,0.792660758597506,0.790332431375684,0.789562746035653,0.788044950120525,0.815932564105938,0.806576859631824,0.817065102654938,0.829825368447462,0.816516121282241,0.81674804284824,0.831077219146617,0.819471942693798,0.821048945329907,0.844109788258771,0.844130700724808,0.832598290483687,0.832165512803282,0.832492804693722,0.83712400638657,0.838207544437059,0.837866226899369,0.839486052012768,0.829480415022169,0.848067445453242,0.834634941310831,0.82029564410512,0.806669735810423,0.820417931740626,0.820365534377277,0.784415970137921,0.794991762282514,0.794531064255552,0.794434930416343,0.778380904604561,0.799896012474598,0.793147357170035,0.77927654388445,0.78098889625035,0.78153039347687,0.799450885674888,0.787792417835445,0.780348433186601,0.780723297087806,0.781918288359879,0.782950774825377,0.782610107913061,0.778361001754028,0.781797750838768,0.782337115910648,0.778797645528133,0.779468805641509,0.779361365101222,0.785883702746208,0.780696571910957,0.783419284607426,0.785493070652013,0.786490141726316,0.779198258097479,0.77873909329094,0.778730746687722,0.77860449823067,0.778192671747636,0.777670578858838,0.777600178776809,0.776851601151564,0.77788837521837,0.778078396639031,0.778546036143148,0.778041296635608,0.778108917330408,0.778192516974584,0.777480675481732,0.776933079599517,0.776747409360506,0.782740909732968,0.782954679521465,0.768085099530485,0.783298612657447,0.780997597101987,0.773509449303581,0.773906411805906,0.774351900502558,0.776184251128075,0.777258872711559,0.778374255117096,0.77994472521173,0.791581552796026,0.779590686035538,0.778770262552332,0.777875620091934,0.77920449665595,0.781897948931432,0.780122449033904,0.779509193275708,0.780206846734363,0.780918329807136,0.786025151636673,0.779727586505274,0.781179057113825,0.780984072279604,0.790000967557742,0.79062867336521,0.780968809908944,0.780175305215877,0.780901615864174,0.782035598416275,0.794463143354417,0.780827628506839,0.780556312239611,0.782647938306927,0.782062069436819,0.782735374851224,0.783187601623186,0.784882730249851,0.780315424919556,0.780489542899699,0.799355452974174,0.78878501421024,0.780357019740953,0.78008581589164,0.78077961473628,0.780844291731285,0.78061361899141,0.77988634373231,0.797576364707662,0.779497130150073,0.792546559156534,0.782401437278412,0.779795743070574,0.803639586158682,0.785033600087739,0.777833082524712,0.777928123546558,0.809909877415519,0.809279736683628,0.777398909542697,0.794577333078429,0.794289220211459,0.792610784251291,0.791246136852733,0.784352829704531,0.778507491469426,0.779058457834625,0.780771734004515,0.771194510284236,0.771518531105881,0.772966916534629,0.775462004402865,0.77462264293229,0.7768793191078,0.776465341280894
0.791810170444817,0.792120411815063,0.792997498990955,0.794376972938623,0.79419654176206,0.794716391328184,0.796477556360652,0.79856554421989,0.793823706149054,0.794976618878473,0.815778596342351,0.814589335927313,0.793087538354248,0.792729242840848,0.791876254835736,0.792369575584598,0.793603510554122,0.794955033225515,0.795942113955868,0.795715070978884,0.808060262498119,0.807634623807702,0.80820766246232,0.811171660777162,0.83108589674572,0.841641273530153,0.841494810602576,0.841347721856645,0.840583540875378,0.843762899915697,0.86077336463414,0.855155804136132,0.849132781414917,0.832055020360536,0.834210764417016,0.834410100090578,0.836414224710743,0.841321214971627,0.840901609249538,0.827337061307405,0.827378376993534,0.801521414038907,0.794354464335615,0.802976043504099,0.789678633868328,0.796587078962526,0.796093952991964,0.79646448797853,0.794891989645889,0.793561758166647,0.782966720207966,0.783212394892151,0.784947632068507,0.789177708531828,0.782958195536712,0.785246798138105,0.786448351100081,0.794989215752889,0.780434779855037,0.780214223149806,0.779077615823456,0.778734575293679,0.786903580765194,0.780300611491693,0.780518806491027,0.780357480462901,0.780144718821494,0.779709815214641,0.799752237027515,0.803346306702966,0.814380891728427,0.821044457926421,0.787711494611084,0.780262828941719,0.779747112514303,0.779781059352884,0.779293118106329,0.779445511502556,0.779111865589396,0.778817929020013,0.779068560363184,0.778636030674886,0.780320042019206,0.779103871920706,0.779545397477356,0.781245264357751,0.780465534264094,0.782321216862419,0.776766305613087,0.781731231985014,0.781048855707097,0.791315888281682,0.776096923492217,0.777266179596565,0.778595252835555,0.788096991122658,0.779937760344024,0.779729944568824,0.778046100217103,0.777801844065322,0.778356092252273,0.780415912139326,0.778901439251587,0.779356670174653,0.779035412404453,0.778542981650564,0.784199486994367,0.789512326831409,0.790040214808908,0.780200353279991,0.780107473320212,0.779862496967379,0.779948097399449,0.779647162555618,0.804031550637432,0.78179283142476,0.788935149835516,0.793434919431185,0.782915442666539,0.782988594103914,0.783097686215092,0.782697231106187,0.782609013025731,0.797470787991091,0.781135217811232,0.797482519012284,0.782418289457775,0.782198197510151,0.785312163160096,0.783541062168397,0.781437271358754,0.782580702905915,0.782868740858298,0.782548315933554,0.7813594402504,0.782503684887276,0.782033550340877,0.801030928405386,0.800648520297474,0.800719702746827,0.781240106356293,0.781009048048016,0.781246752370211,0.780769687099194,0.779910714271698,0.780086297077421,0.78034482213377,0.779583894792742,0.779406251985052,0.779636629070489,0.789470228032443,0.778376441579358,0.779175475708532,0.789721290977094,0.777373076028201,0.800080631798715,0.796638247055829,0.800526601079442,0.803474516937126,0.804038788694405,0.804491243811612,0.776069714321747,0.798874431886697,0.786827158720023,0.774661496907357,0.774612434019396,0.776237893123727
0.799720363346263,0.800828154810013,0.794414404941469,0.795843814447994,0.793134415014472,0.793036658471623,0.795296140872709,0.794657740323366,0.795114540259915,0.795618895431252,0.803713735007027,0.803193031373146,0.80011694261256,0.794440499188603,0.800620726780534,0.799705690069527,0.796718864706725,0.795473160075453,0.782417783653824,0.793307116931729,0.799825442501439,0.792060689354285,0.798172836646614,0.797511513015761,0.856952148757967,0.854748903737932,0.848000293390763,0.865698021894267,0.845310103729552,0.844250269305157,0.854911994412367,0.854781575601969,0.854642134693499,0.839455768397923,0.832439068989896,0.822850231561031,0.823867772079526,0.825872601386894,0.827153571481147,0.837719389422507,0.837341860571695,0.837120399389506,0.785459430304433,0.784888379308887,0.786040068292084,0.788443315401582,0.787708351820435,0.783794769435577,0.789473508613788,0.790742542884738,0.815211830651707,0.782149105841279,0.781495597356814,0.780851588502002,0.803798913362804,0.785531224875149,0.786061900501734,0.779087299486178,0.779327359228191,0.779199549792373,0.797766577313252,0.797432810184404,0.777671136223077,0.780373029365749,0.780708323308598,0.779494944244563,0.781003905144968,0.781362014315338,0.780530019032053,0.780297677884888,0.780613631494295,0.78070844401433,0.781353730554907,0.781286445524919,0.781386168631166,0.794276598013017,0.784840382361083,0.785776427791909,0.792018226037449,0.790724171972289,0.779571992598062,0.779573486584095,0.779012491733391,0.778011165196087,0.778254803565889,0.779133604354362,0.780802622378314,0.782744242779602,0.788804604149521,0.787739423402317,0.792320699516117,0.77866283652819,0.787474945192823,0.778578795398244,0.796495533819049,0.779651879176871,0.780067510177235,0.77970600877047,0.788183611347858,0.806913124896527,0.786917961650939,0.779800789260609,0.779551553669166,0.781671707187576,0.782461531449273,0.79447424090449,0.787034443694596,0.806393112016355,0.804997288708305,0.782268088794137,0.78185241746463,0.781712783993177,0.781180935473113,0.781597533142134,0.780393602691705,0.781653694421584,0.787201403804438,0.793839201959835,0.810564943562416,0.783191442264453,0.783371768969883,0.806010922371456,0.783545998251979,0.783483422594199,0.782809765564676,0.782643466128323,0.782730066154871,0.782259436231921,0.783978956553502,0.78288373196151,0.782020946370949,0.782348619585857,0.809493639161763,0.781902059224745,0.794017014454135,0.794859385506895,0.782886488499023,0.783164905674786,0.782702153989681,0.782505722280056,0.782296964361716,0.782585242391022,0.784287724516765,0.780191165664959,0.779936165550344,0.780296852440253,0.780917700081595,0.780139589253969,0.780014785008446,0.780100777907747,0.779753204716635,0.779267436918909,0.812691912895393,0.786910614953139,0.826341269389823,0.797404407675913,0.791972350249352,0.779175767674462,0.778085320737979,0.77798120212187,0.794674525215876,0.778098757892004,0.776709105865558,0.776347646673032,0.792924424749228,0.801134619547298,0.776575623517503
0.810105250821053,0.805283430005556,0.807428007751275,0.79058889349554,0.80136151506141,0.800338912892348,0.796795198227984,0.809493297123008,0.809824365444905,0.794546713704632,0.817142322236199,0.793267975639694,0.806871925280881,0.79456335398001,0.806826114640077,0.807206245717521,0.801256626977988,0.79370908264154,0.793844030787569,0.792904030529018,0.793755101238879,0.795236245047677,0.796482890901298,0.796734424473031,0.797063248548543,0.798652586889198,0.82875864723375,0.875480516556499,0.859349655062619,0.859781751661495,0.864679859370554,0.842449934289551,0.863430308058132,0.843574364716019,0.850550056285056,0.821361627344449,0.822894630334966,0.821255199668363,0.824222865945731,0.824786146015114,0.825273855650172,0.791582103487412,0.78972540293308,0.789295422213581,0.787756279078946,0.787669748253162,0.786914271580027,0.785379788701545,0.784325774532007,0.809249701071024,0.806452302418712,0.783058576916588,0.782833574810918,0.782489368913303,0.782816615183246,0.783881705631143,0.785978309603109,0.789316501125531,0.782424290088308,0.782988616286087,0.79442818170347,0.782618326596232,0.809861166948285,0.786805682866828,0.811175860768107,0.781500550398666,0.782537121650206,0.785632145494007,0.781066795431921,0.782430868730489,0.790664727992549,0.781546848649029,0.781577230254267,0.794901040887207,0.782947562329775,0.784301203864072,0.784156045580668,0.813726073536771,0.782928228177052,0.782891016891685,0.795857004709968,0.78109833904803,0.781550873780899,0.781815206970828,0.780792885089671,0.780530698763498,0.78092158721475,0.780499897360307,0.788611610659139,0.78153601455582,0.781577448403442,0.780211108589684,0.780476819385335,0.786080761608942,0.790395566378194,0.780350296128561,0.780973410606583,0.781263871025696,0.781933167671417,0.78416922327874,0.782877170167123,0.780973265910358,0.779794483911351,0.797244010374719,0.785362703887856,0.780750355380008,0.781980150781853,0.782505038593729,0.783804840585651,0.783819389499512,0.782422421399187,0.782203427665814,0.781754634680275,0.781182209684296,0.793068750278601,0.783420527246573,0.784911361664994,0.783830332890363,0.784512613552416,0.784704463064601,0.785099340387996,0.785656669011621,0.78553355996836,0.784131395521876,0.783859445371792,0.810209145386619,0.783607909983855,0.783453337416186,0.790560164056672,0.784116412554081,0.800297624427246,0.782946752865294,0.783516419558056,0.782919334773506,0.7827763531592,0.804110731298133,0.78331730122258,0.783273058926598,0.783399300858128,0.783010882322165,0.782621432270089,0.782853595637976,0.782782496345381,0.782189506976205,0.783207045129038,0.784590055895731,0.782642197566933,0.782176602162786,0.780945589621712,0.817816775120895,0.780416976853761,0.779383709783251,0.779034299264211,0.801270021345013,0.793491338305207,0.792969716460201,0.786796054230116,0.779585410141798,0.79051138038178,0.777799536704996,0.80070789004324,0.778319116477941,0.777982963709683,0.792239696247168,0.793272946821476,0.793794863991776,0.777116613403437
0.807616735742533,0.809925093744123,0.795535566272278,0.793108919282485,0.793702918030782,0.794013411658759,0.794756288975109,0.793755900398496,0.798524112229802,0.796402892087759,0.795291053290135,0.793663113853655,0.793611569786852,0.806565474417145,0.806795515191548,0.806756687464305,0.806172999413677,0.805963864727934,0.805115798296406,0.803884128793124,0.791752072086565,0.789716062046542,0.789354647740365,0.78991276751401,0.789568698858814,0.802094125132431,0.80159972009421,0.801006754994099,0.836619153640454,0.835868810558551,0.832579710626201,0.82852673848744,0.829606022433458,0.822064763764532,0.839964719735455,0.838629505678085,0.824827346979497,0.826820326863327,0.826340112013854,0.840859594264472,0.826509725211412,0.81710615622669,0.78992169549797,0.790252569197746,0.79279515175146,0.79334552601758,0.792539956117767,0.810128015407095,0.789017322640504,0.789722815225055,0.789539348933883,0.784504858852746,0.792935448445219,0.787325404634747,0.78763256532273,0.785275573245452,0.784893168085604,0.78327292563322,0.791842927922004,0.781418776553234,0.781570673819796,0.786328594743489,0.786104118741478,0.781622558611171,0.781786474305673,0.782917417806386,0.782967786521544,0.782902743318238,0.783615557952837,0.793716929595842,0.793959560479447,0.807667729724642,0.782843269314666,0.783372560501565,0.783157459535867,0.783182593758537,0.783521621118217,0.783451719638145,0.783057558780132,0.792656128310766,0.782178962028684,0.79337608842001,0.782972663962386,0.783065351480657,0.799767837026893,0.782161525756841,0.781700383102659,0.781442898088846,0.782401876618807,0.783172604223365,0.782789700212455,0.781841408552005,0.781840796631148,0.786427057908262,0.78142651681681,0.782021564114726,0.782194075085955,0.782969649572315,0.788043793115969,0.786549801449885,0.781490868233115,0.78271858130326,0.80289562697787,0.803676841886914,0.781406667604371,0.780800396897447,0.782645567046189,0.783836536756124,0.784514601849785,0.785723080313009,0.792249899714374,0.783792750594251,0.783155194233387,0.782770259818534,0.783202372034378,0.793276699275832,0.789945910642326,0.796263951982815,0.784324875990037,0.784582079419127,0.785925854464721,0.786654817710625,0.787147067885181,0.78538770238955,0.785091165380411,0.784818260218743,0.784633614901075,0.785133086553856,0.784137911701771,0.784337451520359,0.784377352274252,0.784366702829748,0.784102349025072,0.783511393883576,0.783527163247385,0.783699132471043,0.783662834869213,0.783575711550836,0.783662052720097,0.814904899147808,0.783246088925886,0.783349423569677,0.783016135204012,0.782935861564201,0.78299396281057,0.783120191316068,0.782996853069129,0.782568644224295,0.817044575773563,0.782730578500589,0.800919536332211,0.795673860361125,0.782133305070205,0.796035011599546,0.782626087126677,0.780810695531273,0.780063467929147,0.779366685014502,0.778336996158258,0.777875103835089,0.77911324148458,0.77953969560866,0.820048333475898,0.786264120293353,0.786018570166934,0.796124037549273,0.77669339097569
0.794898906426581,0.79402132774053,0.793868487878007,0.793547490137445,0.793783410900337,0.794140627109048,0.794489219954599,0.794860863558572,0.797654661262107,0.797574910300371,0.796788196941265,0.797333056560117,0.797656439786376,0.801891568694008,0.804029441566344,0.805880175580777,0.80590309025409,0.806085280102283,0.802184525389069,0.797366419645044,0.792976414140646,0.793240948777182,0.792159372838605,0.791528678807195,0.789761767668314,0.795995050775486,0.797023711615682,0.799430327160958,0.80020220716798,0.801087197363537,0.802271654833887,0.80380289427988,0.806256343004017,0.809457899126123,0.813055725302329,0.816496471666719,0.819975034187478,0.823109875425961,0.818056803318249,0.812603782994306,0.807296639454481,0.804605215976177,0.797664975092413,0.796784234990761,0.794793136143203,0.793245321500615,0.791776245681214,0.789841124948775,0.788971369086188,0.790434104279354,0.789219779026337,0.789834214031719,0.790473000896724,0.788816677629221,0.788151076746358,0.785527862206068,0.784652375360754,0.783627377091617,0.782984306792002,0.782420749240349,0.783032682187698,0.784325049100753,0.784265478954774,0.78306165499089,0.783137277402546,0.783456116132174,0.783534475508273,0.783378925831519,0.783383424329164,0.78343209418636,0.783633130602779,0.783578817299223,0.783348332608138,0.783405911863029,0.783288168138455,0.783179566498119,0.783298625904993,0.783322050901458,0.783468543265343,0.783850552652191,0.783292255675925,0.783489533557296,0.783099339946302,0.782893333089983,0.782843501589804,0.782543672855641,0.782284100228649,0.782277457816298,0.782878060233114,0.783277861837674,0.783154800990781,0.782754863972171,0.782824482007272,0.783274584944936,0.782170204037926,0.782069493253642,0.782758136774923,0.783827155218943,0.785554525205307,0.784684106900627,0.783131806788843,0.783510497364453,0.784128008038082,0.784892625406642,0.78596723419486,0.785137692697723,0.784034592134201,0.784296775850517,0.784998295883495,0.786220841389193,0.788579622468629,0.784908997785094,0.784649004444269,0.784608553306161,0.785259728314501,0.786080592372282,0.786964165520188,0.786045113154886,0.785692900897009,0.785452009988273,0.785887448655307,0.786121103055294,0.786062620896423,0.78559458252198,0.785240394662999,0.7849212048625,0.784889153078822,0.784885877154122,0.784648169458264,0.784523363777823,0.78450012511109,0.784422877065231,0.784336961812556,0.784207735782794,0.784099361725866,0.784084777362819,0.783963153765005,0.783847556950605,0.794529807047922,0.80282903944869,0.793425459757329,0.783397597869594,0.783159838513727,0.783210097426667,0.783509441926383,0.783959997599296,0.7837423601752,0.790243609475397,0.800179608917084,0.800317557957098,0.80042972155346,0.796744276706546,0.79263019657738,0.787803221382511,0.781556834236199,0.780704304807037,0.780124393524447,0.779619180977191,0.779480716093128,0.780287960121974,0.781455759142869,0.783583590014522,0.783691436588463,0.785200566111656,0.785500298174311,0.780532367875658,0.776567392892729
0.7946057328011,0.793325146649831,0.792685263720887,0.793186549095392,0.793799701276258,0.794299192664016,0.79423246378667,0.793533165791467,0.799585866381363,0.799338526435206,0.813256084037145,0.813084681916667,0.797875840565805,0.799851156217085,0.798944707934223,0.806721205435769,0.806033589878932,0.806482040612362,0.793978762444684,0.79394857117684,0.793948876884598,0.79592314078721,0.796536391559967,0.795395480226561,0.787693437971422,0.79471345060824,0.795401739235236,0.794830598559863,0.794257089959375,0.794318335413955,0.799120973637836,0.799060796367185,0.799545465548062,0.794646049734175,0.805874250592639,0.797335729687112,0.808933526221168,0.825941889976945,0.792156550835296,0.791178312859833,0.789839944887018,0.801092644446286,0.798712604036316,0.798137311407306,0.806378012000861,0.805998946233555,0.791905259712117,0.787157090683673,0.787037058181573,0.793795906099445,0.787083618216038,0.808430157616339,0.796564900536385,0.811282403111638,0.790201682617499,0.784657422365299,0.784563008501303,0.783428365562511,0.783196405687624,0.782401886721703,0.783846028317419,0.783689924342064,0.78338765658651,0.783153315150798,0.784305747256935,0.784291697514931,0.784348913326799,0.783810592905583,0.783081495631008,0.783535089097098,0.783944486670806,0.783963801342027,0.783587910129441,0.783674704438781,0.78337904700563,0.782936155695126,0.78312788251425,0.783111318736138,0.783788071496525,0.785047621943756,0.78392243524436,0.784396989869004,0.78313433548905,0.782654992712432,0.783029247705232,0.782857070245222,0.782561215271352,0.78248103888742,0.783525153411748,0.783905211162593,0.783840925648162,0.783287436207457,0.782974795808891,0.782709674552898,0.781311695192506,0.781122175552835,0.783087201397376,0.804142329977841,0.806290152568334,0.783221366183705,0.782849287548204,0.784055235457932,0.783949501811034,0.783974918518343,0.788894990473138,0.785462816287421,0.786571194584935,0.799800822774675,0.784928082993117,0.786029499313963,0.831732980246785,0.78542492688903,0.785393014715731,0.785841703359312,0.787271732577748,0.7862581068174,0.786032982176765,0.785661053248395,0.787003200064347,0.785653680600054,0.786036592044302,0.785858318558957,0.785333003953204,0.799700874961721,0.799804503183542,0.78464628624867,0.785046118575225,0.784792871706412,0.816887171415232,0.813635201144718,0.784682544967254,0.817914521873527,0.784709134199321,0.784736027370545,0.784591088418707,0.784500212096631,0.784156847544895,0.783923298438876,0.81097748161787,0.811374991181525,0.811268092994891,0.78366206013359,0.78304490973932,0.783201292380165,0.783984650742759,0.785581797860875,0.784495313555221,0.795703416073491,0.79988347600456,0.815266235603484,0.814502509499872,0.79721509426248,0.796396812050876,0.780993843911749,0.781500509114692,0.780468333880271,0.780219236067371,0.779591652743363,0.80078847629839,0.801895621190446,0.788005261876326,0.786745462159753,0.783100668716056,0.778384994038655,0.795908982630332,0.776569449705003,0.776665839137173
0.793878781715434,0.792920197051552,0.790480898096556,0.804988798356361,0.804172630037424,0.794892212330854,0.794640103122391,0.793667011981815,0.792957862888081,0.814428872275427,0.79661567019396,0.797069899983651,0.798013968005277,0.798111487719421,0.797316761000582,0.796988310175615,0.802774689591146,0.804276380924889,0.804352873415098,0.795574823515408,0.795767675711629,0.803370049748676,0.803123134650223,0.792879178154896,0.791816930845653,0.795713880655025,0.794939449288533,0.79364682343629,0.791915855778234,0.790327414920563,0.792846585906316,0.792858254863763,0.793198382280713,0.793847023766781,0.793567455800681,0.792768595690795,0.793273124379484,0.792308477062547,0.793066631845855,0.791661940916928,0.822933817604925,0.790245388255131,0.789563963005719,0.814119992827874,0.789454914797046,0.789916139487081,0.791819448486557,0.793194482671675,0.793464205560988,0.790886194752107,0.813926454373294,0.787423710242321,0.787019589218645,0.819853819050668,0.797794468790743,0.785321311075044,0.785547194973253,0.806651163540745,0.784783682277622,0.783240147315001,0.78337644419265,0.785391630949362,0.786511884742722,0.788866753861759,0.789121481968696,0.786331742262615,0.785548871925605,0.785401633832897,0.78448993570059,0.784641866713384,0.784817326715957,0.784364161079284,0.816100342150513,0.78533991676169,0.785158807584015,0.80513382262079,0.790298580624085,0.783980592192293,0.784073734447897,0.784136787844369,0.78397417800406,0.825086038169908,0.824534094857834,0.796465965291044,0.78450752722509,0.794554826355993,0.795342166353352,0.796136532585351,0.796069286391977,0.785485646653855,0.801709087586876,0.783021918011504,0.783030687425432,0.782866755218777,0.788105150861898,0.786205182699273,0.784551886436161,0.783913873029989,0.790837133966307,0.785883632419764,0.784064024301384,0.78468010619638,0.802466660267786,0.796881340095846,0.77677095562849,0.814355562618657,0.790624983210569,0.797942984829995,0.785880685413507,0.786044134486663,0.786298042990768,0.802651365935683,0.786483810902446,0.799168664802423,0.785750285149947,0.785256767655819,0.78540848144258,0.783343799974832,0.780948003524695,0.799385648317854,0.786146274415911,0.79764687512155,0.797409159502752,0.785434251461313,0.78509656126145,0.785267270672022,0.785784978552153,0.786066260002132,0.79808451614816,0.79759896381567,0.785692198849993,0.78582169022425,0.78530572289323,0.785604696731745,0.80682179784605,0.805588109217122,0.795063516777575,0.809818158377531,0.821725667528307,0.785217586963082,0.810862484959857,0.811477331456403,0.783698463152312,0.78396482520015,0.783843970122427,0.784168870010962,0.784334354490695,0.783775842644678,0.783640235354998,0.783538102075534,0.827607089823321,0.799496523964953,0.794831584210546,0.782138255784676,0.78221079519091,0.78129839536538,0.780713779851072,0.818260545376181,0.779127286354709,0.778356328142054,0.778907217435403,0.777963564543944,0.777243516953566,0.782322211589715,0.776764326829623,0.776303267973742,0.77680068899712
0.796020457244962,0.797945800543126,0.799959390608807,0.802473501270381,0.79537385934081,0.794814912899089,0.79578961330646,0.806674950693471,0.797667381937541,0.797927156463925,0.797658330194965,0.806826490188295,0.807001803202065,0.806759243146044,0.797310615206301,0.797972722537565,0.800083813619958,0.79991667741144,0.802901137728768,0.799911157460346,0.823457905824347,0.817022828140734,0.797441737622191,0.797502345200285,0.796632722788687,0.816503066566278,0.80846833785224,0.817440451279334,0.795548198318373,0.794317438231898,0.79436429200533,0.795000801062799,0.795527941234801,0.795654053303473,0.79538269056095,0.79506325348493,0.794694437184905,0.813700659182944,0.795035442177112,0.793769538873678,0.791867793848059,0.790753227584706,0.790612451867765,0.790995125353031,0.797744454162341,0.81010260277257,0.794573555699428,0.800631133861908,0.813029467582033,0.811181397138536,0.79098249686336,0.792408209909573,0.805291513264996,0.784844109358008,0.785295235142446,0.80021455321879,0.786672137296053,0.786427332373019,0.784010553004681,0.797608581083097,0.787106230302005,0.785240158593549,0.786221732554098,0.788100564570252,0.78843736392836,0.787924990338539,0.789919277600341,0.792738138462078,0.784894423930815,0.784728161678625,0.784450664810632,0.784375778491448,0.785105060994504,0.786620580720455,0.786449374345733,0.806270264823432,0.797580330998924,0.805272525456642,0.80364489194689,0.786608521289018,0.789095696497002,0.788578104924481,0.786196239043229,0.785517612735552,0.80435509238727,0.819009285493839,0.800120480883868,0.805749178162544,0.807844409133269,0.784362692026648,0.783781352139793,0.783979441942049,0.783959532108512,0.783802786109938,0.784808948602709,0.784795542028341,0.78518702242544,0.784724931390098,0.783847930226167,0.784245182565742,0.790938486810931,0.790346610981741,0.785062226223481,0.784744539214507,0.826830003150908,0.786672269214691,0.787566684484285,0.787124088210923,0.786810751170224,0.788276614160027,0.833750473214224,0.786841249488622,0.787054354856299,0.788168347567923,0.784226616055144,0.799544983901018,0.787027353838391,0.788543340641281,0.781384879165955,0.781252836793228,0.77989635097504,0.792570500280679,0.800129160457593,0.811288272138504,0.811421202455802,0.786958698425198,0.786764620178775,0.78703350772533,0.786460568669578,0.790748609260282,0.788513018879318,0.786113149738719,0.786708969028543,0.786159623198279,0.786513047383031,0.78703604527343,0.786776762058984,0.786864433427029,0.786347756746713,0.786325479159605,0.807068939441403,0.80625885339073,0.784616959797667,0.785041081653339,0.785053055071319,0.784814873165059,0.785014500732825,0.828062731144462,0.821734323505002,0.783422956393092,0.812082950629485,0.782870680208602,0.782141247619822,0.782244780017681,0.797835383540117,0.780864042043524,0.780526295593493,0.780215196737915,0.780798818395361,0.782389142868994,0.782021502674956,0.776544553479588,0.776982023158961,0.777397590635386,0.776918826850648,0.77627337586158,0.77719287814918
0.798011662794114,0.799341225727491,0.799319858666079,0.798958002157923,0.790019316082687,0.799658213689041,0.797341376724828,0.797694034759396,0.823683535191715,0.804012577251417,0.816082751164477,0.797884626119925,0.798122821531732,0.796658203850697,0.797352501912827,0.79948918656373,0.799050240891076,0.79798856109536,0.796925261449118,0.800835689016277,0.799894823652054,0.813566823833983,0.798030088861342,0.79797109887751,0.797615659526573,0.797065007450405,0.797449271619422,0.79834600490497,0.798444463054911,0.797540306948953,0.796151396049579,0.80615379442763,0.79683217177571,0.796594608330299,0.796056581131809,0.795439386514039,0.795707857416471,0.795605979383028,0.797316297463543,0.798311583407323,0.798355813810986,0.803624548458454,0.791581782875402,0.791971490700577,0.791851978122998,0.791139087998378,0.791527382611979,0.791461050404806,0.790892622225778,0.790585980470475,0.807482010499824,0.786008418201049,0.797477630730078,0.78589257343093,0.782962272879699,0.787928129139075,0.787973282717948,0.789305086624387,0.781486860660339,0.790423525961135,0.791102367169134,0.790564721895744,0.790691181378427,0.788553553005596,0.803375006764137,0.803931534118526,0.789805612981222,0.790250119987548,0.789971757276243,0.790672312504903,0.784933611221926,0.784965325506746,0.785228330128583,0.789313070872016,0.788143425328519,0.78672682834501,0.786905040932619,0.786410174984735,0.786444159135771,0.786665016882668,0.79202291893069,0.785915919848751,0.807748044975414,0.808890378880898,0.786665039831422,0.786822310544116,0.79572384073273,0.806869572445405,0.805887365753472,0.804496917638945,0.785935223965383,0.785074083230121,0.784782452756146,0.783937298424853,0.789274085766731,0.788699586994049,0.786306863159682,0.785548059557363,0.783728502111745,0.789412714127583,0.789503801018141,0.787755871301104,0.785416531182377,0.784287756339275,0.785221843862105,0.787392674167075,0.788879310502496,0.788766391255697,0.787300723798622,0.78757006805575,0.787452740929638,0.787376221624235,0.788096060260334,0.788882662368519,0.784442496328213,0.785146012276248,0.787064822898628,0.788862809787027,0.78728941192564,0.786698672608615,0.786616915852629,0.794130107859546,0.783136194149091,0.785956077313667,0.787200004401692,0.787156940819505,0.787188540894486,0.787736556921987,0.787452739029739,0.786846132966681,0.786641903549989,0.787485027660942,0.785825907607311,0.785926707242638,0.785252532939116,0.795461961219897,0.786535864923702,0.786533511432348,0.786356195682678,0.787227541325361,0.794454619473572,0.786594079775916,0.78573378136944,0.78579473336966,0.785623212852198,0.785887605535598,0.785864866803966,0.786458908240647,0.785539942905337,0.783829703761187,0.783843466807359,0.783949745825765,0.784073908016352,0.78234090624188,0.783061259030544,0.796050544396739,0.78019849856793,0.779538354177918,0.788237220225104,0.788719102444106,0.778581603037615,0.777806824733401,0.775985375431849,0.777236788159362,0.777483654681055,0.778296341485041,0.778125096443561
0.799228305485612,0.799883360385856,0.800311019176947,0.806893507053943,0.796221954189585,0.787990044325012,0.796974615970024,0.796823229061899,0.797070457070519,0.799964792300135,0.803356702059495,0.803261244093994,0.8007922174469,0.795977828196155,0.79773462874559,0.79726327947327,0.798641573059741,0.797284891123947,0.797975512175355,0.813522919328902,0.80164246127892,0.799017126894776,0.797704800193408,0.800195812074207,0.798587167951307,0.797858264425109,0.797453075441077,0.794677238226127,0.795908224603148,0.818003471406946,0.796676784595689,0.797330451338346,0.826464430298012,0.796486347318245,0.796724865533401,0.796764154792179,0.797055130872623,0.797496400489571,0.798003407057029,0.798021537084983,0.796662598049048,0.795457251664252,0.794928147086481,0.795752974416424,0.793819236685511,0.792219679254724,0.79163057347848,0.791009584665182,0.790135975470291,0.80072669699548,0.78972534739375,0.785165955925788,0.7850538668281,0.785492920606752,0.78755591041491,0.78728450768442,0.78795855962847,0.787307805620582,0.786438893045987,0.791130168271188,0.792274232278471,0.791024645124535,0.790597093444182,0.795619330457631,0.789258605561879,0.789414654766659,0.789451668314077,0.789207352279932,0.789415406246345,0.788764703970551,0.787021091341862,0.787361620296208,0.786613901884738,0.788182347067365,0.787240872103615,0.788046385104457,0.787436086887441,0.787765604206295,0.787867304649275,0.787697024891496,0.786368995317553,0.786762181590346,0.787147901713728,0.787183502412976,0.787713143994266,0.796381511679536,0.791516450913684,0.789436059995831,0.787997958875366,0.787760179219692,0.786677887968173,0.791777915414878,0.792138721068702,0.794914817148505,0.786423844708314,0.7863249234812,0.786090028991838,0.785844628022789,0.784416560867588,0.793697816219996,0.784470798261767,0.787806730677968,0.786203764292174,0.788379715049866,0.788734676606966,0.79614709556494,0.791792434066931,0.801894867269356,0.787868274874277,0.788544746463488,0.788167190198376,0.788489039962777,0.788670387389103,0.814059389831747,0.796917553501743,0.786952467667293,0.787218855387232,0.787913033617732,0.788781993401413,0.790167968082722,0.797175111564432,0.798945062989438,0.793986124410307,0.787694274496918,0.787001241936761,0.786937649245377,0.787286411417758,0.787651012988495,0.788155858214337,0.820200818409923,0.787931736334325,0.787003462382653,0.787215000455132,0.783240731084397,0.784871710445349,0.784892635697338,0.786370184262947,0.785576152426401,0.786081875237887,0.786556905092155,0.786166595087585,0.786140135408022,0.786034263700965,0.785869488087179,0.785928153507692,0.786315118126524,0.786154745968289,0.786111843468665,0.785342539065925,0.816971265713514,0.783263100288153,0.782945414737701,0.782929063616704,0.782358171941293,0.789256769116922,0.785891231180422,0.780371798600652,0.780616439765806,0.775011075909879,0.782845694378603,0.778779505079273,0.777561064636971,0.778110236551979,0.778500625996659,0.778149067403815,0.778517436297311,0.778525021225569
0.807954728962565,0.799862474239575,0.800742374068042,0.801549771012796,0.795946269800997,0.816461027487774,0.801674113869873,0.804867110509671,0.806909424009141,0.797122011866596,0.795981242511709,0.794692763562344,0.796623805566568,0.797120312796127,0.80028268081947,0.802056201274142,0.800614620253743,0.803788926645402,0.811044447931822,0.804966723359082,0.800086046091218,0.808010114390641,0.80721839052218,0.807380468544501,0.799737113290371,0.815891162852886,0.804897936904945,0.800053209624686,0.797587698485617,0.798781038583832,0.798339597880296,0.798576102950962,0.799586255054016,0.817243003605537,0.797356302030829,0.796872286939341,0.798279997934896,0.799349149453243,0.797520022358985,0.816604715153916,0.803423880905015,0.802941167873705,0.795079343130332,0.793812047096135,0.800924944511788,0.80012901426481,0.799053631954317,0.827570923534372,0.792571854504884,0.79239103108952,0.810889299250549,0.81076744286667,0.783149472828145,0.783272473428772,0.787901860034513,0.78836774693864,0.789031343911397,0.788554993375827,0.789726709896239,0.791564388864193,0.792632772210052,0.791936622542119,0.792376924719123,0.795309356067433,0.789798729358602,0.790606975399746,0.789433041002498,0.788282167827594,0.789060621430764,0.788391121331608,0.78819831539922,0.789235251040888,0.78550610406673,0.785866486163909,0.785642944771768,0.786252937926384,0.787336596898249,0.787114462910924,0.787667823435896,0.78757119899366,0.798497338638147,0.788421062718883,0.78830584102127,0.800467854616812,0.800173104662382,0.787442566473442,0.78799354366237,0.787782421162474,0.787067529091246,0.787378641472393,0.786502539429346,0.793557087085219,0.794531148010416,0.785830358277868,0.785515982512701,0.785599615891376,0.785797604547795,0.785508997791232,0.784896659823375,0.784468309972625,0.785030275074582,0.786845056189797,0.78783865922001,0.786835451763238,0.786480823576152,0.787141599945981,0.787786057483188,0.787400856085675,0.787635112284453,0.84006589088106,0.808118669392575,0.807838459600097,0.788197246389868,0.800647359974578,0.787481400673189,0.786688703501259,0.786923079555946,0.786654881005051,0.787522021868201,0.791988159635015,0.789241826630779,0.789066770218198,0.786895764693042,0.790010404770175,0.787248492803981,0.787003521725234,0.78713073815403,0.78773705149065,0.788409017504191,0.788433274223448,0.787627598096529,0.788667619907831,0.78658384654976,0.786064620311258,0.785953663808378,0.792333855626381,0.788131866252766,0.787297639500899,0.787076518742308,0.786479601210773,0.786270181667652,0.786550554054421,0.786337690663073,0.785966916518779,0.785765881653911,0.786171420912746,0.786263864337426,0.787545597794387,0.785092485645188,0.784429118687282,0.784454648653721,0.780132900741989,0.779670844392327,0.780326760597455,0.787845023220747,0.778532258441138,0.780070001529845,0.778922860750306,0.778924712953799,0.779283423210762,0.777798030093044,0.777348925218377,0.776558276056599,0.776944181888368,0.786870068648203,0.779216342927023,0.778559712141229
0.799031892301066,0.806987410493313,0.800294710966851,0.800052146700124,0.798449080937567,0.796896102395116,0.798400523843757,0.799413927139018,0.798552443105122,0.797369651312486,0.796638786481633,0.796618693718858,0.792267614340447,0.795185301268723,0.794833845043954,0.791875347362406,0.799541554764488,0.798046252264776,0.797704852284477,0.798247797490228,0.8063526751516,0.799545477114809,0.798834285143408,0.812311425367286,0.812506378413916,0.815415413547213,0.810479530032097,0.817194737511994,0.816373689452041,0.816087949504688,0.807239842221816,0.807089490157337,0.807434517690494,0.806685699083471,0.801354663651717,0.800818937285362,0.79952877492172,0.798861413456454,0.797599783607372,0.798210216952072,0.801065433472091,0.799809004988882,0.797533316607984,0.798188555002977,0.798872178035097,0.798919888590615,0.798217134552074,0.793834008251248,0.794232737420372,0.794418787484686,0.794548443280901,0.793965160112425,0.793386677587666,0.791909361661389,0.790821848010909,0.792494624973514,0.792248625513511,0.792642757447177,0.792833930533672,0.793581308091041,0.79630640559448,0.797189783256467,0.796332484529189,0.793549152572476,0.803888394999503,0.824700103018137,0.81713277742328,0.830974465448121,0.790541483379868,0.791704047504097,0.792539618400573,0.800188127281648,0.788946896640142,0.787607925448758,0.787454068194503,0.788310828331288,0.788206444773713,0.788737063656283,0.78927307593187,0.78867643699128,0.788903150841142,0.789123953270374,0.788893288153516,0.800412024905128,0.807120035000084,0.799789344330259,0.787620241242579,0.786757168710394,0.787040731484099,0.787912732426427,0.786217809031557,0.78633505064254,0.78706761530353,0.787285276644234,0.797133607943041,0.796742544603045,0.785881712668183,0.785897648755037,0.78696549042434,0.786775631563599,0.786852357162023,0.7853952715835,0.792432108574493,0.786485471044172,0.786970739432707,0.789408259989071,0.788402852178495,0.790256147263076,0.789938984363754,0.788135615584659,0.787251321642289,0.787950422481949,0.807561472467745,0.806896591457068,0.787219439201484,0.786714772579257,0.787096568217055,0.786934636836647,0.787113393450152,0.786582595389037,0.785158617153105,0.797872584005748,0.791600944503307,0.791766831964997,0.792454367883009,0.786327287938157,0.786904555229219,0.787059750380396,0.788232357746992,0.786996473642581,0.788368120657588,0.787248104253274,0.787777853392527,0.787059322649362,0.792516162487971,0.808127139507397,0.788117937565403,0.787118985975768,0.787049626987605,0.786748263119817,0.808085108451483,0.787410794740134,0.787848415552016,0.786689215119201,0.786168729779617,0.80682222041255,0.78519469931388,0.785973436587396,0.795798443392238,0.779382353597396,0.778379687415257,0.778827940033019,0.778708480090892,0.790165642510715,0.790033189511549,0.783641174802582,0.781437466910755,0.782439254993859,0.772051796796511,0.770349979797384,0.770501959880492,0.786373436152169,0.785570978374975,0.778977769416624,0.77869473242543,0.778599468144096,0.778688732784726
0.800345623322028,0.800422754095832,0.800438063891397,0.798651716840124,0.79833722199069,0.79417587553131,0.795625673172408,0.793897701873891,0.807655304589637,0.796377601605852,0.797032738902023,0.802563570341248,0.800486986330914,0.794227594460537,0.796648341025847,0.797369614902955,0.799263850906254,0.802874518878749,0.817019161371205,0.800767370792142,0.800412594985878,0.801400363591409,0.80261445546397,0.801713948605052,0.800362466592087,0.800418566548828,0.806773682494344,0.817798170089993,0.808640272768499,0.809877363632788,0.820199853682676,0.800350885096742,0.800072102143938,0.800101853413171,0.800776557696837,0.800681384060772,0.800459577372662,0.800191272318929,0.799621875903517,0.79952775822901,0.815998698237602,0.798178583747538,0.807028949009622,0.797408768258573,0.79749572801199,0.797756599126571,0.797792064602361,0.792513901875993,0.793815302783774,0.795481788493683,0.79588284817447,0.795759211532513,0.7965997571664,0.79627251468046,0.794787089426741,0.79390037720367,0.793729056169118,0.793678833726686,0.793761813860825,0.793417557556677,0.816379572336308,0.815791787932559,0.793336786033515,0.807712790872681,0.80464701075062,0.804635845919508,0.806259948388672,0.807612189624364,0.791327077515884,0.804556476556212,0.79282610062796,0.793038779006792,0.791633626373101,0.790936179327167,0.789750840317159,0.788809651269275,0.788676455017329,0.773475916286902,0.789018094067062,0.789479828158114,0.789676007504799,0.7900150112855,0.796230555914225,0.803448315245075,0.803206762115326,0.787560297242013,0.787586940697579,0.787333183965184,0.803476348890421,0.787004589063741,0.786358408724777,0.786284803244342,0.794540215735798,0.777862910785596,0.778385471907321,0.777987070751111,0.785933476119027,0.78430827336547,0.78984601350957,0.789053595177329,0.788116172037099,0.786355153346105,0.785142552517477,0.786216584113808,0.786098957367658,0.785900553670987,0.786199403464529,0.793313267160489,0.792993075944795,0.786283442083669,0.78633431305897,0.794741837637114,0.790621726610126,0.805256110449835,0.804371744279538,0.788905625108965,0.787781796314456,0.789413099938068,0.789831286134418,0.78766517472012,0.786760496805748,0.79732064450303,0.784786884522695,0.785320185056189,0.786032509146052,0.786200363718931,0.786656479946178,0.786958093113082,0.787079652660792,0.788126239220135,0.787140669755338,0.788573168246015,0.787080476478123,0.787033331130981,0.786822791877099,0.787520265840642,0.788703087713011,0.796003509553414,0.786377632336318,0.787285565142389,0.788755478611795,0.787445469041841,0.788121354149264,0.812998837699813,0.785708045962062,0.783746040710719,0.783715200147694,0.782704946232318,0.782335454392663,0.781806640873656,0.780052385297023,0.780156110550988,0.784170779629743,0.789201013394284,0.779332625035641,0.779430912111266,0.780515569086962,0.77972996739261,0.791949083438822,0.780089096194552,0.780026882353792,0.780093132945031,0.781040112191896,0.781216142454907,0.780794627467552,0.780431959303307,0.779638180137611
0.802008581050252,0.800828924691645,0.802091716286632,0.803856796442174,0.808519513074905,0.806350600692201,0.805934046463917,0.80533949932853,0.797719813967692,0.796893677902631,0.797588833874059,0.803546534038154,0.804372332740284,0.806854201680756,0.79948845084043,0.799170917217516,0.799879333402109,0.799807993432541,0.800632500406659,0.800667910006287,0.805175048107914,0.803558521380978,0.803389315263603,0.809965287967426,0.801592594108675,0.802623945614266,0.802125409533738,0.801595150505615,0.800995017690866,0.800984840019071,0.800881616398858,0.801305541635157,0.80089467471166,0.800863463032778,0.8012169850947,0.801144326519144,0.80139275041827,0.802174059117382,0.799764916428041,0.799323815592097,0.808185426806161,0.799499344700444,0.799665751689383,0.809605585296208,0.80057443571151,0.808524732474737,0.801107936176797,0.802497136728346,0.797271611219667,0.797512748127309,0.797565809969459,0.797073140878942,0.796810151012285,0.823210440748373,0.813376140251967,0.795875401682991,0.795315708554837,0.79543525280547,0.795870083640168,0.794524761230586,0.795014234574481,0.795284275270998,0.794383633623688,0.802955664137823,0.804045972773156,0.804942565054664,0.806355422274699,0.807698465129639,0.792779381128925,0.792146059365319,0.802560039332491,0.80115077542503,0.82470205632737,0.813171849475774,0.790411926731575,0.789878083840565,0.788825058772795,0.789225163021816,0.789386654401184,0.788447416045925,0.812683115685432,0.789208373280332,0.789085474275142,0.78975077826175,0.789539264410611,0.788773897055199,0.787813831265913,0.786515732680182,0.787722983078424,0.788475952363416,0.781596831913002,0.782715495893772,0.776734379147635,0.777325686990001,0.779186055349076,0.785626181144773,0.787254780025315,0.788878839618877,0.790140639820282,0.790044846500845,0.787301133857498,0.78699294814836,0.786457086367505,0.780868770478755,0.781358459545914,0.782358681478438,0.784227428822831,0.784496056680736,0.785172194339052,0.792337966628676,0.793304409100988,0.789664260996591,0.789105849731369,0.788636817400929,0.788593092083832,0.784953652917854,0.786064677611577,0.785138876806354,0.786814840104128,0.777904763816614,0.778468873900027,0.773682260378958,0.774332200420314,0.787096329602809,0.786656924377488,0.786599601201304,0.787041530893817,0.787073183650805,0.787322971643927,0.787101905832067,0.787402137328385,0.78678603301478,0.810109445047133,0.801356225200626,0.78900550334246,0.787326885358772,0.790792672404967,0.793440218778495,0.795973920344837,0.797755163890616,0.806632600385228,0.779616549921352,0.775467755875712,0.773387797216234,0.785616068102002,0.782466522675724,0.782937517233438,0.781194390772436,0.781008732786629,0.780841114088316,0.789247610292304,0.784464972322624,0.784631231447807,0.780261878384184,0.780682305634036,0.781049249890071,0.781294802065838,0.78122535649292,0.779985461167225,0.78074500271867,0.781088566019093,0.786280068745113,0.784928658490757,0.783115460913435,0.795567504356066,0.781802793009426,0.783089672712663
0.802432623202412,0.802188756967467,0.802865489873739,0.803789115169888,0.80459703165727,0.805614857362929,0.805929585199291,0.806163581306266,0.806617886137104,0.806545818005408,0.806196292259538,0.805310905851276,0.804878664239897,0.804769259190493,0.802748015506686,0.800947250340428,0.801067078464721,0.801370103578064,0.801136031279473,0.801604032811494,0.802720393675328,0.803331500689293,0.804924288621234,0.807926574505248,0.802096890487545,0.802223067347729,0.80203897119382,0.801767927210372,0.801512172424123,0.801267012062911,0.801225504770256,0.801701809394003,0.801391995044499,0.801642990833181,0.802484347222139,0.802095285654713,0.801783382307613,0.801513802378185,0.800708869290585,0.800602374528415,0.800994590669906,0.800435717486731,0.799844756548549,0.799358274090886,0.799293040804825,0.799358841123158,0.799796485819559,0.799730296942394,0.798158448948482,0.798121797312758,0.797765200528077,0.797794533157663,0.797147106752147,0.796908890375464,0.796724276736466,0.796442328911871,0.796107215733869,0.796043818798622,0.796004486532229,0.795821180516407,0.796332825505536,0.797684815439638,0.800002280987289,0.801805942261299,0.801798228532919,0.799414908473637,0.797150086749567,0.796479178203548,0.797093291724676,0.797623449277914,0.797229059333388,0.798854408260995,0.795404205136924,0.793810123281963,0.79241605009297,0.788922688978705,0.788117209627624,0.788775810976795,0.789458610038007,0.789395355658713,0.789663839781398,0.789438282575206,0.789270723640398,0.789286892530531,0.789148368556831,0.788776896602674,0.788392577522876,0.787907044749498,0.788557550010309,0.788485172900863,0.786233245548571,0.78626656052271,0.787137468485384,0.787761146350501,0.787886643998668,0.787873347248789,0.788617488635718,0.789615817581061,0.789914930448909,0.789615814915013,0.788812483221239,0.788294191963849,0.785650336770433,0.784066094404506,0.783819433146444,0.783624770001449,0.784111771033059,0.783995236210778,0.784343741978572,0.784611594860718,0.785376164406851,0.787127112544968,0.788356583078936,0.787758442455704,0.787040642285241,0.785711576106485,0.785517782478319,0.785000049089125,0.783304805868081,0.781262073148391,0.779951578177982,0.773681262007937,0.773861610173304,0.787718157034715,0.787727627756677,0.787606652663897,0.787534601658691,0.787675735850336,0.78777100097392,0.788246803087386,0.788108256468267,0.788151418760822,0.788484326828959,0.788509838471461,0.788796109415476,0.789483124211928,0.791007451219098,0.79215605308341,0.789301314593421,0.788239186297957,0.782075317287087,0.777472875923914,0.77604937220898,0.775399032630877,0.779517534767439,0.782807559999239,0.784315796446727,0.785965172553745,0.787049570827298,0.787914880885322,0.78743403350516,0.785415355156686,0.784190023772841,0.782888185204568,0.782433420388499,0.782351363515645,0.782424130678318,0.782500994808278,0.782790698611095,0.782903151938316,0.783986726550925,0.785583458297695,0.784725607998604,0.783787575105046,0.790780210332192,0.787532958420217,0.785298236183153
0.802960256752264,0.802583242316923,0.80346230517031,0.802750441208758,0.802435812366935,0.805584720901654,0.805773178244685,0.806581477167505,0.806865140504842,0.80809105776343,0.806356993752293,0.808210072643502,0.816539289884354,0.81220496310998,0.810909197886343,0.800859184184058,0.80216478859013,0.803478710700784,0.8100589048411,0.801617688687991,0.801913137874207,0.80236171023343,0.810949233223483,0.811552372376164,0.802375079675526,0.802133301189916,0.801951595096956,0.801812797512449,0.801942016568028,0.819196959066545,0.801026322304708,0.802896408393787,0.801361108919315,0.801473489521129,0.805353596696134,0.802969149821896,0.802123685219194,0.801394503909321,0.801025387102766,0.801442515419602,0.802109819424831,0.80163571369085,0.81442693302475,0.799370059366039,0.798120595603345,0.799307299252667,0.799309682986731,0.798176135494849,0.798621881457797,0.798200014466508,0.798555001254394,0.798203089605074,0.797900240383965,0.796212960013742,0.79718956711161,0.796746206432413,0.796692764505622,0.796501519127769,0.796338036926457,0.796310116750244,0.796439880272005,0.799157104147809,0.828283876549566,0.82450227378586,0.793914466058867,0.794459248853128,0.795545761988949,0.795572336692843,0.798627661826535,0.799559243030999,0.794592913722001,0.800701554225142,0.792133858177846,0.77828994367797,0.79323100236115,0.779217855344116,0.783267619961363,0.780148874220212,0.790168503609066,0.789938321798514,0.790109588458942,0.789568381049184,0.789245428105303,0.788995455226589,0.788502386274782,0.788764092956025,0.789142645272099,0.788185364406276,0.78994835996683,0.791815350414556,0.785509393425509,0.78722192507031,0.787507859907107,0.802627906911691,0.787693255945829,0.789077720172933,0.789476266595016,0.791087709144471,0.79020231418364,0.789877798475396,0.790230360684142,0.79023130489175,0.779326962583702,0.785927125627647,0.78631174255963,0.784238523127982,0.784667273825865,0.783188332549804,0.783644151048671,0.784094159959048,0.784555745506912,0.784993445066573,0.789438227312457,0.787059762919612,0.786676449100879,0.784465829724373,0.785370387820353,0.785953389369917,0.781528934703479,0.782742213954287,0.783665968586402,0.767279505703593,0.773744748546953,0.788349875335571,0.78896644822176,0.788509251915919,0.787903724403224,0.788014941728908,0.788332546927227,0.789377781017103,0.789192141623307,0.788838212822886,0.788754046113808,0.788164419687764,0.788297199710962,0.820057130683488,0.792107170442897,0.794872317136519,0.787145592104446,0.787082656270999,0.77765881564763,0.776725192187302,0.795841350143629,0.775218355325183,0.775760588392747,0.787447013058272,0.786139038158005,0.786754662248297,0.787192751020201,0.789356537997095,0.792425410271145,0.792529108933318,0.783976415421885,0.783986403934651,0.783994478475701,0.783533303760798,0.78367090848222,0.783902933771836,0.784470636374743,0.789134078607164,0.788976968304222,0.787572271747255,0.785333375704294,0.783650675766924,0.796203158857698,0.789504374590824,0.783187386693275
0.802804647437074,0.802858890665393,0.804375513303406,0.807209135871957,0.801650192426643,0.800944872623418,0.805870874394353,0.808081193374657,0.806515598255141,0.806768177330339,0.80585378775294,0.804096357508638,0.803598598378889,0.816770076384567,0.815943516674143,0.813724325502862,0.803219775375133,0.805391224346995,0.803968093880366,0.802287927858519,0.811935697363555,0.813485918451878,0.813757244602601,0.801635284091943,0.801693987021676,0.801274734982163,0.801761351666915,0.801983451182094,0.80477387433536,0.800302474107085,0.800112078676063,0.800524837171728,0.81030875672517,0.804198230174633,0.804797079551863,0.803237214398258,0.802380858540702,0.801636350608343,0.801553553129947,0.80134036865188,0.802129083900399,0.801455651938317,0.801218084133676,0.800649554960201,0.800647224540915,0.800473420477201,0.799699095812798,0.799406189658275,0.798618988888181,0.799520744822232,0.797536552108864,0.79935425472223,0.797624587384917,0.797964256963234,0.797687595228718,0.797862900455438,0.797074143768875,0.796899900119222,0.796192663912916,0.811006953220654,0.810563002006405,0.809902023241903,0.795567454965072,0.803357702373805,0.79923240650998,0.794396622699411,0.795400572197257,0.826017727640591,0.793725301192683,0.794092776904497,0.794711248732214,0.79342340064914,0.799694833851275,0.797797070729877,0.790892590241956,0.7914009241485,0.791089606951552,0.790861856107362,0.790227020289427,0.789548167384448,0.789448618453144,0.790410659374571,0.790994732878725,0.801291738035529,0.792180485702705,0.793652162150862,0.791093621501824,0.78940967678774,0.794771126465358,0.791699931771836,0.789541898541934,0.795833805561307,0.797317448741237,0.786161471920103,0.78538973983599,0.786552661542564,0.789011104058525,0.792310777100619,0.781532246730801,0.782022503586962,0.799952467387543,0.789471840401808,0.785997649890323,0.78577965472996,0.786240777501986,0.786067670255751,0.787180436985008,0.788753106331721,0.78213590730433,0.7899778822133,0.782933363327633,0.782773738168804,0.791089905895646,0.792347652765207,0.792459341253987,0.785910728701855,0.785705832107499,0.785813963732951,0.786507677458783,0.78532716846709,0.786209640337139,0.791022216515039,0.785988861548909,0.786494675431696,0.787429295493085,0.78787542861794,0.787501451661858,0.806017764554057,0.787767987734091,0.788594228265944,0.789457309366221,0.789334552198247,0.790761986635585,0.789538014311188,0.789531096773183,0.790086115101394,0.790529812245274,0.789819150173445,0.79407789383897,0.780227455486673,0.778149794612816,0.792959912717541,0.783820267070992,0.774271268666353,0.795532570563127,0.79565700455835,0.793407161360135,0.79558395069332,0.795268713404531,0.787006514708287,0.786865379033617,0.787219566270782,0.788278469848336,0.787346507062666,0.787795054557101,0.793453324928182,0.784857436074183,0.78414930872384,0.783814475230779,0.789033698664268,0.787599314306075,0.786282145302809,0.785102017596936,0.783911848346374,0.789909874070345,0.780585176557102,0.780839647635217
0.82202184039559,0.802704455921121,0.802795039537255,0.80211666972536,0.801718254768875,0.80638867974557,0.804852956717552,0.802774029365297,0.802960483212557,0.80768456379381,0.823659098222243,0.803784668337908,0.803198106086275,0.809985152395152,0.817302134990062,0.801939601169171,0.802457050232108,0.80222933103589,0.802126127918808,0.802163305094695,0.803026840314979,0.80240014492223,0.813976801149067,0.801743720590306,0.801382778939371,0.819368996777548,0.809406631158117,0.809674543120476,0.801938202497105,0.799995710809199,0.799581224757655,0.799673562115545,0.799239384551374,0.798088162937399,0.803585249731492,0.803372831885867,0.802644142355936,0.80214186305458,0.804947639765303,0.803323348270592,0.868241392234578,0.848015634322086,0.859639669996639,0.867129042153349,0.847869991584729,0.800471088862802,0.800272431021542,0.799820202722029,0.800411876207007,0.798566995857203,0.800068223742314,0.798833295753587,0.799306575264483,0.797954444364899,0.798869560278391,0.797405911280264,0.797344143628599,0.796916534960692,0.796787097131432,0.795841825217493,0.794501084897075,0.794599412824887,0.795513367168914,0.80913951145137,0.796160764997841,0.796062684019573,0.79621686253655,0.797138839853482,0.799531703571663,0.794024672745749,0.794361052955149,0.795057354225951,0.793876729345494,0.795530315803753,0.788844485893215,0.790121226812209,0.790932598616545,0.790822953351755,0.797405132778199,0.786867300557065,0.785160873599832,0.784854327203403,0.785992374634686,0.785892490551825,0.795227241971988,0.784364574772445,0.792210847175355,0.791885160197731,0.793402227930901,0.789272489297631,0.788645939382449,0.794036538517769,0.786698957201908,0.787083245608336,0.785883268908283,0.78629585312134,0.788462413648222,0.786934046638037,0.792832737892344,0.793344715998567,0.792983515688951,0.791956090536757,0.790866042802889,0.785050961118913,0.786840117059833,0.789711725262439,0.788782411047721,0.789488515925075,0.789966563233282,0.788518830549203,0.783647991695737,0.783599025232716,0.792712467873687,0.791725477309649,0.772994121383332,0.773718224939823,0.78579413364435,0.785435446595029,0.787437086424998,0.785423366532421,0.786733828131828,0.786747688069751,0.786340893444353,0.799180378659003,0.78630835857132,0.786441550285744,0.786715009680669,0.786420394844866,0.786996533993542,0.788049916433896,0.801983757660378,0.789183241965247,0.788334297227225,0.789570053557065,0.789503440979778,0.789362055923732,0.789836582142706,0.796003295807113,0.796013158421624,0.793945486494379,0.784020597849478,0.778286011230829,0.777584693565757,0.823355431906095,0.823212070047361,0.799662031831934,0.790444115093517,0.786799309530281,0.786677081195846,0.786346284567603,0.794427327736557,0.788472213157291,0.788007276094994,0.786706526442308,0.788647976358718,0.790282760426493,0.786826391485583,0.785962478506253,0.786017987144049,0.786390127102616,0.787955902725195,0.786630108796675,0.785773008255957,0.782988407753233,0.781083745277721,0.779926347761595,0.780378440123178
0.803360632792031,0.803592268741156,0.811018922579011,0.802265290150399,0.802443147475672,0.803239284562787,0.805158722004929,0.821841138449967,0.82193790963874,0.80263903367499,0.8128974463704,0.812391853060528,0.810911466098506,0.803483008588595,0.80234213989355,0.802112139910192,0.802100246453891,0.801703658472117,0.810325512889808,0.7999352985546,0.810281059448173,0.810153180064817,0.800012803105543,0.800369859353289,0.800268875798138,0.800420493935784,0.80888767064946,0.80792890671909,0.800205048610341,0.799857628859897,0.799566793595209,0.799565663416146,0.799765855676271,0.811123919630442,0.810422116404189,0.811003577896794,0.802834633297605,0.802513737678943,0.802595178593976,0.802347729051834,0.80235154664396,0.802542070058342,0.802542017117604,0.802315550300619,0.801101918508579,0.800402277212994,0.80042124413563,0.800865207628665,0.799732445252868,0.80077054762712,0.798919032429646,0.800008814524706,0.798703449133189,0.799507750899665,0.797936327190765,0.797930637798261,0.797494280940592,0.797243985639851,0.797664748241509,0.8076548309146,0.794248679205154,0.7947059006996,0.796247399354321,0.796170980614452,0.796923049783537,0.796088883423982,0.796547918495373,0.796282825138732,0.806192839727221,0.804483863626823,0.803856300954643,0.796199456707391,0.792980292898988,0.794547205359649,0.805616040439429,0.792417995240666,0.791493999563414,0.790481096299525,0.789378510554638,0.792665893213731,0.78733121132024,0.786666076777381,0.786335307678184,0.786325248939511,0.786615855795983,0.796070056140816,0.793520827393305,0.794071608353296,0.790569226301372,0.792097542077568,0.789330009663693,0.787227486632524,0.786622101098982,0.801376520761029,0.798861111127254,0.789143678911925,0.790331034251024,0.791414310902119,0.806091074262579,0.78836431235832,0.787647361016481,0.788115411211947,0.790143305154585,0.79960436662308,0.79742031740578,0.790909490451645,0.789167427114814,0.788686017639161,0.78795940354269,0.785960189082364,0.784813719183843,0.784057662534789,0.784655642876157,0.785086357178768,0.784222807010782,0.789078005382036,0.78621778371194,0.78683324595184,0.789853812465606,0.790096470866911,0.78987693308779,0.78818938210578,0.786445606661498,0.785938553366243,0.785787632677056,0.785900576432167,0.786475914359711,0.786469485277946,0.785769457291914,0.785153401347668,0.785123469862307,0.785953136120073,0.782464123084273,0.795334077192007,0.796340555511348,0.784308124794398,0.784670213980691,0.783462533544886,0.783655969274866,0.792471456809762,0.814384485175888,0.814664835916381,0.823186012134562,0.786595925091409,0.78676467744171,0.787717636076768,0.787996112139873,0.786912382479246,0.786299218242474,0.787597081739421,0.787459598144683,0.789558464688718,0.789012792419239,0.788168586320659,0.786761517556601,0.786298138191181,0.786609182767359,0.812761313089833,0.787115340748551,0.796105518603501,0.786036648268535,0.793313954642749,0.785670974602747,0.784394091500353,0.782638128998065,0.789856219727123,0.782309117557244
0.805208302844242,0.805810365590115,0.801831813998483,0.800920632120417,0.806743159211528,0.828195525264142,0.806086819041268,0.808426427958752,0.826816057226985,0.802417837815441,0.80292778442507,0.803769811149572,0.803711942550746,0.803338676058311,0.814269576861314,0.801846026867238,0.802077444130938,0.801250225622399,0.802192968985671,0.803948825471941,0.813914383765562,0.812882261174245,0.836918445457077,0.814040767930183,0.816182498541353,0.79885156482164,0.809075746448965,0.827765439507573,0.801090808940928,0.800921429994256,0.815776294240265,0.815782707886481,0.800166256806898,0.804033216932352,0.80365977175897,0.803426037953659,0.803707344007695,0.802783277458629,0.802769027390683,0.802057164830562,0.802054002906421,0.803033868535313,0.802743781398634,0.802391169031171,0.801681504122536,0.801098039258414,0.800791720037059,0.80014019172444,0.800722988614296,0.800097478141989,0.800582928921409,0.799320507782937,0.799625053544295,0.799091496349449,0.798919902830644,0.797781485003602,0.797990028862403,0.806290448402268,0.806596495923368,0.805494137426969,0.813491602279747,0.796662958884275,0.796531974746514,0.797909670736169,0.796542030484799,0.797314310925865,0.796966654217995,0.797312613851894,0.796960403614075,0.818105127924937,0.795476711379203,0.796272845351344,0.795416489555687,0.795821009619228,0.794086457918849,0.792833051665873,0.792129202813727,0.792164669341195,0.793471225669976,0.793523348967692,0.788326125908405,0.788410892695091,0.787050249966687,0.787896368246599,0.787143156172246,0.79130226667292,0.792327279075414,0.791992342759382,0.816426816302174,0.792962750396069,0.792909604263672,0.791825445372865,0.800817828829327,0.789368437702022,0.789634665300275,0.795837788535345,0.792803624036838,0.793682016841148,0.793323467321128,0.791186428039168,0.791157198180813,0.792859933543915,0.792408330283347,0.792116353444359,0.790994121830343,0.787076220725226,0.788663608684755,0.788937327298271,0.789530814197285,0.792509776750948,0.785215036751125,0.784125648005795,0.782954794412015,0.787704185482843,0.787030224000005,0.780788762217841,0.783009759821024,0.780253743610013,0.790098638774991,0.789274200302319,0.797281159808342,0.848387389607069,0.795543222536323,0.786425510700623,0.785905760565701,0.80008748344526,0.786815032596372,0.785907626242477,0.786046991426837,0.786078773995354,0.783862631631828,0.784482027996292,0.783704541923366,0.796259947340847,0.786684209525845,0.785462385538448,0.78563947468145,0.785744803837945,0.785376024506167,0.809385704579925,0.786472873394757,0.804499757578522,0.78686248247455,0.786110310375183,0.78627407516081,0.804142004368666,0.78726429399328,0.786748001833116,0.786717179385244,0.787177178925924,0.787793313838572,0.786936664238038,0.789121344593275,0.788421983507646,0.787653725401987,0.785972212441822,0.786435978222649,0.786119984705878,0.78613443951393,0.785416034736706,0.784508605446868,0.819820583543414,0.78643440062806,0.784716658950443,0.783511907781314,0.789599548283897,0.783992376090838
0.806104526340445,0.806063141924423,0.803143694911087,0.831385001806856,0.803942811087196,0.804378172872502,0.804804247124046,0.805953103063648,0.801297218111916,0.801774203054935,0.818871469303309,0.803692711609004,0.803573008313642,0.803611908476124,0.804013221233636,0.803920035307348,0.802974624171659,0.822636664176779,0.830558119106033,0.823250207843976,0.82076117687358,0.810422863353216,0.815537360528169,0.824683581964956,0.806969525470354,0.808824994567574,0.80902792423058,0.811937318875718,0.827758597065857,0.800631755919299,0.802933912044417,0.816706843752721,0.8005668064844,0.82431625207343,0.823500252841463,0.811162678452101,0.806152617126673,0.809220109447861,0.802386647812216,0.802680542658463,0.802975228871304,0.80288954083886,0.811826262204715,0.801478932018237,0.801002157093713,0.801932078652044,0.801025845094986,0.799923532915571,0.799625326045355,0.800162896872428,0.799763364987564,0.80028242999258,0.809904173840988,0.817070001357692,0.799002463403338,0.798911914426816,0.798624758153535,0.79854446709502,0.797622660054521,0.796936448407946,0.797116003214037,0.797487047399633,0.798964035567975,0.796401224297255,0.798058646910923,0.797827096267122,0.797732022931548,0.797343869329086,0.797855634895073,0.797731191189851,0.797745376720264,0.796525070626927,0.797220335231073,0.795376364829101,0.793943631398311,0.791993689396834,0.792185712601125,0.791616656481189,0.790352154786588,0.79016543359516,0.797095843783157,0.795981702805652,0.784621306454908,0.79295581896755,0.792425506422458,0.792228269514634,0.792393478971714,0.792603186852116,0.791691530951992,0.792753237739366,0.79173839422327,0.790654131546989,0.790228631016071,0.789089364103904,0.789865371835257,0.790884501747968,0.791993466245728,0.792429630380347,0.790061340288287,0.79018569000626,0.79041358309633,0.790605706782119,0.799018838180927,0.788095729631832,0.789133137122944,0.789058158377131,0.788864657557759,0.788616057720864,0.787819890100934,0.786097055612912,0.785525813770159,0.783712309867842,0.78294798014399,0.780725534300795,0.780755905069223,0.779490439568943,0.784048689317492,0.784775203183151,0.783715254699014,0.781966703383949,0.849721437282652,0.849639818644907,0.848130902129062,0.793271162437376,0.784752545390416,0.787064369959261,0.7875008771469,0.78666239079065,0.785359298794783,0.797833256973539,0.803546033158296,0.798953494155017,0.787010371937958,0.806394081130083,0.821472503652869,0.784068504529444,0.789754686807659,0.806785390845631,0.808336455204626,0.809254483379865,0.786349448449428,0.786124534189714,0.785988427686062,0.786067663493795,0.786287746042343,0.823760755129036,0.786859507662004,0.786716156396759,0.800661241942931,0.787230811745829,0.786510453376809,0.787979228455665,0.786653591997583,0.787928197429243,0.786740102545285,0.801366009946313,0.786820039036139,0.786987055221586,0.786643948166674,0.786364012027236,0.786668884909099,0.788182707365209,0.787523656247306,0.786499779283593,0.785456776741791,0.78652959603807,0.785387908449943
0.805462831918132,0.807059015386339,0.823958206992125,0.811769349895867,0.810209317200954,0.815995640637451,0.802877880588821,0.801546243358423,0.801093051928782,0.801115738512421,0.810769243126714,0.801647738705592,0.809391915277197,0.808555266531368,0.806952155953392,0.806749038084515,0.8026066291754,0.801504304281393,0.802391145952711,0.802512077673156,0.800512367300654,0.800251037075729,0.800107384934279,0.800753549823711,0.800620938926647,0.800414965213903,0.799924072777678,0.800820426888293,0.816754091244047,0.81701542863591,0.841024786522901,0.800164881056979,0.800718748296643,0.830824135977653,0.80044969590479,0.801077076997947,0.800632002977046,0.800523528402402,0.800942453782176,0.818177460157765,0.802508771533941,0.827792588533674,0.800830205201155,0.800928968536362,0.800854478466984,0.801241974601761,0.801655704714725,0.813882467226978,0.820023495794868,0.820475896566606,0.807339427198857,0.807853559317607,0.799180343934785,0.799529971660612,0.799659666531346,0.79975436958721,0.799132291257191,0.799199359656703,0.798492764589834,0.798300087456683,0.796931022838717,0.797896099673171,0.79650184486783,0.797472580533097,0.796504478866218,0.798176191514012,0.797466333005304,0.797811781472059,0.79708895181823,0.798067010017615,0.797574748246318,0.79931480149988,0.797204044372145,0.794491897636314,0.79515382048533,0.794425833223764,0.792779787086674,0.791737765479539,0.806902446139162,0.797360555430603,0.791015572650161,0.7927129476824,0.794415136867441,0.794441807887511,0.792243666060392,0.793060357328704,0.792573614797339,0.792391786887095,0.790960894880517,0.7930508842322,0.792759269540399,0.787591829009438,0.787200960478512,0.787788138177878,0.788877490514522,0.790439046714612,0.79121076153632,0.79108178493863,0.790086083051232,0.789775916460546,0.790066859355599,0.789895009755541,0.789409048232011,0.788986655539276,0.789037072156885,0.790136035612345,0.789119698553851,0.789205901284605,0.787554385123018,0.788168024476993,0.794495793316028,0.790311390088661,0.784427875543613,0.795111388768893,0.78200798793547,0.784619576124904,0.786334687751824,0.788881756507487,0.784642529657376,0.787322259179694,0.78512640493992,0.803963127914164,0.865207333041987,0.793746443477821,0.796415962011796,0.796994872624973,0.791702696157462,0.796198813812338,0.785493782752339,0.785300596422532,0.784600181465956,0.785045993476914,0.786075291093562,0.816744501763606,0.79017598128878,0.796160300896369,0.793222141722803,0.804574966550703,0.832625408096978,0.80943731699933,0.797542153866057,0.786353616242018,0.786625343875834,0.786422946101028,0.786809695465183,0.78646001326434,0.786584047136926,0.786482000024942,0.786326774700108,0.786985035400362,0.787466268167026,0.786501836529828,0.787631994413921,0.786611161733293,0.787403822803099,0.788027277326597,0.787060687961436,0.787017577955741,0.801024795209724,0.791220800152695,0.789070502663893,0.786447675284288,0.786261013602983,0.78541894127102,0.78612614262004,0.784928838005441,0.785276530332119
0.80404497591527,0.803230517142167,0.802512511450643,0.801770437172304,0.801554359809266,0.801759278324652,0.802183470287445,0.802132098972515,0.801038922690232,0.800565165639523,0.80020284022993,0.800381026320738,0.802367445582619,0.791775662082473,0.799853727853502,0.798825080654985,0.796672165957406,0.794109341025096,0.79419144011496,0.799617684972509,0.800046038354127,0.794252130737087,0.800396347024162,0.801413274523018,0.801525132876717,0.800042374487813,0.798809810027093,0.798444475180564,0.798597878577954,0.802180869671105,0.819314255361236,0.79717575441112,0.796830849787336,0.79683416543757,0.81616614783608,0.81560054018958,0.800123338440235,0.800128456595017,0.800913334827026,0.800548101128821,0.818135429492748,0.826614814059646,0.827102105475328,0.800322887355879,0.799886486154162,0.805534907862707,0.802977939327198,0.800091476735037,0.799885292421862,0.799551119015792,0.798874566482777,0.798076620747962,0.798324556755747,0.799404930726932,0.799269732476082,0.799075462666094,0.799283173849356,0.799566459424223,0.80022310252124,0.798596360326179,0.798590735208748,0.798047114907603,0.798908420351647,0.798044060244736,0.79838495303331,0.796857410447661,0.797541743986313,0.797689204988014,0.798063470424665,0.797143201399355,0.798258034245167,0.796847628539229,0.797702200896905,0.79788984972744,0.81155120786607,0.792188120776668,0.792866730443386,0.79288198744266,0.801049596196996,0.79010564393403,0.789937329639411,0.7907236622266,0.791706285558753,0.790399188048848,0.790753853430162,0.792623162629647,0.792498976992719,0.793498849551547,0.794854170912761,0.79177589333382,0.790788422924896,0.801433465027142,0.790280613299778,0.788851660893603,0.790266885274302,0.79098882074065,0.791314943227509,0.791860081332884,0.791029893174758,0.790051003741428,0.790607849586343,0.789710316649101,0.789353557958813,0.788642870735042,0.788057202552016,0.788242428185455,0.788404755064781,0.788187022002281,0.793903674320691,0.785506078665912,0.784597552048289,0.784496718955275,0.784548964556072,0.789839902291371,0.790877121127706,0.806277844211889,0.800645789817138,0.806681684167279,0.784387362452139,0.786210800340624,0.784293545219837,0.783297658867627,0.803410858541421,0.794495892187855,0.79730660201537,0.784514193705061,0.784205404399159,0.783791335904301,0.784227601465321,0.805382410758349,0.815317390038049,0.815031970769339,0.788630473229178,0.78492977092059,0.789718366725083,0.789796259741142,0.791559391379494,0.82954443046288,0.799739490752423,0.818004748969603,0.786784871868874,0.786764720557086,0.78650593471375,0.785925542357616,0.809171074874236,0.786665671602933,0.786412660978473,0.78642000263042,0.786213708970322,0.786658016742399,0.786840217242074,0.787575780621679,0.800903653967193,0.786501287557361,0.786306722704454,0.804241705811773,0.786277333920923,0.786128724411012,0.797178929824582,0.789925370689184,0.786529653995525,0.786022271299212,0.785015341121175,0.786051215474623,0.785659864525168,0.785986089138825,0.785481084722403
0.804269376818433,0.804013559231343,0.813534713677044,0.823601429785733,0.809845890162351,0.801015869566214,0.802026708482947,0.801706849766833,0.82904093441897,0.826726007389974,0.824726001928617,0.799779554309801,0.794410540296899,0.795774321433813,0.795797429783062,0.795079528198296,0.795809212304193,0.795764328993735,0.795851667257964,0.795968109889194,0.79127797343444,0.793001108458808,0.793428948462216,0.793770957330344,0.793301651472593,0.79383143458357,0.795608529583959,0.793648144063857,0.795260434528844,0.795126951644868,0.807575019915846,0.801709592556248,0.802071846622237,0.797876001766198,0.797837829374878,0.799726817335866,0.799537955644482,0.799811113507854,0.811874274913909,0.811283429582985,0.801101501835522,0.801378681652038,0.800749209870256,0.80790129589043,0.830458064138696,0.831567111718603,0.827144916636678,0.833482646927696,0.805503977423791,0.799909548012306,0.825711141657793,0.832960781975473,0.833209550494142,0.799242763295053,0.799117605388086,0.799429257089586,0.799025504056332,0.799043037380147,0.79857566241777,0.798954258897342,0.798203229507362,0.800076957645087,0.804412143858618,0.805907869797748,0.797383564512455,0.797603589962926,0.797121870164367,0.796765793665154,0.796309319852113,0.797671991184709,0.797430188695044,0.798026729049642,0.81100578688542,0.797697985320765,0.798139991094179,0.792523591935457,0.793569151443627,0.795352052185043,0.79662829409315,0.79207475946478,0.795425125877253,0.798432628289656,0.791005500382247,0.790468352446691,0.790631599412503,0.790704211339772,0.791402137614493,0.801299405954018,0.790210253708514,0.790504747081828,0.790498283153952,0.790560848607941,0.789541421905455,0.789246091231129,0.796695853844791,0.790792388686481,0.791168370575793,0.807480055607673,0.790043373853767,0.789465755200893,0.789101158364532,0.789304248309644,0.790495931112502,0.793114039398009,0.798795759768769,0.789019300181955,0.787912564216425,0.801290715548869,0.802542316738785,0.803681210402812,0.783830881440489,0.783871626856854,0.783976885001921,0.784695354673435,0.785139278928391,0.7846300402851,0.793757795867982,0.802059783144895,0.788979208800226,0.783646624913762,0.784219643049324,0.78371586069467,0.793470990459946,0.784328272110192,0.783820952489385,0.783904463196029,0.784185396750012,0.796916680051218,0.800718722445348,0.784844916194361,0.785998073085673,0.785579110747839,0.785014103070516,0.785065734759561,0.805721591882763,0.7829137303567,0.783150755319081,0.78331279629885,0.784369649457437,0.784731329248814,0.798725980594343,0.785191707720243,0.785059524953815,0.78546236799376,0.785478950511371,0.785772711237075,0.786030862274805,0.786455774608065,0.787380820121197,0.804734349673095,0.784217589638,0.785813282247732,0.785769237252829,0.78550323119129,0.785541939739864,0.785364928393768,0.785634473127554,0.785499770826713,0.785447998344516,0.800588922735974,0.785499783419826,0.785510330831723,0.784709627461037,0.785269449960228,0.785716943372301,0.785106068296123,0.785499449967329
0.805325471759225,0.80476156856064,0.811653406522642,0.809668704478186,0.808002195013923,0.805343439793388,0.803331638429558,0.802996235448452,0.821868478449468,0.815120504252858,0.807213052695655,0.799331701251138,0.79811455624212,0.796869966927916,0.796490547553859,0.796058448240426,0.796039518254663,0.796142188791536,0.796100037257987,0.795978055944209,0.7953195666689,0.794014278351449,0.793998244748649,0.794560175335174,0.79449048466628,0.795098013135871,0.796817650398866,0.797613493953481,0.797161491163022,0.796410593960418,0.79778474358976,0.800765516172754,0.80077303299543,0.79853203125234,0.798190255541799,0.798491645839871,0.798494430381165,0.798567595741624,0.80198815875592,0.801170451594115,0.800777737347882,0.801076829722029,0.801824548213616,0.804117814434598,0.808577314124595,0.81392636639347,0.824525744415471,0.824630183002124,0.803823670528113,0.801939380050443,0.828666855616596,0.830504872629788,0.831862605727321,0.79841311984951,0.798559340114767,0.798677524536499,0.798675229451023,0.798626757145167,0.79880076237554,0.79847141199981,0.79811118882034,0.798309323791112,0.797925592979473,0.797542924671802,0.797477314350638,0.797358194028049,0.797238191300547,0.79715866689445,0.797892569742568,0.797631434996898,0.797521095116098,0.797000546215704,0.796940381109549,0.797365272457636,0.798943164088578,0.793156659597097,0.79350092483729,0.794175141745093,0.795126911559098,0.793984738299479,0.793397406102628,0.79191707062844,0.791043513765755,0.79082998711827,0.790691885465445,0.790799746050293,0.791204309342119,0.791560929770786,0.791443222173254,0.790893322179631,0.790623505328665,0.790443483471405,0.790040944832797,0.790519235935154,0.791390016124576,0.791109105459426,0.790830509006573,0.789884442607768,0.789258663664717,0.78892745279214,0.788840604002943,0.78842615503594,0.788293134103022,0.787358066706298,0.786888484498741,0.786959144291343,0.786344562804816,0.785405375564667,0.784409234304461,0.784072011964312,0.783915083691706,0.783643148998361,0.783567274781805,0.784070735939873,0.784811487360784,0.784781616817118,0.784800306159732,0.78597635600572,0.787561858220809,0.787871370548312,0.788004503187326,0.78596166246687,0.784432374544364,0.78415168693393,0.784225334363198,0.784019688854258,0.784024079645279,0.7930672692534,0.796755086275082,0.784903830375587,0.785383333223854,0.785362921440371,0.785230192584004,0.784739525902175,0.783695408902804,0.783096589583504,0.783177809214968,0.783497435407502,0.783948844073323,0.784121823199789,0.784083472507406,0.784797535117464,0.785045914787822,0.785216970973036,0.785084274742836,0.785143280609454,0.785415781917501,0.78576114807832,0.786447924799629,0.786658237823909,0.785737244936596,0.785696785740024,0.78555828316331,0.785377684959323,0.785290127958817,0.785558247345304,0.785389909354443,0.785207550893485,0.785411590336884,0.785697126464938,0.785633143437477,0.785731203376885,0.785348788246811,0.785411459049103,0.785272771991226,0.785485142380161,0.785469862819758
0.81034158585846,0.804523983920042,0.817436403495712,0.803285223729016,0.80253574062102,0.815008988516604,0.803171176860586,0.8041274928207,0.836991755519468,0.800404930140066,0.800929746512305,0.800064197245349,0.81335659225928,0.797378204881893,0.796918629040061,0.796687208170827,0.796237438157987,0.79668276526774,0.796385139440148,0.796866397762217,0.796852997275584,0.799125452464961,0.823869254024105,0.796005492933593,0.795123251012103,0.802650395525396,0.801118346563058,0.800155590876434,0.80013149518252,0.795487352643074,0.796203639182242,0.802982742018554,0.802414391410332,0.797102207963343,0.797958000132204,0.797554707957047,0.797341603588138,0.797412659928246,0.803166838296585,0.801109606129922,0.80001311940538,0.800482377382225,0.80143448926752,0.801447128126273,0.801473308550524,0.801241625838867,0.824178103597433,0.82452700205468,0.79896376376945,0.797345241032337,0.831109514839363,0.798511264503431,0.832402090345168,0.797613966446506,0.797732623198125,0.798335823374594,0.798223072590769,0.798368188187984,0.799039493690702,0.809815355538041,0.796819927394417,0.796826514317166,0.796712256315724,0.796967666362997,0.816026534524532,0.817064622478614,0.807402464105711,0.815309797113742,0.799973880277087,0.798101532772121,0.827959955608905,0.796023853649344,0.796272566468619,0.795998940410625,0.80191361329431,0.793075883595645,0.792865042761614,0.792533465170696,0.795694216049637,0.795859809513227,0.791939569692498,0.79124422562102,0.790738822881059,0.790904711927014,0.790775482232036,0.790592015310761,0.791398344156448,0.792284604697507,0.792635109436797,0.791076282337632,0.795900029599751,0.812325362545246,0.789665554323541,0.790641790561008,0.790771487181302,0.790167103071527,0.791102720808667,0.789554405158315,0.78796501614006,0.788401574394633,0.788591754482122,0.787535825941185,0.786884257376739,0.787039561729905,0.78647561167967,0.785608443366446,0.785070393573616,0.783663815270063,0.783724241598394,0.783874607085572,0.784546993962727,0.783253381363615,0.78267915609917,0.783260298721965,0.785285541037374,0.785241812388086,0.782930116377046,0.782295994011833,0.800199180167803,0.7928850194551,0.791293712044923,0.793490266575713,0.783579523999393,0.78336619443423,0.790841715996044,0.783414298624946,0.783590163722318,0.783237616908437,0.799561666605153,0.784567878981195,0.831603954533856,0.785315360927079,0.785583894359764,0.78495514063192,0.783236395202242,0.782553799578417,0.782906355255127,0.837973132914022,0.78377343100683,0.783688549318783,0.783273965883826,0.810337972818815,0.794144453770379,0.806853511297502,0.784477939186695,0.784263169542403,0.784718495887424,0.784658537977646,0.786015976210346,0.787733291284114,0.786391802617476,0.785517508443364,0.785474380495798,0.78505436514452,0.784784612279977,0.786192161460608,0.785218007079097,0.784553673355712,0.785308655092747,0.786022674584574,0.785736071982288,0.786108010591664,0.785975951688761,0.785241819909341,0.784884472913006,0.785735753684389,0.78538557630631
