0.811007825774805,0.811150679715539,0.811339265057514,0.857880000131356,0.7821585720131,0.763332283578229,0.763122451288159,0.761919013677965,0.76306620627122,0.74217005315177,0.758259201526279,0.75469507178887,0.755586456325504,0.731645572790759,0.73069498053856,0.730973909387347,0.728211348830187,0.71878561642622,0.720241276284739,0.711803957098915,0.713837590287908,0.713575043088127,0.710162579450206,0.70872298879452,0.704892972103273,0.688010532506627,0.705820974908803,0.714981861521887,0.732367584565544,0.809463627760489,0.802548233750637,0.809426681045105,0.816206967677007,0.816445567435911,0.816706733122567,0.816302839861809,0.818860603043043,0.821499996269215,0.821668062005761,0.835985976146948,0.824678841430078,0.819643380656359,0.820034252051013,0.819445130231761,0.819930444164916,0.839916135869876,0.820649876738619,0.822972424939143,0.823016936895984,0.843244408709893,0.840265400659435,0.897627999651568,0.865709581350011,0.989085000000004,0.770709768626668,0.661114523794726,0.666146346969487,0.671123576115698,0.66706629218592,0.660859305031428,0.804784633037493,0.80339121071801,0.803660304783081,0.799956240362455,0.809181921467422,0.807146967662945,0.808261461619888,0.807679637648285,0.817098236387143,0.820568428497593,0.843416005943207,0.845048278586638,0.854900551171139,0.861163346074292,0.869957966718085,0.873194256337969,0.872082683763997,0.872158580445419,0.869603735334697,0.867331013248573,0.884480466192558,0.901350935812535,0.900939283858869,0.973570000830631,0.9557203836194,0.972750003666943,0.94953848498147,0.97767499900944,0.932894146544505,0.93288059455413,0.930341390777664,0.925606974990001,0.926964595811555,0.929463309101288,0.928795077357179,0.928781198058469,0.928580006709311,0.927730179835525,0.933429230139568,1.00375000003065,0.966744233499039,0.977501966164534,0.956372494268749,0.955838835161619,0.956666807016265,0.956909934438121,0.936426056830844,0.925352069614199,0.920977938323046,0.917983669560086,0.933672513061723,0.956758489683656,0.954468806093662,0.950858822838002,0.953372126099606,0.955483948647125,0.950871917858955,0.947660282439726,0.947041236097675,0.974277111776579,0.946901403682118,0.946811265065041,0.948196524790371,0.986051820911285,0.95459466248898,0.952108057930437,0.954185074886622,0.983811842525686,0.976364737887904,0.963929514617274,0.982772674922166,0.990757871422213,0.992032371919483,0.993021135380163,0.996314728147667,0.998857111609759,1.00048780817902,1.00168064315387,1.00281885970992,1.02788288838794,1.02047602613576,1.0236035226305,1.01251700724941,0.816713999999997,1.01331805236702,1.04319476068287,1.04174384541847,1.0905400041555,1.07097245420592,1.07399300117951,1.07307390217378,1.07411129206766,1.07719629709977,1.09712649489254,1.09466231025723,1.09228277954446,1.11245221632342,1.12323004824906,1.13287680513687,1.14545150727805,1.1709307827701,1.2074133868977,1.20277060789523,1.20817778550752,1.19656965705435,1.10598999994117,1.19142302926395
0.811331172864768,0.811462985214222,0.811675672450082,0.812057127884362,0.801986635068259,0.793052343958325,0.783939944039374,0.775486208405697,0.768458589558129,0.762687653115651,0.75891238310057,0.751907675171777,0.752823508598107,0.730904450346806,0.729588745650343,0.72928991360464,0.726243228293321,0.721534684977172,0.719446829674551,0.715886110846806,0.712604816103478,0.711402397256577,0.70765641550194,0.704293116460714,0.700042118327284,0.694758705338461,0.703612586361583,0.705817768276197,0.721966499473853,0.745961282499949,0.766335136060996,0.812586494370687,0.814794271112439,0.815663640881285,0.815272042549939,0.816879972581075,0.818756621647014,0.820477352176738,0.820894468586969,0.832688243450545,0.826654143523258,0.821618905908391,0.820551163343104,0.820109777935031,0.821087082476674,0.822202326266127,0.819691944406718,0.818767060745232,0.816681666979924,0.815782084108284,0.794947903449911,0.776521583256988,0.757439475365416,0.736697223158919,0.713425035034265,0.660832236388862,0.662630049120179,0.662973126529214,0.663434710862134,0.66171385595267,0.806456642315437,0.8065522611736,0.807759379559753,0.810648733968558,0.810643619440647,0.809990424947882,0.809830671653236,0.810132133767048,0.813706901064187,0.817098283556136,0.841486469920588,0.843329036923825,0.85225987461129,0.856804560385431,0.869206158992037,0.869886366622898,0.869895899488297,0.869830257650783,0.869439132616336,0.869441223312672,0.879984973271903,0.892475322492461,0.896191002981855,0.900080773661473,0.905645221013061,0.910768961074046,0.928219437025469,0.932621043848244,0.932528440251591,0.933072210260054,0.933227903761958,0.9340923542813,0.935293564480189,0.936852592573742,0.938940104587224,0.941591068777888,0.944596748629982,0.945888279923113,0.946382516950085,0.956864257957946,0.956977573661608,0.957037954521598,0.956882517554512,0.95686695906105,0.95718269141894,0.957268612223191,0.956209673135396,0.95505760207972,0.955042902729389,0.955264783295463,0.95631921300322,0.957222862100981,0.955551388561097,0.95480409970376,0.953794640266476,0.953230470937478,0.950471956611447,0.947406562088364,0.946627691158994,0.946473794521684,0.946941789742468,0.947888820608318,0.950822877276134,0.973942198942633,0.957177217276849,0.958023142539242,0.956843559649924,0.980547547216161,0.97982311970148,0.983438312403632,0.987268381511601,0.990693333807595,0.99231576263059,0.995486075981523,0.997404870166542,0.999562184979453,1.00273987880369,1.00330763740712,1.00638966008955,1.01148737355969,1.01658786271071,1.018134967935,1.01595118250395,1.01663596851744,1.01537190960272,1.03907289911055,1.04049181702751,1.05154062580789,1.05759832851939,1.06119542337664,1.0708660489442,1.07651310489371,1.07740691070853,1.08313850865484,1.08526912905309,1.08849986073604,1.10430655708572,1.11407079700042,1.12335085535753,1.14890749946252,1.1661770934677,1.17071743425962,1.18021201944891,1.18980696560597,1.19585550992248,1.1954098233735,1.19492643312269
0.811670720891978,0.81179387201237,0.811980290493184,0.812565016777348,0.812584601682096,0.812881728964865,0.814425873365898,0.816549328780931,0.815640192976599,0.815713968351663,0.777627105027238,0.74788963083724,0.750521342898255,0.714913153566549,0.727013247136086,0.729993944118067,0.725887878756871,0.745776037569914,0.719827238875815,0.719693307877382,0.709592141660313,0.711526380507822,0.704677438451709,0.692445947628265,0.695131164152014,0.677272907799485,0.688614714673161,0.684943854991077,0.684884872037978,0.683850488277303,0.744993556628748,0.83055737015453,0.823868895244545,0.831665045422284,0.811704052489387,0.808399600407569,0.808040044387695,0.808251528766576,0.820556778167653,0.835408426517974,0.828129917659903,0.820006586718624,0.820498134000038,0.819473100157878,0.822379883320811,0.826159044826931,0.817564985524833,0.815954858811051,0.815817591683363,0.814858800245127,0.756260426652793,0.670762096472381,0.66993319876739,0.670908703104189,0.696089368256658,0.658789247962512,0.66067504912469,0.646070996078483,0.662114763333319,0.660872070939352,0.808206702809197,0.808722412776945,0.81023615977849,0.813233862903914,0.812208631194356,0.811967157358434,0.810826469096333,0.809440841417203,0.810578370185078,0.802034992148477,0.837499064444467,0.832801385564461,0.843888881690612,0.845089133958004,0.867823918650539,0.867375441574066,0.867931518893008,0.867907356494317,0.869087346588967,0.871784488177281,0.875921369219834,0.887651348265891,0.88485821037917,0.884338890347394,0.887780336771582,0.884847526830204,0.925015081736725,0.932399724091175,0.931394127611557,0.933805661015475,0.935191544595911,1.00830000014669,0.950468839691053,0.950211938125445,0.948803585362797,0.94669715382174,0.946255495231614,0.946476642433249,0.946501613687128,0.956633218130607,0.956971057804327,0.957231842831987,0.957202745070909,0.957525612493715,0.957802045586611,0.958746648202263,0.956432196455221,0.954125758566502,0.95496867306772,0.954382424591567,0.956136671309019,0.961315346802253,0.960416199592293,0.980615094469565,0.982181843551108,0.987850152728556,0.962277478525276,0.94498171832207,0.94582459062524,0.946050928466945,0.946611623808509,0.94694885365482,0.956148948308054,0.992111057868556,0.959488473056188,0.960809829789586,0.959357481172155,0.977920399159537,0.978863439161929,0.994304203365382,0.989572284734111,0.992260065307108,0.990954238414481,0.999118123101996,0.998563738180605,1.01141437262313,1.00862134894224,1.01230920531373,1.00855328195526,0.998609849345867,1.01586487385298,1.01621241919728,1.01695364029297,1.01914451834484,1.01690797385808,1.03606865011204,1.03553908811942,0.821880999999996,1.05093861748476,1.05588306279676,1.06874988787487,1.07805024867781,1.07875042468223,1.08062870105552,1.08450523994892,1.0878896596419,1.0907842545597,1.09376919525727,1.11065688865342,1.15243103583235,1.16071110917897,1.16217589178842,1.1660671149976,1.17062640794437,1.21409641122637,1.23582746880127,1.23434697823346
0.749462298970788,0.764733783605692,0.779053536901779,0.791520418811734,0.812361519090173,0.81331199087333,0.813909248542071,0.814720172067272,0.814737053606779,0.814970550711234,0.791541503706251,0.773849835203928,0.768448211254916,0.71803151527518,0.721153223561666,0.721220519560653,0.721425592013868,0.720110280411536,0.720129950575426,0.72107809417092,0.704771428848901,0.703756594790614,0.701954651903224,0.697416149643765,0.69565617997991,0.694055536597763,0.692188421756066,0.689127271341861,0.685990598847192,0.684547388293822,0.702943230844334,0.71868303643334,0.734601679572778,0.751391339002519,0.768683732951661,0.785598916241259,0.801715669355745,0.81305273948401,0.819865726879816,0.833440888177022,0.829568914924119,0.823908119565306,0.822028249374741,0.821618184799935,0.82289610473635,0.824492512098834,0.798201162582052,0.774967292071315,0.752899731199597,0.728266484453005,0.702628081920726,0.669456542784112,0.668074677955867,0.669529893920113,0.713958797388559,0.732018728725542,0.748260185787166,0.763491985159795,0.77870101049525,0.793589568610263,0.809497101691718,0.810791128426664,0.811210600210255,0.812426087136264,0.812378803989337,0.812111089816476,0.811899487655758,0.81136612719155,0.811602330125023,0.812128595213385,0.837851137350709,0.837408933717958,0.843260241011561,0.843849508062935,0.866861864034807,0.866691050386395,0.866577942611533,0.866731416450911,0.867524167397156,0.870549484620178,0.872643900134548,0.877744188934219,0.882952214960991,0.88262025563229,0.891559317935436,0.907304815151551,0.921841310360091,0.922265617385767,0.92681739912827,0.935984081318673,0.938710340728533,0.950282857409654,0.950548697162586,0.950467855401466,0.949297862334397,0.94787151751318,0.947159261359779,0.946955474715679,0.946454085329933,0.946467516516112,0.949360624395754,0.952325446691267,0.954971578648382,0.956768521340815,0.957504662695145,0.957198704132799,0.956659930381037,0.956215670424302,0.956370790817384,0.956759114468607,0.957761083475932,0.95960992011642,0.959601142507234,0.982254528076667,0.983566647173346,0.985310928500874,0.974365887818773,0.973073638256599,0.970922853824603,0.968750763956857,0.967811751000243,0.964846368311892,0.960880607815365,0.961076473676516,0.960790572743926,0.961051042255732,0.961001038231275,0.978282802723524,0.978875455005783,0.980499097806279,0.984867782207941,0.988794401905257,0.988665097437901,0.999198433898979,0.998780894821499,1.00864650683523,1.00799093811459,1.01046317789035,1.00668234731177,1.00175590536598,1.01504540010801,1.01655912811019,1.01694771811493,1.01740484020727,1.01696551151302,1.03468872231797,1.03483599278937,1.03538784677681,1.04691234356165,1.06195680476911,1.06692299719322,1.07066950567529,1.07472799441451,1.0787002466681,1.08342553602661,1.08658278857731,1.08883784871983,1.09112704714133,1.10753215424641,1.11834629280789,1.12946288744664,1.14113774304324,1.15031979710489,1.19857482262161,1.22446134846875,1.23477417724713,1.23384803974667
0.71234360329595,0.701544037006403,0.733782957172461,0.700072000181812,0.811290545591817,0.81416518204041,0.813281557016787,0.81377089055984,0.81374449259827,0.814546768195337,0.812638796987717,0.811810396590576,0.779271750718591,0.694645000848122,0.718411638417725,0.715750173777578,0.718566695575044,0.718768882186441,0.71942184132392,0.723249280293921,0.700668054258571,0.687307580821814,0.696279979545159,0.699281498949128,0.695835507845353,0.709436524956261,0.699186934089352,0.706871109189115,0.685445908356911,0.683988274477466,0.688119652962552,0.689792261120389,0.69014801983336,0.690631107776279,0.689807925764539,0.690244476251792,0.747221830980312,0.818003213826851,0.818990387598196,0.835242807528673,0.832530438505323,0.859236999194652,0.822079755869844,0.822110614403958,0.823157170698577,0.824463694705006,0.744119867061457,0.650159943679333,0.656096719839076,0.656575733655749,0.685416652379832,0.660941804364362,0.663305112362666,0.660857113951915,0.746332707326274,0.801481270242654,0.801747592849261,0.832804098151993,0.83238922982199,0.831878366083326,0.822594467118791,0.813609846575341,0.819124451446473,0.923367000063888,0.822735788118777,0.823781996191521,0.812868004581297,0.812462213133996,0.812376698560191,0.812345501410906,0.838184629303355,0.84156593224514,0.841980611796017,0.836846605672762,0.866030223494812,0.865946946859905,0.865197466544705,0.865121151909794,0.864224683660098,0.862913504662721,0.862282352581118,0.863337211648332,0.881525972242439,0.881083106329687,0.89610086011124,0.91929779213341,0.91795447209117,0.88936893256795,0.922095887767268,0.948697491547476,0.94554209302882,0.949558721950145,0.950633542294424,0.951585615768973,0.949808406423748,0.948159389181438,0.947381678874546,0.947633926623406,0.945801895667794,0.943677085578464,0.940744341894549,0.938169758178138,0.9364757569376,0.934789428278709,0.945873008107415,0.955655544986878,0.956684068273475,0.957683756877979,0.957485449488921,0.958346368857878,0.95834959393734,0.959632286626335,0.959080834285175,1.02371999990952,0.984146543157535,0.984274899511363,0.975266315328111,0.980669397429639,0.970042296406658,0.966818593165752,0.969150187248943,0.970458413515304,0.960850362364399,0.961054433745227,0.961456553637409,0.961585090329976,0.962411503739449,0.990572359928704,0.978242277589969,0.978238794260495,0.98094023597552,0.981508801747097,0.986539167634003,0.998708215150606,0.998733003349638,1.0064532732179,1.00530465887633,1.01828301401003,1.00632499142816,1.0004827826813,1.01235497500182,1.01858972330878,1.01748848765304,1.01706557856289,1.01743321251204,1.03303942578941,1.03368861725777,1.03599594762827,1.04157675355793,1.06346304675429,1.03146483175661,0.815272999998818,0.901165861486277,0.81474899999977,1.00269162690323,1.06223002538209,1.070545184118,1.07841668432413,1.07563218890046,1.07286303590295,1.08373124142627,1.10118000115427,1.12795411375282,1.23494251596721,1.2340792939694,1.23454454246299,1.23271860697964
0.72186351089673,0.738815958900487,0.757948346612179,0.781165473689011,0.810362192323208,0.811226684694348,0.811381868454089,0.811705621230551,0.812027279016951,0.812225076856228,0.811637210760714,0.811199581488415,0.790819396998014,0.777743886188417,0.763601919415792,0.748296978883468,0.724608590199196,0.721426230497252,0.715515357240204,0.713433734614646,0.69669425276791,0.689984009900781,0.692293958921,0.691895269943223,0.692326658037516,0.690979876211591,0.68930456580017,0.688240123698494,0.686539319127056,0.685502908396693,0.686778098692509,0.688704841924339,0.690256967095293,0.690693233140246,0.688474984801427,0.684877841904129,0.676015311025469,0.667653433311131,0.660245787220039,0.654165177421146,0.649690943848964,0.646940990614918,0.645781180783188,0.645854574657177,0.646769657318736,0.648670584751032,0.651551890261089,0.654132938345593,0.655371347221806,0.65578417319026,0.705335072037548,0.726723104666486,0.74721728130535,0.767614378302775,0.782375885234761,0.801218170521271,0.801893029028948,0.832652299576488,0.832395132775457,0.831982968826816,0.83145132866717,0.830565602105275,0.829475008967876,0.829771574122631,0.821786005573797,0.821481113630023,0.813619807368059,0.813211472548614,0.813023333527094,0.812782791101588,0.838045381397611,0.844044169866582,0.846393734299085,0.848584823497504,0.864761941754179,0.864310803766955,0.863418272792753,0.863360398920268,0.861966266256835,0.861346115354115,0.861025297810209,0.87625985495336,0.893101240762846,0.898404617253485,0.901011512608725,0.909761246153303,0.912504489054176,0.911978842436103,0.91782214918531,0.926617191240214,0.928274366787249,0.930325270359684,0.933149425141685,0.936792523393985,0.940819875594567,0.94498273282404,0.946439456113713,0.946890731581611,0.94537419085162,0.943188655673037,0.940501376611533,0.937664714645129,0.936773932269272,0.937492039774316,0.941448870557885,0.945057667570336,0.947862622291714,0.950252987057923,0.952661495219735,0.955137476258531,0.957473075531674,0.958431864163674,0.958009112652711,0.967247011020879,0.967464324871741,0.9691946929494,0.970767138840393,0.972229018759973,0.971744011438567,0.970871852124904,0.970873916282001,0.970811071751869,0.961119017964224,0.961457446753211,0.96211117566965,0.962842398284496,0.963428760904275,0.970782077718179,0.974625304721703,0.979382607209816,0.979600820476597,0.980677931422228,0.98433520393114,0.997699721085599,0.998600790416669,1.00136189288744,1.0022359141557,1.00625732042903,1.00690840812851,1.00674131081161,1.00952662582809,1.01868997731126,1.01781783569026,1.01777905955199,1.01872064336142,1.02511741605867,1.03048341860835,1.0331312960002,1.02927428690333,1.02431177301765,1.01861917531426,1.00186210814511,0.968936454305648,0.969795677041487,0.998893372298014,1.00592512306631,1.01212707736114,1.02391074259271,1.04500681958811,1.06585975829838,1.07755675971694,1.08632058137001,1.10888063415536,1.23475340971408,1.23260882631194,1.23110677072206,1.22944832574574
0.732575401817771,0.801267001850505,0.777803386000868,0.808181976913891,0.808688148836609,0.809113595539242,0.809454379591111,0.809759110167328,0.81059692872954,0.81077910141812,0.810601659344778,0.810215770546315,0.810234201038347,0.811042330560476,0.810332429100854,0.810525867899066,0.728444967146075,0.73534405180607,0.713959590322597,0.711510149556733,0.693028729417697,0.689794733498573,0.690179978622161,0.689913393316048,0.68989779249156,0.6888091209194,0.688708566181216,0.688013340631073,0.686580570388801,0.684986706746341,0.685196811457715,0.704846274233703,0.691728913295525,0.693498450633639,0.685557618371136,0.669253841061611,0.667374916087631,0.645809614243792,0.646127689427807,0.644999741256484,0.643641025333694,0.637121325862296,0.637753992429518,0.637960493788342,0.646444368923323,0.639433000593367,0.652984722641737,0.655649310866999,0.655446797043412,0.65529871782104,0.742939945825944,0.80025589366157,0.801177551594074,0.801120237264948,0.801454545749711,0.800215252702035,0.8025692157512,0.963951329706808,0.963761184523207,0.964081239264723,0.964123118816786,0.964499791623056,0.828212337134158,0.830101996288817,0.82232235919451,0.818772925129485,0.814557727697227,0.797005297187995,0.797019961582455,0.79733460360977,0.837452501848618,0.850811608330238,0.850647042486087,0.850625611833069,0.863511731284184,0.863054139332033,0.861090071670857,0.855313547291582,0.859364104618274,0.859989276335684,0.859762038333632,0.96100400009561,0.900389275792043,0.907097077292704,0.905982030015008,0.906986527542632,0.910219249189314,0.91142859683782,0.914694934935796,0.925090367270158,0.922317229707791,0.922153752074825,0.921534526922781,0.913186492932445,0.936782507915175,0.944375264964421,0.946301022266691,0.947984516721192,0.935904266080423,0.913079858635932,0.933285344615582,0.935589788485724,0.93594642798576,0.936826539573777,0.93118252083116,0.920143855034897,0.922427236726287,0.912225416900423,0.941153047000384,0.944525282063529,0.944981634282627,0.947162121989427,0.956438091548814,0.966229951475844,0.965421930215532,0.962194079048261,0.966501137805115,0.974364129043296,0.973377864205587,0.973685500637441,0.972477781270377,1.05509000005552,0.955868041818067,0.94361288252925,0.944187842587969,0.944760352765048,0.947754678142502,0.951231071733232,0.962762153624522,0.980012999607248,0.977133753457466,0.973057772727354,0.982261603618683,0.995846690369962,0.996435891942384,0.994657102815688,0.997041935741002,1.01024215197385,1.00854118158921,1.00864522986981,1.00965362639531,1.02490377616387,0.997462261412813,0.970921364131962,0.96864373346352,0.951329973764872,0.994045296344403,1.04777005001164,1.01631067193874,1.0027909700171,1.00842059854365,1.014519177444,0.969245414575836,0.97167254194451,0.970820501774667,0.823069605366844,0.829762906959741,0.832871981779976,0.956497943183857,1.04963084635369,1.04963460323545,1.04963888144047,1.09689260065651,1.23659591011073,1.23026924201075,1.22774053444142,1.22685184189404
0.690764414712773,0.722222783752743,0.768854220197334,0.806783946942368,0.807125091162372,0.807262910950268,0.807615045699576,0.809080942219995,0.809901643877748,0.809966394430841,0.809819442939084,0.809591755228487,0.809466198127079,0.809545022443478,0.809443230637902,0.809336738355441,0.725811749540713,0.724610704325291,0.712086187073925,0.711131008204087,0.689762116249717,0.689033116762156,0.688186766177274,0.688045344173213,0.688117007961181,0.687861762427402,0.687948701555882,0.688482251942592,0.686414625908241,0.684974081021209,0.684119667958974,0.682303139597838,0.678790858651131,0.675775757557542,0.6732982428459,0.671191695229674,0.665759441208303,0.647448127977123,0.64712013891236,0.645850261576486,0.641886964999258,0.637860259679773,0.638238100709948,0.638473085353085,0.680538318319223,0.695261665295832,0.711352992199162,0.730263230154486,0.745769647310578,0.761574908826502,0.777490563044874,0.801353000240699,0.801610066141493,0.802043666206756,0.802958247960731,0.802656741668271,0.802986332315546,0.963097512432852,0.963215564166888,0.963374351742427,0.963752765921549,0.964082280568387,0.825155758109975,0.824876547783302,0.823225213915124,0.820696320287402,0.812847894895415,0.79714440410736,0.79709179273021,0.797159828536204,0.836451238948345,0.852661685187393,0.855187695446832,0.859277328961687,0.862370764049326,0.863774354441387,0.862994217966347,0.861763270710025,0.860683448124192,0.859797547897807,0.858751159684632,0.87744000809573,0.895437756966138,0.909446414752106,0.90885434943096,0.909234874952015,0.90999537010129,0.91037911169307,0.912440152371131,0.915861046569871,0.920091205639708,0.922855541810401,0.920634947732558,0.917559417603336,0.926990750799927,0.930146038635259,0.929055119190584,0.928481019936187,0.92772561036731,0.928619878312203,0.931111236091247,0.932402601849501,0.930137603340237,0.928473665129699,0.924968842904315,0.922842071068031,0.92428530498146,0.928339274543342,0.937215406672256,0.940709379640802,0.943205943779928,0.951668587820886,0.954740398883428,0.955826612165898,0.955676647626979,0.955636810565233,0.955811843903198,0.955835705342071,0.955535539413734,0.954950099640253,0.954081653812183,0.952631030485497,0.95073849418074,0.947153639814557,0.943875873449839,0.945418174179521,0.947382598650681,0.949155328599068,0.960355391420397,0.966087781660228,0.975623495790553,0.974594374985509,0.980604160416197,0.982872240136404,0.986917853266819,0.990837962000233,0.992898250917201,1.00318606996211,0.997370105124732,0.99391392833892,0.990688541397973,0.987967070436873,0.985036971690517,0.977153434896915,0.966457736517392,0.965516569191788,0.965359144926477,0.965499452134615,0.965239256785073,0.964886582368196,0.96497974496312,0.965993161771915,0.968167004041024,0.969963171401395,0.971270510036669,0.8249358470153,0.826606653086072,0.829760700517458,0.913313581980259,0.954101312128482,0.99496850577235,1.03961321694352,1.06482868963879,1.10521771966478,1.14570852221252,1.21527100983121,1.21743298083916
0.615283730744408,0.00334113000000385,0.758738380408748,0.804994288996045,0.805772468149938,0.805091591191641,0.804682162503695,0.964340000000004,0.810026616333829,0.809383290724041,0.809171335722702,0.808875241479879,0.808521822548286,0.808237609852185,0.808576612339046,0.808053463263741,0.724612414809603,0.723568682248759,0.711003582565311,0.709794763159465,0.686998239972626,0.682351699339876,0.685253824536194,0.685865640634161,0.686547445214811,0.686299649453487,0.686205514366325,0.698744023461883,0.685405747479349,0.68427216401831,0.684180396121729,0.684269348820886,0.675978946498844,0.636387982683751,0.673229753848296,0.695497069796259,0.664787854965252,0.648816247883909,0.648455782819892,0.648868555091723,0.639962043718131,0.63414778663609,0.638808549568107,0.639238126671801,0.70198096760232,0.720922982444481,0.730934348044921,0.74146301384625,0.775280510003738,0.802445231472126,0.803876719830982,0.811686957788858,0.810074522578629,0.810374086877015,0.805490163556823,0.80444519484678,0.803691760261372,0.962092413823577,0.962583689192991,0.962407669177048,0.963385623498445,0.963960875700605,0.822338305542392,0.821207910506885,0.825373786541391,0.831562392271457,0.810971148469819,0.797471702789082,0.797207095261715,0.797190536773757,0.83526351008664,0.859562388654066,0.858699107433036,0.862188460121991,0.862898455526739,0.866634258641245,0.865338127460667,0.881564143153125,0.861917194512426,0.85026413213262,0.857492515421599,0.853845384194099,0.889984388860325,0.912396817928456,0.910772724279267,0.911039216234747,0.910075685511748,0.907783849484375,0.909272473420608,0.908247094343127,0.916667609760889,0.928593950041093,0.92022889998233,0.918435230515324,0.925185606008106,0.934729145135591,0.928284657403065,0.924965442712822,0.926109622617548,0.9268957222503,0.930169712806714,0.932301600264827,0.926995943811788,0.921567374922587,0.922506152156575,0.921502048840408,0.923355165092672,0.932672943757181,0.93290538927897,0.928292776131611,0.939087244991598,0.952975341573319,0.955011274850959,0.957197338914472,0.954002825163997,0.934438595452276,0.939675620668739,0.928693520463576,0.93603230944391,0.935963850921414,0.941506785502899,0.9524844483993,0.95112505918229,0.949499200742964,0.938301393182696,0.936216946495717,0.934411785132013,0.932090482230339,0.933199722353879,0.93225209659855,0.974581884614728,0.975029896834873,0.977396401077155,0.980353148744219,0.981630656305887,0.981004962608274,0.989850125191565,1.00896990876104,0.994865066777628,0.975540367627014,0.97526572449452,0.976633221814269,0.981655831197234,0.983022561951578,0.965460722406456,0.964622690658079,0.964727250674632,0.948193407746702,0.959063520843891,0.954889496830351,0.958722396145556,0.955061197256033,0.968595990384514,0.994480339929872,0.974606334414376,0.819292177501591,0.821899551008237,0.819747391237267,0.819436783551721,0.819392302901162,0.954966256454415,1.02790285935999,1.02859451421105,1.02928686772593,1.08199897370333,1.21341588676218,1.21207437482879
0.611878652435274,0.659982658457891,0.748709317085636,0.790730635105691,0.793970091030795,0.79747030993318,0.801172308647068,0.811540201395907,0.810724011639133,0.809604009750155,0.808572537233835,0.807872324126523,0.80748327934889,0.807596085086572,0.772987331813676,0.748744654176844,0.715673700168422,0.711666268699629,0.70726348040386,0.699927870391129,0.684769878624262,0.682959506239351,0.684565416073852,0.685465545832993,0.685918081286706,0.685691261829406,0.684308739869414,0.681563300398498,0.679281136260775,0.676841344819029,0.673976029064379,0.670503801474829,0.666443823178836,0.662064060236959,0.661382241978052,0.661593798190448,0.664846509629273,0.659328127628986,0.654827575186904,0.643683333940566,0.638104681308573,0.634755557947071,0.664600883135612,0.687225347093074,0.734058665858556,0.751054525000954,0.768217666355813,0.7739077432128,0.780666449817274,0.803930632347969,0.805369632134207,0.808256597261305,0.807888137312279,0.807509598665891,0.804245272973741,0.803927324974277,0.803918527787257,0.805097390970144,0.807032890801495,0.809632289599029,0.813009463727755,0.817711860303808,0.820589389775384,0.82246256255688,0.825155269355349,0.825968514709831,0.809394384133471,0.80175187538666,0.8029968786662,0.816108926929012,0.834204331607462,0.859916555291294,0.858363254221527,0.860826128530067,0.862000318089695,0.867176417604908,0.866442717388385,0.865803266221015,0.863249891189819,0.862002553826655,0.860169278488608,0.869763026964046,0.884257155655681,0.886403217865033,0.894711707609008,0.912492162874238,0.911346639826886,0.909386361369773,0.908578031754983,0.911155255253174,0.916005947709912,0.91931793278568,0.921108866491743,0.921961460646357,0.924249476974678,0.925266457347088,0.925558919061328,0.925165690104525,0.92447500189681,0.921895977529489,0.920859761455581,0.919894762234996,0.919606507833488,0.919574628818763,0.92153268625135,0.922404411433719,0.924193334614611,0.926686166340962,0.928419852200804,0.928806477046206,0.93669103865256,0.938343111580534,0.943181726692891,0.950020064661244,0.950819256714662,0.948035300577074,0.944306636924387,0.940555367672776,0.936711659479649,0.934168032897553,0.933080263098936,0.932869542874109,0.933027062095994,0.934013095188584,0.934944947237452,0.934193803653602,0.934942845890937,0.93500638686998,0.935279253690828,0.953356362231485,0.972644237633685,0.97241377646181,0.973593553457613,0.982759111846637,0.982909216833988,0.982158859947898,0.98734659348726,0.998625193402186,0.992291999667477,0.981150790812088,0.973589146585808,0.973764126048272,0.970989610177095,0.968189614806371,0.965418249991539,0.964510263218985,0.963807719691275,0.962037199308949,0.962428065194662,0.964773342725508,0.964798901019967,0.968089551127244,0.969847617779357,0.982687920001766,0.979597044901084,0.91926499354983,0.891727574170781,0.818319495679485,0.819312101466489,0.81987105572516,0.915035500368348,0.943981669345805,0.973004485867986,1.00209622712578,1.03809898722294,1.07414926813128,1.10346616800838
0.61024053255595,0.716596646292667,0.738589066426359,0.787865249144481,0.78894027043317,0.790490565043907,0.796187149851517,0.812138523737474,0.811540863783663,0.838718003786086,0.807572149896205,0.806504215344963,0.805937455018546,0.807046769667684,0.751986698346626,0.706873064671271,0.69597613968539,0.671013254169649,0.670476752045925,0.670038513216911,0.675184776831853,0.680283759918837,0.673936573298148,0.664399879975322,0.676261675536764,0.68632761063861,0.683893987631922,0.681186443690516,0.666684155009376,0.638300423317637,0.639210244404115,0.623926966904223,0.657454122236203,0.65832958643159,0.660635249107093,0.659105162396926,0.668776508037732,0.685688319267989,0.672804012596139,0.631658987181899,0.633923364132559,0.632007351330912,0.671202755745997,0.710691999803587,0.775178145296483,0.994635000062394,0.949937674372071,0.949338207492408,0.944060235753794,1.11103,0.967490331102037,1.00064000006431,0.806019911523253,0.796658323020095,0.800088840101714,0.797278156421859,0.803412438248129,0.804675630284326,0.806273631878809,0.808552541823406,0.811033820677136,0.819130692256199,0.819920080518433,0.842184160819456,0.826000287259828,0.825687236683863,0.808206929628347,0.800799478913381,0.80458612055583,0.826314306145403,0.833477754099537,0.862074401458599,0.850858901030976,0.843688501517321,0.850099624507292,0.868425316664647,0.867537752884457,0.867754844897182,0.863421209726779,0.863026196385851,0.861899319482598,0.879590163070106,0.87887954603917,0.877406075385294,0.886479165831326,0.915009626128874,0.913245974703772,0.945981998666624,0.903765974344818,0.898349077165368,0.896512051476545,0.896758254903166,0.902330319106554,0.928793269538522,0.908730318450457,0.902667858112694,0.90183303132663,0.900645489432835,0.912176205658073,0.919228499188544,0.916503733942624,0.913481116947661,0.91449132553984,0.915600504729532,0.908297061903959,0.894927602830883,0.893884944319155,0.892760137578069,0.911868203578035,0.917897509980907,0.916077502503773,0.918809870192405,0.939316904566004,0.949686195856095,0.951179449364746,0.952960356444241,0.948330938465717,0.952255947085508,0.93675100877968,0.931534198961087,0.932592066415933,0.932416020869648,0.932503597536897,0.931554190358111,0.93284591635888,0.930649421184643,0.936266980763417,0.937890780819715,0.937690180903505,0.99104200235379,0.970571929297967,0.968190125756406,0.970904827532086,0.990754995499205,0.983685374044779,0.981646998968627,0.98465792246877,1.01520010667892,0.989550217503693,0.986613120581667,0.970935407869539,0.961266906203445,0.962093642530327,0.961876225021677,0.963682196817723,0.964121492377501,0.963458471405314,0.959074004574732,0.962992261393668,0.966419850367553,0.967770982349455,0.971603318560095,0.971623980238103,0.986303229604087,0.98260357382083,0.985187667392761,0.921586793419483,0.81604185901988,0.81988496315794,0.821168423292784,0.889484473960043,0.829117999927439,0.867928811877984,0.825116999941839,0.971651700168872,1.04672784552685,1.0520750229239
0.462592171152731,0.716228562479951,0.729225849473813,0.735039836673531,0.741763351393805,0.750041703762137,0.759009615873956,0.767734652163436,0.776353628888772,0.784933046263566,0.793516273464206,0.804587470603506,0.802751677269586,0.800296150057895,0.729309958322236,0.696389858272851,0.691683250878579,0.672330842414542,0.670414774936111,0.66852847356428,0.665220694053569,0.662059682827527,0.659008428141726,0.656002620921007,0.652999540011428,0.649983497285254,0.64693688796883,0.643848928862311,0.640749452820654,0.639136210687291,0.640110040706937,0.641393928684777,0.656898537950703,0.656497637011365,0.663402380001992,0.669236433460374,0.673347569980194,0.682329982300987,0.680819350799038,0.680428783349294,0.680432591530378,0.681047292513569,0.691552885850025,0.770885887681917,0.816255317325809,0.949643369138928,0.949984351448355,0.950068175289839,0.938785686649712,0.935901887013745,0.933338086177477,0.930970572453408,0.804428169629288,0.803202982183413,0.802432518836174,0.801980009399577,0.802870177530118,0.80318619257352,0.80471795557639,0.80781906533181,0.809919330906882,0.810363469943537,0.811039248169054,0.81149779499482,0.81059756905159,0.808599268065263,0.807578704609634,0.806462781359481,0.806642498729356,0.829659668317821,0.832995631247186,0.83507496539278,0.837908989355128,0.841776267390182,0.844487275633369,0.847744253503981,0.851341802023639,0.85497207485235,0.859577226201573,0.861563449510511,0.862838462330505,0.86551999710186,0.86947824473116,0.873515152901858,0.876955109063106,0.88169114892195,0.895320539305634,0.894756203076782,0.894482719839726,0.895728090205546,0.894356431671081,0.894463283384269,0.892207699360618,0.892019162323691,0.891767107727579,0.89332498429096,0.894970181795657,0.896487364947036,0.897549538463844,0.897967468602043,0.897812475274761,0.897264539667744,0.896526390727583,0.89577708225941,0.895142548192436,0.894659172266011,0.89396274725677,0.893366414436658,0.904605838516142,0.911504504165158,0.912106537595995,0.923601169632977,0.934631643152508,0.936934432735488,0.939184786073909,0.942683865844862,0.943494693255062,0.940198994814497,0.937168158457407,0.93435974156842,0.93358042810983,0.933276165637162,0.933121706650739,0.933146737777564,0.934136249663702,0.936732769222524,0.937940068842976,0.938912411185083,0.939904838370318,0.943298599152187,0.946662178666367,0.950235891667223,0.953953053366158,0.957771074155618,0.961664932543311,0.965596335874012,0.969534104552433,0.973493092395675,0.970320680397567,0.968565136386935,0.967451628890114,0.964061806731027,0.963035698798382,0.962721372208401,0.963576190811368,0.965017009230917,0.96789134608751,0.968611014932792,0.969722699089219,0.968149460766042,0.96823659948145,0.971161679283109,0.973301024124315,0.97664782756669,0.979370689888566,0.979718832537378,0.965804562782185,0.954311569727541,0.942274292354691,0.927863441271156,0.912401519779394,0.896827909328072,0.882157123996856,0.869567236296264,0.928604909586906,0.959684794846271,0.991015357551473
0.419339195472406,0.715805063415965,0.718911867551668,0.72185706295726,0.714251235833827,0.707035460649526,0.708401717538545,0.706616865932265,0.741024484308558,0.764130000459413,0.779800545488148,0.859788000053747,0.800337627154795,0.79807834892476,0.70671310109948,0.690889029162984,0.686176895255772,0.675613690441685,0.66121866906735,0.64143564023766,0.642568726382094,0.646411391236897,0.650328404383547,0.654409169920445,0.642205139947794,0.623709263843805,0.63621976232925,0.638915462859535,0.639307943789375,0.637534491606694,0.640541469955776,0.642688695532605,0.656994712608345,0.654490398674233,0.665008876572298,0.68010846217035,0.67817008409519,0.680143617527047,0.680017788004637,0.702176626798664,0.693087894088218,0.682206094489851,0.693944072686329,0.916802000048176,0.857326197031719,0.94884571951321,0.949651493405292,0.983229999121503,0.936610764211809,0.930242047831482,0.92954963099944,0.928724693670585,0.804329640981771,0.804235561680503,0.804227125347862,0.805612857241919,0.802945837129099,0.800525322686225,0.801327522670103,0.799085046120646,0.8003872679721,0.799679576152648,0.81199199809275,0.813616110041768,0.812629537699141,0.805096562836397,0.807538701411363,0.805494550920001,0.809553217109922,0.85676207506562,0.833976803239714,0.834818933563061,0.833765901465162,0.83362421124975,0.831692388754221,0.832225505766541,0.845297412570919,0.85382211648742,0.858096185002976,0.86063817386897,0.862315230737068,0.863323268280597,0.863024259489588,0.864690268891018,0.874189927513033,0.874118997036327,0.895470304357556,0.894303768319471,0.893001211296768,0.888896365594179,0.890731254455571,0.887762701481436,0.890083118023174,0.890215103500866,0.889986764608839,0.878644157492991,0.880262480350017,0.877801436964506,0.879387880172493,0.865503895868551,0.868157983987684,0.870830152287204,0.868337602505588,0.867868085259146,0.867032209962277,0.867871169480045,0.885306502750534,0.887031973130614,0.88976427795846,0.871339921803814,0.907366259955764,0.9284690655133,0.930886758123912,0.930235579556986,0.934425908423215,0.946196078629048,0.943186428775775,0.94011110317281,0.937549366556979,0.935397782304927,0.934197801912803,0.934099276747925,0.933628210239731,0.933669266635348,0.933808695036606,0.943807626405025,0.940264976782333,0.940043727668346,0.940634220144729,0.942473288371555,0.940073377642238,0.936695424736519,0.951692138075923,0.95405524744363,0.953109490893223,0.953999162585034,0.967305962023128,0.980678804674369,0.968935199041354,0.967683402201082,0.959770476368303,0.949392201317229,0.954214394047897,0.987204451853138,0.976335964183561,0.992063140636259,0.973422312334259,0.981239017911107,0.973977313037019,1.01729999942607,0.96562921467743,0.956075551039169,0.957139973979253,0.955690087558603,0.978005317212512,0.979428988689857,0.979375924240338,1.01788007309025,1.00063107806362,1.00074909215887,0.999176116141681,0.998292258243122,0.935202341131477,0.830181999925513,0.892034458931132,0.824595967025545,0.836203167499042
0.376083599388579,0.419565746030437,0.462830749687467,0.628765248434879,0.663755893434191,0.71065500173185,0.711436405465313,0.713001101544499,0.716358927642461,0.717870343531905,0.702949085873466,0.697082380773651,0.692040490096824,0.687624449340459,0.683535476859913,0.67950881654189,0.670994529588763,0.664530352602724,0.659472974467852,0.639505192914836,0.638078916123835,0.635440339524056,0.633865742333129,0.633429564283474,0.631318683626066,0.629438109384232,0.633102817317711,0.639363215999135,0.640424164288413,0.643391309020306,0.647529990782831,0.648550531719861,0.659597996462697,0.662509036324927,0.666194109438826,0.679891796864729,0.679070892285189,0.67920680289561,0.679157010308904,0.70541219423686,0.708261197644062,0.710611978913345,0.71148163737179,0.78986280628068,0.833964688058316,0.943701323417945,0.938897148880532,0.936546399526438,0.934479816181064,0.932158607758463,0.888245368255282,0.86321250985128,0.80441059480777,0.804634552134799,0.804698405997383,0.804526172536348,0.802887480038928,0.80080981410395,0.800863300728822,0.80053452166766,0.801998058166866,0.803121201931453,0.812059850833175,0.814103091929806,0.814051535664866,0.814456608911131,0.812430336609529,0.812966382530904,0.813046268100444,0.822665776433095,0.823275954440275,0.825254513240362,0.826503709693389,0.828968901749385,0.829400324430323,0.830648923170685,0.837946548297199,0.84085189349383,0.844683499528688,0.848924863487937,0.853124123197387,0.857123864895726,0.860990667454903,0.862889988103668,0.874138033192232,0.883046017073419,0.896337727173686,0.895561250867405,0.894300784053975,0.892793838758054,0.892009407396837,0.890962293497736,0.890129192586269,0.889437295884318,0.888069653028923,0.88497346973452,0.882328076278264,0.879853461003945,0.880317459921628,0.867184721887506,0.867988225180097,0.868404743394367,0.866203611235991,0.866583205489245,0.865314861484303,0.866644578024203,0.883274756147641,0.885358570731922,0.892246873980831,0.893363260585337,0.904010776908132,0.917546823153923,0.929849269008172,0.93115403049609,0.928820595276833,0.930752236798397,0.932394315602896,0.933273737310819,0.933524878102313,0.933591170823404,0.933805971579607,0.93382158431813,0.933793194027057,0.93383333222947,0.934147533682661,0.936520906211476,0.938646619894422,0.939780377082731,0.939959165304986,0.941170585192426,0.940929839631447,0.940317438357003,0.950190466645007,0.951785912811538,0.951376008366369,0.951078751097579,0.950229817664428,0.949445173924201,0.948906379903942,0.948756901137276,0.949079792757255,0.949920971930647,0.951606241162472,0.953699547844233,0.955946620136151,0.958075512900638,0.959932796527981,0.961571622668452,0.961726005975098,0.96230214104927,0.962745378446563,0.960483023379576,0.960126386077255,0.961355411484944,0.974533563117277,0.979108207244298,0.979129008375568,1.00145897444901,1.00084614199447,1.00002828259865,0.998947769416822,0.99830264547054,0.960341309004737,0.940027428563442,0.917186726017593,0.843800313552043,0.842281620776864
0.312669060542616,0.337916999551744,0.418818480824383,0.597972999962987,0.628765248434883,0.713322684875054,0.713419817933223,0.717206757197624,0.717558645674634,0.718601589629742,0.669983534995625,0.00325802000000385,0.66572497087812,0.674853192591421,0.674634485991721,0.674470394880056,0.647446198148553,0.609835481459014,0.607517597408964,0.60579944643348,0.605411700723367,0.605222100639196,0.618774067235606,0.635769970610816,0.627110528795095,0.617140376604376,0.62254347903418,0.667417428948202,0.65564885625676,0.655921114609493,0.652092625024862,0.650153665295279,0.661837047668211,0.670608611752548,0.667789769758214,0.680535362571298,0.679023101520552,0.678479116360023,0.678256788357897,0.721916006831142,0.71114689875796,0.711916470315262,0.712192223706615,0.713372952571429,0.816252186034136,0.971155001693675,0.934374173818967,0.93164102843158,0.932624051023497,0.9316401452283,0.862254082224043,0.792285801646742,0.803982950982721,0.8051204376201,0.805182951458715,0.804915078187103,0.80308147443772,0.798942138748747,0.800515869726568,0.799772122462081,0.803026196854028,0.807264942927967,0.809984891144884,0.817083501652465,0.815690232721114,0.81694710506878,0.81484922265703,0.813596620076874,0.816925850142182,0.821685362464443,0.82143944450022,0.820558415124526,0.823798173916369,0.82609486443661,0.826320301408331,0.82636781267064,0.835830775298989,0.835965482973168,0.834698313922391,0.830143225936974,0.839420934832163,0.838628422087625,0.860689975790985,0.85431589579214,0.873982822253521,0.898248878131759,0.897346995464577,0.897085075405282,0.895829268856609,0.89603029645029,0.893718732069661,0.959725999401193,0.9348327587631,0.958646000216181,0.933891175735189,0.949321096922912,0.891980443972614,0.880968750027622,0.880971279502304,0.867947222349784,0.868037150718182,0.8588216930122,0.861293296278034,0.858773810642961,0.860869454354465,0.858497615026737,0.878888779571695,0.874389909520602,0.89336329887054,0.894381517695968,0.900500324824694,0.881806901125991,0.927125768234111,0.936101179459468,0.92520716297618,0.919845590705814,0.919324334841269,0.919940036529299,0.91633832391495,0.907191897875712,0.910352084020252,0.912678106783305,0.923113018582481,0.949561838969075,0.927678387607438,0.921474925822547,0.937673426310918,0.95102681757399,0.938137789308602,0.93199542883102,0.942280252305266,0.943992452063136,0.947062470010486,0.951743864636608,0.949784436881721,0.948751922102711,0.946175253477379,0.935802379711373,0.93550883732495,0.935304705224607,0.93539266534514,0.93626930152573,0.943743046234558,0.948152328230696,0.946468798723406,0.946695013814882,0.959939983054877,0.96295178828712,0.961353582814709,0.962401595001157,0.962561851403801,0.963250694222874,0.962078102578803,0.963549779607866,0.970983098338257,0.978295148637697,0.978748452660431,1.00222752802393,1.00154240579334,1.02288340458616,1.01364513663177,1.00932377322528,1.01549661087531,1.02945644722081,0.952506354037348,0.846270926803701,0.842755844200286
0.294625923174801,0.312855991310895,0.37104795609116,0.408711290863037,0.446260780511231,0.483851437467263,0.521670124804467,0.559810124902653,0.598237476373141,0.655615439325088,0.654939750555861,0.65330190418575,0.649223762086669,0.647007935780693,0.632994268403777,0.625724582249685,0.620313712417804,0.612006061923133,0.606784052550688,0.605370752454708,0.605345060575817,0.606684694845176,0.609536644454673,0.612192533854656,0.614389513826833,0.615933448152219,0.619185278989324,0.653456294731978,0.654894996268849,0.656831244721775,0.660013792212473,0.661668746604879,0.663799653915769,0.666566427449313,0.667304803757293,0.670889217342619,0.674464086602365,0.676767989850374,0.677491547125698,0.711480256074726,0.711335456909396,0.711547425538698,0.711991350564045,0.717434138459926,0.789228630579514,0.798516656284659,0.805867120736779,0.805916680467995,0.80513400313492,0.804104570582264,0.804115369868285,0.797785187595353,0.802308895409361,0.804300809758751,0.805989721600941,0.806744291594989,0.805554344141418,0.80385489226494,0.802427777527612,0.801387593914378,0.80291238998647,0.803695064235668,0.811308821803183,0.813424876951176,0.814839669645732,0.816114451174309,0.816432464714148,0.817931021323633,0.819378631839343,0.819497854917863,0.819986721908614,0.820226933244537,0.821676490209268,0.822664120801432,0.823576976672488,0.824949992257318,0.834330423637446,0.834176473557985,0.835051411843512,0.837120950247199,0.83923828397307,0.839470202472259,0.866177493828392,0.868570007950318,0.8737592141591,0.875069087182489,0.877064846431792,0.881603606133843,0.886616986712183,0.890948138282689,0.893142377680476,0.8988951466559,0.904150915680022,0.903778429605109,0.902686488608733,0.901087517190394,0.897531319419037,0.894899014749826,0.893399329174268,0.892579445656513,0.891694698650627,0.890726693619884,0.894991041194443,0.898001487172022,0.901031135066803,0.904124264487178,0.907049024358279,0.909512100844794,0.911400352432275,0.912786189004454,0.916338770089691,0.918594581248216,0.924409234683958,0.92295900324273,0.922505679177809,0.919080984702305,0.918222168942619,0.916676348922482,0.912566199178911,0.908981696701,0.909520121937399,0.910343842129229,0.910090289164636,0.911705704477293,0.914365645731714,0.91765206373962,0.93585358425458,0.935163221869313,0.937436601266905,0.938542661067892,0.941589712664342,0.943646461652544,0.94570128457971,0.946523905780272,0.947145862882686,0.945738065279297,0.943440522539402,0.936783378723882,0.935319959453374,0.934676254221565,0.934685977309881,0.93545087273273,0.939107147938569,0.94172261391743,0.944513968410324,0.945552925931143,0.956642579063679,0.955957150806134,0.958308252723159,0.960856659991246,0.961768474106215,0.961917734766324,0.961731385588675,0.961855881552073,0.967657957902069,0.978354904545036,0.978517456421725,0.984943512528003,0.98917304323539,1.02001837916906,1.01781317609124,1.01870903422307,1.01963920639838,1.02722348248459,1.02586125941928,1.0259751562855,1.02549651851485
0.264974506733491,0.261455261787167,0.332758052321862,0.366743822664154,0.370203192390943,0.373662212168267,0.383061701589598,0.405494999072578,0.506060564825128,0.655922007109016,0.655503265342542,0.655384233904473,0.647005205417897,0.644498923409825,0.63202621869486,0.618202991303331,0.617284925145737,0.616494234999175,0.605325440853165,0.60344663058886,0.601563958542945,0.597973727964071,0.594149374023101,0.589639853365153,0.599976727237105,0.603940152681606,0.610074276821285,0.651748899626375,0.653456277053854,0.665854071457802,0.662671963890463,0.668849053709537,0.665603726188505,0.665054545704048,0.664508419724646,0.657328082727627,0.659140009301989,0.646371231011322,0.668301895954977,0.712587922543018,0.701998790637076,0.690759751051414,0.712322254239286,0.721549424835402,0.781065346304163,0.792597434075032,0.805698322651259,0.806670837959447,0.805539572860184,0.803700372647771,0.804929223094181,0.795808182038097,0.802972774386863,0.803845056994259,0.807500151369061,0.810739420129695,0.808457286964369,0.806821982465914,0.803828024519609,0.800169981969313,0.802850229409547,0.800600686786325,0.810481496132832,0.810557663374085,0.823286071649737,0.834567076294637,0.830560464456083,0.827023017496665,0.823153445101154,0.816928697545511,0.818504048249365,0.81850665126515,0.819832949901085,0.819279212930236,0.820389641778688,0.818365450294903,0.833198916611785,0.831985101774731,0.846687406920182,0.855931986325254,0.847778809797065,0.832734664756714,0.867998528533235,0.869837287115732,0.871919487746791,0.845977934396894,0.871460220295513,0.868273913963725,0.881206890760178,0.850174998250697,0.894520905202807,0.892666697130295,0.904481103589689,0.904619676290007,0.903594076591964,0.903728660467442,0.929503630213676,0.98042901725791,0.950226446586308,0.948608470201338,0.894897731931065,0.885041743790542,0.895818508103529,0.95754200006983,0.914414647604982,0.916350553151616,0.918890666329455,0.920593451666674,0.917598425113362,0.910567851739273,0.918094825087893,0.921231936969496,0.923147688643743,0.922195299528176,0.923130835246684,0.913425408047322,0.917421317550858,0.905137010195605,0.908074533421724,0.906607067713215,0.908459170114995,0.909282763715027,0.909056651659824,0.907998716134667,0.911157937657952,0.907500457478733,0.934214245113937,0.932293937146074,0.937965003807621,0.943597860973768,0.942226155832764,0.912368911102887,0.929847472965447,0.916475402460562,0.946211940639517,0.943445310755728,0.943502150471459,0.933730015839118,0.934186763349953,0.933402652630311,0.933260489690079,0.931761850977248,0.935481749682806,0.925839071803816,0.932020412585573,0.925867506628148,0.953350903199039,0.951349281752634,0.9549474483076,0.940762919348529,0.961564005524699,0.960798966283458,0.961023679651966,0.959415300355983,0.966268229248405,0.977914329136654,0.977980880507161,0.979975172895968,0.985216260176562,1.01933036938596,1.01863317583134,1.02595177107221,1.021093079378,1.04017114786112,1.02538977912258,1.02665479094383,1.0254807585265
0.264563453917679,0.26212477358391,0.297785398755969,0.316872625522271,0.336455924543348,0.358626977837433,0.368060300218602,0.377145058971926,0.461635614657424,0.508677459232006,0.515479149404849,0.522734120697234,0.530640433457583,0.539137505128222,0.546553352007853,0.554983595787331,0.563884541325256,0.571370596729672,0.578121662622638,0.594972002489659,0.595294941566096,0.595162713859638,0.594581171820598,0.594019372797016,0.597838347233828,0.599976656257842,0.605238139222662,0.62644425141898,0.638612734317279,0.659823337724555,0.661019938348346,0.666517008567599,0.665071751310655,0.664310009065894,0.662950760678409,0.660144491944857,0.660164199439763,0.660263684575079,0.664935145243384,0.678572277670522,0.694106384491647,0.705225517474632,0.712220546673512,0.715844178571839,0.760057462093672,0.796015336187358,0.804717990625188,0.806527861285036,0.806798887421926,0.806943873276753,0.807242182601351,0.808040487654203,0.806554022303551,0.806171119267793,0.809270873526184,0.810335304969036,0.810538317298248,0.807976541657453,0.805856236100318,0.804072621544362,0.807319202672836,0.810506047988101,0.818243095771134,0.824687851384776,0.828242654725836,0.834623995244943,0.835583814179765,0.837884641560448,0.837919172084612,0.837687071135717,0.837184365610009,0.836657315720563,0.836452013294662,0.836892111036148,0.838197454274356,0.840449443165785,0.843595544832774,0.847473962213501,0.851832272438238,0.856328441762164,0.860570919347131,0.864195647129727,0.866962383336797,0.868167382900101,0.871971880476515,0.873863426927232,0.874225455084315,0.875681686972668,0.885476903219525,0.89041621740913,0.89764482065853,0.898270251808992,0.904488106169874,0.9069437599366,0.910450058352915,0.934225256101643,0.947398697056175,0.973871213200151,0.952781203214182,0.95022644352689,0.900890314717797,0.898234850348599,0.898929025502421,0.906911335639667,0.913210559241369,0.916858024762947,0.919992634988141,0.921288538439907,0.92143829161793,0.923557743897323,0.924103542674094,0.923440875784594,0.924440478517171,0.923803627932016,0.924589871622924,0.923617898898106,0.920345019982764,0.916776234522413,0.917756198220006,0.918924983389882,0.920517542552733,0.922250050929723,0.924039760425109,0.926051064428316,0.928457730316708,0.931283719326659,0.934319534973042,0.93488849489412,0.936978778118944,0.939222453506278,0.941718038077452,0.94113338757128,0.93995764819532,0.93806534691974,0.947226297930294,0.945875225930751,0.943342806250946,0.940262177770956,0.937336266167518,0.935022976159847,0.93369423076881,0.933630317885226,0.934968237559892,0.937623292632201,0.941307943755444,0.945693164699637,0.950713733070711,0.953918651988202,0.957151934245431,0.959851626862496,0.962008074621085,0.961879835590161,0.962158409515815,0.96279284810988,0.965894671153526,0.970505008765729,0.975322714418662,0.97757148655478,0.981882095535663,0.993905868140755,1.00968864052976,1.01200511709686,1.01710901275981,1.02477651529059,1.02414452684383,1.02408867913727,1.0240616187708
0.26278255052669,0.260480425876936,0.277724576420779,0.279858666329958,0.286511800608013,0.2972449194969,0.346250717627951,0.369407000037418,0.418452441788595,0.500760082388916,0.496718121647945,0.49266787025572,0.495982898600363,0.499287419586006,0.504286675122836,0.512806706404453,0.531211444253206,0.530555053442949,0.571583091309646,0.594286041149461,0.583093330176694,0.57056456487719,0.569253205944053,0.568368148264875,0.582502616647602,0.580372231872233,0.584417943417462,0.581027360685005,0.625054320068975,0.657230710837048,0.659675430910872,0.726254000108439,0.664731871289894,0.664813183419856,0.663203266694057,0.644137015425379,0.660356666224675,0.659654229113761,0.660368300684719,0.660371410007113,0.686300606417284,0.711858519762733,0.711459518579386,0.709993024807421,0.738607694412118,0.799253355265027,0.801816222308163,0.808135118934503,0.80837604991895,0.810252530551626,0.809242363854555,0.810326810208422,0.808852652720121,0.804944674357582,0.815300904156751,0.822183602689338,0.81554288727383,0.808487590769506,0.807245166132861,0.787523061009851,0.810510707744189,0.81382720728261,0.822870565961702,0.830064721709098,0.83506723684972,0.845455318451186,0.843050218113461,0.8404143999151,0.865480586618321,1.02207000001825,0.959376292604629,0.980401007801278,0.960322689930243,0.998892000035453,0.901778658266528,0.888437779536142,0.885980976186775,0.883541716421642,0.896211589530738,0.905225775430189,0.886897222317144,0.889261090486469,0.875814191037903,0.863431321669501,0.873649586855935,0.875109672727882,0.875471931378293,0.876867387822847,0.891756867166704,0.900410378539944,0.900279360868427,0.901322856730751,0.904621985973295,0.928796332497911,0.922069940145775,0.984812000299127,0.962289775260274,0.981798025135314,0.958969017622539,0.965990278118987,0.9034040158877,0.894697476081948,0.898691682965408,0.900437760449903,0.910988006925628,0.926543786480762,0.923261433098932,0.923146824597305,0.922869631871447,0.924548848903891,0.927216522140018,0.930264249669144,0.928871312947277,0.930382255185073,0.927407320226643,0.926193435719114,0.923331397079874,0.912297942496799,0.923011211711571,0.937736530280835,0.937868008640585,0.941877244408918,0.940474639879315,0.940480386075318,0.940764680417922,0.94181561642485,0.937605011434298,0.936035971620468,0.93579223249704,0.934342383160678,0.944486466991312,0.947961642542437,0.939564956059021,0.935466511243236,0.9512537859685,1.02919431807631,1.02991174048841,1.14967,1.03410120253312,1.03466420832894,1.0349727699005,1.03534608353619,1.02518956990269,1.01872550981945,1.01927176047866,1.01949701692432,1.02141057219225,1.02168642906081,0.995375817761912,0.971618933832642,0.967200206442667,0.950115644858957,0.962970743810238,0.963787182510419,0.964321580497716,0.950347893942627,0.964474175030787,0.965061392661638,0.965775924568009,0.966109135118313,0.999440352473807,1.00261378541934,1.01353626332489,1.02535849802538,1.02241132914418,1.02161583636322,1.02273316549367
0.263545086912226,0.263385120012197,0.275300403088869,0.277774727656177,0.28087887376688,0.286982053882176,0.323151892807077,0.346813306666798,0.373059731730234,0.404038500606127,0.434942480940734,0.482295596744873,0.489316993308306,0.496275487588169,0.500110515547473,0.521085242463044,0.531527895856133,0.530642812901636,0.55829683650231,0.572147477268331,0.57107348687354,0.570121427520409,0.568892394901389,0.577906996426779,0.584550243384802,0.586248342106351,0.587336542311926,0.591450491260439,0.608706165127817,0.61864832045843,0.628115029801269,0.637525882441013,0.647544380033311,0.663420757196759,0.662271700443771,0.661259027741414,0.660631720399491,0.66022245109037,0.660588201441943,0.661923909712504,0.68132950058216,0.682297938163541,0.689369027979286,0.698079990537506,0.724199714183009,0.749608413039032,0.76180638130951,0.776278139299614,0.792153865478319,0.808208925447404,0.808919752174386,0.811191382539843,0.813219444206536,0.816943799260505,0.818822356220824,0.822400676310673,0.825927043799813,0.829321638783391,0.832540002058408,0.83569851036239,0.838754870820483,0.841278835740914,0.844155608554039,0.846253440973814,0.847455533923311,0.847205397197509,0.856655707038757,0.877004155155993,0.890395062139481,0.933539004344117,0.941655945448873,0.947822029467061,0.941125976634209,0.935607780196272,0.915327342819138,0.913814369484522,0.912207729345721,0.91020785287868,0.907575951284386,0.905467209870638,0.885187035618591,0.886530990015117,0.885538785932346,0.885560026171415,0.886148207139479,0.888262276350216,0.890603619452935,0.893239336599256,0.896190637963513,0.899454994878807,0.901981442768133,0.903034046132943,0.904947572696102,0.915146369386384,0.91752141636952,0.918555847284091,0.919466789709435,0.920976093464891,0.921330782074892,0.921889182255946,0.905996747933495,0.906201046263962,0.905579394462541,0.9054776594344,0.909027061862989,0.91176786890691,0.91630109415416,0.919846311083438,0.921901622704314,0.926060552068185,0.927347280932971,0.928689106071956,0.928658902777404,0.928964944250665,0.928210175319893,0.928697520607061,0.93181713738779,0.934048690904739,0.934981159695067,0.936266460293032,0.936924413387336,0.938462484308506,0.939319196039043,0.939895252860034,0.940325044270276,0.940772564292072,0.940616941184348,0.940929875165509,0.9415974917053,0.94254415629008,0.94369172784461,0.944476719058666,0.942628481035981,0.943003802719303,0.953205907829623,1.02991174047896,1.03089634706175,1.03214370374599,1.0337484126337,1.03485950712416,1.03511881451281,1.03499796563369,1.03285521516542,1.02865907484837,1.02606620872605,1.0243670020262,1.02281646513261,1.02243255276601,1.01487950039862,1.01008645829495,1.00288261932308,0.992830366603321,0.982409000168248,0.972308342091211,0.963326673325177,0.962978205783666,0.963711578071333,0.964955963324533,0.965818340658039,0.966194848208532,0.997286025219372,1.00074938579592,1.0102217066971,1.01566954603581,1.01852961818828,1.02087319357499,1.02229280839161
0.264800001321743,0.266333022421408,0.270057889120411,0.269364988746369,0.273136466148679,0.278206726396641,0.275775597456063,0.275787574241415,0.274625972081677,0.274270124907428,0.391337466195901,0.473855894359339,0.471823345941804,0.469781223972212,0.490803391894385,0.535720398275614,0.53235466173419,0.529607580227112,0.544972286789392,0.573466191803884,0.571218690272747,0.546188885056114,0.56748318531627,0.614541120218762,0.614655581222024,0.617712906596067,0.594736539604358,0.595179704888065,0.594074613591395,0.592723489999361,0.592832029784379,0.5918807662666,0.633641840003532,0.674727892757394,0.661457936370516,0.660811087833466,0.660398176180133,0.659534930718176,0.659481490221137,0.664480651526107,0.670743530933792,0.675790196901347,0.683168966854507,0.690288088555472,0.709620779478423,0.742696996762186,0.720753618478116,0.702246655446278,0.765221909849307,0.805193513447688,0.806629049421739,0.819396716866696,0.815639371660792,0.818568670022419,0.820585074454745,0.840870204133481,0.839796042698088,0.839187041246244,0.839138089188666,0.838902233576884,0.839576516972919,0.840502957316286,0.844616188280126,0.848642511574466,0.848260200640696,0.84833763868629,0.86338435051998,0.917244700044515,0.918628011202729,0.917617495705038,0.936917053974873,0.962113760675097,0.936017756989041,0.923746738197997,0.916975738289304,0.920778366943462,0.917064015361783,0.969594000166214,0.906380901579802,0.903205201328797,0.882885219821281,0.856673981608133,0.884401968137727,0.885056506486025,0.884719170452655,0.90605377907868,0.908856264640451,0.948049999921851,0.917716563735566,0.919714507618739,0.905351309001783,0.904114847301161,0.907543317551041,0.912473038147013,0.914641491787287,0.914110790497021,0.91858966933773,0.921860770108896,0.920957925284738,0.922163805170958,0.908450028475049,0.907302583328452,0.906834142319559,0.90694146333405,0.907479513365497,0.909048539112158,0.906345157989349,0.891899256167035,0.907694046366893,0.970167005763637,0.945108295278977,1.03221000005924,0.950754286625007,0.981769002225553,0.941488053474793,0.954460828908182,0.932467998135272,0.934945068804355,0.934083655968094,0.935068282881344,0.934840574195078,0.935813832342997,0.938989671900916,0.963281551974957,0.960441925167824,0.958263850972542,0.960908654598701,0.97302428267727,0.970318833785685,0.972200126058681,0.950705641837028,0.943173008325206,0.943024480906049,0.943079496859009,0.95422975180123,1.11943000002515,1.0319155468259,1.03204390085825,1.03412290749843,1.03611141950427,1.03608709375444,1.03733542273307,1.03546731247367,1.04734121678315,1.04149207773809,1.06394000044458,1.04319150629965,1.06467000004267,1.03888994170349,1.0372488805639,1.03282903008469,1.03250151364077,1.02875122987262,1.0301698261441,0.962736025437128,0.961374569434161,0.962295222947349,0.945726613618426,0.951273396911396,0.945554099652158,0.996121961938644,0.999281393190702,1.00704621027447,1.0125341044115,1.01513033964945,1.02099922519424,1.02091835077082
0.274855917094633,0.27019789813925,0.269267894488763,0.268800115366461,0.269854622008082,0.271532523817362,0.273384494943448,0.273847274456832,0.273839951353317,0.273715691932839,0.336625165266742,0.358164008960257,0.379653611660938,0.401135885900341,0.422608632162564,0.44410676572841,0.465720109289605,0.48703865125187,0.513680074103169,0.573237682899844,0.569336630255175,0.566487549726969,0.566279433970079,0.611235502696761,0.613092792624907,0.615543127984172,0.59481119319927,0.595150868317786,0.594498585979129,0.594432133109827,0.593938436124053,0.593792628510093,0.605156591423673,0.613610931657133,0.6243341290579,0.646782811797655,0.65159002979822,0.654794912490658,0.658428058738778,0.661257161750098,0.669503994800479,0.671796884188633,0.681493050474009,0.690406338027975,0.693743001273667,0.696644197890829,0.69898646300851,0.700794605932384,0.739758176757244,0.804629599558728,0.805574145406512,0.808034814612557,0.811469356935976,0.821050676021381,0.823800403166395,0.838812118033009,0.838894101039203,0.838780116826605,0.839111715952946,0.842400867720378,0.84711464662084,0.85147101899029,0.855281383408952,0.859814903952518,0.86466742428836,0.869458922067336,0.874097547072508,0.919048091471603,0.921238455823177,0.922943630029186,0.93006464546734,0.930028807848204,0.928728384686491,0.926241573273688,0.914565188541006,0.91420900317965,0.912957063251541,0.909755129509147,0.907698946500611,0.905792447910463,0.881490236837093,0.881823141462709,0.882694961958679,0.883147633056062,0.88304451018922,0.908856266248922,0.911468724284494,0.914262340763763,0.915444915973384,0.915022121374107,0.909989358523698,0.907863176220931,0.908665690577412,0.911915356593099,0.914297640930204,0.915841045864029,0.918671247172867,0.921128023584405,0.918007334193878,0.915146101008885,0.912021920345759,0.909197552454768,0.907695233316512,0.907286964037754,0.904484701348796,0.904111876764222,0.902981377737795,0.89773035253999,0.902122573517941,0.919709630343244,0.920795414989365,0.921529206518998,0.921787304759802,0.923545337687644,0.926373643495948,0.928619994888884,0.930559429264853,0.930659848029507,0.931107372243854,0.931495074349504,0.931455276460022,0.939837646844674,0.939422563789704,0.961024035636049,0.960227462492642,0.960534142933715,0.963390965065271,0.965606913957773,0.965681791571694,0.963216302077139,0.964062854937858,0.965448676833793,0.967840445131345,0.970890846276161,0.972997863763563,1.03289675084207,1.03304830609298,1.03379879504339,1.0347604866455,1.03578473393179,1.03605537067398,1.03648454551869,1.03706632599816,1.03955372599987,1.04181316508726,1.04378369113531,1.04413216545039,1.04303344062705,1.04015677458627,1.03795942498339,1.03281742377019,1.03105537482246,1.02776527386895,1.0238712084135,0.963414374602628,0.962935585514214,0.961782573903332,0.960168340822186,0.961696129370449,0.962679348759086,0.992071489100599,0.995644792823594,1.00329312684802,1.00832749850508,1.01276079216211,1.01617248305069,1.01887545042819
0.280886688833157,0.242175950751529,0.268001403594684,0.266902635234221,0.266122466009029,0.261804915387858,0.27239045335132,0.272378978409348,0.2732188910623,0.273100583324228,0.288607176147587,0.301797965146792,0.283666363153642,0.276718270576818,0.355788794495841,0.381476000034808,0.403388849997195,0.426331945291519,0.48628312557662,0.577042020257224,0.566595871801373,0.564028560765621,0.56507141495799,0.607471077098774,0.610495350497713,0.666142000128441,0.595423867618536,0.596518788962964,0.594545455225209,0.596655816706921,0.594795237497375,0.595614442690905,0.594635086478691,0.592397939644534,0.616410200019718,0.639521106519462,0.624776257093661,0.606884547250474,0.606676467791332,0.606195842783396,0.616741616144039,0.620771934388675,0.649023427245603,0.687017055191011,0.673275680231101,0.660478328472004,0.671653269267958,0.682500970840727,0.716045852657735,0.803188112876671,0.80319071894987,0.80086243901726,0.804531433129553,0.845412948624895,0.830001557806234,0.83627813361083,0.83769037235522,0.837502482195723,0.838117874536689,0.91838799978913,0.883805424972326,0.917567999373779,0.883509096835357,0.883284418478819,0.882628846529558,0.882898733972237,0.880837439364243,0.927728047114828,0.924617491719111,0.928715574196599,0.930004540198332,0.931158085759621,0.929946443334208,0.981604000170059,0.911914017864176,0.909006275211187,0.910100480722283,0.907900456483798,0.908119663973591,0.98844300007925,0.880373160276009,0.881662431714436,0.88166451187678,0.881961288185231,0.881508219190089,0.96036399997439,0.91365008948693,0.915594880810784,0.914442169414388,0.914691023969637,0.911493698670338,0.908548211746504,0.907190170757199,0.98024100013235,0.899248282484479,0.88582216281535,0.902054237633053,0.925679553218794,0.914417383654715,0.896948869420681,0.915153990866019,0.918732807099558,0.919424655089572,0.921028228073267,0.901429318748783,0.887518291629546,0.887297064781637,0.887342450162598,0.898945384462958,0.918355882262612,0.914120297286689,0.90957653014392,0.919804454924864,0.921941382349342,0.916415181254249,0.90546538273755,0.907449600010871,0.905308565480274,0.928097905444966,0.928189304259981,0.928408794632846,0.944416830680856,0.940337771437844,0.960323518682942,0.959846245235531,0.971421717257678,0.966343728152058,0.964773175592814,0.963294454082729,0.959726420489865,0.963143675725673,0.964087168616045,0.966522211044276,0.977344874732402,0.974154382528133,1.0329101942722,1.03377683804821,1.03549408366189,1.03550186242506,1.03635989942441,1.00594074299628,0.988388772278392,0.998764456394576,1.00975015877895,1.00754078861166,1.00534112015217,1.00518726633116,1.00502679000201,1.01410740686215,1.0642899999125,0.990109835545245,0.00322114000000385,0.990157163931798,1.02040981963041,0.964346368908044,0.965075505299713,0.961979094047727,0.958099177854399,0.962847496775045,0.96546475549403,0.980073728919729,0.975389313810914,0.997076647920761,0.995853424242636,1.00813159349777,1.00483872022651,1.00648389864291
0.284682297398544,0.28048970066735,0.275403447017097,0.266965854209034,0.265835104318294,0.264772211747478,0.271325348764919,0.272828252164673,0.273634896750932,0.27388915939766,0.27522534677511,0.275389328577827,0.275849365829754,0.276341098221697,0.326079515531815,0.352861002063156,0.390277111424797,0.439488417655245,0.468077851825596,0.481574385451945,0.504253169664354,0.528606244195945,0.544972179973952,0.579228447371826,0.58094793398605,0.582981229395257,0.584983935712598,0.58775141720231,0.590636687331028,0.592398133519641,0.59309004639263,0.594837539537548,0.596281821189427,0.59990113898236,0.600423248972687,0.601817085037538,0.60373057841424,0.605784657270119,0.606554602749488,0.60657748514762,0.613892004191716,0.616660778490611,0.627881744135379,0.640382875553621,0.656801622833453,0.659847203493195,0.666341834691079,0.671611652381779,0.69972287144593,0.721353512056013,0.743876832845075,0.766780364308207,0.790742057965201,0.811260802179558,0.81733200734136,0.823477243584673,0.828887067819149,0.836126576193177,0.837315427470361,0.853046191095836,0.871995926091765,0.88723151242776,0.883920261605599,0.882619483623952,0.88197596225975,0.881417386676309,0.880158458077548,0.8802344209936,0.881257772844779,0.881754218324282,0.883645181172186,0.886080723494673,0.889205635616172,0.891593735165028,0.892322261347609,0.892954129047159,0.893722554811709,0.89481067870334,0.896102856771312,0.897812027766595,0.878318153004152,0.880078075237161,0.880744184131763,0.880636555526942,0.880053830468864,0.899983535758145,0.904347685098002,0.908301566345143,0.91166852272661,0.913872406747029,0.912314602944205,0.910790267249861,0.904114158729626,0.900673254649739,0.896604769382562,0.891538768426199,0.895380042811773,0.899647908919121,0.910817235928388,0.911243204088668,0.915232118738427,0.917292587574303,0.918632213805367,0.919744425503375,0.897612839380663,0.886395517121739,0.886983717311707,0.887144794224339,0.895041238018055,0.898390933200454,0.905041619994641,0.912601519476413,0.915505706663885,0.912366460686721,0.911158175820657,0.907962553965379,0.911514497641329,0.914499576161702,0.924900804646573,0.92491289576794,0.925444353439436,0.934656880027529,0.937998209150379,0.945404089064632,0.948610413229272,0.968356280915891,0.965723834005497,0.96399385630692,0.96273864642628,0.962575229797623,0.964550815155677,0.966371205704763,0.967242970687109,0.969546006692155,0.971487102705058,0.974945518940293,0.978622668898102,0.983248088310652,0.98090527833784,0.978195558828772,0.975056136537503,0.972311519602387,0.970584817230959,0.968762233957391,0.964132219767843,0.960704298892144,0.958607095416242,0.957694878219764,0.957684584882246,0.95836390383924,0.958187055019336,0.958091842062024,0.958630575103182,0.959285194878809,0.960444887311028,0.962170286217278,0.963322675116179,0.965317788021684,0.964657270391591,0.972474160435514,0.984896169281796,0.987391006840635,0.993602856054534,1.00327176833554,1.00702942209326,1.00897991038264,1.01018027799195
0.292867892252477,0.292623295829255,0.282462067286767,0.265788812522878,0.265297652881254,0.260593902191917,0.274609218456725,0.274063562566027,0.274838445145341,0.293119922861469,0.276732962585249,0.267044424845049,0.267557279512507,0.270109229461376,0.266652369733861,0.255332641198974,0.358041702379199,0.452704561528954,0.449753939997891,0.446840825820173,0.44490380862433,0.445888509973515,0.524226722226431,0.577248141036363,0.580425960602486,0.582945718834461,0.584293307338234,0.585002817939368,0.588011377813613,0.589360481604183,0.590597037278132,0.779872000000004,0.60883171756524,0.603232903858697,0.596209483128956,0.550979225322043,0.550946864843779,0.549902755958979,0.549718421729952,0.548449242117121,0.59058176951762,0.613406287574043,0.613113888414134,0.612812816609482,0.653194956983574,0.659232568599212,0.662315593420004,0.66551223880911,0.662981316502773,0.660394514365669,0.660609607068965,0.661111039740189,0.780653579141194,0.804769213209909,0.800979270538069,0.673467999999996,0.821467396627173,0.833285653486679,0.820872320799098,0.00328754000000384,0.862645938687183,0.890686788222568,0.882536275660331,0.881438099953705,0.88149624335163,0.881228055387942,0.878916381337913,0.879372697364825,0.881352556004924,0.879977158504265,0.882900605079788,0.882218008634562,0.889972507466989,0.892959502799181,0.890542902145776,0.882463571199067,0.884557161253367,0.885796853023328,0.895698410169303,0.899436428337901,0.874757160330131,0.869476956012018,0.869152200573861,0.869406992180399,0.874956722599352,0.895425361650124,0.894756020682945,0.894116882707886,0.89993486282269,0.9639619995825,0.934420947156834,0.950911057766513,0.89261652980647,0.881420781437269,0.88170546668781,0.882266586907381,0.883730646363344,0.885135891739483,0.906909280615232,0.943639979296658,0.92977541223454,0.954403051335108,0.939973066966847,0.960243000485378,0.893247912840669,0.883684686280713,0.881520324034388,0.869124950503502,0.884969331360948,0.887170688325599,0.896438928255905,0.92979485063972,0.917453696086392,0.906937957695315,0.908387553392292,0.904168320382785,0.916141151983976,0.917312533345977,0.921472827305667,0.921080742786803,0.923036112178682,0.921295269796834,0.936105026759792,0.943301308090261,0.944881009509096,0.97785151260948,0.964246677306583,0.962713995075805,0.961139875618134,0.963142092123883,0.965826774750413,0.96937624389341,0.96620796556722,0.961712162150113,0.966516132922788,0.966747305306729,0.96988897781678,0.985738851692695,0.981821996425327,0.979090443354171,0.975455256927401,0.972203001679216,0.971603428603036,0.972410052739921,0.962252173376169,0.951728568155207,0.94903332797026,0.946355606622572,0.951756207624708,0.959179815270635,0.958418837031984,0.957600620542571,0.953214479688524,0.940243938863973,0.9523918000231,0.955276686495865,0.964123248746241,0.968329961657312,0.966893828634516,0.991755594899512,0.986649802735814,0.989145372959617,0.990328898580219,1.00843256355367,1.00776013491501,1.01406439561922,1.01323969096746
0.293077545902845,0.292097322101586,0.29080743076478,0.288631233259698,0.285814349907567,0.282257745310852,0.278703275646833,0.276790040290535,0.27726278784168,0.278510024534809,0.278447214920742,0.266150523469633,0.265792093772609,0.265524502029283,0.263301734701307,0.258044257972728,0.32565215173964,0.361352367160238,0.396924336026615,0.439502805058881,0.442121658734117,0.444817274138608,0.501622100234029,0.572748798004277,0.576452525375481,0.579761475976699,0.58254910102135,0.584933809384293,0.587171390871533,0.588636705763782,0.589522827785607,0.620400157735771,0.614528366885408,0.609406664059507,0.586606446032425,0.551565016455341,0.551393601459357,0.550785583289325,0.550315361964281,0.549685097245921,0.573282647238734,0.591655079908843,0.603716346368812,0.622172881170244,0.647719477482644,0.648372707193871,0.650756021036385,0.65232949189293,0.654584905285992,0.658490401127412,0.660149700338704,0.660318077414183,0.766566782819277,0.798552390768764,0.797401337034568,0.794701670214026,0.798690309372829,0.800369163264026,0.802303103780978,0.803597321862781,0.848779995717092,0.854495777231189,0.858243686106411,0.861605766527676,0.864759136931036,0.868834327297007,0.873466046400892,0.882048460181277,0.884287962027869,0.884962511781016,0.885562145685445,0.886292140736401,0.887502801811371,0.886814154017349,0.887648157268834,0.886770085245031,0.885657427342591,0.88737232410351,0.891462731322913,0.895530939528565,0.871128259219189,0.869169973985526,0.868692243802027,0.869204074725637,0.871630311555757,0.872116787817254,0.873147340402533,0.875213565152538,0.878323711970405,0.882100132146496,0.88211132292726,0.881568328179124,0.880626217684036,0.880503384460267,0.881361344571735,0.88246952876009,0.883656327572855,0.884254485042013,0.903322156601953,0.905258376405399,0.90101101931209,0.899117818698708,0.897375558198393,0.896469107955142,0.888710775746937,0.881520435795573,0.879144334059244,0.874155298083945,0.882740723085975,0.883556187543082,0.889016538349322,0.920681256150964,0.919503888541987,0.919186355291664,0.919162789425901,0.91925143189976,0.919459879814436,0.920743710647124,0.922463574623654,0.923443412411299,0.924401914089673,0.924834048495533,0.934261905208471,0.938190842936641,0.941504287588237,0.949017991207226,0.950574908255647,0.952744511241884,0.956440576021625,0.964769755702173,0.965930158642492,0.967344235058259,0.966402931793554,0.965241437369119,0.965911901505101,0.965726187714143,0.96469474308691,0.963620780883437,0.962401455157627,0.960953992800971,0.959269249739182,0.957416064302271,0.955525686740085,0.953752464332889,0.952218536476261,0.950966566747465,0.949100975672439,0.947123541031718,0.947082731739775,0.946705105546943,0.946610989217172,0.947081911288689,0.948489619031295,0.946264631407559,0.949602198133803,0.961945834692042,0.965019473428478,0.967555131462207,0.968129000657024,0.977229024118197,0.98043803899201,0.988243648381856,0.988588328298235,1.00616063230238,1.00746645838688,1.01270972645835,1.01411752235483
0.29329689886968,0.291849555290899,0.291049299265357,0.288348362834477,0.287035635382016,0.284237564752499,0.281398530599961,0.263514290098186,0.279280655262444,0.279999055740168,0.279984013359505,0.253727699826857,0.264312673146304,0.263124430344166,0.263151006997781,0.254480552154552,0.267666731313719,0.260515175138205,0.364176697949874,0.437135775319758,0.439500995147655,0.446579770507077,0.479262512486896,0.56900336888644,0.566031871382016,0.556401996761168,0.556275874151256,0.554577658624061,0.557163124281864,0.558477258789197,0.571211974595897,0.630709682698403,0.620392290757434,0.635094994779644,0.575438002916109,0.533337211142571,0.533110188535493,0.533086516808317,0.532662177795195,0.53242591137329,0.54952518066048,0.539298082454545,0.597661021980319,0.631828391728695,0.635181308980736,0.632155456545313,0.650401777841761,0.65178849042137,0.652988059628248,0.649296504015953,0.660921597281561,0.659467615666697,0.749770326285593,0.799858894786846,0.795453243335252,0.79207192279741,0.797939804108971,0.800662678930992,0.803270088021264,0.805092324321796,0.84651571832808,0.850451028482886,0.850072782716882,0.850426180602463,0.848898108762702,0.848033590372777,0.865827417043904,0.890518195679982,0.888238866651466,0.889597304608,0.88768432480153,0.889703195860267,0.886764475064435,0.88294488889659,0.886392237469988,0.891310456089555,0.883940554481189,0.882329567318865,0.887076727195358,0.9808640000385,0.869314511069407,0.867068459165288,0.866897516814719,0.866752984047944,0.863819110838665,0.851419637307385,0.851931622177715,0.850570613821799,0.87537219904101,0.886029665021778,0.882488988908384,0.879180384076291,0.879379300707379,0.878424062133422,0.880702281443557,0.928277999374088,0.883883176806335,0.883859087116815,0.898421180453574,0.911105773539308,0.898679409043621,0.896102041735372,0.896306790933518,0.895132687672358,0.884632282734254,0.850083916950349,0.863074251038023,0.85463136113572,0.879762584978329,0.880750225817291,0.883143951785602,0.922208022762438,0.920812707917006,0.998570000096078,0.930486505385012,0.951529045572395,0.92159656848484,0.92355369609361,0.923979316335403,0.925792177529003,0.926384264878284,0.928855771219871,0.932139471501732,0.932941271197234,0.938480165815487,0.947474634974552,0.947705346810476,0.94784015600277,0.952934889159274,0.985281785210704,0.97970125866529,0.985399006918228,0.966691396517022,0.966985645490414,0.96613748089828,0.96557128731145,0.94949611498253,0.930160916217904,0.933710959145805,0.938164694911981,0.936097928261973,0.915067309691646,0.914775096257145,0.907454758131825,0.908826275167922,0.90725970478398,0.934940685696281,0.945877538953475,0.946545143319502,0.946332617055657,0.94631813714369,0.946294036352883,0.94720011870768,0.946665752150418,0.949728599243241,0.965351930747293,0.966160891193834,0.968668466266283,0.969999713041691,0.973591298374639,0.977218572109144,0.986949914022564,0.987600151374929,1.00215174253161,1.00591040286748,1.01201539506259,1.01343903495664
0.294618686464928,0.293947914478196,0.29309676456138,0.291123585069979,0.288252533678344,0.285788199191956,0.284285285883453,0.282552602813945,0.280830176353833,0.280754784557704,0.281318129675049,0.281107393833549,0.280238098424727,0.278610144466177,0.277731678293462,0.276928895945796,0.275978213483638,0.275381747367558,0.331257696883856,0.356843419703482,0.382275709139421,0.410295914675289,0.446102748547404,0.565984397122484,0.563502263624758,0.55911751101896,0.557571280311234,0.556706810682396,0.558013833059159,0.559582498601754,0.561841391813309,0.563728307743451,0.564505662681891,0.56506594397902,0.565831942109979,0.551280016460524,0.533250112503514,0.532911914132207,0.532756071286662,0.532143133366565,0.557295201802466,0.560967184092148,0.588428755350412,0.607540320951981,0.638067838901983,0.644062444387489,0.649003876055267,0.64963219897459,0.655998341273194,0.659961805590784,0.663211972217105,0.676759551682264,0.732110759104353,0.79156680427589,0.792628593065089,0.79231432666836,0.794625879701626,0.797474540364951,0.805380511836338,0.80645172509628,0.840713163777045,0.845152168719631,0.849326857731819,0.849165322979239,0.84828976858998,0.847346461118127,0.855120050187859,0.861374525189282,0.867846542465428,0.87440991674047,0.88565106111072,0.887476164307769,0.886847937894485,0.885387121561907,0.883608190184067,0.881653175939139,0.879568320655508,0.877320909591175,0.874898579850554,0.872331795907555,0.869657820476221,0.867228731314327,0.864920642830636,0.863102673950397,0.860940768218106,0.856512708422057,0.853854395356257,0.851914209197827,0.865991012168172,0.869364666017793,0.872205899517414,0.877022087730758,0.878918720749743,0.879210166527301,0.88065894585468,0.882168867613291,0.884146769253109,0.888692581246598,0.893737974333308,0.893219668962623,0.890108825154779,0.887421497708388,0.885147704145619,0.883012222234553,0.881696988956764,0.87583288619578,0.873897108347211,0.871086836612809,0.876153722079226,0.878287465624065,0.880905503183559,0.882620583652265,0.886502779067861,0.888976637455579,0.892130852273572,0.895300305550023,0.89901038068784,0.903331657366796,0.908157067086586,0.913046615100854,0.91728143995485,0.92047873774209,0.922405356823432,0.923421123134677,0.924034032863475,0.924792054656668,0.926096320249278,0.926094882669606,0.92562836328561,0.924736174551852,0.923766711275688,0.92245021768519,0.922232893837848,0.922494346012636,0.923221918412503,0.924516958030141,0.92650830082581,0.929684773503806,0.932441408605642,0.933224673867265,0.933674782465423,0.915113663927992,0.914472638007715,0.912037536411146,0.911695938178781,0.9119496600854,0.9150346561421,0.919569559275196,0.924358265605377,0.929431482455168,0.934655837453092,0.939751306296853,0.944369934977314,0.948080527121682,0.951996908547099,0.961032394060974,0.965267473650191,0.968013680803646,0.969303086538751,0.972522244465376,0.974422104476672,0.978719426537288,0.984331848259783,1.00406097444622,1.00741211048217,1.01139834805271,1.01398805721865
0.295891409708933,0.296417362972641,0.29555052382676,0.296132271817962,0.296950904120883,0.297686775754218,0.299608720245387,0.302349881952358,0.28844576260968,0.262595256691978,0.283129653360863,0.284769462816225,0.281109096130819,0.277410501225855,0.2776678460923,0.277775622536896,0.276323242240426,0.276121977490222,0.284995097644418,0.280678422071479,0.290115045887894,0.286968694151635,0.405481516168656,0.587253999893981,0.499165641585584,0.459074532059672,0.502875116319475,0.568085037734838,0.50556708853031,0.438072963577744,0.533354127133674,0.564586786896413,0.564419392827853,0.564395827369846,0.565894294996932,0.567083123789038,0.5342401881585,0.532910008629873,0.533598411918721,0.531459958570429,0.560967416532416,0.565940939422697,0.573587060483952,0.558597991021628,0.640811112838474,0.668051050351766,0.64657684371417,0.646399430226714,0.660322812714797,0.667435396827941,0.666239062411894,0.700718049572145,0.715752761564,0.790471940727057,0.791121270975394,0.79019515668788,0.790969434044913,0.788280096634151,0.80699022287195,0.809241695064968,0.82993250521322,0.00325563000000385,0.848797139325746,0.848677308107385,0.847791337125378,0.845771387010006,0.845487108734354,0.843904214555538,0.859101336719265,0.857769368888346,0.881522829616072,0.887528646477389,0.887606535848973,0.888129675625371,0.88092946931805,0.865538039857473,0.866620727900633,0.86697372314787,0.858650547064773,0.843376643853773,0.844280022474662,0.84388632015668,0.862484514583355,0.859863558425378,0.860440101573557,0.858683320472719,0.855183894383992,0.851365193133686,0.862672723123636,0.85956403775324,0.869077635435829,0.86505855971324,0.879534919877758,0.878569975698194,0.880421061122223,0.881714388721871,0.881980207591925,0.924109006525614,0.894980211581671,0.896200778330838,0.886529858264569,0.87962914585558,0.878253529491548,0.856576931657888,0.877997095670952,0.894130071036359,0.875288015080132,0.865783536809016,0.872356803352347,0.869689328479502,0.87876147873486,0.873180498927905,0.885759222079706,0.883545428298293,0.892494985884748,0.891088940505683,0.897699919146294,0.895127309526997,0.905802207152423,0.906725143377601,0.908136970859144,0.909598267153981,0.910548002110743,0.912438838913348,0.911852735030836,0.912064454075523,0.928022566644408,0.927233805858935,0.926876964490909,0.925573251471861,0.92491469091098,0.921769901894601,0.922279172862796,0.92243375669028,0.923119156685162,0.91896187439423,0.923260554616449,0.918087456735678,0.932726848623023,0.933133995543317,0.931158718526428,0.91580008059051,0.915989931144868,0.914519933617398,0.913824759753423,0.913284025019491,0.913719633583936,0.912102549876572,0.912566917241721,0.888806410089008,0.898790186206024,0.901577248983945,0.899211241702825,0.897208272980612,0.897899330726048,0.897536683707052,0.907834990363092,0.925374650310079,0.918712048139596,0.912249569028518,0.932440991138823,0.947989999956181,0.960418882043453,1.00212615678475,0.992554193562005,0.977285610238406,0.97866076999821
0.29634185377051,0.296724218213746,0.29674915615788,0.296974828246373,0.297477702864332,0.298029871121926,0.298957170867901,0.299132709008237,0.296964068229905,0.293159843533553,0.289727716996225,0.286646026832345,0.285553715897131,0.284345332309351,0.285900492626596,0.28727324632295,0.288378758554557,0.288920243229623,0.288456331622425,0.291197398911885,0.293103606166456,0.29438413561735,0.364707246972133,0.397489476219951,0.430032301469856,0.456263941272526,0.456002091191869,0.455549341794895,0.454753452045039,0.453997211941422,0.507566431854704,0.564196995310642,0.56413622299398,0.564141833785442,0.550563557176113,0.545052989710604,0.535731499353573,0.536478553145244,0.537343526223703,0.539405997601794,0.577191001628678,0.581895757851147,0.59970098461086,0.62070393277217,0.642831901649118,0.643715710974228,0.644166260251184,0.64538953648659,0.663839182679728,0.668705224160331,0.66802808327667,0.687908232740973,0.701347942191541,0.720267104189693,0.743350410701358,0.759737992283372,0.768440870761119,0.808626689987547,0.815666398933707,0.8195787622606,0.833386490278062,0.841310675103834,0.848520517170724,0.848413232714513,0.848324725358245,0.847762821587057,0.846838159391692,0.845586836025794,0.85971194197839,0.858671523950649,0.877378352097063,0.887708845841885,0.887800230051161,0.888004381934734,0.878206312847863,0.862098152237497,0.858159080569939,0.853938654990274,0.849756364396575,0.846215146182638,0.845599920575078,0.845497711992736,0.862899181995602,0.861635757130562,0.862418305326553,0.865355468140236,0.868281575231657,0.870896763202399,0.872830845975906,0.874241521330744,0.875987585975712,0.877992618657342,0.880699231256342,0.88087818710365,0.880610029906368,0.880161857455151,0.880149573302341,0.879266096803313,0.878383010611793,0.878418673734764,0.878383746859695,0.878927655523943,0.877166369723506,0.875290639890961,0.875579610151789,0.875252957487378,0.875720518359458,0.874771800743485,0.873935826970091,0.871854618304306,0.88185804230058,0.882047155833539,0.887983125256413,0.890902843074694,0.894377802496583,0.897117894437417,0.900110475948492,0.903812883012959,0.905608629491348,0.907215730874051,0.908359681760008,0.909629499131108,0.909748687281762,0.911099403796916,0.911343945385958,0.921105434558772,0.93114417513515,0.930576157453268,0.929470153042945,0.927886285776698,0.927139504426527,0.924712482741785,0.923107673339513,0.923188896776512,0.924057729185676,0.926321067934938,0.928379994670529,0.932034173653935,0.931823197367665,0.928291139572107,0.926312901935232,0.920909018047035,0.919279913421428,0.916825137324228,0.915627095268531,0.914574257346753,0.91441894960585,0.913998123424855,0.91306045601599,0.892192704657934,0.895903868273606,0.897641209653494,0.898417930936812,0.898800404776232,0.898899093436962,0.899120417573981,0.900535922690137,0.902516004410954,0.905281030148022,0.908614057872963,0.928670221921825,0.93846256187723,0.947746278340521,0.9560681136165,0.965966772038398,0.977957445466492,0.978810503244015
0.296562006228822,0.297942534988292,0.297568945993583,0.298114129484494,0.298199333517684,0.298596404564824,0.298876718236206,0.298422627250618,0.298685429949833,0.299657515734363,0.302424330772436,0.305861141059199,0.294738373487889,0.281443122764687,0.287518785147732,0.299775865421239,0.301215687369467,0.303247618833339,0.301314464161755,0.303338204025366,0.296462294593187,0.295534613813658,0.310183351536383,0.307535843832475,0.395889537501726,0.456472671183803,0.456106486195737,0.455788305593366,0.45458475782899,0.453125970296193,0.487505129089934,0.586153942926646,0.576346100188827,0.625486000124238,0.545546903283823,0.533427136183712,0.536710776333269,0.539964960177556,0.53976236595533,0.541102548554094,0.587775520374166,0.67638131363842,0.653352578217636,0.632660017604281,0.643513061894382,0.643937850601076,0.640920043292022,0.637351265971055,0.666384043314152,0.670318707536076,0.668791676942323,0.679273914371175,0.693487918208495,0.706630221048436,0.704581237284342,0.702401354197386,0.755871774184676,0.819277160325141,0.822354712821033,0.825289139101332,0.839287441077892,0.863156900003214,0.853523809149026,0.847971633412264,0.849007580458818,0.849856768059488,0.848331752740759,0.845946263734876,0.860228130971394,0.858103134376657,0.87354117222023,0.964162000096787,0.904421914353273,0.931428003351459,0.875440366691397,0.85228660888308,0.850500774621991,0.849997465016918,0.848314569129644,0.847446317816837,0.846553533758106,0.847056895481002,0.864955335108096,0.880775841977271,0.877600440989472,0.886381548997536,0.883430545757543,0.888386914129716,0.887432385258802,0.888264461790516,0.888103683963932,0.886959688400998,0.884334829120106,0.883470814272257,0.880846000233383,0.878141987451046,0.879196528743197,0.876659961127137,0.877392543010439,0.878305354721041,0.878288715809978,0.880454747909001,0.87648159360592,0.873576267119732,0.874363618956326,0.874563118857086,0.877226440448154,0.881142909944851,0.876938753046305,0.87226276997023,0.884237170767042,0.951106999813842,0.902168611806007,0.908194682181123,0.901139041297206,0.968148000165234,0.902126495820077,0.90682548751484,0.906309894498114,0.908611291360864,0.908764741332413,0.910892834102211,0.907895000307238,0.904752352808658,0.911575147767296,0.935185725145192,0.934694368134652,0.93455602434888,0.932718226033786,0.929892795228838,0.931579323028339,0.945207253324737,0.946296936837034,0.949282617278453,0.948135499114864,0.951720404439698,0.936298306410194,0.935265862222002,0.933477141327144,0.922079800229996,0.924274238193801,0.922111093364849,0.923387514989886,0.927365173833516,0.924026493494433,0.942621024693052,0.915168370143108,0.916341980247861,0.912496238258363,0.89198316740828,0.894890313978646,0.884109171133009,0.897532993456202,0.900193982178655,0.899665750515856,0.89962757905919,0.889771008466068,0.865892962258234,0.882361884684956,0.887339033404673,0.884452125625426,0.883413364765196,0.907844279061852,0.922383034982955,0.9500742361449,1.04632000009612,0.980347370305645
0.294971003556521,0.297481321486807,0.297959211044254,0.298669716441926,0.299264492605994,0.299627266923907,0.299837925233973,0.299732462183267,0.299959335306692,0.300500206182877,0.30191426839623,0.303287330619187,0.302284990884263,0.301477084693551,0.300830580159517,0.300234385084507,0.300516187261344,0.300289794400429,0.297031961984767,0.296041725492671,0.294914848742809,0.2953859128576,0.313037225662232,0.313588254089884,0.34265410697289,0.360863972380744,0.382927958968087,0.405052667499092,0.428002137298344,0.447141173642122,0.460225688066643,0.489481294539362,0.525554891566298,0.571892029799896,0.540672022165508,0.535618080975807,0.537781253312264,0.541023342911833,0.540559300356128,0.540855616421979,0.606874051800243,0.666987311288289,0.659452949528381,0.652016167867611,0.645292469701625,0.641066493056382,0.638381451345173,0.637365442102327,0.667734814686405,0.667778366064334,0.667632941396187,0.674042559014203,0.684759352107423,0.687482320161539,0.690738794508288,0.695128965654224,0.736308930051535,0.826404515712615,0.832190439258375,0.840705371945092,0.84942713510661,0.861174470233431,0.858689247491257,0.856690873635364,0.855215309003767,0.85536449570477,0.856416148153233,0.859187214164138,0.862742893934936,0.867311747498244,0.870223995499585,0.872013350208203,0.873700899947679,0.876221713495648,0.872553131327161,0.850557749915983,0.849559380294792,0.848628459858772,0.846457250413744,0.845678698045197,0.846233227717857,0.855602721602064,0.867481059147844,0.873095287602765,0.874548069177475,0.875723914124961,0.880712951759941,0.883198426767082,0.885495890468628,0.889205390596802,0.888814320034805,0.887999078224813,0.885933376440722,0.883572630087969,0.88115356086772,0.880363898363494,0.881894511353045,0.878237168377237,0.876354342124265,0.875615141647332,0.8757531073868,0.875368447113772,0.874861684093104,0.873758994356734,0.874003942197842,0.874055293856817,0.87745276770157,0.879609716918667,0.880364093845426,0.883383660332961,0.885670276704527,0.894314456107553,0.896326490172457,0.896965110914266,0.897966758646074,0.898199570879766,0.900213477427028,0.902163836260819,0.904782272065519,0.90605052167108,0.907245159179454,0.906677816778345,0.906095157145521,0.90802988631711,0.912197368454921,0.93652684339217,0.937773144106559,0.937209536679265,0.937070401647696,0.939111630639725,0.938229911158497,0.942547921014121,0.944041953240508,0.94393238952672,0.943229731782012,0.94008451801196,0.93776435412126,0.935083625431717,0.932957230919893,0.930068134624968,0.926856148687603,0.925094051839222,0.924881045395529,0.925201431596981,0.922835607193238,0.918801603517517,0.914572505295098,0.912921488796717,0.911599404683802,0.901224499816725,0.896746792612661,0.895183352953885,0.893601818557091,0.889811931929094,0.886369041602115,0.882551541994785,0.878524900935548,0.874464914131281,0.8775548513458,0.879617372584518,0.881874998386385,0.882518525455945,0.900771971608565,0.906345464114512,0.936356683798517,0.982259950749492,0.981699700234163
