1.15312333768054,1.155292899991,1.16514834166829,1.1657237349528,1.16653073573939,1.16631965748963,1.16579701172771,1.16469685332908,1.16281947757004,1.16260672054161,1.16234976780981,1.1596566055574,1.15813019181195,1.15942486211772,1.1608695310954,1.1616687802333,1.16127521522786,1.16124330634159,1.1602178919804,1.16101043423707,1.16065400901826,1.16152639150961,1.1612031086293,1.16286514023524,1.1638108664039,1.16379655731409,1.16321239223682,1.16476226640569,1.16603776564588,1.16639539011392,1.16671217048138,1.16696250500582,1.16713987148606,1.1670272997605,1.16745106879888,1.16820698657497,1.16884468049057,1.17125271375017,1.17268061571874,1.17325946721208,1.17319047144014,1.17438729057642,1.17626276906583,1.17677991027047,1.17924023764195,1.17839178621389,1.17901588657786,1.17899501138159,1.17935162983,1.1796132054763,1.17942135479638,1.18057856559335,1.18075520004537,1.1817614622633,1.18232820658146,1.18270014899447,1.18292483702015,1.18274281796134,1.18191785459533,1.1826547100564,1.18195149089748,1.1829381832627,1.18201397582808,1.1832292293653,1.18317166920322,1.18431811720766,1.18522468258344,1.18762959234837,1.1898658382625,1.19135897219586,1.19363884374251,1.19634383033351,1.19901185264498,1.20076025860429,1.20332977006659,1.20302946956227,1.2038212795625,1.20490847945042,1.20637929127165,1.20870697975611,1.21154208604489,1.21194409722219,1.21242810388126,1.21230060993313,1.21211896966403,1.21285403504933,1.21465540132934,1.21490300855535,1.21680007664204,1.21643968686234,1.21728661916555,1.21851561530335,1.22051140362231,1.22133387530436,1.22337592468845,1.22400058170975,1.22603707123424,1.22612141810247,1.22773408850305,1.2270376910956,1.22728586201262,1.22833271752608,1.23001123465449,1.22979292799801,1.23039178577779,1.2300779480314,1.23000211765014,1.22964301242817,1.22105672238039,1.22255924733597,1.22260527217097,1.22575159803481,1.22631422994748,1.22699829399501,1.22659896840139,1.22787814082913,1.22832876088003,1.22821013279622,1.22748017871573,1.2287955745895,1.22973162816783,1.2305961236551,1.23035871097717,1.23069131343187,1.23096062010792,1.23076917229735,1.23002710743943,1.23477630301039,1.23570902328452,1.23625851285334,1.23700171715792,1.23724467965686,1.23577870722497,1.23942216425498,1.23902911545547,1.26019759474901,1.28176383978411,1.27898908481469,1.28840306047541,1.28827519528059,1.29027852866988,1.29114582394646,1.29273327452165,1.29427104928022,1.29595703136184,1.29703988126247,1.29811917726189,1.29897061597955,1.29927210987421,1.3001458535116,1.29916273680652,1.30196364956064,1.3012750778434,1.3049048764433,1.30474182509525,1.31417611202814,1.31546934005266,1.3214132445564,1.32950755330771,1.33048250920505,1.33532223017051,1.33467922966143,1.33576532597676,1.33814685408558,1.34017778715511,1.34169846749912,1.34283553015791,1.34459467360059,1.34456895331691,1.34927242458594,1.35046524634102
1.15830543332104,1.1595783949241,1.16326325354763,1.16524192671134,1.16624675050925,1.16640978737116,1.16586283424227,1.16528333390324,1.16412707790052,1.16352010038912,1.16296678437609,1.16136775193775,1.16058283696172,1.16122105949103,1.16249340623625,1.16248513621077,1.16222635230816,1.16244426711553,1.16287967027583,1.16388164985882,1.16436684931214,1.16423476025118,1.1646027787201,1.16494550213209,1.16542307962678,1.16520784653736,1.16535035801006,1.16608640098339,1.16718705777009,1.16850595012936,1.16924558817319,1.16963885637569,1.16909233180175,1.16955923662628,1.16987713374435,1.17048213679185,1.1715855743552,1.17235931335991,1.17317473442537,1.17388221772619,1.17469029732126,1.17585496469855,1.17722456842522,1.17820701246029,1.17952757705,1.17953384568334,1.17996605542355,1.17982672462798,1.18019297317739,1.18023755100255,1.18062557595314,1.18088314371898,1.18121535924056,1.18158416944778,1.18230246820802,1.18239190771436,1.1826335469709,1.18254515260517,1.18253797215272,1.18271820003151,1.18289078014249,1.18335785730441,1.18474748852069,1.18660910854807,1.18861404948925,1.19045275070524,1.19205695986742,1.19357129011765,1.19516811790763,1.19682906623155,1.19825222643851,1.1990853652751,1.20106771860445,1.20288386112606,1.2045634886875,1.20509675051341,1.20566939510692,1.20651610320982,1.20809589163128,1.21004144227797,1.2120161327995,1.21299346523033,1.21359231345584,1.21373362963024,1.2138406841533,1.21438738701336,1.21541877573302,1.2159413475925,1.21678948077207,1.21781158662211,1.21913081700408,1.22046597699139,1.22194592418542,1.22309666424864,1.2243988342449,1.22586752711702,1.2270854868326,1.22781658686586,1.22833588370844,1.22884676702585,1.2293291228197,1.23024742614606,1.23112661259945,1.23171951515199,1.23220980501994,1.23209491805315,1.23173472362376,1.23140823179695,1.23084001576989,1.23022095931149,1.22947105877825,1.22851919918354,1.22831900299847,1.22835654056914,1.22867587404915,1.22944847217638,1.22996577005023,1.22980078824288,1.2294841657963,1.22998969885695,1.23098156146342,1.23248182114885,1.23290058410531,1.23349640447771,1.2345879785568,1.23599535266048,1.23697614694034,1.23706158852553,1.23660258996826,1.23637683412055,1.23702979894923,1.23847025076884,1.23826328362602,1.23915749974738,1.23941139100401,1.25677475676021,1.26627071863149,1.27644817740689,1.2891602103285,1.28944123798242,1.2903985179651,1.29116846099938,1.29264486630911,1.29390492629745,1.29532506854094,1.29628367011996,1.29704802245372,1.29792066507942,1.29821956923255,1.29893238652757,1.29905877590928,1.30158111787177,1.3026361674037,1.30460685639413,1.30548217463278,1.31418014613582,1.31475654098471,1.32263558361575,1.33117228111678,1.33225310444457,1.33416614791464,1.33539725050553,1.33688452810848,1.33884154437393,1.34082813244504,1.34193886153834,1.34352121804145,1.34585207944743,1.34787901404399,1.35005131020111,1.35226424178672
1.15922168040005,1.16147592691566,1.16319070698244,1.16527371620732,1.16680388343686,1.16669476816422,1.16599792401008,1.16610910048758,1.16496011405322,1.16449957806111,1.16486507731722,1.16259404231734,1.16177385691112,1.16270774083732,1.16538562903134,1.16624497390751,1.16835937136253,1.16856375448662,1.16874200914335,1.16764180329161,1.16658008033318,1.16702590620289,1.16633552321722,1.16721259534327,1.16693727693441,1.16633564590191,1.16664026401359,1.1670076312595,1.16838140201478,1.17090495740427,1.17301972565231,1.17282989825874,1.17399134774883,1.17182589339159,1.17223656229678,1.17217739781953,1.17411248755809,1.17340755706874,1.17384343590023,1.17450956192889,1.17588565445027,1.17740943597019,1.17840690602879,1.1795458509152,1.18082164476081,1.18068677190916,1.18053838821304,1.18081815390631,1.18022610844055,1.18117700144106,1.18084874309275,1.18168532557923,1.1809858643193,1.18169105745613,1.18249090847313,1.18241777728698,1.18236019517739,1.18258936049525,1.18285564001706,1.18307621087432,1.18373801219431,1.19352240631998,1.20306764183394,1.20322615929639,1.20761885007746,1.2067739382367,1.20741941005722,1.20606374074944,1.20468049245823,1.20641919778993,1.20732913431604,1.20592449504557,1.20303529158329,1.20522168677088,1.2067772989466,1.20729095542888,1.20687431372074,1.20750992629686,1.20891501254482,1.21145910730332,1.21306091477155,1.21449755759534,1.21510315014038,1.21535431292173,1.21535208662323,1.21554308113796,1.21711661147783,1.2166448741145,1.21712214476623,1.21875224657175,1.22157098031727,1.22205073022822,1.22438737204038,1.22439177072007,1.22602017839282,1.22748937533666,1.22967948571795,1.22914700735001,1.22999986251441,1.23021662770619,1.23183147626169,1.23185773058311,1.23311529749292,1.23351323117543,1.23488024013049,1.23421912961064,1.23339922114237,1.23331251141378,1.23514313000783,1.23551509451017,1.23584825938855,1.23186210309555,1.22984785507928,1.22942610915797,1.22994038103188,1.23119284151283,1.2339329398441,1.231460258353,1.23041615545663,1.23066404304548,1.23153212022195,1.23716518137462,1.24214975857765,1.24277598278045,1.24316326700653,1.24619256605178,1.24950887549152,1.24845646645373,1.24760026828139,1.24751660116603,1.24700004232582,1.2417578347584,1.23981628310359,1.23968815701258,1.24013215909164,1.25264487109062,1.24797629724991,1.27343993927421,1.28933797286125,1.28975588865502,1.29018292953429,1.29057695210531,1.29211156987699,1.29362446601416,1.29461473590694,1.29581842772925,1.29567212762509,1.29728110042152,1.29682188462067,1.29823923324071,1.29677193126536,1.3027309792094,1.30344395032307,1.30558393072941,1.30747217964981,1.313816679671,1.31479127858247,1.32375326645304,1.33156298697709,1.3330242685405,1.33352340625486,1.33590728656809,1.33737842043123,1.33986435829935,1.34202363138222,1.34232402397026,1.34315379242901,1.34798508543195,1.3502827565589,1.35149945513668,1.35424733525155
1.16519721107919,1.16419269111863,1.16467018947079,1.16606770532365,1.16731291233327,1.16782569003279,1.1680708130767,1.16838739214667,1.16844241355952,1.16880189707421,1.16973697907463,1.17045090449976,1.1706199105107,1.17027464988704,1.16968083904131,1.1690583223743,1.16863449491497,1.1689877330574,1.17041112569548,1.17051388205119,1.17104570334465,1.17089244196933,1.17174646732743,1.17129626502868,1.1716332535987,1.17226433282484,1.17324852186267,1.17442924808066,1.17546148658854,1.17488079797894,1.17513571847248,1.17481541618122,1.17423390591773,1.17416404891864,1.1741605519958,1.17424806130852,1.17453841290995,1.17510700629796,1.17589606047774,1.17684954508911,1.17802786044255,1.17943212603213,1.17997548189051,1.18040095270465,1.18106305238652,1.18123051331915,1.18162258219454,1.18182678151864,1.18227363018497,1.18245357146441,1.18286333905053,1.18346819137649,1.1850638445803,1.1866397356768,1.18835601649267,1.19026216300943,1.19224682862225,1.19414901717047,1.195906764779,1.19758030071463,1.19918029922047,1.20060997481036,1.20157438470141,1.20289996739904,1.20474656878026,1.20538502243103,1.20584953220114,1.20613383125311,1.20648295563029,1.2072171467584,1.20788384254173,1.20791424470573,1.2085889112885,1.20833410195899,1.20916410361586,1.21020879469724,1.21197944061613,1.21286739177831,1.21339146559351,1.21342570615698,1.21473118493079,1.21648355145303,1.21742847225361,1.21808248780186,1.21938011613051,1.22041424220697,1.2212485560779,1.2219892047057,1.22277267803613,1.22365833171689,1.22454417981918,1.22527986600548,1.22589480600543,1.22658801093787,1.22758556003221,1.22914216391184,1.22983762126725,1.23004055192026,1.23042172693527,1.2311098797093,1.23207804055355,1.23297448785478,1.23411468818068,1.23485743519227,1.23595802319559,1.2367091755109,1.23763753291147,1.23844260577726,1.23891072474402,1.23916044665989,1.23946546637453,1.24002145854401,1.24090893251695,1.24210027519683,1.24344368879887,1.24472451401106,1.24578194540554,1.24659534090248,1.24730283902607,1.24814086941641,1.24928755062304,1.25068041045913,1.25204367741216,1.25261116154408,1.25250557724856,1.2517861814973,1.25095308041496,1.25192171809983,1.25345168083928,1.25511965829526,1.25641286095491,1.25720752214727,1.25770661883306,1.25799265503956,1.25832599832775,1.25841007469887,1.25867606223483,1.26977466768963,1.27731104311472,1.28293589904088,1.28584506554234,1.28844346416988,1.29033918685739,1.29341669164383,1.29504536474552,1.29643717711179,1.29743665986921,1.29878314381946,1.29957569547655,1.30073315229098,1.30207767732356,1.30354247509575,1.30521647862728,1.30722759082168,1.30976307539381,1.31273609348985,1.31433179339354,1.3245597140165,1.32857044641475,1.3346615643918,1.33613514920108,1.33722268076453,1.33934553429649,1.34126675978017,1.34443901237502,1.34767063584433,1.35107940300099,1.35189296981176,1.35295017705512,1.35415246586058,1.35543220855559
1.1666257540892,1.16539256640242,1.16541486056666,1.16673691081308,1.16874991633694,1.168944544792,1.17029130564047,1.17087272698489,1.1739128762597,1.17477874681613,1.17517350573046,1.17547774777666,1.17549813830063,1.17627106291735,1.17703364045744,1.17830632675617,1.17947459845724,1.17765614852246,1.17363301204121,1.17330019080268,1.17355096493628,1.17374060039562,1.17386552532925,1.17533649558218,1.17692273273184,1.17778553988125,1.17780967854326,1.1778272127166,1.17767729871193,1.17682660845349,1.17791491617265,1.17898807088154,1.18239386893963,1.18560710686894,1.18879652058659,1.19381413985034,1.19728863113573,1.19319636571481,1.18921087878016,1.18788573866131,1.1863732176266,1.18245132042907,1.18146436200201,1.18114413321068,1.18141635154812,1.18173507076133,1.1823754350614,1.18279197441294,1.18394658810428,1.18361569636871,1.18419341457012,1.18746739152999,1.19434649103029,1.19584767300244,1.1973354664847,1.19771252717253,1.19801094669098,1.19935902418445,1.20062200964634,1.20142199789134,1.20215296607187,1.20081175313559,1.19950256243543,1.20184866265139,1.20305008065733,1.20429380298113,1.204582110363,1.20618711562919,1.20788733192052,1.20810016637445,1.20918414010583,1.20947931225902,1.21151211741824,1.21033234715819,1.21122160494121,1.21239159497165,1.21566732105475,1.21731284483646,1.21913443472675,1.21968519362376,1.22058306603379,1.2190030274807,1.21980305399004,1.22280515665332,1.22705742802722,1.22953320453496,1.23195914967618,1.23266625612472,1.23328735052979,1.23659255761009,1.23999082307061,1.24063456766249,1.2407879024482,1.23914922112398,1.23578334654289,1.23189958198107,1.23121816789392,1.23070930853419,1.23124257993749,1.23167501985974,1.23303188163572,1.23391066128675,1.2360966635364,1.23609378235454,1.23781099927783,1.23914861086722,1.24316394107645,1.24766014535894,1.25202583285646,1.25172315306029,1.2500065718222,1.24974638363026,1.2496364048978,1.25004122511718,1.25038870583534,1.25658623041712,1.26030213242534,1.25944967543862,1.25829708955113,1.256435644483,1.25421488556371,1.25392528204147,1.2524952491997,1.25523848470427,1.25673689941994,1.25815531603847,1.25807896010876,1.26000231231739,1.26008697078752,1.26196617327009,1.26129203318432,1.25971433869074,1.25792364186314,1.2582515355823,1.25902666653367,1.25885596515064,1.25954892802009,1.26567383699264,1.26148877814366,1.27972410295141,1.2759408561105,1.28697217303702,1.28491718874307,1.29472593371052,1.29544776152854,1.29743136592212,1.29884879788909,1.3007121283945,1.30228552759091,1.30308259860627,1.30307905644704,1.30443150054753,1.30716756615374,1.30867597215507,1.31199441674958,1.31338811409056,1.31576022310204,1.32504858015295,1.32525057042804,1.33809718014774,1.34726100673953,1.34778135858556,1.34716895906459,1.35018191078866,1.35618541539673,1.35503222392042,1.35385913862166,1.35759993954208,1.36532537361853,1.36954276309181,1.3739463735176
1.17669464917872,1.17672803404131,1.17694989443093,1.17727814117932,1.17765711412139,1.17803266126092,1.17834935971192,1.17763951988812,1.17678509574066,1.17585650560937,1.17509483025807,1.17485223353291,1.17496374378485,1.17568294112082,1.17677154524577,1.17834642321231,1.18019016304769,1.17969373213246,1.17950663769279,1.17774500684898,1.17684222816964,1.17659591173572,1.17757988513301,1.17766355685915,1.17864187068965,1.17957810633141,1.18113239722576,1.1827490974692,1.1846157254745,1.18675045008106,1.18902513874338,1.19126474715444,1.19324252558902,1.19473554605918,1.19574578619593,1.19655589879302,1.19747551116141,1.19870523875654,1.20000781699869,1.2012039867482,1.20223248820176,1.20307273504758,1.2036882972836,1.20404087694596,1.20411113165201,1.20390812713503,1.20346889846383,1.2028543187332,1.2021443920427,1.20143464503799,1.20083621536247,1.20047689191715,1.20049125816245,1.20098648135508,1.201983005689,1.20335594913773,1.20485155649139,1.20626112482323,1.20754313994047,1.20868437271194,1.20959174150292,1.21022156446715,1.21071547940128,1.21125246822604,1.21185638539667,1.21240332948732,1.21275142895892,1.21287526031106,1.21291201487555,1.21309310176116,1.21362379528172,1.21460169098338,1.21600100240688,1.21768689912789,1.2194545554317,1.22031729578311,1.2210122075451,1.22168008989704,1.22255536271746,1.22376414513845,1.22523708237703,1.22681215568676,1.22840269974898,1.23004815615747,1.23181151895987,1.23364794520955,1.23537842749409,1.23681704510729,1.23801049824013,1.23925478763224,1.24076889722345,1.24125315419851,1.24150099021349,1.24110984225619,1.24129223289067,1.24169914856783,1.2413724138883,1.2410487309547,1.24091980475704,1.24108346534462,1.24161042422912,1.24261746857574,1.24416636293853,1.24614578177781,1.24823378279836,1.24964676779461,1.25061053937218,1.25108641191973,1.25253722475261,1.2531159172292,1.25340120863563,1.25483290103718,1.25618500086284,1.25726529684606,1.25791858052793,1.25824181764941,1.26008834717404,1.25975018795882,1.25847896501777,1.25697593929326,1.25573700809828,1.25496476739116,1.25465879973057,1.25624706298639,1.25802539414834,1.2592263487962,1.25971249418125,1.26116490825935,1.26280558034873,1.26410605902721,1.26524531585895,1.26833531677894,1.27046580474307,1.27265349780386,1.27436756397054,1.27573828949077,1.27694355142309,1.27823325221347,1.2793181868356,1.2802908631436,1.28098105576807,1.28755950509446,1.28759981312642,1.29515729974416,1.29726204136276,1.29889215484414,1.30074088614466,1.30314137095555,1.30499724035711,1.30658671082639,1.30912021948285,1.31152480457938,1.31486981890313,1.31884852811965,1.32269573950368,1.325916859821,1.3279139615492,1.33036109048931,1.33356619216752,1.33980513309842,1.34845553153844,1.34914896594636,1.35029689013351,1.3518150175421,1.35453303145903,1.35622824006661,1.3587032894577,1.36177421254676,1.36515614841823,1.36880479209783,1.37233214196111
1.20611863207205,1.20751035962491,1.20904069826467,1.20314098339177,1.19666000944737,1.18702023724884,1.17928187886333,1.18597349351806,1.19709893128762,1.19489837612176,1.19271390251306,1.19171136273516,1.1907176784945,1.19022424806563,1.18966223314934,1.18653456917819,1.1832140446231,1.18134808607234,1.18106650386122,1.17920595454584,1.17890981081562,1.17846300832356,1.17999448307697,1.17930239174743,1.18042375229788,1.18374383514247,1.18744530313076,1.19090589648163,1.19444611485373,1.19494114546571,1.1954074633293,1.19600815709756,1.19655720989403,1.19830914869296,1.19975450438766,1.20255197092276,1.2045001548558,1.20515971147877,1.205101200902,1.20439755968445,1.20385107112571,1.2044605943684,1.20545879579906,1.2046147920504,1.20450886858664,1.20486705175715,1.20595189316802,1.21023553755892,1.21214963487219,1.2144527241671,1.21549433985255,1.21858127267379,1.22032978571857,1.22147986472464,1.2213741402452,1.22109197324154,1.21964581265274,1.21534294557411,1.2108115678725,1.21320816498161,1.21553152343378,1.2169159546194,1.21843697748963,1.22053317130049,1.22295397586853,1.22531895262385,1.22532339961685,1.2236048158695,1.22242329633865,1.22301350978588,1.22384140604689,1.22457389938085,1.22535996288297,1.22288386941918,1.22026529634876,1.22743522286442,1.23616362284192,1.23344679869593,1.23086372386916,1.23827946560807,1.24309463454837,1.24339951320755,1.2428375663489,1.2446773009432,1.24574772069801,1.24628879633143,1.24617930790612,1.24710890272715,1.24708504583595,1.24495763745696,1.24276591913212,1.24231090245959,1.24306336900399,1.24276544723524,1.24435069195745,1.2424960363191,1.24144723966211,1.24478291736734,1.24804455061385,1.24981586680593,1.24998189167972,1.25055386425411,1.24958097653205,1.24933846607347,1.24868826393426,1.25199333951394,1.25334294005184,1.25332402675273,1.25370900968728,1.25482697854582,1.2554562571826,1.25881174166932,1.2639724792563,1.265231927052,1.26584762210058,1.26469256781281,1.26196516640538,1.26111472921208,1.25908065335468,1.25755937885718,1.25692717039678,1.25555308620619,1.25479904747641,1.25692344396153,1.25967446085983,1.26386641580438,1.26671354361484,1.26642723765882,1.26571968627105,1.2662253534981,1.26667300143825,1.26887831642578,1.26942166400783,1.27213202401041,1.27323150690261,1.27495548639868,1.2757284046637,1.27787012797011,1.27914576590116,1.28118397732811,1.28310453262266,1.28835533916502,1.29053421450083,1.29340453558139,1.29935267389123,1.29990922567409,1.30212605444365,1.30593522101531,1.3082925107262,1.30927534972471,1.30980424553567,1.31502713386949,1.32249924879581,1.32357135124778,1.32425636020731,1.32673118582837,1.32934455905804,1.35098094401744,1.37121353548935,1.37191789465839,1.37249475892921,1.37630746570908,1.38328796427449,1.38363583338466,1.38316433820242,1.38477290964522,1.38512868071068,1.38590548791968,1.38531411555638,1.38662874049206,1.38592599726045
1.20697716770279,1.20745595556283,1.20806453356377,1.20788877462269,1.20799661402006,1.2083467227248,1.20876737178462,1.20903510955216,1.20898147071774,1.20856204834998,1.20785629626812,1.20701319315579,1.20618306422504,1.20546976500644,1.20491610483856,1.20451586972547,1.20423590894141,1.20403383263924,1.20386760777632,1.20370259897771,1.20352024014021,1.20332328098873,1.20312842694266,1.20294646114371,1.2027648792503,1.202551644251,1.20228360493527,1.20198247216061,1.20173522776059,1.20168534495511,1.20198807001652,1.20273081493243,1.20383783453369,1.2050281414694,1.20606618362941,1.20664366563147,1.20613784451515,1.20570263092908,1.20565439121087,1.20607557472215,1.20647539278133,1.20711384969235,1.20827197611203,1.20993618608945,1.21186933243233,1.21271719391457,1.21306328515055,1.21275071397228,1.21373619840417,1.21582570367423,1.21754529334941,1.22001937306175,1.22177304135691,1.22279747144662,1.2227817213434,1.22424884487135,1.2254767495124,1.2265945330739,1.22774752619098,1.22892027327767,1.22981586729731,1.230151476273,1.22979501705821,1.22905661959607,1.22731201790029,1.22758774341643,1.22868868881375,1.23128354417683,1.2334941370797,1.23515052652562,1.23629221050405,1.23702844438967,1.23742016065568,1.23763638269061,1.23769592201436,1.23778901932101,1.23791267785389,1.23972667037503,1.24130982619981,1.24263617834424,1.24379114971722,1.24427856995146,1.2447714944498,1.24556394143746,1.24651157374435,1.24707860198665,1.24768662877565,1.2481700893731,1.24858388812733,1.24818362315371,1.24774730301698,1.24744636326079,1.24753591505152,1.24805895230105,1.24890765427294,1.25002200505673,1.25131126414147,1.25153690697625,1.25036230374036,1.25127502337986,1.25170889596536,1.25196353562518,1.2522745085712,1.25340402398983,1.25353203670242,1.25387853870699,1.25455935249224,1.25500910564098,1.25593462141156,1.25690720904649,1.25861036621043,1.26114671690116,1.26424383868321,1.26573868678559,1.2663837618417,1.26611205459698,1.26559975021306,1.26544163766028,1.26652376912241,1.26740189350665,1.26809657733412,1.26813748886157,1.26814033119216,1.26801130420161,1.26775720051753,1.26659318190093,1.26714570054711,1.26710943975565,1.26733833877712,1.26787556525429,1.26907588143291,1.27048423051516,1.27154027203061,1.27274545526007,1.2735139054858,1.27479372387329,1.27574603920578,1.27816511826217,1.27994112049671,1.28221639132642,1.28483639433668,1.28881885510623,1.2916163690753,1.29441393838762,1.29744272450706,1.29903473145785,1.30007673021104,1.31018198087583,1.31134142004906,1.31357270163862,1.31658093461701,1.31922817380625,1.32475471632469,1.33063043304356,1.33922848806132,1.34789073011089,1.35670309356601,1.36589642922652,1.37227942995117,1.37386047777971,1.37640565296395,1.37950545337849,1.38281933229448,1.38452262575079,1.38524078317585,1.38615840384585,1.38657863255771,1.38743390427068,1.38806825752301,1.38930727539839,1.39027197876302
1.22333165464571,1.22440145858562,1.22493290635129,1.22553381471494,1.22521415097872,1.22302408477393,1.220712341448,1.21637075747517,1.21190125326514,1.21138562781842,1.21080927208756,1.21152606922984,1.2122143932269,1.2130375341395,1.21386177625936,1.21449242324552,1.2151176766245,1.2148464919493,1.21455944968651,1.21222379889169,1.20986782193769,1.21157037235622,1.21323074235506,1.21327186175643,1.21324976761476,1.21432137518537,1.21533800956312,1.21669171145452,1.21804540604313,1.21519819672779,1.21239067926272,1.21191650650402,1.21146891819643,1.20989390907461,1.208278473348,1.20752576175824,1.20750360413602,1.21239361029572,1.21806930656791,1.21629959099155,1.21441925651841,1.214498020941,1.21443263836426,1.21374563210353,1.21297175325157,1.21312653097287,1.21365106194187,1.21401677108904,1.21432726989797,1.2176723334161,1.22143319121956,1.22215474480627,1.22518193928192,1.22518020226337,1.22788555577218,1.22795678177009,1.22979011236472,1.23015832141945,1.23076141295464,1.23066715019274,1.23013583749338,1.23021171770992,1.22936172855769,1.22967332492822,1.2284146479344,1.22884811764267,1.2303331874411,1.23202686636267,1.23326545978166,1.23445246078497,1.23535868331247,1.2363001161717,1.23706300738751,1.24132995988616,1.24459655500806,1.24684905763827,1.2489310831135,1.24994155803463,1.24993348194891,1.24842266491421,1.24512534387104,1.24528043353168,1.24660240627566,1.24657521057174,1.24787715941917,1.24807612459481,1.24950320695596,1.24947291392062,1.25094529009391,1.25239741962309,1.25408270829368,1.25530369152984,1.25680104276756,1.25556927032137,1.25445794871476,1.25349859598745,1.25228083986621,1.25279931739856,1.25423020037407,1.25305330472432,1.25350104472573,1.25319841666462,1.25407392384701,1.25492617104754,1.25676173398953,1.25555028747269,1.25605496025016,1.25636785643345,1.2581139910253,1.25834844903258,1.26012745354272,1.26242742810674,1.2656433241265,1.26707571844424,1.26760009676083,1.26798864627641,1.26853558846581,1.26949013547412,1.27064561555536,1.27071854342079,1.26877460538782,1.27141085337388,1.27288816745809,1.27070259224044,1.26874012458992,1.26785598746018,1.26843296625457,1.26795097222792,1.26858451512241,1.26911527272268,1.27087413315984,1.27251341517414,1.27299957842187,1.27375663846486,1.2729695168457,1.27495592731819,1.27425260155744,1.27918153861588,1.28033415769444,1.28328412113908,1.28561738635513,1.29069503245736,1.29288004983978,1.29516017647519,1.29673512228728,1.29835673924724,1.29884140742821,1.31276235885346,1.31314704702476,1.31571836580925,1.31917495534979,1.32239673896218,1.32931188316976,1.35028419348821,1.37636784930395,1.37765350724191,1.37775542285713,1.38025928657852,1.38119951282494,1.38370285478284,1.38469185333688,1.38410490733777,1.38450286739432,1.38616284873345,1.38841546744971,1.38780896847375,1.38816257255385,1.38899426811965,1.39095845291002,1.39173758335417,1.39540482009759
1.22386863798931,1.22500733403991,1.2258998422331,1.22653865010785,1.22595849684159,1.22643195588895,1.2271915186843,1.22789517197639,1.22827736922862,1.22833734125928,1.22812720918716,1.22759189755062,1.22670023972121,1.22556271477669,1.22439668121968,1.22340942698768,1.22272571417313,1.22239662152482,1.22242735800905,1.22276751245064,1.2232823220924,1.22376228897707,1.22399058746579,1.22383445093357,1.22331137197283,1.22259364621573,1.22193034929928,1.221495322399,1.22129396775894,1.22123326529227,1.22121889576899,1.22115920938577,1.22094620946852,1.22053134756845,1.21999913493397,1.21952502619421,1.21925645887086,1.21921326509201,1.21930483199422,1.21943780264607,1.21956698878146,1.21967966643148,1.21975454097098,1.21974510650202,1.21965633031796,1.21958781028323,1.21976140753205,1.21898534367528,1.21937779236012,1.21954817006089,1.22121237696267,1.22248790959881,1.22413515846183,1.22526242201405,1.22681244705663,1.22768053065715,1.22882007267211,1.22990190282514,1.230815444238,1.23107711105736,1.2311789524177,1.23117223039693,1.23129446594886,1.23190265076542,1.23366305407806,1.23429273697772,1.23479702651919,1.23529439214421,1.23588533294362,1.23685506541283,1.2384581466767,1.24047355563159,1.24247662483158,1.24336512965143,1.24528426490585,1.24713995085498,1.24910805203706,1.25078856091424,1.25205935891001,1.25358473579861,1.25478031937196,1.25477823555976,1.25435823438795,1.25378071171037,1.25350546218277,1.25373426153065,1.25430682094535,1.25496416567955,1.25560563695391,1.25621952550428,1.25676467296982,1.25723557031826,1.25775388371744,1.2593522948944,1.26099428574203,1.26242282375095,1.26343434007922,1.26398864112084,1.26409045217413,1.26372848984634,1.26298721520422,1.26213041460791,1.26149600390338,1.26134931990336,1.26183262381827,1.26296245592223,1.26461849505602,1.26652056287482,1.26831731319351,1.26928958903015,1.2695845805308,1.26889503905729,1.26791851913075,1.26891837780947,1.26938177895295,1.26944856590454,1.2700552506825,1.27068313344521,1.27178284759657,1.272591395285,1.27406908665116,1.27402039463719,1.2738035351762,1.27438330136994,1.27472050404844,1.27480018154722,1.27474941174195,1.27466786538438,1.27470201261694,1.27509779677523,1.27606572333881,1.27537350767199,1.27569426979072,1.27589729347284,1.27678646971497,1.27767637698125,1.28004831271894,1.28129713394612,1.28284321121937,1.2848214576203,1.28735981118135,1.29044271572103,1.29362338936273,1.29651573330017,1.30057942391828,1.30468365160286,1.30625636813828,1.31446403261359,1.31532992345003,1.3179090378081,1.31976425349612,1.33818093619792,1.35016769799545,1.36116467739776,1.37765610050819,1.37876306972522,1.38054474544823,1.38217590233575,1.38294532999736,1.38535665862068,1.38617876550385,1.38661870240484,1.38686113505841,1.38798174875397,1.38873140069627,1.38930243510866,1.38963394328774,1.39017564909786,1.39069170469439,1.39179245738186,1.39284048684955
1.22529631334846,1.22603739306945,1.22719523838751,1.22895444271357,1.23201265522075,1.23258414703666,1.23292957986158,1.23346064259152,1.23363805939948,1.23351944942565,1.23264275997439,1.23325847610043,1.23307588938999,1.23282479044724,1.23196176110164,1.23180319378492,1.23075146054813,1.23125382909703,1.23067675620332,1.23128520157052,1.23074842942287,1.23238078256717,1.23345642295164,1.23318441263457,1.23301975460213,1.23347824024063,1.23424779840019,1.23482766870038,1.23617763261454,1.23670468232911,1.23805974259656,1.23793960305383,1.2381959272249,1.2399557154223,1.24233751489658,1.23632540208336,1.23370176085194,1.23484376961248,1.23579889408419,1.23064858978518,1.22521915457497,1.22494976898684,1.22446017566182,1.22528735590467,1.22580811156096,1.22342454189387,1.22120515938158,1.2199770746487,1.22032718298053,1.22043601875514,1.22196032957106,1.22274020427744,1.22417632990777,1.22527663725155,1.22684211386062,1.22740691479943,1.22806925874786,1.22980369305229,1.23148187015433,1.23162498992224,1.23236644316659,1.23211069952675,1.23293290634804,1.23325774872525,1.23533859111432,1.23612465874359,1.23827297453701,1.2394280356196,1.24106446503618,1.24253747584834,1.24414041743326,1.24377645806316,1.24342493453061,1.24430852374496,1.24609424594505,1.24754313238522,1.24961731794323,1.25203550863273,1.25355752037045,1.25504684939767,1.2555362463183,1.25641151851867,1.25698480736979,1.25879452622516,1.26066888770632,1.26131422796214,1.26211538232427,1.2623165794477,1.26232403060191,1.26507782060724,1.26771192867899,1.26815050413403,1.26714646389045,1.26767935108896,1.26647502777673,1.26697941438235,1.26629895826776,1.26767119540014,1.26788030525135,1.27049990379472,1.27287469132877,1.27196461343583,1.27064327982471,1.27145327135479,1.27160816923392,1.27345744486056,1.27469247598834,1.27203740862385,1.26929267161326,1.27017589688944,1.27091284449582,1.2722475924303,1.27351651254695,1.27131028330572,1.27133086645875,1.27073872877009,1.27160191954692,1.27177304390738,1.27326895359899,1.27377789017811,1.27547817165206,1.27667092004989,1.2791045821955,1.2799601996394,1.28067186620286,1.28081111417359,1.28060433289597,1.28098945179685,1.28087533772019,1.28000629326297,1.27856262188188,1.27744786305527,1.27830675028876,1.27744420915869,1.27807273541597,1.27901470025149,1.28129651608231,1.289007430204,1.29804469250914,1.29952452414995,1.30014385164069,1.30318485442564,1.30569524893658,1.30740931209478,1.30831980911805,1.30773996160036,1.30832384306273,1.31742424458508,1.32122075166395,1.32043981937559,1.32199427914335,1.35978410344787,1.38370772015224,1.3843251603361,1.38396108639712,1.3852648640488,1.38549005121885,1.38700434996302,1.3887933111784,1.38826289528828,1.38885493553627,1.38876538564986,1.38963905515559,1.38953885018513,1.39030665935395,1.39047863867457,1.39200250307185,1.39091413549929,1.39051043331142,1.39183059773411,1.39129697944295
1.22518619388094,1.22670534573715,1.22845576305924,1.23003604443937,1.23186909984745,1.23254687628502,1.23292939366555,1.2338397729266,1.23427209278102,1.23440751015313,1.23430099345386,1.23418865668596,1.23390955328415,1.23353602571654,1.23295993967265,1.23278462654849,1.23229869367065,1.23244202290576,1.2322833730654,1.23256243854304,1.23266119219619,1.23309850268411,1.23328527733367,1.23325699603742,1.23293832639503,1.23335285587828,1.23362137526325,1.23424973623692,1.23484269234446,1.23607795423137,1.23721127852451,1.23775501660785,1.23825321320843,1.23941622300996,1.24018818251575,1.23906499968441,1.23838345830274,1.23746519988793,1.23624836742305,1.23530619367098,1.23438102350757,1.23351810372391,1.23261383580176,1.23169988572023,1.23086405226838,1.23141687171245,1.23175851932343,1.23220935995519,1.23208300766087,1.23152147281322,1.23079629442339,1.23024981215396,1.23013780743015,1.23051908186528,1.23133667177742,1.23252899027967,1.23418456391927,1.23320699212466,1.23316580420185,1.23407980914626,1.23568957629032,1.23779145798223,1.24011268585098,1.24217617010101,1.24366178893469,1.24371628770299,1.24365739221887,1.24388624036091,1.24457799128572,1.24566294328222,1.24697214971992,1.248306425865,1.24953311775528,1.25066354253779,1.25178742911306,1.2528668668667,1.25364209256643,1.25393102644317,1.2558660252911,1.25708307016697,1.25845764749898,1.25951904567895,1.26021170751979,1.2606581818784,1.26112171283826,1.26220390454499,1.26345297414413,1.26476287122553,1.26608509275286,1.26729037737869,1.26818818851236,1.26918247272365,1.26894736243766,1.2690257664808,1.26791961777751,1.26780754304276,1.26804913135951,1.26842204759224,1.2684408753394,1.27076993177153,1.27230188523385,1.27245191604571,1.27239631380927,1.27237036680978,1.27323704481165,1.27394068607358,1.2749310058736,1.27595097633484,1.27666980227897,1.27710181407965,1.27739810482147,1.27782171902413,1.27868103505407,1.27965957465895,1.28028946469094,1.28057359533879,1.28057985489515,1.2805232638204,1.28065899548327,1.28104130380148,1.2816625747907,1.28247799501948,1.28336735139436,1.28416430605391,1.28477622287345,1.28532025995179,1.28609526179533,1.28733432982556,1.28903210984733,1.29100242484803,1.29301587647489,1.29489273374795,1.29652998931887,1.29789096803426,1.29898191805263,1.29981721634069,1.30038634650021,1.30011921398711,1.29953919058696,1.30028176565589,1.30164072657384,1.30338172401492,1.30520029521148,1.3079707915851,1.30930591247583,1.30978478543071,1.31090204859726,1.31969875699348,1.32637366093715,1.34750212096292,1.35482688061155,1.36352247515195,1.38450261201779,1.38546316195586,1.38578167464892,1.38679384561682,1.38760118870051,1.38905962661263,1.39015927423865,1.39075739845104,1.39091530340858,1.39134185926053,1.39147094794149,1.39169655498386,1.39146137814125,1.39160118391394,1.3918419898277,1.39189353215406,1.3922320597405,1.39430275257083,1.39507574706849
1.22553926412568,1.22734171263692,1.22990032102626,1.2308710295867,1.23271936385523,1.23263882518131,1.23227525845936,1.23461216844157,1.23532937469117,1.23560836745664,1.23619819225121,1.23532805155883,1.23507777181614,1.23443466293277,1.23378984494941,1.23394164979683,1.23348997031873,1.23376665910191,1.23377974383027,1.23385646529786,1.23458666387381,1.23393305289188,1.23373452050712,1.23351526961796,1.23253972296156,1.23327592861225,1.23303441145114,1.23364104177852,1.23328157394324,1.23553982966338,1.23735028101054,1.23763713137216,1.23794539225441,1.23925039218746,1.24005603070403,1.24132012896942,1.24376688252275,1.24448532549552,1.24460450623401,1.24532253031998,1.24561394178472,1.24513532814674,1.24392221551193,1.23872838175322,1.23121597606106,1.23134426483186,1.23121578020081,1.23224455069654,1.23295398748615,1.23509674721142,1.23721335445731,1.2379401792747,1.23892011012083,1.23874649923967,1.23889817469821,1.23814067830564,1.2373409056761,1.24031610031283,1.24297652372852,1.24367098719008,1.24396948210275,1.24440045197326,1.24425196848813,1.24493733793967,1.24504740675694,1.24731687489985,1.24883724012162,1.25042467602051,1.25136679837003,1.25282716456963,1.2536225405846,1.25611389933611,1.25842745047487,1.2584155909081,1.25836254984478,1.25972483089051,1.26099216620674,1.25972316092719,1.25862925931953,1.25892128884308,1.26100928524818,1.2652516369077,1.26994780131778,1.27087170735588,1.2716391746124,1.27365241414483,1.27429828901595,1.27403390908253,1.2736523442404,1.27328304361083,1.27317435247905,1.27094386912335,1.26999617299189,1.27105729372821,1.2737797234788,1.27312038117266,1.27200595252046,1.26910991429278,1.26655122030167,1.27190013083053,1.27319479011041,1.27326263711866,1.27420697756952,1.27861725704939,1.28305379778398,1.28238644591641,1.28162885021052,1.28229215266788,1.28265914372979,1.28295032840502,1.28299588981166,1.28190348234723,1.2804768098796,1.28085406294578,1.28169756453351,1.28287005982663,1.28361359653789,1.28562722263229,1.28742676652185,1.28790590953106,1.28828988137761,1.28883692540916,1.28903616651837,1.2909246295633,1.29247489676352,1.29312548814152,1.29369705662786,1.29629446417136,1.29891171102506,1.30117403284348,1.30187911175259,1.30412537926557,1.30535743277182,1.30396904142039,1.3004070697317,1.30056740143717,1.30097814653046,1.30470587914865,1.30822799795095,1.30549764632391,1.30257086806032,1.30320971994162,1.30350520625978,1.30968624562962,1.31111404613653,1.31136009138164,1.31324519476658,1.32636942828073,1.33959000036937,1.3621641717244,1.47195000000044,1.38899450180177,1.38750205832942,1.38723060161028,1.38747229353232,1.38834646930117,1.39006067295032,1.39121976577547,1.39363944311283,1.39309266271154,1.39426401422294,1.39343952321806,1.3946263460056,1.39374625989693,1.39329779076123,1.39235213011922,1.39264210100035,1.39236119479935,1.39278991133932,1.3982107357356,1.40213062424989
1.23315314104636,1.23359061856654,1.23351188808729,1.23342702665237,1.23386480651613,1.2348077138505,1.23608198783186,1.23696332520418,1.23710352589532,1.23678784087493,1.23666033401552,1.23621863954096,1.23604612431035,1.23579010535402,1.23586640918861,1.23607120951233,1.2359309910133,1.23579756139777,1.23521150245018,1.2349508862739,1.2345028270216,1.23482406839377,1.23484521699925,1.23513251818188,1.23494854921941,1.23471566286518,1.23412465819138,1.23454381028256,1.23474325480875,1.23604619848247,1.23703752359409,1.23800798170289,1.23869686164366,1.23990519486987,1.2409604942505,1.2424887619948,1.2441573836991,1.24509406471001,1.24557203075496,1.24564767645877,1.24529532495621,1.24557834546289,1.2455622117815,1.24634947499649,1.24643636742526,1.24629123581035,1.24600656441786,1.24598918780052,1.24554855546504,1.24470266607666,1.24364771879004,1.24277988044144,1.24254159991635,1.24312812615635,1.24440527692658,1.24598548090822,1.24742100934218,1.24789266498559,1.24794776182324,1.24789042643659,1.24794067115247,1.24817188504175,1.24869435419406,1.24962366301402,1.25087159310514,1.25223029353703,1.25358707397299,1.25499980485715,1.25654298777973,1.2580802950808,1.25930643505762,1.26009881527063,1.26047718783442,1.2619828297464,1.26283842253655,1.26315728903225,1.26313203060688,1.26504537079466,1.2667434602163,1.26840738852942,1.26830317054062,1.26830779584561,1.26958343760957,1.27065247538426,1.27174299579368,1.27470885607339,1.27544882470068,1.27418849938133,1.2733123745927,1.27259855926904,1.27201466552957,1.27127335646324,1.27160641432874,1.27274311237179,1.27437054333769,1.27621079475457,1.27803574559105,1.27970283237035,1.28116038129845,1.28222845401457,1.282893820675,1.28288190227305,1.28256029801319,1.28231567741854,1.28251509092707,1.28256768119263,1.28312226783753,1.28397895196802,1.28494738869888,1.28598420533433,1.28710519988138,1.28830474471242,1.28954953644327,1.2908255047281,1.29215637338075,1.29354045212895,1.29486879495976,1.29595678697271,1.2966747187225,1.29700760359061,1.29704799129241,1.297021213478,1.29718805932263,1.29765726026005,1.29834658870885,1.29911492568846,1.29987638917288,1.3005842872506,1.30117822295897,1.30267500826243,1.30401259118796,1.30514280405138,1.30607690390638,1.30613940752848,1.30744464984196,1.3090317119094,1.31022274420926,1.31124304061717,1.31171951926292,1.31460508765405,1.31676604688655,1.318725096556,1.32046483458532,1.32337827836459,1.32479929867317,1.33633514680437,1.34855885540342,1.35968728208943,1.36784766770988,1.37516122286721,1.39183563559249,1.39068259285453,1.38944107615344,1.38893229808949,1.38911324987342,1.39010093345436,1.39156472382051,1.39313614362867,1.39421679800549,1.39462214293355,1.39463483498712,1.39485323955464,1.39549403898248,1.3964103527713,1.39887706811273,1.40071778358853,1.40270497737283,1.40473033819663,1.40665824732636,1.40834085033928,1.40964696854007
1.24506489264518,1.24572960204105,1.24514641624336,1.24541940179355,1.24392944436336,1.24463729390495,1.24327766909241,1.24000364317868,1.23940051060165,1.23791339052539,1.23778888967708,1.23707671518934,1.23756200362065,1.23704203991047,1.23822472579658,1.23836163300588,1.23872845839858,1.23787799922887,1.23674044672207,1.23595783191568,1.23400818349273,1.23573090001818,1.23623037481623,1.23684862138632,1.23796854819599,1.23630513046647,1.23462507387679,1.23555512375609,1.23570087701246,1.23674835728873,1.2373484223044,1.23858744980492,1.23937010365925,1.24063171035757,1.24159106171993,1.24347676568614,1.24534549002446,1.24617926129009,1.24690763219603,1.24632645980889,1.24412323205791,1.24604266195329,1.24605246973742,1.24658750374849,1.2462123444243,1.2460433400272,1.24542909043276,1.2469694542211,1.24873276997525,1.24888256725692,1.2484495584547,1.24838633530678,1.24837069637166,1.24887311195687,1.24934947032975,1.24889560112357,1.24806500037642,1.24971402753622,1.2511250039414,1.2541477914336,1.25695910981841,1.25665804490814,1.25641605267481,1.26153465046296,1.26686880281074,1.26700661435449,1.26773904009953,1.26748425807618,1.26704557426083,1.26784639029341,1.26756123070573,1.26807033390606,1.26776479652974,1.26934320750053,1.2704053414097,1.27086260730341,1.27094900379782,1.27083196415044,1.27043311722803,1.27034890672027,1.27122403501208,1.27004738819177,1.26899838067174,1.27017449130724,1.26968312700982,1.27775180041011,1.27850140737696,1.28086905178946,1.28888260419994,1.28920890092097,1.29055200491747,1.29097153099316,1.29235736630555,1.29285824551125,1.29433908893254,1.29411461508995,1.2944962411162,1.28860362890397,1.28132101448964,1.28232938527608,1.28326183606381,1.28715682269705,1.29087541653386,1.29077181207,1.29082478264069,1.2970991392373,1.30196393532994,1.30159990172338,1.30069199666255,1.30023826276916,1.30007650843253,1.30048047927065,1.30127614976511,1.29967706806207,1.29839101317914,1.29850414851532,1.29882371515816,1.2979995381,1.29719983765541,1.29939459553911,1.30145002397341,1.30340464517959,1.303135918554,1.30670890462153,1.30874749726433,1.30878261253097,1.30740118048202,1.30657226630084,1.30583023070209,1.30524653469208,1.3063016308913,1.3063450888338,1.30760899909563,1.3068973206404,1.30679295325249,1.30907125060237,1.3111227775935,1.31164275306907,1.31246476706634,1.3145714980479,1.31608773615244,1.31806632008728,1.31883891592889,1.32468384572072,1.32606985597612,1.35563948144586,1.38625851093114,1.38900044505275,1.3911307591492,1.39267706315414,1.39326573297134,1.39262341568987,1.3909342879172,1.39001475793075,1.39055634931109,1.3913313189394,1.39384527384437,1.39521172175357,1.39643671024396,1.3960726569821,1.3957103562801,1.39570547141199,1.39712890469865,1.39761834452348,1.3998147438621,1.40755728380048,1.41273429071861,1.41311697630862,1.41195808575712,1.41392679538141,1.41605543602194
1.24635478807759,1.24686311128465,1.24634911012533,1.24688002580711,1.24642090119756,1.24632701758425,1.24500379085062,1.2451189623387,1.24484526824448,1.24426479341525,1.24354815090464,1.24281476061085,1.24224968403272,1.24194141306224,1.24157696984394,1.24062859593825,1.2410403003061,1.24051970646115,1.23923498644028,1.23852994787912,1.23893273510239,1.23819546316769,1.23830428919428,1.2384730783624,1.23862299156373,1.2384012669044,1.23901774463031,1.23793354404249,1.23790808405429,1.23854982942616,1.23947976444826,1.24013609812337,1.24091591847725,1.24195363258733,1.24318408022933,1.24454163411067,1.24602705890698,1.2473569255678,1.24850834724432,1.2485152248272,1.24900019198836,1.24828233538248,1.24725655415945,1.2475800758378,1.24900331549831,1.25044647069667,1.25169733125009,1.25082353199493,1.24975960343491,1.24982023778558,1.25091764290613,1.2524039737655,1.25418708061212,1.25592935931398,1.25722638224631,1.25816239221607,1.25873532158791,1.25889425702276,1.25889105772063,1.25881944226675,1.25889113041382,1.25939887955029,1.26060835314578,1.26260801288083,1.26522179985446,1.26645612435036,1.2672790686142,1.26781386538408,1.26894020437772,1.2688786993536,1.26854928444549,1.26853304274284,1.26858082291272,1.26955966604528,1.27051428462372,1.27097649617217,1.27119698171709,1.27110043723314,1.27104688930371,1.2712876035046,1.27172462666071,1.27136381203348,1.27090585754885,1.27106123848579,1.2711987650576,1.27972954724524,1.28056222578275,1.28315814864738,1.28679292539947,1.28819388680839,1.2892116602533,1.29004618882865,1.29091136934035,1.29199969926222,1.29311561366197,1.29367905545091,1.29416247225678,1.2940566080365,1.29419136184202,1.29573125157711,1.2973412388022,1.29905237363994,1.30064313052597,1.30190278982172,1.30265832122397,1.3027796068597,1.30236758172095,1.30210628265837,1.30222734624377,1.30216160070336,1.30203713843066,1.30205735510512,1.30241342576163,1.30312229607725,1.30409383638893,1.30509011747496,1.30586070312641,1.3062546970288,1.30617895771695,1.30558564259794,1.30452944745056,1.30550911284077,1.30731023471718,1.30819872443731,1.30944606071613,1.31013737247265,1.31202268925884,1.31369700754578,1.31541753844577,1.31743106467379,1.31961625080973,1.3216216954344,1.32317672375578,1.32420252236796,1.32479930973161,1.32529082923112,1.32614689796853,1.33442958584151,1.3395937725212,1.34342941512764,1.34826138030346,1.35352871590123,1.35993762613747,1.36764816817093,1.37517666870527,1.38187858028325,1.38850194438922,1.38990468307365,1.39180508118411,1.39383616328376,1.39527637773997,1.39597831560871,1.39760642091222,1.39718389625429,1.39698232990385,1.39709431877733,1.39752207700478,1.39833318570468,1.3995494412889,1.40160664969124,1.40443550956247,1.40610249002099,1.40753214365141,1.40893218802263,1.41056935123287,1.41240485918792,1.41340604076077,1.41465079787865,1.41615916997233,1.41687898737914,1.4175020012959
1.24789203101481,1.24899522575775,1.25128425847061,1.24919541532814,1.24822576052055,1.24908211391003,1.25088671415011,1.25194431759216,1.25225467173111,1.25347682612312,1.25366481321693,1.25397078604183,1.25299260202997,1.25247169854603,1.25055102899563,1.24900228858004,1.24616480552726,1.24345871832006,1.24140549589378,1.23992288350792,1.24008565786801,1.23955816604842,1.24044218714962,1.23966704174272,1.23992447672781,1.23973698238515,1.24121239471002,1.23957401563656,1.2400650092552,1.24020601696384,1.24234385509878,1.24158780951377,1.24248133476736,1.24303596416094,1.24473953811123,1.24537565016825,1.24681254441124,1.24863039517876,1.25160278090927,1.25010757901173,1.25008449147954,1.25079390621694,1.25391238188583,1.25542136169704,1.25638062308089,1.25521455359803,1.25353407852408,1.25559218972082,1.25709559773241,1.2579492703418,1.25829246378247,1.25812664957512,1.25739279012523,1.25745152322832,1.25709765551113,1.25814251233055,1.25894524271958,1.26554513091175,1.27249499703271,1.27337568770159,1.27476828693724,1.27889605326464,1.28139211793855,1.28241369377297,1.28323568514089,1.2834149885816,1.28459697428255,1.27426814632547,1.27202076020096,1.27030267439527,1.2689369152464,1.26889819302278,1.26808153886848,1.26985170961771,1.27076726851795,1.27148763300198,1.27157046789964,1.27171462461519,1.27127826651184,1.27235953923916,1.27281922753311,1.27296090936126,1.27193523608851,1.2719879753843,1.27279884139832,1.2809834779141,1.28463107328021,1.28462706899724,1.28701572391843,1.28752780850297,1.28805361988019,1.28913521020608,1.28932627894595,1.2912746588983,1.29262888259693,1.29353801528688,1.29450663558919,1.29381005606307,1.29285998966627,1.29591895658535,1.29920160133851,1.30117538913075,1.30330081718769,1.30523725121932,1.30613229806593,1.30810168797843,1.30877358482867,1.31116366479882,1.31283268325947,1.31286554980158,1.31234400422231,1.31186034660719,1.31137228273044,1.31063320684161,1.31018684089173,1.30955333622363,1.30910473257768,1.31001235749606,1.31100598492332,1.30824724968141,1.30532932180673,1.30657136190676,1.30875021124883,1.3092036948835,1.3105991008403,1.3144531750445,1.3181081629604,1.31813834234188,1.31813333358416,1.32085728832636,1.32355649518636,1.3414527181185,1.36398512689897,1.34604957550863,1.3292452685786,1.32833413549419,1.32753928354798,1.33523239939029,1.34557000012309,1.36107101124906,1.38554827443399,1.38848471953361,1.39114051058439,1.39147875176242,1.39111744431071,1.39025157105373,1.38964709191209,1.39061598028857,1.39258472160319,1.39566053048901,1.39867141153862,1.39849581443116,1.3999284906435,1.40262552691966,1.40450337726191,1.40376380470198,1.40293905867372,1.40101365670808,1.40190040159787,1.40293489696218,1.40558586204995,1.40783826840494,1.40989227980361,1.4117193959928,1.41349015728298,1.41324446430284,1.41380756623801,1.41590008904999,1.41919226987777,1.421460705315,1.42379235301313
1.24920880020331,1.24975474583796,1.25048562356052,1.2502155325003,1.250359570682,1.25087067861026,1.25213099003451,1.2528112195448,1.25358681311676,1.25436018603548,1.25485743257987,1.25501404021863,1.25455011930316,1.2536163316503,1.25206857157231,1.25055689023518,1.2488973355471,1.24844921667467,1.24832191894627,1.24816345706395,1.24808160621459,1.24747651371668,1.24718166211882,1.24692940499673,1.24733635478769,1.24765732176758,1.2483663472182,1.24942555176373,1.25072987777208,1.25195468369891,1.25284139332889,1.25273397227816,1.25239305574263,1.25215311528028,1.25232730253946,1.25303721678764,1.25419355021185,1.25558694978212,1.25700706223581,1.25832998114532,1.25954687557482,1.26073140892265,1.26197105385111,1.26330328759282,1.2646909497442,1.26604911351521,1.26730550103174,1.26845018904179,1.26953404004748,1.27061782417822,1.27171819064064,1.27279596761751,1.27379042603254,1.2746659166908,1.27543524352533,1.27615269838281,1.27689822467581,1.27775894960531,1.27877939293816,1.27985979595585,1.28085789932731,1.28075725441475,1.28181181063655,1.28264231830885,1.2830298792292,1.28249831483345,1.28123841487936,1.27634225639881,1.27307280255484,1.27114924539018,1.27003630845649,1.26967930205192,1.26982317895727,1.27068565271395,1.2718240069645,1.2723150929459,1.27287724279559,1.2727482979067,1.27299203516168,1.27379817758785,1.27502712220722,1.27588433875294,1.27775799630529,1.2779613682141,1.27875711286254,1.28049100845624,1.2827764974858,1.28402919064422,1.28559569359924,1.28665812909027,1.28802284103923,1.29009594124344,1.29255786945089,1.29527362817201,1.29806854525468,1.30062882292468,1.30268823806036,1.30419661651889,1.30526067945401,1.30595987503709,1.3062365520096,1.30607346009932,1.30558739254294,1.30626518564264,1.30792613229467,1.30915400714411,1.31021182158941,1.31156919670572,1.31270188755732,1.31341203188366,1.31256398897227,1.31226316786337,1.31294928664585,1.31433488793665,1.31596957322965,1.31738224857212,1.31829293966299,1.31869867418321,1.31887314956755,1.31990060108092,1.32053006035801,1.32092949601635,1.32167613249774,1.32554868079003,1.33108074297148,1.33565875248465,1.34136412526947,1.34716889225885,1.35138958333483,1.35588336497784,1.35991529183052,1.36317488306239,1.36572821445641,1.36963417744235,1.37314214587971,1.37502251408833,1.37593991114081,1.38318031953178,1.383850064176,1.38508987241546,1.38655575021926,1.38874070949805,1.39098063826018,1.39284516525532,1.39512167053282,1.3969424898776,1.39839434690765,1.39942512032253,1.39977592494997,1.39922430325766,1.39993043697329,1.39986703784805,1.40078374650244,1.40375820975838,1.40577771235232,1.40657626298862,1.40796730588398,1.40968023184171,1.41132439294598,1.41281807261911,1.41431928858108,1.41594910556377,1.417676240329,1.41930582371408,1.42059398318793,1.42147444566332,1.42211045738528,1.42265846099687,1.42310086276846,1.42339857405518,1.42375432078326
1.25083306536512,1.25041122417423,1.25067024618224,1.25101562244867,1.25228147460671,1.25235475447016,1.25431523323625,1.25392630274879,1.25505240515488,1.25548245303698,1.25621317727215,1.25641319807522,1.25629592349478,1.25516042105922,1.2535701395516,1.25239068415535,1.25067641305628,1.25054121464193,1.25196679173484,1.25048301170057,1.24911198599194,1.2483004484622,1.2489195905455,1.24891592568762,1.24985336394276,1.25087330236848,1.25177558521774,1.25280261868628,1.25330395162535,1.25362006153922,1.25349700656461,1.25705660444229,1.26044372243862,1.26212581907873,1.26376910612651,1.26597198337538,1.26823197311849,1.27095125365703,1.27387853743961,1.27382965362108,1.27411787967711,1.27203564870675,1.27016247872285,1.27183539409386,1.27363628324838,1.27433017110817,1.27522961379557,1.27583311142129,1.27676076191939,1.27738305337509,1.27833350356049,1.28166964746301,1.28323476315145,1.28395919490105,1.28367960202105,1.28447327846957,1.28436574157374,1.28279168203792,1.2814417403666,1.2816937576137,1.28200988487369,1.28170316341414,1.28258794902063,1.28340431106327,1.28375339891262,1.28244789113797,1.27983195360617,1.27862029107649,1.27278662331136,1.27138165758037,1.27023401481042,1.27020634409688,1.27073386137741,1.27159991495627,1.27344772184243,1.27348631165409,1.27481355756584,1.27384048546631,1.27404354264109,1.27510365826261,1.27748978480153,1.27766653641657,1.27965878947859,1.28799092655262,1.29681386119943,1.29814128647729,1.29886623453646,1.30049575267422,1.3016899765052,1.30346134333241,1.30518283707408,1.30588117922162,1.30617714621604,1.30896795013697,1.31096942134462,1.3101431165705,1.30943438437326,1.30894215466307,1.30788850027482,1.30969410249628,1.31063927250028,1.31148093316979,1.31224970257873,1.31121410788126,1.31008925301173,1.31015300508339,1.31111993213242,1.31190521634208,1.31286922954702,1.31555466733936,1.3203578615793,1.32048981510477,1.32045598697352,1.32047490288424,1.3201279126466,1.31944690987286,1.3182555844776,1.31832291703142,1.31756100524195,1.34469359674533,1.47203000000026,1.37694616928325,1.37588001004274,1.37420576863724,1.37311055539177,1.37469807742046,1.37655033841507,1.37280955337312,1.369148516081,1.37142876777833,1.37362805591081,1.37505557127312,1.37637256022652,1.37591240466348,1.37544579030298,1.37579625484675,1.37686461608042,1.38894315517561,1.39677716229849,1.39731295348502,1.39555320403241,1.39739983574019,1.39805239540112,1.4019500279902,1.40339574092338,1.40460900557249,1.40396555138165,1.40625417917879,1.40704851322467,1.40598498901703,1.40208062324344,1.40052664488295,1.40006296487872,1.40612003768095,1.40864334256942,1.4118203888487,1.41494422534152,1.41832572016882,1.4204183032921,1.42212564554868,1.42212762567635,1.42454248598106,1.42520611679497,1.42696070055267,1.42653636994779,1.42760387676527,1.42699521232901,1.43082893473112,1.43624528836552,1.43692036019875,1.43669331261005
1.25965925026936,1.26055790492374,1.26152747635448,1.26238612915898,1.26290803127465,1.26166334223751,1.26005492345881,1.25841132962776,1.25713082499239,1.2563490077467,1.25678923066311,1.25796768614204,1.25787740027849,1.25695742934171,1.25608411579115,1.25523188682849,1.25501249620477,1.25493198505158,1.25521475496562,1.25660959912567,1.25738571792316,1.25766486841607,1.25811439585793,1.25886959711212,1.25994984769838,1.26122699056735,1.26258898820051,1.26400042365878,1.26544399252137,1.26687241613942,1.26820065131648,1.26934893243367,1.27029341838148,1.27106443364627,1.27169643242738,1.27219683418234,1.2725891640701,1.27301846007709,1.27377617638449,1.27491114189289,1.27661740889826,1.27858332630129,1.28037564952988,1.28172066832451,1.28252342653558,1.28284167348779,1.28288323267787,1.28288050036057,1.28294814767207,1.28307794313393,1.28326333528312,1.28353818704692,1.28414973846708,1.28494165317347,1.28538831125898,1.28523109627912,1.28554013631875,1.28686388635385,1.2878620084258,1.28834153538087,1.28822542519956,1.28754654733327,1.28630245267414,1.28462094567029,1.28402979158913,1.28370436612983,1.28236899382043,1.28205303626351,1.28323390802399,1.28389249952187,1.28399459612749,1.28396412617054,1.28405157288447,1.28445838131504,1.28523765851528,1.28635046459744,1.28775687747271,1.28934879910748,1.2908655661972,1.29194580500506,1.29277684241223,1.29412207813359,1.29542807691408,1.29675284245045,1.29749914835076,1.2985003237863,1.29947399836898,1.30075062265381,1.30202135252737,1.30349406764382,1.30498182298059,1.30623905971471,1.30763859521607,1.30945033847214,1.3099625537192,1.30970598180755,1.30917042871648,1.30906435810425,1.30897783678338,1.31005348013931,1.31083964810178,1.3113981586675,1.31165455553483,1.31140001169666,1.31169170900538,1.31286639639626,1.31481166868691,1.31711763919157,1.31926224381307,1.32100632489862,1.32227731492965,1.32455035169816,1.32645265659589,1.32792042942593,1.3281504238464,1.33582683718477,1.34388932727197,1.35152314020605,1.35844171502688,1.36490190071544,1.37842134062509,1.37831669629414,1.37852445015799,1.37995687504773,1.38021352212156,1.38086987310758,1.38197530401454,1.38361575142048,1.38591595516091,1.38884577044919,1.39199658217952,1.39474037493431,1.39643775547302,1.39737014310371,1.39755643848774,1.39821348358962,1.39849482492342,1.39901702373086,1.3984724440182,1.39966075327133,1.40127575044254,1.40222567956205,1.4028237959734,1.40410674285785,1.40463441123792,1.40621356007834,1.40662212580055,1.40763085727256,1.40829024035481,1.40981096557602,1.41273434605651,1.41475357548699,1.41628354813315,1.4172937187902,1.41790306794277,1.4183461271254,1.41887711570519,1.41975835109182,1.42233013318319,1.42368071777302,1.42457587201659,1.42602582672608,1.42715230609498,1.42870126440047,1.42987819096241,1.43235897472206,1.43398784238499,1.43456484021651,1.4368517183173,1.43734269654527,1.43748831578774
1.27094029297281,1.26962649156257,1.26762694664695,1.26600379898724,1.26429917365405,1.26492011861135,1.26517246249966,1.26714002596575,1.26894822781588,1.26654491991522,1.26411931270503,1.26079539610059,1.26017439849525,1.25856898089911,1.25850628366663,1.25816605108245,1.25979113902891,1.25827971731218,1.25741973309425,1.25728354424935,1.25788092281279,1.25940192757403,1.26061112408266,1.26379619849795,1.26682282686524,1.26667064894958,1.26669948553007,1.26639811411639,1.26629957370889,1.26933819269568,1.27265887409548,1.27255254885865,1.27273966076043,1.27716275228452,1.28117232297868,1.28192477313149,1.28265951051407,1.2824303419095,1.28254415364928,1.28298335580521,1.28321910988116,1.28397294128326,1.284648669086,1.28515027595117,1.28565496478132,1.28577056404464,1.28583592299098,1.28672994304176,1.28747219679701,1.28731096258714,1.28694116463826,1.28513424480383,1.28491343664308,1.28624550691197,1.2889659245239,1.29006380148372,1.29165381436459,1.29202755925629,1.29246565170578,1.29222871489783,1.29217356283288,1.29214923105779,1.292157668881,1.29129055810743,1.29087266697531,1.28611789934064,1.28386418772433,1.28316977471013,1.28356955433171,1.28419099550371,1.28486671236621,1.28800221970162,1.29096465286334,1.29037066843073,1.28958234714776,1.28886196819627,1.28825693113009,1.28956351930913,1.29086224933205,1.29150572478231,1.29179015683659,1.29370972452389,1.29495766145494,1.305842995465,1.31567769375718,1.3161102594575,1.3169821973838,1.31572063213052,1.3144402569035,1.31404441855565,1.31347610962231,1.31345742131635,1.31297705259646,1.31073424241889,1.3093536818719,1.3091489927436,1.30810983378284,1.30865939230107,1.30846010209264,1.31444543254576,1.31980362159766,1.32863124704847,1.34194089819295,1.34190815946396,1.3416790873261,1.34124246429831,1.34085498740944,1.33292139508044,1.32550427057756,1.32784617171893,1.3298876262305,1.33001770855848,1.32967800106161,1.32861686453335,1.32784917201105,1.34496187479321,1.37150054572959,1.37244057894122,1.37237942982373,1.3743178536913,1.37873556683159,1.3794757971317,1.38036179287725,1.38143882445167,1.39009518052852,1.3896368319256,1.38972054286453,1.38998539183891,1.3896718478797,1.39236164918837,1.39458843318204,1.39516610798759,1.39560333881805,1.39662611694745,1.39640305164742,1.39797642628085,1.39804874925931,1.39995507004276,1.4019217135117,1.40169580831408,1.40268401968872,1.40399132653011,1.40628909344165,1.40701389848557,1.40933716501817,1.40863030379187,1.40859426946863,1.40915866916878,1.40859214425624,1.41148949935452,1.41333832387706,1.41658337155434,1.4179683764017,1.42002296760083,1.42025684068843,1.42379847048674,1.42631485276057,1.42633876850413,1.42559140423228,1.42573010952911,1.4261095564622,1.42765651011564,1.428206686902,1.43051077462885,1.43234851348784,1.43408004367289,1.43438994068134,1.43670306933511,1.43839663916071,1.43824761668946,1.43657298876425
1.27329687270389,1.27402600817329,1.27472430600428,1.27453104052841,1.27413176547767,1.27342889254255,1.27244597456726,1.27129336233595,1.27012468721357,1.26991490765245,1.26995816238501,1.27020912608132,1.27049291513844,1.27070913769681,1.27086616827824,1.27102947327791,1.27126163769547,1.27159409348698,1.27201946896322,1.27248257913854,1.27286959169354,1.2730244407927,1.27287311872881,1.27310402042562,1.27336927202743,1.27512064740867,1.27681407526284,1.27831874091566,1.27949066555649,1.28102211103777,1.28215036990361,1.28281878962828,1.28297280478897,1.2826217664967,1.28199922806708,1.28229557801336,1.28329192118801,1.28493747728185,1.28641159843905,1.28753232807981,1.28831698782248,1.28894668273474,1.28957371790903,1.29023361063528,1.29089301462036,1.29153108528665,1.29215782062924,1.29276630128864,1.29328959633348,1.29362164706416,1.29369335535284,1.29353799674595,1.29328450259898,1.29308237042021,1.29302212874184,1.29311539271922,1.29333607849263,1.29365674549887,1.29402521347202,1.29422459562749,1.29397987845943,1.29331298281249,1.29255835405603,1.29222964564276,1.29257733046254,1.29347762425535,1.2946282156427,1.29566714171279,1.29633423982927,1.2962998170345,1.29564563071941,1.29445464569731,1.29312606492872,1.29419575949024,1.29575016254711,1.29735251978709,1.29817549110822,1.29951320421026,1.30087938219866,1.30340072618244,1.3057501043297,1.30823402609167,1.31102726278623,1.31272738799373,1.31466920269799,1.31573562472807,1.31655656828061,1.31713583959303,1.31809710646453,1.31959812811695,1.32170862541922,1.32438183631647,1.3274639055101,1.33073013171482,1.33392031628244,1.33676065729169,1.33899269945217,1.34043873305853,1.34109270361972,1.34116732047774,1.34102718264108,1.34118286004954,1.34171752264293,1.34245131444105,1.34429840249664,1.34790753346531,1.35201339302476,1.35627315835462,1.36026238334383,1.36384110619607,1.36738726808308,1.36971890643973,1.37087478601655,1.37143926150787,1.37151227578158,1.37217540361403,1.37246723501892,1.37354988806328,1.37458704619393,1.3766680958868,1.37930167486526,1.38092938289382,1.38223773663113,1.3842514078828,1.38755730598153,1.38914046878183,1.38986144210915,1.39060738860413,1.39100315040166,1.39293793492494,1.39452696767222,1.39555517220863,1.39635525799949,1.3975352417205,1.39847639753776,1.399416126262,1.39995544569868,1.40096405585537,1.40192041361956,1.40291781168398,1.40403144449775,1.40538637290226,1.40709629867793,1.40849722534558,1.4099268270599,1.41042680015824,1.41084765001114,1.41193293179387,1.41382086388027,1.41422501360053,1.4156871021948,1.41811048219733,1.41937375983183,1.42141100512825,1.42266202738637,1.42465269417173,1.42652627127612,1.42697107163189,1.42721337898405,1.42722368547838,1.42792344563351,1.42978433957186,1.43129034141689,1.43210492738923,1.43384167803049,1.436283245078,1.43760307272532,1.43839515777837,1.4391287481003,1.43939078941636,1.43959964881535
1.27480086414549,1.27475372550448,1.27563532471447,1.27678734590236,1.27810135666188,1.28022998206955,1.28108209751583,1.28160941860031,1.28010293042504,1.28079578448139,1.27989822685396,1.28175111825257,1.2824050509685,1.28318887113992,1.28264301701865,1.28138574303562,1.27893069886752,1.27713916628662,1.27545157356996,1.27447021194029,1.27349917341431,1.2729814033338,1.27233942217705,1.27304704734179,1.27368198206751,1.27516639470169,1.2764203753799,1.27797286133122,1.27865118691473,1.28095672413144,1.28235352491457,1.28549312123131,1.28688055948322,1.2900439469211,1.29159631494405,1.2932570227257,1.29338885393849,1.29540489154036,1.29556552120123,1.29747470413495,1.29770829005375,1.29959839620658,1.29977723664523,1.30157398015772,1.30181170999162,1.30192474633875,1.29998275249352,1.30136259644846,1.30122134868499,1.30473245954679,1.30626342989329,1.30701116828442,1.3066993764577,1.30754031701523,1.30701252069717,1.30642544279888,1.30522300225977,1.30376901695516,1.30261605402107,1.30180180683756,1.30086972490176,1.30189002995645,1.30262172115248,1.30208013042961,1.30129077120904,1.3019156457315,1.30246038745585,1.2995374264498,1.29663780536863,1.29838873630274,1.30022924090712,1.29932649131281,1.29848218286309,1.29835695914394,1.29789729902111,1.29756979245339,1.29694526861271,1.29874982321656,1.29928155770228,1.30385302199293,1.31248011005912,1.31252839237162,1.31258437058832,1.32221176886888,1.33232322657956,1.33436216078961,1.33648435618913,1.33848369728182,1.33990870148056,1.34046673842333,1.34101288840551,1.34044807232729,1.34010171535527,1.33959264416915,1.33924272720121,1.34104366954918,1.34320541393815,1.34312320540115,1.34358059424457,1.34210216006069,1.34086429947628,1.34114762688886,1.34165230430432,1.34978388795927,1.35845725016312,1.35920849576126,1.35848789662266,1.35994693741539,1.35966653650392,1.36262769207071,1.36920428072879,1.37007803452059,1.370692968151,1.37136996372255,1.37071593203418,1.37236224120799,1.37279405798584,1.3745818422503,1.37617085861223,1.37841280814272,1.38151008315238,1.38241155189528,1.38422401382738,1.38541543515386,1.38733834897121,1.38899282254974,1.39042464440618,1.39109639976355,1.39133775365231,1.39352601727592,1.39544350976273,1.39607569460746,1.39722472966756,1.39866783641855,1.40091311977002,1.40111377286738,1.4017185067704,1.40194409710218,1.4021392017976,1.40408076473574,1.40569368493825,1.40656039873854,1.40864187205565,1.40988896697395,1.41168232649176,1.41217040276159,1.41265193629681,1.41390733444971,1.41559368029773,1.41589452616082,1.4170048766453,1.42045643835065,1.42357757547949,1.42331398798493,1.42414241609054,1.42561836822242,1.4281897288915,1.42798711595206,1.4290014970256,1.42815580444813,1.42833603614301,1.43535673842451,1.43987369243642,1.44053380547531,1.44052236143475,1.44020078918708,1.44012904231767,1.44072680853248,1.43929124386146,1.4411045610091,1.44031654878971
1.28455265163758,1.28515471880283,1.28550325912057,1.28557924591494,1.28526856711389,1.28447967990971,1.28385442756944,1.28325910934463,1.28255306984182,1.2821954887224,1.28201284478928,1.28291155806971,1.28392117972435,1.28431065015237,1.28392093748377,1.28465381329822,1.28554079538474,1.28547008288518,1.2850590188633,1.28439013638563,1.28363801400509,1.28295232675113,1.28245620895631,1.28223020820705,1.2823068931362,1.28265595462315,1.28322276894212,1.28359322416399,1.28403387920921,1.28433891083585,1.28526253003706,1.28688918797474,1.2893975244012,1.291361795276,1.29280663751587,1.29440400150515,1.29557243826154,1.29684927829665,1.29761127634594,1.29881785654971,1.29968003293349,1.30105349170612,1.30197171786331,1.30297432498898,1.3035342705312,1.30396580767644,1.30492467236332,1.30563564847229,1.30672265087751,1.30683175639878,1.30757596324735,1.30814461880556,1.30855023555356,1.30884950816046,1.30796449567355,1.30719235180751,1.30734231004387,1.30851862957797,1.30945057547634,1.30873250352112,1.30767126443777,1.30648824736681,1.30534114883494,1.30436435579398,1.30377790678192,1.30371083187495,1.30405365493006,1.30469401681312,1.30571856317642,1.30713517945757,1.30858773794347,1.30964432501601,1.31013193509773,1.31205653965525,1.31369885551871,1.31469112660555,1.31556094562555,1.31786109709866,1.32067066069315,1.32416847859345,1.32718371753622,1.32954062844217,1.33116639597785,1.33219154348221,1.33297038891482,1.33453581140772,1.3366411457499,1.33927982932203,1.3406800687221,1.34086248067831,1.34188022265705,1.34383379664111,1.34560815756695,1.34706322558334,1.34839842900017,1.3499252204491,1.35168598646387,1.35345074914356,1.35499665752114,1.35625097449745,1.35717497659452,1.35840201299772,1.35916955303333,1.36019488780361,1.3602282028448,1.36056802843697,1.36081116676018,1.36190383471602,1.36334960006769,1.36520376044042,1.36832735039636,1.3704033590844,1.37186427744602,1.37256025662267,1.37289711119048,1.37396617636243,1.37489115757236,1.37624728123553,1.37761260222717,1.38006504233754,1.3822685952921,1.38390471658009,1.38501648099798,1.38684890728685,1.38824572619119,1.38988957698927,1.39087009954719,1.39286401750711,1.39404942104736,1.395124214329,1.39598328720775,1.39678811943364,1.39786317348649,1.39962174887736,1.40163625162558,1.40279807907456,1.40260888209144,1.4031859620509,1.40470362511187,1.40587690685456,1.4064395712272,1.40702122288972,1.40823267975869,1.41113775806856,1.41310276339432,1.41422211597757,1.41475688510126,1.41583958299495,1.41803178328158,1.420278622699,1.42200517509253,1.42294319512179,1.42431072466442,1.42405541280918,1.42478650915174,1.42602134426991,1.42783770519723,1.42968605202099,1.43181384222691,1.43410954619737,1.43657594802279,1.43904815023154,1.44013122717548,1.44118732858558,1.44187951707949,1.44245418485916,1.44314333367584,1.44391157064805,1.44552315333866,1.44567287593029,1.4469388350749
1.28743687103106,1.28748270378331,1.28723090401663,1.28819480664283,1.28795599597109,1.28773384370602,1.28628224528846,1.28470649188987,1.28438382002829,1.28322546280724,1.28297892811793,1.28394169754191,1.28598526177004,1.28613751879444,1.28818293329361,1.28673451047976,1.28633485654398,1.28821302227108,1.29056599525468,1.28848479333362,1.28658692086771,1.28696704866449,1.28738280337188,1.28707901010034,1.2866873071285,1.28522645419803,1.28361730451056,1.28388407798512,1.2847185244459,1.28726576906905,1.29018481876635,1.29192590752257,1.29228237622677,1.2929749705367,1.29360452813361,1.29561586600415,1.29730613703862,1.29840188421028,1.29890874058868,1.30015061474892,1.30080962969432,1.30250498833538,1.30386401586592,1.30453120012262,1.3054041887199,1.30544797011713,1.30649042399359,1.30698720803599,1.30831988934206,1.30854379288496,1.30927204499774,1.30954104580242,1.31054244400396,1.3112762793486,1.31339294443956,1.31545115708506,1.31622536799521,1.31361904563017,1.31072406475769,1.31155147903913,1.31204501337002,1.31393794256791,1.31578141295455,1.31599858327874,1.31470879352917,1.31462673157241,1.31445465036882,1.3124537797516,1.3103312709481,1.31077425200985,1.3110007415031,1.30972560826456,1.30814423094877,1.31144739891063,1.31436119413314,1.31423913323764,1.31393105822821,1.31720102487004,1.31974708563182,1.3276005977973,1.33514080347997,1.33610721791738,1.33711874806796,1.33809337697683,1.33895803632028,1.34151226671196,1.34380695269664,1.34205269783495,1.34306756374493,1.34868240679856,1.35499079822309,1.35537090361788,1.3547843344814,1.35538295829428,1.35469605346788,1.35555198559283,1.35471175585874,1.35653824097333,1.35709244459469,1.35730204967276,1.35650711762245,1.35836885767392,1.35834540342561,1.36063527726569,1.3613647197708,1.36189668754326,1.36229551542838,1.36365655848895,1.36510347021353,1.36686663624992,1.36874686573597,1.37136556782111,1.37396375599017,1.37396663338582,1.37459523137255,1.37552464196409,1.37695867528912,1.3775969112314,1.37857871064935,1.38149532516663,1.384452678562,1.38541926479907,1.38575416695465,1.38816033871983,1.38984497303805,1.39087236596791,1.39098531553878,1.39468974480154,1.397293827959,1.39648045977581,1.39710370848834,1.39729182405838,1.39845027447265,1.40042907919017,1.40359364545451,1.40615446469032,1.41150565487252,1.41227276477799,1.4112382071263,1.40815532521289,1.40743171769085,1.40690266778352,1.40645140343916,1.41333604301781,1.415648806166,1.41747646399104,1.42215513012527,1.4205048886924,1.42077187594628,1.42206070455987,1.42531017045196,1.42498434671147,1.42675078487351,1.43069274796752,1.43742858691002,1.44099133058339,1.44274534755238,1.44438621258769,1.44402894271658,1.44482826219148,1.44331366081511,1.4411358583993,1.44021695058854,1.44263905498008,1.44299215239988,1.44528208156524,1.44678379152895,1.44716422388057,1.44765184242026,1.44848396050758,1.44959372284275
1.28726999434563,1.28785932186072,1.28912184061995,1.28924168523512,1.28910119988078,1.28921871506123,1.2891498987699,1.29086065831359,1.29205397408676,1.29257610690899,1.29252710061463,1.29212025739816,1.29156107364583,1.2911908061429,1.29136083324867,1.29240374531166,1.29361286250534,1.29430992555403,1.2939021654944,1.29418896668541,1.29415226964496,1.29390418610129,1.29352006562045,1.29304214067203,1.2925107515683,1.29200703559857,1.29166807773751,1.29167088200614,1.29217761976507,1.29323424759526,1.29474557680834,1.29438293601789,1.29454263017392,1.29461486144299,1.29527746362115,1.29702940945552,1.29910690581585,1.30044701416206,1.30136561508051,1.30186422369375,1.30335858167622,1.30398663496637,1.30534779197122,1.30588491338838,1.30589965662763,1.30613984223338,1.30683794936114,1.30796540644462,1.30943596788333,1.31009769541508,1.31085025761164,1.31042904609557,1.31113903803604,1.31232246917367,1.31459037536365,1.3165217142735,1.31769849389661,1.31869030217639,1.31945185289636,1.32001389993241,1.3202374834387,1.31978067759674,1.31830492952362,1.3175617142158,1.31825697996742,1.31938358285032,1.32097457815784,1.32267280748107,1.32401692548963,1.32525878818019,1.32617440854457,1.3275323702827,1.32856434997387,1.32964321432701,1.33062085809725,1.33228750398716,1.33332612180649,1.33388239639184,1.33423522358226,1.33463493243655,1.3351983485326,1.33599363486937,1.33700166630932,1.33832189717246,1.340068583129,1.34227266724457,1.34486195385971,1.34840236056533,1.35211973140257,1.3538213673886,1.35558079705527,1.35631846363347,1.35629098909259,1.35663797288434,1.35647361064949,1.35698512451538,1.35689918592407,1.35746291770868,1.35790980440519,1.35825527402137,1.35873739373948,1.35989613573902,1.36112035807292,1.36216678711476,1.36275636036723,1.36327418974991,1.364190846776,1.3655203687684,1.36736024260693,1.36869780135846,1.37046578688621,1.37256644451637,1.37429792056093,1.37506059992099,1.3756696008566,1.37697835338823,1.37824040483618,1.37909047174278,1.38022800839584,1.38356705428219,1.3860114928169,1.3881646609288,1.38980322723238,1.39090467434933,1.39136967698884,1.39362283895685,1.39482702241331,1.39667122721894,1.39831895695159,1.40132851104685,1.40461983473849,1.40774520066564,1.4101847434821,1.41171908996224,1.41257749164789,1.413077320149,1.41343912933371,1.41562377320564,1.41824117097673,1.42037666353472,1.42200828293744,1.42319812425223,1.42406771320238,1.42464472301181,1.42504643584792,1.42562609349722,1.42573111906707,1.42758796499095,1.42965739862049,1.43178399438652,1.43380124628558,1.43555394680783,1.43707669407451,1.43859341042293,1.44012560773933,1.44228253172465,1.44461064577516,1.44579355807354,1.44643262187286,1.44663484709873,1.4459809736612,1.44772617901044,1.44783922350572,1.44723246247183,1.4476251241379,1.44785992546397,1.44896083667679,1.44889742503515,1.44931700933341,1.44996271192486,1.45108735929134
1.29817291668661,1.29533286408177,1.29216988060854,1.29049597658288,1.28999983208577,1.29097093367776,1.29386451764597,1.29450966123185,1.29484662877957,1.2975273600944,1.29799189205015,1.29841840857612,1.29797121171328,1.29859791193103,1.29861778830715,1.29877311328962,1.29729160275837,1.29667596031502,1.29621753000674,1.29720614489579,1.29808521034184,1.29997706645443,1.30192676528708,1.30438643721962,1.30612964023735,1.30829131488222,1.3102870921737,1.3081851755321,1.30541049811803,1.30094559942342,1.29693217481755,1.29603476499288,1.29703722641157,1.2958179111807,1.29593548684352,1.29818978712306,1.30172878980414,1.30285833171499,1.30665690297744,1.30997804278432,1.31173389580023,1.31216133039294,1.31089977465133,1.30761523301628,1.3063272228217,1.30643485991368,1.30698206437524,1.30880718056027,1.31166738566112,1.31179983179952,1.31389218204902,1.31918338976902,1.33224129420307,1.32688352381692,1.3188133511484,1.31820001966559,1.31921189839261,1.3208003277213,1.32230341790615,1.32190860551365,1.3212844693573,1.32149705065979,1.32164926218278,1.32389246692032,1.3259129246697,1.32448055108222,1.3227811244809,1.32333433656531,1.3235182750482,1.32473927994715,1.32485625267509,1.3269226362789,1.32774943451216,1.32906350109004,1.32935851366091,1.33443140188071,1.33985845066658,1.3425584003213,1.34514025818838,1.34500671313006,1.34502824577326,1.35169495855194,1.3597372370413,1.35941163893373,1.35919677070878,1.35855398072375,1.35773335016143,1.35661406422982,1.35483144254172,1.35578919285604,1.35746168863528,1.35770917155472,1.35770404661961,1.35805687487703,1.35762311465958,1.35861217966834,1.3581207220145,1.35814241076199,1.35865890714638,1.35902277543813,1.36022295090917,1.36119406814795,1.36343575747341,1.36385868001922,1.36402995428676,1.36432922261384,1.3658244163161,1.36713983153156,1.37035298742679,1.37027482382272,1.37199594485445,1.37401592152018,1.37586856713021,1.37621685727393,1.3764281999374,1.3782969588135,1.38028913979622,1.38004635178087,1.3799469784885,1.38603669038874,1.38851939370867,1.39105069730588,1.39463268542861,1.3958512512324,1.39913891540243,1.39731703573279,1.39550144998117,1.40207460489271,1.40850526056828,1.40949409942511,1.40928385033749,1.41202599028299,1.41321081234728,1.41566401039726,1.41635590340993,1.41862406305152,1.41966849375054,1.42053195748991,1.42098551136548,1.42269697142127,1.42357188159355,1.42535229771383,1.426511374512,1.42721496765812,1.42642571811984,1.4265122991785,1.42776467686685,1.43219678812179,1.43568332955442,1.43917292247696,1.44157294623618,1.44257762401853,1.44208837098766,1.44471331422244,1.44858310257326,1.44777777429421,1.4467786892013,1.44774941941808,1.44820332321168,1.44927029844804,1.45057126152944,1.450292322509,1.45034545926019,1.44996551088943,1.4494655915826,1.45064009017841,1.45158972596698,1.4511107159694,1.44972172727915,1.45175165091006,1.45282285121353
1.30261461469353,1.30224165550267,1.30188048712229,1.30156873062584,1.30128606563402,1.30100712632849,1.30071511205383,1.30014462393447,1.29989425358988,1.29951012390235,1.29960378130483,1.2991450340513,1.29873097780765,1.29908081073109,1.29962572660912,1.30030623790075,1.30102567611071,1.30186610202092,1.30285237351045,1.30389927891495,1.30484935842416,1.30560174824,1.30611466082657,1.30644909911538,1.30758757804561,1.30866694598733,1.30961373866817,1.30898169321796,1.3083446775661,1.30893935479004,1.30894378153641,1.30955811227287,1.3096602110856,1.30934015965733,1.30891749117607,1.30873188609003,1.30898214589182,1.30977202509746,1.31109324399977,1.3119065122597,1.31336302280689,1.31417218817552,1.31480695221976,1.31658361608029,1.31814980658191,1.31950317895626,1.32077387873915,1.32265178899161,1.32442554883756,1.32613928120077,1.32773476886022,1.3298544089542,1.33161218784573,1.33190789195607,1.3318760550437,1.33182477029619,1.33195914402217,1.33220594226951,1.33239924601435,1.33250344481801,1.33261959443581,1.33290351284013,1.3334881144771,1.33443403175535,1.33571184747426,1.3372147090028,1.33879463741712,1.3403084506838,1.34165580157526,1.34279635431244,1.343744761162,1.34455384334739,1.34529930110119,1.34606984953584,1.34695235414715,1.34800302654943,1.34922563480595,1.35060326779021,1.35218728241957,1.35410892650601,1.35636650097674,1.35874004120162,1.35934649710747,1.35931455507031,1.35906415358741,1.3586581873834,1.35784306905987,1.35696476401827,1.35617784618415,1.35733559098676,1.35896652511264,1.35990975188283,1.36016998094682,1.36081477542822,1.36146831101141,1.36196913623469,1.36275593849302,1.36307792919518,1.36364036082523,1.36437571127137,1.36513963694255,1.36582080698489,1.36639674295106,1.36776553434209,1.36895018567412,1.36894787526973,1.3691960857514,1.36969338215819,1.37057772864863,1.37199003800418,1.37381039699091,1.3757485823345,1.37741341380193,1.3778554200444,1.37846648039871,1.37985810696082,1.38176205388013,1.38396922425355,1.38580063023675,1.38777340490891,1.38994209503591,1.39354819169382,1.39556810801599,1.39729860287805,1.39905397661021,1.40126272949385,1.40361641652414,1.40611304663396,1.40878129256425,1.4103922051847,1.41129806209298,1.41315341841371,1.41560380069437,1.41722706476567,1.41840573659694,1.41996987818505,1.42138252406854,1.42204213680507,1.42270738755039,1.42358050827602,1.42430776221909,1.42594568619669,1.42766300409987,1.42871485787517,1.43114165420523,1.43333379901189,1.43549622229467,1.43665630469363,1.43782151165562,1.43991971746345,1.44195656955867,1.44355384001779,1.44460080259967,1.44637830833316,1.44812743511928,1.44825030154538,1.44826764374234,1.44893289125181,1.45001874860426,1.45067566181192,1.45171558507374,1.45173617274301,1.45194046180663,1.45181980779883,1.45203092377059,1.45180196937534,1.45232408952931,1.45271227034426,1.45403021189178,1.4535574874002,1.45360489745449
1.31463249772592,1.31061700377309,1.30799387971847,1.30471537432024,1.30137826530927,1.30125611546674,1.3014857739626,1.3014990699526,1.30191045854474,1.30103458377895,1.30172819407809,1.29982551919392,1.29873653739118,1.2993998642993,1.3005317741555,1.30287062953399,1.30684229440034,1.30953989103499,1.31089046482034,1.31139965404512,1.31107321937216,1.31175691012085,1.31206569880034,1.31047823751814,1.30928799210631,1.30945442256098,1.31069019362996,1.30984727181465,1.30990762189438,1.30899994248988,1.30776397908718,1.30951603207413,1.31088471855565,1.31196045227531,1.31296895006977,1.31414322305988,1.31539593359978,1.31431724481378,1.31300358872217,1.31354264448927,1.31612079644202,1.31657590245136,1.3174512640046,1.31856156171441,1.3196821763243,1.3199822486922,1.32007707646077,1.3235909975142,1.32693464169487,1.32698954806311,1.32693386074249,1.32975045021634,1.33213313129626,1.33325783625077,1.3343138416781,1.33514281411943,1.33639961014496,1.33863017467948,1.34155163467229,1.34146287970379,1.341482803463,1.34137507396595,1.3412904628247,1.34154260367027,1.34184843186373,1.34522488804297,1.34884739760036,1.34977920691892,1.35086568695864,1.35400614547646,1.35730171294486,1.35764230389005,1.35683388713905,1.35802885452163,1.35748813308948,1.36092786475536,1.36310964092284,1.36382677910689,1.3640597841054,1.36318126363337,1.36193352695177,1.36042813636336,1.35949334860229,1.35941190361038,1.35903236005402,1.35905168598504,1.35780966962532,1.35680784051416,1.35549557176235,1.35809231401539,1.36170391315893,1.36228509830785,1.36306703796611,1.36321778029279,1.3644246136892,1.36483229632598,1.3670553546503,1.36937192462901,1.37175558940252,1.3724187763693,1.37280440135037,1.3731884941605,1.37210093170302,1.37000506052854,1.37041970378215,1.37698049247382,1.38161925059522,1.38137157005557,1.38117718522903,1.38208633155818,1.38274502751642,1.38048206492934,1.3803594353267,1.37934856650299,1.38004111946254,1.38093740009408,1.38312834994296,1.3889007562967,1.39496576133784,1.3976886644452,1.39915966836825,1.39738373667023,1.39742651368387,1.39851450139464,1.39874534895883,1.40520939330739,1.40806900324621,1.40857313330208,1.41012965164562,1.41169874673815,1.41924964748269,1.41897908193546,1.41874367023008,1.4191884972149,1.42016061506881,1.42182881099454,1.42423655164666,1.42401011130544,1.42436587955139,1.42479395581902,1.42416577112536,1.42650499712134,1.42944688822273,1.432284451873,1.4359022295378,1.43635290622361,1.43666872306766,1.43732921946774,1.4388759331731,1.44061305827193,1.44235075931653,1.44473975172437,1.44546491058681,1.44783750260749,1.44847588171167,1.44930395193177,1.44829051565323,1.45040161126755,1.45097766918192,1.45248464332299,1.45310531871665,1.45364399982739,1.45346080244279,1.45403895829926,1.4537547187536,1.4527895222895,1.45184189886855,1.4537818206961,1.45652372532684,1.45841068229751,1.46083712937302
1.31349521549167,1.31170273892716,1.31060789173517,1.3107107046852,1.30985804736961,1.3090617419638,1.30838524287369,1.30786093928855,1.30753330141117,1.30757779267063,1.30819550233522,1.30932415539121,1.31061839999789,1.31166023053167,1.31204394150769,1.31202788987592,1.3118180086378,1.31154374658235,1.31247459935786,1.31207288721368,1.31214289775903,1.3123331116102,1.31279346443474,1.31385330080973,1.3145791425119,1.3148717712029,1.31468026439843,1.31416940917684,1.31373730919486,1.31377815272039,1.3144856625601,1.31579468902534,1.3174234325286,1.31892816845012,1.31986332776052,1.31925009974578,1.31775026535486,1.3177824135654,1.31776450429234,1.31801909403561,1.31859829543338,1.31896329386469,1.31999919849096,1.3211955303173,1.32261631057052,1.32427827887614,1.32610850563832,1.32802561177843,1.32991077093509,1.33230103052753,1.33418426291354,1.33460071222268,1.33449870975335,1.33429964706799,1.33443216340876,1.33512622603428,1.33643099870636,1.33843932884016,1.34099562756572,1.34354185359582,1.34643235214126,1.34925993213734,1.35171550640322,1.35373832836655,1.35540065459452,1.35672063148557,1.35762616358962,1.35812080048979,1.35845082558392,1.35895961216802,1.35885512456554,1.35891381151189,1.35919165742287,1.35969517044516,1.3604655972947,1.36227966110884,1.36387285967332,1.36441453493084,1.36433584717858,1.36364536266068,1.36249052370194,1.36145155554394,1.36020952210099,1.35956392853145,1.35927870252473,1.36062264139341,1.36168033116208,1.36254892324132,1.36340316867624,1.36412640654305,1.36461341978946,1.36517859837059,1.3653744504615,1.36538316281308,1.36582865876714,1.36642534442933,1.3677656030234,1.3695688352441,1.37144422524468,1.37275466054864,1.37393291622687,1.37476078477074,1.3761657007055,1.37775275319227,1.37899208540343,1.37978777865153,1.38086023767974,1.38135891051943,1.38205766662711,1.38303492428172,1.38426141804725,1.38697432223313,1.38931882545418,1.39079081574494,1.39203471970588,1.39344539044514,1.39519599614436,1.39713169021819,1.39760521995061,1.3988841733575,1.39964236204656,1.39983798767191,1.4003074316036,1.40198905380964,1.40414143526153,1.40662788197167,1.4085875526869,1.41020189053404,1.41232975891919,1.4145923788057,1.41804315726112,1.4191237388827,1.4199152296801,1.42071621345363,1.42202752828665,1.42316299338773,1.42472468579145,1.42554529286587,1.42670749647282,1.42714081340701,1.42842059362162,1.42861901108697,1.42969367290604,1.43189779943968,1.43463606767204,1.43687149948007,1.44026273927969,1.44068059909597,1.44161084505699,1.44304086010311,1.44510933669945,1.44670005717361,1.44815254175322,1.44984274296788,1.45066690016575,1.45142935873219,1.45178738895079,1.45245666787628,1.45330019625699,1.45406945317511,1.4554329517622,1.45566021980686,1.4565637267518,1.45655624943879,1.45748438262856,1.45894163243297,1.46020737605093,1.46091850849745,1.46096300428669,1.46026099622199,1.46174058254942
1.31236208096328,1.31200515936016,1.31199767501867,1.31228628934652,1.31356904453762,1.31425757370344,1.31494751234073,1.31959542745953,1.41537000000034,1.31473904456757,1.31046104318485,1.31066477720556,1.31061649675198,1.31183699555731,1.31284389511865,1.31449942518223,1.31567256324551,1.31559772772995,1.31529852364638,1.32077709471704,1.40819000000132,1.32742089002846,1.32231473750207,1.32167116233769,1.32082032932678,1.32437372922395,1.32776468993558,1.32742594479598,1.32711586661925,1.32700807173152,1.32703777910217,1.32848238576732,1.33007219510525,1.32523525988128,1.32083558478693,1.32192499198425,1.32274646442668,1.32530785297366,1.32767218052687,1.32469657849948,1.32160194179643,1.32086937171944,1.3222321590147,1.32760571564035,1.33425298924983,1.33460780920392,1.33474084196528,1.33476750873101,1.3346443889634,1.33557597660979,1.33627428906665,1.34797795498735,1.3813000007246,1.36444958604,1.36010339702469,1.36453373644295,1.36727661326208,1.36661805009584,1.36654103401204,1.36540893005727,1.36431958202649,1.36445352966909,1.36375042884547,1.36141984579861,1.35971012263669,1.35973709875889,1.36020760466429,1.36025662549419,1.36075485420966,1.35995021870362,1.36049503502131,1.36016442690508,1.36134843174736,1.36101787039675,1.36164727491435,1.36385042133707,1.36584362327739,1.36563750398328,1.36537892282774,1.3646848308297,1.36298586133561,1.36263697717333,1.36010954432088,1.35917156826875,1.35769848704514,1.36239391971725,1.36498090318226,1.3679218920588,1.36983394268603,1.36944368834575,1.36858867487133,1.36818087338689,1.36867239394106,1.3670810867341,1.36764697512229,1.36740170758977,1.36845816090811,1.36987918544404,1.37191591785934,1.37337248195005,1.37558390815834,1.37600296233837,1.37793397775319,1.37838618542815,1.37967380236933,1.3860157455899,1.39214062387781,1.39207529239464,1.39154226946274,1.39230997648737,1.391839819049,1.39067162623929,1.38993549161055,1.39363309662607,1.39764407832598,1.39854066707246,1.39870144141549,1.3990133048645,1.39949839969773,1.40032765047946,1.40094294122304,1.40172223255833,1.40197742856478,1.40553280977816,1.4108768384464,1.40898293272149,1.40989391085405,1.41147172669166,1.41454294942204,1.41628754885193,1.41933891573827,1.41982989977622,1.42136256577325,1.42206140330937,1.42433905116596,1.42446487305383,1.42615287145194,1.42714594788846,1.42995112398304,1.42896913201839,1.42994554002727,1.43655439311068,1.44407536249228,1.44486532627949,1.44571903713393,1.44482225569994,1.44365975277733,1.44792479852636,1.45236302874687,1.45249204921617,1.45138869091603,1.45291158133654,1.45365846637651,1.45276151741342,1.45205551255252,1.45434345697209,1.45691650898745,1.45482789729178,1.45507640648658,1.4559331566928,1.45857133930088,1.45779697448299,1.45922385098322,1.45892802471127,1.46100796553195,1.4603298411569,1.46137133009197,1.4622831997418,1.46485399802397,1.46804298094161,1.47112661506285
1.32246229777298,1.32354631080239,1.32415445416532,1.32488064203361,1.32521798848837,1.32543871763715,1.32554573646239,1.32565368962714,1.32582836620469,1.32544158172384,1.32494077350756,1.32513692342647,1.32558042129799,1.32729379281518,1.32896888317731,1.33030207499929,1.33115350809261,1.33157751445263,1.33179598607539,1.33246558768789,1.33312694331826,1.33347466498197,1.33363772387927,1.33368240576147,1.33355700355394,1.3331605610833,1.33223294595662,1.33272909682193,1.33313430105725,1.33356760335938,1.33417094474769,1.33498500082045,1.33593696878116,1.3369569548181,1.33805073427356,1.33927798249763,1.34067345982861,1.34220097324886,1.34378753959243,1.34540011021543,1.34709219178252,1.34898322713633,1.35118760320819,1.35373629619545,1.35653036106249,1.35934940163626,1.36191962934484,1.3640222946247,1.36559393533741,1.36675784603963,1.36776485439378,1.36891222448472,1.36904787157543,1.36840940387185,1.36797732679658,1.36654963661319,1.36668747456355,1.36634209714042,1.36611812566018,1.36574015320483,1.36563311177184,1.36565879077105,1.36602852589724,1.36677215618621,1.36760476321478,1.36826253576264,1.3685735863288,1.36791646905095,1.36700718031693,1.36601242464923,1.36521202463343,1.36484272530182,1.36501205831481,1.36584849959027,1.36656402739125,1.365925283851,1.36651902834588,1.36702814298965,1.3673830566899,1.3668509232335,1.36601523816361,1.36601105562552,1.36708979856735,1.36717745566085,1.36725447219982,1.36711181958133,1.36759308880324,1.36907726482146,1.37024838443288,1.37021748666265,1.37018934084482,1.37069916179978,1.37230510777542,1.37346157704432,1.37471453527878,1.37609750633422,1.37759228793099,1.3791972636997,1.38090908645812,1.38266171732379,1.38426980532312,1.38554335364951,1.38651684136479,1.38752715914584,1.38896402927898,1.3909304804166,1.39197675862794,1.39238072306711,1.39269862200654,1.39351098126201,1.39389310880773,1.39619749113204,1.39813208946111,1.39836270415822,1.39844987645036,1.39938521246745,1.39954568722978,1.40025801503365,1.40127003971864,1.40233040085814,1.40360492824033,1.40450509437118,1.40637205062991,1.4072642734322,1.40989714713616,1.41182510553026,1.41404005105375,1.41632989692615,1.4185101630377,1.42060792857171,1.42269105107681,1.42276488523945,1.42396563179233,1.42629588851231,1.42925895701445,1.43239742222189,1.43546524233332,1.43829423871827,1.44074340337598,1.44158475058623,1.44214066897313,1.44277928316723,1.4438184202371,1.44499802105929,1.4466864206733,1.44956187669752,1.45244575656282,1.45311424686169,1.45314735415464,1.45347985849795,1.45441343381689,1.45520705207018,1.45526984396009,1.45523840333458,1.4564769737391,1.45665232464174,1.45777543693695,1.45762258922335,1.45799910038604,1.45890128565572,1.46014931263945,1.46159516314544,1.46316244889823,1.46476577507038,1.46634914027893,1.46792802973587,1.4695715075532,1.47128752170202,1.47294851584994,1.47436960977699,1.47441969033977
