0.0037057, 0.00371119, 0.00334403, 0.00358926, 0.00343411, 0.00372681, 0.00359052, 0.0034291, 0.00365306, 0.00422747, 0.00360296, 0.00393174, 0.00338607, 0.00337757, 0.659254, 0.00364946, 0.00337488, 0.00339514, 0.00349382, 0.00347395, 0.00358768, 0.0038725, 0.00332939, 1.11607, 0.655682, 0.00342499, 0.00391307, 0.00378717, 0.00341297, 0.0037141, 0.625224, 0.626317, 0.626736, 0.00339317, 0.003498, 0.00365574, 0.60806, 0.60537, 0.00351537, 0.00334162, 0.00366404, 0.00377219, 0.00346136, 0.586711, 0.586062, 0.586823, 0.00368096, 0.003416, 0.00355157, 0.00431204, 0.00357843, 0.577487, 0.00379476, 0.569582, 0.568986, 0.545173, 0.555394, 0.555654, 0.55663, 0.557921, 0.549303, 0.549775, 0.553327, 0.550192, 0.556969, 0.556749, 0.559625, 0.557023, 0.00351783, 0.561226, 0.0036938, 0.00347755, 0.00345075, 0.00364958, 0.00390397, 0.00349637, 0.00359615, 0.558147, 0.00362241, 0.555143, 0.55545, 0.555425, 0.555086, 0.556258, 0.558208, 0.563111, 0.562995, 0.562441, 0.561387, 0.548922, 0.546371, 0.547606, 0.556213, 0.54614, 0.555106, 0.554954, 0.577167, 0.569969, 0.57968, 0.580468, 0.558667, 0.57303, 0.653055, 0.65682, 0.765799, 0.790911, 0.772665, 0.791407, 0.87637, 0.922733, 0.925865, 0.981538, 1.09635, 1.24852, 1.24844, 1.21748, 1.23616, 1.21564, 1.32272, 1.27978, 1.27833, 1.30789, 1.30995, 1.3326, 1.31885, 1.43526, 1.32343, 1.28807, 1.28268, 1.2944, 1.30312, 1.28586, 1.29918, 1.30592, 1.35793, 1.32657, 1.32606, 1.37242, 1.38294, 1.35461, 1.30824, 1.31172, 1.32333, 1.32467, 1.3406, 1.30209, 1.30497, 1.38615, 1.30565, 1.30144, 1.30238, 1.28913, 1.3157, 1.29744, 1.30579, 1.31389, 1.32463, 1.35367, 1.34416, 1.34531, 1.31595, 1.29002, 1.29098, 1.29246, 1.29505, 1.28611, 1.25411, 1.2543, 1.23852, 1.2424, 1.24296, 1.22929, 1.23292, 1.21551, 1.21279, 1.21454, 1.24531, 1.21316, 1.20577, 1.20336, 1.20504, 1.24012, 1.24192, 1.22585, 1.20898, 1.23004, 1.21725, 1.21952, 1.20918, 1.17259, 1.17409, 1.17302, 1.15062, 1.15364, 1.1131, 1.11638, 1.10591, 1.10575, 1.12085, 1.12225, 1.1299, 1.08772, 1.12305, 1.05358, 1.05615, 1.0548, 1.033, 1.05108, 1.0764, 1.12349, 1.12539, 1.09481, 1.12913, 1.13241, 1.13036, 1.14008, 1.13978, 1.13918, 1.13832, 1.14056, 1.14291, 1.14275, 1.146, 1.14719, 1.14813, 1.15058, 1.15176, 1.15501, 1.1563, 1.15903, 1.16078, 1.16319, 1.16758, 1.17095, 0.00357712, 1.18132, 0.00369144, 0.00404962, 1.21006, 1.214, 1.21522, 1.21219, 1.21325, 1.21484, 1.21723, 1.22889, 1.2246, 1.23257, 0.00353191, 1.24715, 1.48787, 1.48877, 0.00345901, 0.00397903, 1.43568, 1.4376, 1.46112, 1.45747, 0.00390743, 0.00357304, 0.00369654, 1.42293, 0.00359518, 1.40365, 1.40323, 0.00374073, 0.0034228, 0.00380771, 0.00345943, 1.43053, 1.43608, 1.54751, 0.00391352, 1.46782, 1.46618, 1.46725, 1.46839, 1.46518, 1.4643, 1.46839, 1.46921, 1.47774, 1.47538, 1.48222, 1.48215, 1.4862, 1.48858, 1.49794, 1.49709, 1.5092, 1.5079, 1.93751, 1.93574, 0.00378105, 0.00371426, 1.53476, 1.53326, 1.5483, 0.00387547, 1.55613
0.71778, 0.00386749, 0.00407664, 0.00318314, 0.00385376, 0.00371899, 0.00346424, 0.00386303, 0.00361147, 0.00363047, 0.00377366, 0.679469, 0.676726, 0.00355223, 0.00341167, 0.00373502, 0.691829, 0.00349892, 0.00355959, 0.00368316, 0.00384287, 0.00382712, 0.65274, 0.655593, 0.00345218, 0.00365169, 0.00362427, 0.00356333, 0.00372058, 0.646089, 0.62682, 0.628055, 0.62912, 0.631252, 0.626994, 0.627417, 0.0035492, 0.00341167, 0.608333, 0.00339621, 0.00380076, 0.00356592, 0.601795, 0.59493, 0.596569, 0.596558, 0.594346, 0.00354169, 0.00393683, 0.00353441, 0.586863, 0.578455, 0.578662, 0.580837, 0.580638, 0.00364318, 0.0037081, 0.00375748, 0.569548, 0.559026, 0.559394, 0.559025, 0.565569, 0.566286, 0.566423, 0.566876, 0.561853, 0.00375675, 0.00409381, 0.00353949, 0.00366472, 0.00358854, 0.00411319, 0.00369542, 0.00358849, 0.00358398, 0.00374953, 0.00365957, 0.56018, 0.565804, 0.567433, 0.568062, 0.569779, 0.566139, 0.569364, 0.568941, 0.563822, 0.562552, 0.564933, 0.565392, 0.569833, 0.570502, 0.5704, 0.554022, 0.53178, 0.55558, 0.539055, 0.556354, 0.590279, 0.590097, 0.635373, 0.602444, 0.642539, 0.721448, 0.791826, 0.80793, 0.76962, 0.849221, 0.959092, 0.962843, 0.984234, 0.992233, 1.10169, 1.13962, 1.16372, 1.19951, 1.20236, 1.21894, 1.27838, 1.31744, 1.3193, 1.31953, 1.36368, 1.34555, 1.34697, 1.32193, 1.32771, 1.33938, 1.34337, 1.35931, 1.35942, 1.36634, 1.38998, 1.38928, 1.36313, 1.37086, 1.41659, 1.41487, 1.35931, 1.35853, 1.36077, 1.36655, 1.36065, 1.35137, 1.36445, 1.37141, 1.34974, 1.35814, 1.33855, 1.39974, 1.38487, 1.35044, 1.35107, 1.34765, 1.34159, 1.34767, 1.32062, 1.32954, 1.33726, 1.32896, 1.31796, 1.31637, 1.29999, 1.31305, 1.3055, 1.30704, 1.31209, 1.3134, 1.25499, 1.24342, 1.24844, 1.2447, 1.23293, 1.23191, 1.27015, 1.20334, 1.20679, 1.20188, 1.20396, 1.2044, 1.21624, 1.20063, 1.20138, 1.20265, 1.23772, 1.22316, 1.2226, 1.22144, 1.22018, 1.19865, 1.19848, 1.17511, 1.17478, 1.17761, 1.15381, 1.12674, 1.13834, 1.11465, 1.11805, 1.12634, 1.12732, 1.1052, 1.12406, 1.12561, 1.08125, 1.09559, 1.09986, 1.08776, 1.08868, 1.09102, 1.13674, 1.13934, 1.14006, 1.13098, 1.13704, 1.14064, 1.14213, 1.1412, 1.14413, 1.14479, 1.14957, 1.14958, 1.15324, 1.15489, 1.15606, 1.15726, 1.15846, 1.15966, 1.16118, 1.16677, 1.17069, 1.1725, 1.17662, 1.1802, 1.18397, 1.19221, 0.00360119, 0.00364027, 0.00356932, 1.22046, 1.22068, 1.22084, 1.2181, 1.21718, 1.22066, 0.00344592, 1.22747, 0.00331961, 1.49229, 1.24142, 1.24754, 0.00347727, 0.00318181, 0.00359378, 1.27744, 1.27385, 1.35854, 0.00358447, 1.35683, 1.46484, 1.4258, 0.00326826, 1.42749, 1.34037, 1.34664, 0.00378687, 0.00368102, 0.00344194, 0.00330481, 0.00357433, 1.43384, 0.003509, 0.00348444, 0.00351049, 1.47418, 1.47263, 1.47207, 1.46801, 1.46617, 1.46818, 1.47277, 1.47674, 1.47861, 1.48876, 1.49009, 1.49334, 1.49559, 1.49577, 1.50096, 1.50345, 1.51034, 1.51661, 1.51578, 1.53245, 1.53219, 1.53808, 1.54307, 1.54283, 0.00383391, 0.00357184
0.00340289, 0.84627, 0.0036353, 0.00414308, 0.00353305, 0.00363343, 0.00324211, 1.15825, 0.00326618, 0.00360232, 0.0035273, 0.00386588, 0.00377206, 1.2197, 0.00336986, 0.675923, 0.677326, 0.677909, 0.674218, 0.674998, 0.00353517, 1.11997, 0.654368, 0.656035, 0.656472, 0.657567, 0.660677, 0.661953, 0.00359118, 0.64573, 0.003607, 0.646894, 0.633129, 0.626805, 0.628215, 0.628928, 0.628422, 1.26329, 0.00350325, 0.00343362, 0.00341532, 0.00390258, 0.00367896, 0.60293, 0.598307, 0.604035, 0.003708, 0.00415831, 0.00331838, 0.599613, 0.593072, 0.595011, 0.00351205, 1.08201, 0.589193, 0.00377026, 0.00352853, 0.569875, 0.571437, 0.572549, 0.572766, 0.571722, 0.572775, 0.572748, 0.569012, 0.567784, 0.57859, 0.579243, 0.579964, 0.587452, 0.58996, 0.590405, 0.590887, 0.592904, 0.00369458, 0.00389176, 0.00347929, 0.580418, 0.582062, 0.584623, 0.569918, 0.570798, 0.572198, 0.572181, 0.57171, 0.570828, 0.5706, 0.533012, 0.565691, 0.51448, 0.515184, 0.515829, 0.515997, 0.515082, 0.528151, 0.544964, 0.538944, 0.548932, 0.560676, 0.57062, 0.635407, 0.648358, 0.733547, 0.798955, 0.798811, 0.800996, 0.846568, 0.88791, 0.905719, 0.924577, 0.993918, 1.06459, 1.12388, 1.13879, 1.14113, 1.21779, 1.25146, 1.27473, 1.33102, 1.32042, 1.31003, 1.32293, 1.32708, 1.35204, 1.34736, 1.38134, 1.37935, 1.38295, 1.38407, 1.38584, 1.38526, 1.48227, 1.48191, 1.43711, 1.44386, 1.39553, 1.40142, 1.388, 1.36906, 1.4176, 1.41594, 1.4272, 1.38681, 1.39612, 1.35899, 1.36248, 1.36749, 1.37097, 1.38958, 1.38887, 1.40932, 1.39233, 1.39232, 1.39191, 1.40578, 1.39568, 1.38226, 1.37055, 1.36705, 1.40654, 1.3714, 1.33072, 1.30863, 1.3306, 1.31273, 1.30633, 1.31079, 1.32464, 1.29155, 1.3286, 1.26427, 1.26528, 1.26768, 1.27442, 1.25604, 1.25091, 1.25738, 1.23105, 1.23533, 1.21555, 1.21172, 1.20581, 1.20275, 1.22286, 1.22242, 1.20479, 1.22344, 1.22428, 1.2199, 1.21746, 1.22387, 1.22264, 1.22172, 1.20848, 1.21497, 1.223, 1.1148, 1.12396, 1.12636, 1.12944, 1.1429, 1.11932, 1.12522, 1.10948, 1.09432, 1.0953, 1.08042, 1.08542, 1.08891, 1.08642, 1.08821, 1.09023, 1.14981, 1.15202, 1.14228, 1.14517, 1.14785, 1.15218, 1.15377, 1.15313, 1.15685, 1.15925, 1.1601, 1.1646, 1.16664, 1.1667, 1.16491, 1.16542, 1.16888, 1.17107, 1.1753, 1.17836, 1.17947, 1.18607, 0.00368091, 1.26377, 0.00345969, 1.3854, 1.23954, 1.23679, 1.22589, 1.22702, 1.22256, 1.22174, 1.22551, 1.22715, 1.23673, 1.23765, 1.23933, 1.24524, 1.25009, 1.25284, 0.00362003, 1.34024, 0.00349204, 1.28182, 0.00354463, 1.94295, 0.00363995, 1.30154, 0.00324096, 1.45368, 1.45542, 1.43837, 1.4438, 1.77129, 1.37187, 1.38172, 0.00349044, 0.00371904, 0.00370386, 0.00368807, 0.00359574, 0.00372739, 1.4733, 1.48047, 1.47622, 1.47322, 1.4706, 1.47469, 1.47476, 1.47434, 1.48599, 1.48474, 1.48737, 1.49319, 1.49784, 1.50597, 1.50285, 1.5038, 1.51568, 1.51415, 0.00370868, 0.00375522, 0.00344401, 0.00358295, 0.00353428, 1.54634, 1.54837, 0.00362165
0.00357669, 0.00351156, 0.753367, 0.0038751, 1.15759, 0.00383605, 0.00355296, 0.00347357, 1.27924, 1.27896, 0.00340609, 0.00366751, 0.00346421, 0.00368455, 0.00372811, 0.00356595, 0.681638, 0.679647, 0.678904, 0.674927, 0.6758, 0.00350674, 0.00358439, 0.00331705, 0.00367527, 0.662234, 0.663008, 0.66446, 0.665159, 0.00358144, 0.648116, 0.649672, 0.649995, 0.00375595, 0.00357428, 0.640022, 0.640977, 0.00342195, 0.0035179, 0.00341834, 0.624109, 0.62534, 0.625705, 0.00360685, 1.09706, 0.00384951, 0.00364987, 0.00347102, 0.00391923, 0.00357808, 0.00364104, 0.597289, 0.5977, 0.00340136, 0.598322, 0.00358706, 0.00341727, 0.00327764, 0.590132, 0.580078, 0.00328954, 0.56983, 0.580458, 0.583381, 0.582469, 0.580509, 0.581676, 0.580174, 0.00353158, 0.596867, 0.595775, 0.596697, 0.595908, 0.00354882, 0.599162, 0.00339019, 0.00381848, 0.0036193, 0.580389, 0.570252, 0.57021, 0.579682, 0.571171, 0.57245, 0.572352, 0.572252, 0.529273, 0.593155, 0.534251, 0.497106, 0.503808, 0.503831, 0.51173, 0.521993, 0.536085, 0.53444, 0.529618, 0.527484, 0.528407, 0.538486, 0.569666, 0.618682, 0.780468, 0.780654, 0.756109, 0.852629, 0.949673, 0.903938, 0.904379, 0.928103, 1.09456, 1.09606, 1.09913, 1.19305, 1.19377, 1.27122, 1.31645, 1.3244, 1.32686, 1.32964, 1.34414, 1.37256, 1.42568, 1.42389, 1.42658, 1.47865, 1.40857, 1.40168, 1.41837, 1.41752, 1.47238, 1.47001, 1.47431, 1.43903, 1.43722, 1.43127, 1.42792, 1.43389, 1.42198, 1.43423, 1.43454, 1.40986, 1.43456, 1.42942, 1.45813, 1.41844, 1.44551, 1.45397, 1.45541, 1.42586, 1.42647, 1.45855, 1.44245, 1.42103, 1.40464, 1.39639, 1.40417, 1.41015, 1.38929, 1.38787, 1.38002, 1.38277, 1.38533, 1.34653, 1.33371, 1.32392, 1.31939, 1.31929, 1.31975, 1.3085, 1.32513, 1.29334, 1.30097, 1.29504, 1.26444, 1.25668, 1.25595, 1.25567, 1.23621, 1.2369, 1.21897, 1.22553, 1.254, 1.24721, 1.24268, 1.22584, 1.25145, 1.25234, 1.22738, 1.22913, 1.22919, 1.23036, 1.2169, 1.20669, 1.20819, 1.20436, 1.16034, 1.15845, 1.13137, 1.14633, 1.14158, 1.13606, 1.11916, 1.1307, 1.14554, 1.11268, 1.11572, 1.11844, 1.08766, 1.07068, 1.08462, 1.08532, 1.11533, 1.12963, 1.1489, 1.15177, 1.15684, 1.15761, 1.16118, 1.16316, 1.16516, 1.16518, 1.16544, 1.16714, 1.16722, 1.16959, 1.17251, 1.17427, 1.17517, 1.17758, 1.1813, 1.18202, 1.18522, 1.18736, 1.28133, 0.00376435, 1.30179, 1.23551, 1.23017, 1.22932, 1.23152, 1.23393, 1.23162, 1.22882, 1.22919, 1.22968, 1.23348, 0.00331327, 1.24775, 1.24664, 1.27823, 0.00356931, 1.25993, 1.26416, 1.26618, 0.00342129, 1.29097, 1.28796, 1.29792, 1.70698, 1.43827, 0.00332101, 1.49871, 1.45191, 1.4483, 1.35519, 1.66448, 0.00343951, 0.0033684, 0.00348716, 0.00360601, 0.00347006, 1.96393, 0.00353422, 1.47615, 1.47636, 1.47743, 1.47771, 1.47723, 1.47821, 1.47735, 1.48301, 1.48812, 1.48677, 1.48997, 1.49049, 1.49394, 1.50615, 1.505, 1.50896, 1.51143, 1.51322, 0.00361178, 1.52998, 1.53119, 1.53299, 1.54327, 1.54366, 1.54556, 0.00334048
0.0034828, 0.00369312, 0.00374448, 0.00373344, 1.16312, 0.00311853, 0.00352877, 0.0038652, 0.00331775, 0.00357209, 0.00336768, 0.00346223, 0.00353838, 0.00342535, 0.00376197, 0.684496, 0.684935, 0.685762, 0.00360445, 0.00329466, 0.00351815, 0.00381447, 0.00382964, 0.00354245, 0.684102, 0.00369533, 0.665742, 0.666387, 0.666536, 0.665969, 0.666027, 0.666447, 0.00330191, 0.64768, 0.64863, 0.648656, 0.649012, 0.00348114, 0.0033457, 0.625837, 0.628583, 0.630033, 0.631118, 0.635384, 0.0036485, 0.633008, 0.0036442, 0.00362207, 0.00323151, 0.605012, 0.607321, 0.608238, 0.607999, 0.602522, 0.603292, 0.603914, 0.603342, 0.592675, 0.59342, 0.593331, 0.593107, 0.00393873, 0.58105, 0.582354, 0.582891, 0.592612, 0.592142, 0.594024, 0.597128, 0.598027, 0.599555, 0.600102, 0.602902, 0.603554, 0.605559, 0.604998, 0.00360053, 0.00373495, 0.00376563, 0.00393519, 0.00365612, 0.0036066, 0.574035, 0.5757, 0.597463, 0.598311, 0.599142, 0.534507, 0.53546, 0.497986, 0.51197, 0.49983, 0.5136, 0.542666, 0.542623, 0.535304, 0.573462, 0.582689, 0.574093, 0.581593, 0.600587, 0.766671, 0.75361, 0.775533, 0.791213, 0.83765, 0.860365, 0.863308, 0.945671, 0.946101, 1.13004, 1.11626, 1.10975, 1.12636, 1.24609, 1.25049, 1.3374, 1.33774, 1.34797, 1.47812, 1.45389, 1.48973, 1.47129, 1.40818, 1.41985, 1.42545, 1.41972, 1.43345, 1.44524, 1.49491, 1.46201, 1.46256, 1.49703, 1.49491, 1.53152, 1.46483, 1.45473, 1.45495, 1.48185, 1.48193, 1.46482, 1.46299, 1.49095, 1.44923, 1.52064, 1.51897, 1.50183, 1.49881, 1.48797, 1.48943, 1.49229, 1.48643, 1.44964, 1.43312, 1.54974, 1.56403, 1.40938, 1.43084, 1.41649, 1.39836, 1.39425, 1.38731, 1.38625, 1.37294, 1.37516, 1.33722, 1.33522, 1.33739, 1.33653, 1.33665, 1.32242, 1.32329, 1.29974, 1.29619, 1.28489, 1.25484, 1.2485, 1.25415, 1.26662, 1.26808, 1.22936, 1.22655, 1.25441, 1.23137, 1.20852, 1.21038, 1.21189, 1.24398, 1.2468, 1.22741, 1.21837, 1.22877, 1.23936, 1.25654, 1.23802, 1.19951, 1.22296, 1.21594, 1.21263, 1.21339, 1.14694, 1.14884, 1.18486, 1.15418, 1.13618, 1.1338, 1.13392, 1.1361, 1.09158, 1.09506, 1.099, 1.09504, 1.12533, 1.1272, 1.16108, 1.15029, 1.15595, 1.15857, 1.16688, 1.16692, 1.16893, 1.17224, 1.17298, 1.17183, 1.17477, 1.17611, 1.17781, 1.17733, 1.17522, 1.17812, 1.18403, 1.18521, 1.18854, 1.19162, 1.19821, 0.00373267, 0.00357113, 0.00360343, 1.32557, 1.23291, 0.00367872, 1.23775, 1.23292, 1.23118, 1.23247, 1.23599, 1.23639, 1.2464, 1.25208, 1.95297, 1.95197, 0.0036195, 1.26468, 1.34529, 0.00327403, 1.84709, 0.00356882, 0.00389803, 0.0035734, 0.00366198, 0.00351103, 1.39917, 1.46615, 1.45556, 1.45435, 0.0036548, 0.00362222, 1.67418, 0.00351885, 0.00342264, 0.00379925, 0.00351919, 1.44833, 0.00341935, 0.00331869, 1.47995, 1.47995, 1.48223, 1.4813, 1.48132, 1.48353, 1.48432, 1.48293, 1.48712, 1.49244, 1.49409, 1.5017, 1.50177, 1.50888, 1.50925, 1.5106, 0.00361927, 0.00334943, 1.53413, 1.53072, 1.53271, 1.5415, 0.0034107, 1.55072, 1.55804
0.00385596, 0.00325336, 0.00374009, 0.00341087, 0.00394225, 0.00359309, 0.00334475, 0.00347794, 0.00364413, 0.003411, 0.00339259, 0.00349963, 0.00342826, 0.00382043, 0.0037146, 0.00331577, 0.00351804, 0.00356836, 0.00369056, 0.00373656, 0.00353804, 0.00360105, 0.00381985, 0.00322292, 0.683498, 0.684215, 0.00412068, 0.00340314, 0.00370716, 0.00337565, 0.667035, 0.00335214, 0.00363414, 0.00354575, 0.665296, 0.00362522, 0.00360537, 0.00359914, 0.00377578, 0.00337606, 1.06336, 1.06259, 0.633508, 0.634761, 0.63672, 0.636638, 0.637001, 0.00340333, 0.63163, 0.00359234, 0.621886, 0.614366, 0.614468, 0.60522, 0.60572, 0.605773, 0.604885, 0.60451, 0.605662, 0.605637, 0.603748, 0.603235, 0.603487, 0.598329, 0.599426, 0.599857, 0.596619, 0.597313, 0.599176, 0.59827, 0.598952, 0.601364, 0.604122, 0.605946, 0.606265, 0.608217, 0.00366779, 0.604582, 0.00355666, 0.591109, 0.593074, 0.594326, 0.594872, 0.593484, 0.59662, 0.600249, 0.600991, 0.536619, 0.620719, 0.509133, 0.511157, 0.552037, 0.550303, 0.532542, 0.560282, 0.558893, 0.576664, 0.568101, 0.585747, 0.593713, 0.769698, 0.74949, 0.747885, 0.74744, 0.776751, 0.774785, 0.860737, 0.861593, 0.988732, 0.988846, 1.10869, 1.10966, 1.11903, 1.2188, 1.23365, 1.23685, 1.4413, 1.39361, 1.39378, 1.4748, 1.40256, 1.39858, 1.42123, 1.42777, 1.44197, 1.46069, 1.4925, 1.48956, 1.48538, 1.48481, 1.49628, 1.50518, 1.47927, 1.49797, 1.48593, 1.49791, 1.49721, 1.48318, 1.48053, 1.4645, 1.47152, 1.47912, 1.50623, 1.48445, 1.49547, 1.51318, 1.50419, 1.5079, 1.50729, 1.52052, 1.49842, 1.4748, 1.45577, 1.52926, 1.53724, 1.5281, 1.4342, 1.42559, 1.41984, 1.42013, 1.40833, 1.42291, 1.39963, 1.40546, 1.40496, 1.38509, 1.39153, 1.36729, 1.33823, 1.3376, 1.35746, 1.32187, 1.30995, 1.30853, 1.28936, 1.27281, 1.26369, 1.26455, 1.24665, 1.24582, 1.28806, 1.2573, 1.23577, 1.24201, 1.23401, 1.22226, 1.23786, 1.21161, 1.21113, 1.24818, 1.25501, 1.25337, 1.25533, 1.2751, 1.33759, 1.34093, 1.20447, 1.20704, 1.18663, 1.15923, 1.17862, 1.16064, 1.15365, 1.15288, 1.14414, 1.11873, 1.12769, 1.14449, 1.12766, 1.11707, 1.1143, 1.11153, 1.12521, 1.15329, 1.15506, 1.14914, 1.15052, 1.16296, 1.16709, 1.1715, 1.17228, 1.17412, 1.17308, 1.17544, 1.17845, 1.17887, 1.17769, 1.17954, 1.18123, 1.1831, 1.18692, 1.19055, 1.19316, 1.1963, 1.19923, 1.20592, 1.24057, 0.00333756, 0.00370936, 0.00356383, 0.0038285, 1.24647, 1.25776, 1.24006, 1.23476, 1.23482, 1.23815, 1.24065, 1.24411, 1.25209, 1.25497, 1.26119, 1.26284, 0.00337828, 1.27332, 0.0034009, 0.00362561, 1.29868, 1.58539, 0.0035151, 1.31087, 1.31268, 1.47874, 1.4789, 1.48979, 1.45716, 0.00366298, 0.00331018, 0.00356573, 0.00340992, 0.0036519, 0.00339541, 0.00354402, 0.00340715, 0.00371795, 1.48091, 1.47931, 1.47842, 1.48501, 1.48535, 1.48411, 1.48435, 1.48274, 1.49189, 1.48951, 1.49217, 1.49815, 1.50568, 1.50679, 1.50806, 1.51228, 0.00342315, 0.00368533, 1.52427, 0.00376417, 1.53405, 1.54031, 1.54653, 1.55339, 1.55201
0.00363493, 0.0034952, 0.00356515, 0.00395251, 0.00378791, 0.00363408, 0.00366301, 0.00352874, 0.00316047, 0.00351403, 0.00356469, 0.00366791, 0.0033846, 0.00343636, 0.00306978, 0.0036184, 0.00362051, 0.00396595, 0.00348794, 0.0034731, 0.00351152, 0.00355503, 0.715165, 0.712797, 0.00340751, 0.00377006, 0.00357272, 0.00355074, 0.00352513, 0.00349178, 0.00359965, 0.00360805, 0.00378661, 0.680099, 0.00359138, 1.30033, 0.667095, 0.668414, 0.669389, 0.668944, 0.00343482, 1.06152, 1.09099, 0.644211, 0.644941, 0.645017, 0.637104, 0.64177, 0.00348669, 0.635736, 0.00361225, 0.625716, 0.00363536, 0.00339847, 0.609356, 0.610318, 0.611736, 0.61206, 0.60562, 0.606884, 0.607118, 0.610619, 0.610379, 0.598378, 0.606829, 0.602371, 0.60458, 0.604528, 0.604455, 0.601243, 0.603741, 0.604189, 0.605916, 0.60693, 0.606489, 0.609657, 0.00351723, 0.607009, 0.60764, 0.60794, 0.592205, 0.593545, 0.00371843, 0.600734, 0.600634, 0.600055, 0.611351, 0.590996, 0.614477, 0.627978, 0.606932, 0.561034, 0.532029, 0.573074, 0.556894, 0.537873, 0.580472, 0.562261, 0.583396, 0.6205, 0.762389, 0.778018, 0.756755, 0.75751, 0.758351, 0.792425, 0.866473, 0.903481, 0.968999, 1.02348, 1.07566, 1.14754, 1.15402, 1.21606, 1.3499, 1.34119, 1.429, 1.48587, 1.48615, 1.42541, 1.42071, 1.4439, 1.45855, 1.45146, 1.49234, 1.50731, 1.49244, 1.49194, 1.50948, 1.49436, 1.58196, 1.54851, 1.54581, 1.55768, 1.55039, 1.53005, 1.53851, 1.5234, 1.52147, 1.50911, 1.5063, 1.5379, 1.50845, 1.54628, 1.50934, 1.51403, 1.517, 1.53344, 1.56246, 1.56068, 1.53332, 1.50685, 1.49995, 1.4909, 1.48238, 1.47017, 1.46556, 1.44377, 1.44024, 1.44765, 1.43035, 1.39257, 1.38496, 1.38141, 1.3889, 1.4, 1.37701, 1.37715, 1.3673, 1.35056, 1.34709, 1.3468, 1.31035, 1.30939, 1.31221, 1.29441, 1.27428, 1.27449, 1.28186, 1.25491, 1.26027, 1.25998, 1.25771, 1.25734, 1.25575, 1.2576, 1.24865, 1.32996, 1.33362, 1.33524, 1.2254, 1.26196, 1.27237, 1.28078, 1.28194, 1.34742, 1.24682, 1.22132, 1.17505, 1.22328, 1.15753, 1.21426, 1.16036, 1.1644, 1.16995, 1.16451, 1.17841, 1.13654, 1.15541, 1.1061, 1.10899, 1.10982, 1.12199, 1.12412, 1.13921, 1.1403, 1.14216, 1.16301, 1.16769, 1.17052, 1.17264, 1.17448, 1.1771, 1.18008, 1.18255, 1.18504, 1.18536, 1.18757, 1.18939, 1.19436, 1.194, 1.19539, 1.20149, 1.19901, 1.20217, 1.20563, 1.21116, 0.00361172, 0.00320206, 0.00349232, 1.24791, 1.24807, 1.24734, 1.24819, 1.24632, 1.24621, 1.24355, 1.24369, 1.2485, 1.25054, 1.25682, 1.28502, 1.26406, 1.27125, 1.27569, 1.28027, 0.00374621, 1.89874, 0.0036968, 1.45581, 1.45774, 1.45839, 1.45685, 1.4551, 1.4676, 1.41305, 1.412, 1.36648, 1.37519, 1.68451, 0.00346246, 2.00739, 0.00372667, 1.45063, 0.00359222, 1.47802, 1.4787, 1.4783, 1.4838, 1.48861, 1.48566, 1.48248, 1.48519, 1.49313, 1.49175, 1.49374, 1.49898, 1.49889, 0.00384958, 1.51108, 1.51039, 1.51608, 1.51994, 0.00346022, 1.53139, 2.05837, 0.00373877, 0.00359522, 0.00340561, 1.56124
0.00354643, 0.00347856, 0.832566, 0.831675, 0.00364942, 0.00350015, 0.00362414, 1.23245, 0.0035276, 0.00357118, 0.00334913, 0.00331702, 0.00355978, 0.00364481, 0.00371321, 0.00357803, 0.00373007, 0.00343516, 0.00363853, 0.00344693, 0.00343905, 0.00354392, 0.00382793, 0.00372481, 0.00378374, 0.00342798, 0.00355548, 0.00355122, 0.00372304, 0.0033847, 0.00370096, 0.00349669, 0.00400746, 0.00352132, 0.00375102, 0.00389482, 0.668582, 0.669441, 0.675634, 0.684866, 0.0037475, 0.00327256, 1.07159, 0.646049, 0.651983, 0.651464, 0.652014, 0.647528, 0.64279, 0.642383, 0.00375941, 0.00371113, 0.624542, 0.625651, 0.626394, 0.609742, 0.610997, 0.00330361, 0.632306, 0.616332, 0.617654, 0.613637, 0.615935, 0.614527, 0.614318, 0.613828, 0.604359, 0.613523, 0.610152, 0.610247, 0.610474, 0.609521, 0.610241, 0.00326427, 0.613668, 0.621112, 0.622296, 0.615534, 0.617358, 0.00365891, 0.0035636, 0.00342904, 0.601131, 0.00376544, 0.606158, 0.606368, 0.610924, 0.590527, 0.590345, 0.590808, 0.557042, 0.567608, 0.53217, 0.533109, 0.548884, 0.549272, 0.584029, 0.662775, 0.731938, 0.743121, 0.720807, 0.768742, 0.767914, 0.745955, 0.807848, 0.802147, 0.886703, 0.92285, 0.999915, 0.999358, 1.11057, 1.14795, 1.14935, 1.27542, 1.40479, 1.40447, 1.41316, 1.4559, 1.45156, 1.45636, 1.4812, 1.49313, 1.49128, 1.4843, 1.49657, 1.51732, 1.53002, 1.53245, 1.54182, 1.53586, 1.57947, 1.55875, 1.5576, 1.55443, 1.56543, 1.55968, 1.55553, 1.54563, 1.54502, 1.56047, 1.55849, 1.53571, 1.5363, 1.55717, 1.57274, 1.57783, 1.54427, 1.55772, 1.55613, 1.54748, 1.54156, 1.53329, 1.53378, 1.51086, 1.50923, 1.50657, 1.5119, 1.50732, 1.49617, 1.48032, 1.49099, 1.43019, 1.44693, 1.44757, 1.40617, 1.40985, 1.38043, 1.37551, 1.37363, 1.38502, 1.40015, 1.33665, 1.33365, 1.34349, 1.30981, 1.30198, 1.30967, 1.27023, 1.2709, 1.2689, 1.26747, 1.26046, 1.25431, 1.2609, 1.25089, 1.26435, 1.28018, 1.27229, 1.26098, 1.29167, 1.25187, 1.28424, 1.26021, 1.23802, 1.27952, 1.25715, 1.25372, 1.25504, 1.22609, 1.22636, 1.22763, 1.19241, 1.20585, 1.15197, 1.15513, 1.15689, 1.15838, 1.16051, 1.15348, 1.12435, 1.13951, 1.1106, 1.1124, 1.11395, 1.16679, 1.16837, 1.15344, 1.1562, 1.1679, 1.17368, 1.17688, 1.17809, 1.17975, 1.18432, 1.18774, 1.19014, 1.19152, 1.19352, 1.19131, 1.19435, 1.19546, 1.19606, 1.19966, 1.2011, 1.20286, 1.2068, 1.21325, 1.21972, 1.23294, 0.00365656, 1.25179, 0.00352733, 1.25294, 1.25326, 1.24867, 1.24856, 1.24894, 1.25043, 1.24973, 1.26396, 1.26518, 1.26223, 1.26451, 1.27099, 1.27461, 0.00337403, 0.00376493, 1.29162, 1.95116, 1.30479, 1.8829, 0.00371778, 1.46249, 1.4619, 1.47596, 0.00337266, 1.41047, 1.41085, 1.40984, 0.00350286, 0.00393399, 0.00351318, 0.00365447, 0.00334286, 0.00370741, 0.00372302, 1.48005, 1.4819, 1.48102, 1.48852, 1.48447, 1.48714, 1.48867, 1.49545, 1.49591, 1.49551, 1.50148, 1.50944, 1.50855, 1.51246, 1.51375, 1.51367, 1.51388, 1.52535, 1.52521, 1.53736, 1.54298, 1.5419, 1.54804, 1.554
0.00347747, 0.00352548, 0.00343053, 0.00383666, 0.00368748, 0.00391623, 0.00347319, 0.00379655, 0.00345796, 0.00383328, 0.00351299, 0.00353911, 0.00356624, 0.788367, 0.00368534, 1.26042, 0.0037221, 0.00375665, 0.00358146, 1.25341, 0.0034951, 0.739179, 0.00335013, 0.00356253, 0.00358863, 0.746421, 0.00379143, 0.732533, 0.00364333, 0.00372335, 0.00349335, 0.00368532, 0.0033207, 0.00340038, 0.00318511, 0.00394294, 0.00365503, 0.00366046, 0.684826, 0.685778, 0.686839, 0.795326, 0.00344047, 0.0035439, 0.00364083, 0.662326, 0.662844, 0.651493, 0.653307, 0.652966, 0.645266, 0.645772, 0.645304, 0.637596, 0.636082, 0.637941, 0.628874, 0.632088, 0.630208, 0.629723, 0.620525, 0.624521, 0.626105, 0.626742, 1.24525, 0.621254, 0.618101, 0.617851, 0.617784, 0.614686, 0.615294, 0.617164, 0.61715, 0.61626, 0.624523, 0.625491, 0.62676, 0.626468, 0.624203, 0.620456, 0.00320678, 1.28194, 0.615834, 0.61175, 0.607285, 0.615325, 0.61248, 0.605249, 0.572533, 0.570536, 0.563611, 0.534683, 0.533604, 0.534501, 0.531689, 0.60152, 0.594175, 0.731571, 0.733327, 0.704987, 0.71089, 0.763691, 0.746711, 0.755068, 0.791638, 0.828568, 0.903419, 0.933355, 1.01591, 1.04222, 1.14206, 1.14084, 1.28114, 1.35877, 1.39445, 1.47074, 1.45377, 1.45411, 1.45516, 1.52318, 1.51991, 1.5435, 1.54448, 1.55682, 1.55423, 1.58456, 1.60257, 1.61147, 1.61299, 1.63081, 1.62692, 1.63441, 1.60383, 1.57632, 1.57404, 1.57963, 1.5789, 1.57758, 1.69331, 1.69184, 1.59569, 1.57617, 1.58327, 1.57968, 1.56982, 1.57613, 1.58147, 1.58027, 1.55992, 1.55773, 1.59617, 1.55734, 1.55865, 1.53833, 1.58056, 1.54834, 1.52386, 1.52417, 1.49287, 1.46227, 1.48436, 1.48488, 1.46828, 1.44942, 1.42303, 1.42956, 1.40962, 1.41537, 1.49495, 1.48573, 1.39075, 1.37047, 1.36898, 1.34365, 1.35449, 1.31741, 1.31573, 1.2951, 1.28712, 1.27879, 1.27328, 1.27675, 1.25555, 1.25591, 1.27421, 1.26064, 1.27266, 1.26835, 1.26832, 1.27784, 1.33395, 1.32538, 1.27798, 1.24242, 1.25222, 1.26171, 1.26415, 1.25206, 1.26542, 1.22898, 1.19877, 1.23048, 1.23301, 1.23239, 1.24058, 1.17831, 1.16863, 1.14453, 1.1322, 1.12299, 1.1101, 1.12558, 1.11325, 1.11842, 1.1654, 1.16652, 1.17476, 1.15898, 1.1685, 1.17086, 1.17863, 1.18457, 1.18429, 1.18794, 1.18665, 1.19423, 1.19369, 1.19417, 1.19763, 1.19664, 1.19621, 1.19674, 1.20031, 1.20473, 1.20586, 1.2084, 1.21582, 0.00356086, 0.00354503, 0.00381516, 1.26111, 1.26159, 1.2639, 1.26337, 1.25777, 1.25805, 1.25496, 1.25469, 1.25337, 1.25908, 1.26353, 1.9713, 1.26762, 1.27203, 1.27439, 1.28535, 0.00344446, 0.00400415, 1.29519, 1.86435, 1.30429, 1.45454, 1.45716, 1.46713, 1.43731, 1.48509, 0.00343151, 1.46566, 0.00339535, 1.4202, 0.00332766, 0.0037826, 0.0034341, 1.45795, 0.0033947, 0.00382789, 0.00353783, 1.4834, 1.48379, 1.49119, 1.48924, 1.49232, 1.49256, 1.49605, 1.49549, 1.50305, 1.50481, 1.50612, 1.50771, 1.50749, 1.50731, 1.51446, 1.51565, 0.00361395, 0.00347124, 1.53411, 1.53653, 0.00382327, 1.5495, 0.0034642
0.00394511, 0.00363144, 0.00359515, 0.00348892, 0.00364259, 0.0034721, 0.00341567, 0.00353902, 0.00383026, 0.00346065, 0.00377968, 1.23053, 0.00363353, 0.784213, 0.783958, 0.00380213, 1.24348, 0.00353872, 0.00419145, 0.00384304, 0.00354917, 0.00328266, 1.19078, 0.00342777, 0.00336921, 0.00346569, 0.00369771, 0.739758, 0.739226, 0.00350577, 0.00342508, 0.00325003, 0.00385939, 0.00369817, 0.00379164, 0.695415, 0.697231, 0.697204, 0.690422, 0.689573, 0.689674, 0.690422, 0.0036264, 0.00360394, 0.678827, 0.00368052, 0.660684, 0.662084, 0.661917, 0.00349692, 0.642658, 0.645634, 0.646906, 0.647227, 0.638798, 0.639055, 0.637036, 0.637812, 0.639913, 0.633674, 0.634674, 0.63602, 0.633717, 0.634157, 0.633082, 0.631866, 0.630237, 0.630685, 0.627384, 0.614232, 0.618068, 0.617604, 0.618293, 0.618763, 0.00377384, 0.00354778, 0.00375134, 0.00370315, 0.00409876, 0.00352216, 0.627044, 0.628398, 0.629721, 0.631942, 0.6251, 0.624031, 0.622093, 0.620197, 0.588991, 0.590623, 0.589724, 0.556408, 0.550275, 0.597252, 0.597353, 0.57115, 0.571355, 0.642759, 0.62701, 0.760506, 0.756975, 0.740987, 0.763678, 0.767173, 0.851027, 0.840206, 0.943791, 0.944232, 0.993049, 1.06466, 1.20933, 1.1705, 1.34691, 1.40713, 1.4477, 1.49018, 1.51176, 1.55659, 1.56272, 1.5619, 1.57208, 1.59043, 1.60439, 1.67492, 1.669, 1.66697, 1.6185, 1.64762, 1.68013, 1.66221, 1.67246, 1.68922, 1.66799, 1.67225, 1.64178, 1.64115, 1.63674, 1.63117, 1.63874, 1.61767, 1.6135, 1.63175, 1.63046, 1.62526, 1.61836, 1.61524, 1.61708, 1.60282, 1.59926, 1.61057, 1.61017, 1.59848, 1.61073, 1.5932, 1.59254, 1.59189, 1.59554, 1.56107, 1.55533, 1.54797, 1.49232, 1.47013, 1.46598, 1.45455, 1.48872, 1.48779, 1.48222, 1.46517, 1.46355, 1.51037, 1.5137, 1.46964, 1.35557, 1.35488, 1.34724, 1.3268, 1.3434, 1.2991, 1.28317, 1.29436, 1.30591, 1.28167, 1.27795, 1.27415, 1.27185, 1.27852, 1.27332, 1.27211, 1.29608, 1.29771, 1.28348, 1.28156, 1.2786, 1.2469, 1.24894, 1.2595, 1.26886, 1.27877, 1.23641, 1.23901, 1.2152, 1.21491, 1.21826, 1.19529, 1.18492, 1.19824, 1.1715, 1.15735, 1.12126, 1.12351, 1.1398, 1.15832, 1.12452, 1.12632, 1.18197, 1.17809, 1.20851, 1.18213, 1.1924, 1.17531, 1.17942, 1.18455, 1.18488, 1.18795, 1.1911, 1.19444, 1.19494, 1.19889, 1.1986, 1.19913, 1.19611, 1.2026, 1.20325, 1.20487, 1.21001, 1.2105, 1.21481, 0.00340509, 1.47527, 0.00346883, 0.00396252, 1.26264, 1.26554, 1.26709, 1.27117, 1.26381, 1.26227, 1.26021, 1.25706, 1.26398, 1.26325, 1.26468, 1.26742, 1.27082, 1.27445, 0.00355093, 0.00372162, 1.93366, 1.29701, 1.29787, 1.30643, 1.30721, 1.46494, 1.32283, 1.37917, 0.00369824, 0.00361865, 0.00327221, 1.41436, 1.4148, 0.00379, 1.65982, 0.00362916, 0.00364024, 1.46146, 0.00350157, 0.00345008, 1.49215, 1.48958, 1.49185, 1.4892, 1.48941, 1.49507, 1.4978, 1.49927, 1.50046, 1.50244, 1.51192, 1.51238, 1.51037, 1.50957, 1.51407, 1.52351, 0.00325679, 1.5368, 1.53297, 1.53595, 1.53732, 0.00350841, 1.55291
0.967571, 0.960983, 0.909285, 0.888725, 0.0034583, 0.00362281, 0.00354954, 0.00368881, 0.839977, 0.00370652, 0.00350638, 1.31348, 0.00380556, 0.00335488, 0.00320759, 0.00369017, 0.00359284, 0.00374274, 0.00370501, 0.00372798, 0.00366508, 1.29166, 0.00385617, 1.25321, 0.751728, 0.752487, 0.752164, 0.00345559, 1.18744, 0.00356584, 0.00333944, 0.00374731, 0.0034465, 0.003418, 0.00333043, 0.00377628, 0.0034374, 0.00359573, 0.700555, 0.70039, 0.696207, 0.693303, 0.682897, 0.684904, 0.685497, 0.685034, 0.00346114, 0.00383467, 0.00360769, 0.666595, 0.666196, 0.646974, 0.648355, 0.648775, 0.648673, 0.648145, 0.648667, 0.638726, 0.640279, 0.640856, 0.634672, 0.635648, 0.632301, 0.641163, 0.641114, 0.635214, 0.635614, 0.634201, 0.63326, 0.634495, 0.62922, 0.630092, 0.634085, 0.635379, 0.00352552, 0.638227, 0.00353763, 1.20603, 1.27189, 0.00364485, 0.634439, 0.636091, 0.636667, 0.636016, 0.634331, 0.626918, 0.628502, 0.62568, 0.628258, 0.618735, 0.579897, 0.585195, 0.587909, 0.568542, 0.579916, 0.572829, 0.566435, 0.617875, 0.672038, 0.673649, 0.684408, 0.721422, 0.726698, 0.795983, 0.790194, 0.862995, 1.03523, 1.0385, 1.04009, 1.17902, 1.18048, 1.1848, 1.45249, 1.48578, 1.48574, 1.54828, 1.56933, 1.57895, 1.59222, 1.59646, 1.6782, 1.73849, 1.70537, 1.70129, 1.67203, 1.67126, 1.68402, 1.68556, 1.67071, 1.67554, 1.68267, 1.69595, 1.68756, 1.68898, 1.69585, 1.68612, 1.68192, 1.66475, 1.65592, 1.6554, 1.66034, 1.68489, 1.67964, 1.6584, 1.6595, 1.65636, 1.66392, 1.65005, 1.65457, 1.63341, 1.6282, 1.65097, 1.61158, 1.62153, 1.62611, 1.62165, 1.69999, 1.62299, 1.62642, 1.53687, 1.50187, 1.50135, 1.51633, 1.51567, 1.47713, 1.4486, 1.48464, 1.46135, 1.46301, 1.46405, 1.46309, 1.48949, 1.48881, 1.42484, 1.38007, 1.35274, 1.34437, 1.34514, 1.32424, 1.32647, 1.2953, 1.28979, 1.2963, 1.28507, 1.30053, 1.2873, 1.28765, 1.29855, 1.29801, 1.28555, 1.29019, 1.28946, 1.29506, 1.25129, 1.24599, 1.2462, 1.25531, 1.24307, 1.26699, 1.27009, 1.22453, 1.24402, 1.2124, 1.20592, 1.17987, 1.1806, 1.15143, 1.16752, 1.17514, 1.1447, 1.1465, 1.15393, 1.13818, 1.14207, 1.20192, 1.20282, 1.20585, 1.17752, 1.17869, 1.17757, 1.17882, 1.18829, 1.18779, 1.19082, 1.19368, 1.1971, 1.19775, 1.1986, 1.20054, 1.1995, 1.19712, 1.2025, 1.20339, 1.20857, 0.00365543, 0.00362422, 1.22095, 1.22303, 0.00347099, 0.00367339, 0.00364992, 0.00340406, 1.26651, 1.2693, 1.27055, 1.27186, 1.26778, 1.26414, 1.26302, 1.26522, 1.26534, 1.26913, 1.27681, 1.27637, 0.00355643, 1.37553, 1.2895, 1.295, 1.29627, 1.30123, 1.30913, 1.3119, 1.31945, 1.33241, 0.00348127, 1.3776, 0.00377916, 1.56207, 0.00356997, 0.00394278, 1.4259, 1.6893, 1.68874, 0.00364462, 0.00350147, 0.00320355, 0.00352217, 1.49058, 1.49252, 1.49037, 1.49364, 1.49114, 1.49729, 1.49749, 1.50236, 1.50578, 1.50262, 1.50504, 1.50857, 1.51478, 1.51364, 1.51581, 0.00348211, 1.52628, 1.52848, 1.53255, 1.53269, 1.53691, 1.54135, 1.54466
0.951492, 0.950913, 0.942623, 0.00350308, 0.00364111, 0.00330146, 0.852905, 0.00337566, 0.00357376, 0.00370235, 0.847316, 0.00372865, 0.00352678, 0.00344247, 1.27403, 0.00347059, 0.0037354, 0.00339328, 0.00399221, 0.00332903, 1.3168, 0.00323394, 1.26901, 0.00365909, 0.773344, 0.00370007, 0.0040189, 0.76629, 0.00363493, 0.003545, 0.0038543, 0.00327097, 0.0034971, 0.00360451, 0.722292, 0.721642, 0.943099, 0.00356915, 0.00377802, 0.695328, 0.695442, 0.696048, 0.68235, 0.68384, 0.684911, 0.688639, 0.687476, 0.00315009, 0.00376097, 0.680107, 0.671457, 0.671849, 0.670259, 0.665442, 0.647074, 0.648781, 0.650442, 0.650029, 0.650223, 0.652785, 0.654889, 0.00354116, 0.0035737, 0.642052, 0.64378, 0.635018, 0.63462, 0.635421, 0.636908, 0.636854, 0.637001, 0.635355, 0.635654, 0.00382745, 0.640135, 0.00343347, 1.2641, 0.00348558, 0.00363338, 0.00350978, 0.643313, 0.637936, 0.641136, 0.64078, 0.635119, 0.63501, 0.619167, 0.625278, 0.64082, 0.638434, 0.609314, 0.601254, 0.59235, 0.583067, 0.583412, 0.584681, 0.621344, 0.65027, 0.680113, 0.665832, 0.701328, 0.710836, 0.738307, 0.822509, 0.81794, 0.84648, 1.02359, 1.02466, 1.04425, 1.21552, 1.16972, 1.46951, 1.50531, 1.50623, 1.54821, 1.596, 1.59832, 1.58237, 1.65655, 1.66261, 1.69227, 1.68143, 1.68256, 1.68523, 1.70882, 1.70397, 1.69547, 1.6855, 1.67968, 1.69249, 1.70299, 1.69732, 1.7125, 1.72104, 1.68935, 1.70402, 1.69559, 1.71376, 1.71692, 1.70612, 1.73335, 1.73079, 1.76653, 1.76248, 1.69934, 1.71169, 1.70065, 1.68939, 1.65957, 1.66492, 1.66233, 1.6609, 1.66325, 1.73714, 1.63516, 1.63468, 1.63227, 1.63013, 1.6019, 1.58366, 1.58051, 1.51538, 1.51625, 1.5128, 1.50652, 1.50344, 1.44683, 1.46024, 1.47847, 1.47831, 1.46873, 1.45489, 1.45415, 1.42363, 1.38742, 1.38931, 1.39328, 1.3572, 1.32033, 1.31922, 1.30447, 1.31705, 1.32201, 1.31532, 1.30147, 1.30029, 1.31586, 1.29818, 1.29576, 1.28459, 1.29531, 1.28874, 1.29282, 1.27666, 1.26063, 1.25764, 1.29564, 1.29668, 1.23473, 1.23113, 1.23233, 1.22997, 1.20398, 1.20478, 1.17052, 1.1708, 1.18511, 1.1551, 1.18784, 1.2262, 1.16491, 1.16313, 1.1601, 1.1739, 1.17505, 1.14211, 1.20206, 1.19425, 1.1941, 1.18505, 1.18405, 1.18763, 1.18932, 1.19325, 1.19568, 1.19798, 1.19732, 1.19667, 1.19955, 1.20011, 1.20265, 1.20229, 1.1998, 1.20642, 1.20981, 1.21546, 0.00382929, 0.00357505, 0.00341905, 1.23968, 0.00394398, 0.00322452, 1.26706, 1.27138, 1.26927, 1.26952, 1.26813, 1.2695, 1.26752, 1.26775, 1.26757, 1.26934, 1.99347, 1.27807, 1.28179, 0.00342405, 1.95646, 1.29298, 1.2977, 1.3038, 1.30917, 1.31002, 1.31391, 1.32465, 1.4974, 0.00371734, 0.00362542, 1.56333, 1.56354, 0.00346651, 1.44761, 0.00347298, 0.00358709, 0.00324583, 0.00382243, 0.00328918, 0.0035365, 1.49304, 1.4928, 1.49196, 1.49181, 1.49414, 1.49281, 1.49235, 1.4992, 1.50011, 1.50334, 1.5025, 1.5086, 1.51229, 1.51202, 1.51167, 1.51272, 1.5155, 1.53031, 1.52985, 1.53691, 1.53642, 1.53948, 0.00352352
0.933081, 0.916422, 0.900716, 0.90874, 0.940263, 0.892195, 0.0034159, 0.00367872, 0.00347892, 0.00340285, 0.00353475, 0.00392476, 0.00353008, 0.00379237, 0.00354951, 0.00390075, 0.00353724, 0.0035684, 0.00349247, 0.00355823, 0.00342868, 0.00382485, 0.00364875, 0.00334946, 0.00356143, 0.00369217, 0.00361676, 0.00355642, 0.00367024, 0.00382111, 0.00387394, 0.00354189, 0.00354913, 0.00372904, 0.724841, 0.00346809, 0.00349551, 0.725297, 0.725521, 0.00368819, 0.00337241, 0.715452, 0.717806, 0.00383528, 0.691265, 0.69231, 0.69407, 0.693572, 0.00358404, 0.67237, 0.673503, 0.669794, 0.670571, 0.671076, 0.671506, 0.00385647, 0.00359896, 0.00376853, 0.661536, 0.654094, 0.662361, 0.662502, 0.00359727, 0.00368788, 0.00362667, 0.659136, 0.00353291, 0.647231, 0.647042, 0.64705, 1.20531, 0.648515, 0.646293, 0.649564, 0.648445, 0.648367, 0.00365417, 0.00334147, 0.00355115, 0.655155, 0.65527, 0.648346, 0.648446, 0.642284, 0.628627, 0.628416, 0.628324, 0.625865, 0.610079, 0.604949, 0.606403, 0.605778, 0.628421, 0.605677, 0.601412, 0.627883, 0.616207, 0.58522, 0.677795, 0.656059, 0.712314, 0.710918, 0.765127, 0.815777, 0.821541, 0.8735, 0.962294, 0.991043, 1.07091, 1.14917, 1.18453, 1.32769, 1.53806, 1.56128, 1.56863, 1.5935, 1.59615, 1.65222, 1.66629, 1.7409, 1.72929, 1.67624, 1.70805, 1.7081, 1.72351, 1.76536, 1.7379, 1.73472, 1.72491, 1.73333, 1.72613, 1.7372, 1.73978, 1.73977, 1.74249, 1.74092, 1.71958, 1.73723, 1.74515, 1.75149, 1.81974, 1.77442, 1.76596, 1.73815, 1.74103, 1.74033, 1.72379, 1.71981, 1.71259, 1.72959, 1.69055, 1.66094, 1.68186, 1.68197, 1.67268, 1.64984, 1.65784, 1.65361, 1.64629, 1.64584, 1.58894, 1.59955, 1.55082, 1.55755, 1.58688, 1.51635, 1.46473, 1.47477, 1.47133, 1.46591, 1.46807, 1.45867, 1.46493, 1.40386, 1.39454, 1.39331, 1.38875, 1.38937, 1.38818, 1.36737, 1.34514, 1.34391, 1.36144, 1.35114, 1.31629, 1.32353, 1.30041, 1.30972, 1.30909, 1.2829, 1.28357, 1.30068, 1.2927, 1.28753, 1.28351, 1.28179, 1.26348, 1.2501, 1.25008, 1.23921, 1.27574, 1.21371, 1.24107, 1.22594, 1.20582, 1.20836, 1.17885, 1.1919, 1.19081, 1.25583, 1.23455, 1.22162, 1.15483, 1.17661, 1.16362, 1.12608, 1.13598, 1.19771, 1.19775, 1.18718, 1.18708, 1.1914, 1.19423, 1.19467, 1.19567, 1.19765, 1.20106, 1.20114, 1.20013, 1.20126, 1.20286, 1.20516, 1.20446, 1.20814, 1.20909, 1.24765, 1.221, 1.22716, 0.00354163, 0.00358698, 0.00356662, 0.00366967, 1.27994, 1.27362, 1.27549, 1.27754, 1.27271, 1.26745, 1.26871, 1.26881, 1.27136, 1.27471, 1.27581, 1.2792, 0.00352059, 0.00365294, 1.37748, 1.29788, 1.2998, 1.30559, 1.30682, 1.31591, 1.31523, 0.00339608, 0.00342191, 0.00367935, 0.00353871, 0.00325629, 1.51586, 1.5134, 0.00366138, 0.00384874, 0.00365314, 0.00351055, 0.00342929, 0.00370767, 0.00367981, 1.92708, 1.49434, 1.49516, 1.49285, 1.49618, 1.49681, 1.49593, 1.49863, 1.50145, 1.50133, 1.50315, 1.503, 1.51038, 1.50945, 1.51244, 1.50927, 1.51572, 1.52749, 1.52709, 0.00351273, 1.53406, 1.53978, 1.54238
0.939427, 0.912143, 0.93213, 0.913521, 0.930782, 0.926209, 0.957692, 0.00373353, 0.00338492, 0.00352213, 0.00366192, 0.00324406, 1.35071, 0.00355075, 0.0039247, 0.00329441, 0.00381248, 0.00369, 0.00362576, 0.00365943, 1.14945, 0.00370754, 0.00348682, 0.0036692, 0.00366809, 0.00390543, 0.79844, 0.00316165, 0.0037987, 0.00358264, 0.00361258, 0.00359564, 0.0042816, 0.00349314, 0.00357315, 0.00342017, 0.731151, 0.726635, 0.726126, 0.00356909, 1.04374, 0.716578, 0.718504, 0.00349781, 0.00366216, 0.00352733, 0.717988, 0.00378482, 0.00358626, 0.00338075, 0.678201, 0.679683, 0.669386, 0.67016, 0.670583, 0.67077, 0.672247, 0.670976, 0.665116, 0.668394, 0.665154, 0.665592, 0.666102, 0.664878, 0.666801, 0.664041, 0.66319, 0.663089, 0.649398, 0.650016, 0.65321, 0.654107, 0.655881, 0.655232, 0.651646, 0.00339245, 0.00364532, 0.660366, 0.00336441, 0.00364459, 1.2834, 0.651579, 0.651591, 0.65153, 0.632442, 0.64568, 0.679494, 0.679583, 0.602226, 0.604127, 0.608568, 0.609281, 0.610269, 0.662227, 0.613296, 0.5944, 0.609329, 0.626053, 0.667452, 0.675977, 0.739736, 0.73298, 0.813605, 0.813632, 0.816616, 0.818039, 0.869146, 0.995685, 1.01193, 1.12874, 1.17124, 1.36662, 1.54766, 1.55982, 1.57673, 1.60002, 1.63223, 1.64012, 1.65398, 1.66686, 1.70946, 1.70778, 1.71671, 1.73819, 1.73882, 1.78325, 1.75649, 1.75257, 1.7613, 1.74894, 1.79522, 1.8215, 1.79251, 1.76947, 1.76195, 0.00384547, 0.00373677, 1.7758, 1.81134, 1.8334, 1.81344, 1.77552, 1.77318, 1.82483, 1.78188, 1.80584, 1.76155, 1.75806, 1.79802, 1.74399, 1.72088, 1.71469, 1.77199, 1.73481, 1.69658, 1.694, 1.71737, 1.71669, 1.71688, 1.71701, 1.65838, 1.61104, 1.60645, 1.56855, 1.52476, 1.5102, 1.49052, 1.45751, 1.58055, 1.58137, 1.44689, 1.45507, 1.4552, 1.43476, 1.43251, 1.41926, 1.4058, 1.41613, 1.39479, 1.36813, 1.38343, 1.38417, 1.34407, 1.3512, 1.32958, 1.33341, 1.30608, 1.31646, 1.31078, 1.303, 1.30568, 1.2979, 1.28797, 1.28889, 1.34925, 1.30048, 1.27267, 1.28122, 1.2848, 1.23895, 1.28532, 1.21752, 1.21993, 1.249, 1.20624, 1.20741, 1.20669, 1.21623, 1.18629, 1.20393, 1.21292, 1.20869, 1.19773, 1.17484, 1.15776, 1.14313, 1.17629, 1.17994, 1.18134, 1.18898, 1.19306, 1.19399, 1.19738, 1.19652, 1.1975, 1.199, 1.20267, 1.20468, 1.20022, 1.20345, 1.2016, 1.20528, 1.20552, 1.20724, 1.20894, 1.21149, 1.2204, 1.22233, 0.00343114, 0.00366969, 0.00377583, 1.25763, 1.26491, 1.26859, 1.27503, 1.27521, 1.27498, 1.27469, 1.27078, 1.27204, 1.27467, 1.2781, 1.28037, 1.28583, 1.28692, 1.29619, 1.29507, 0.00345035, 1.30479, 1.30331, 1.3141, 1.31444, 1.31638, 0.00332071, 0.00330709, 1.33458, 1.73083, 1.51691, 0.00351504, 1.53294, 1.52786, 0.00348315, 1.42631, 0.00353428, 0.0035507, 0.00363543, 0.00370906, 1.51222, 1.49331, 1.4965, 1.4958, 1.49538, 1.49897, 1.49572, 1.49411, 1.49617, 1.50012, 1.50425, 1.50343, 1.50064, 1.50239, 1.51062, 1.51041, 1.51284, 1.51339, 0.00369604, 1.53057, 1.52979, 1.53162, 0.0035637
0.880449, 0.87963, 0.879999, 0.913345, 0.953846, 0.954002, 0.95697, 0.955179, 0.00375867, 0.00367546, 0.00342834, 0.00372132, 1.32803, 0.00364198, 0.00317666, 0.00398953, 0.840469, 0.841662, 0.00347302, 0.00371288, 0.00368994, 0.00352789, 0.00354675, 0.00374573, 0.00356757, 1.32421, 0.00340025, 0.00356498, 0.00345566, 0.00394059, 0.00339023, 0.779979, 0.00355349, 0.00334346, 0.00349204, 0.00358143, 0.00363445, 0.00364173, 0.00360865, 0.00360991, 0.00343533, 0.00373161, 0.726702, 0.728469, 0.00348953, 0.715756, 0.71461, 0.71493, 0.00351604, 0.695677, 0.681026, 0.682621, 0.68289, 0.00384742, 0.00367328, 0.683935, 0.00347716, 0.673472, 0.676123, 0.677489, 0.673679, 0.673638, 0.674785, 0.670301, 0.674609, 0.674278, 0.674405, 0.67107, 0.00324825, 0.666799, 0.668067, 0.66217, 0.659448, 0.659643, 1.27869, 1.29121, 0.672043, 0.673548, 0.00358214, 0.661891, 0.661555, 0.662708, 0.662468, 0.652312, 0.66683, 0.684296, 0.684818, 0.681011, 0.68074, 0.59869, 0.620597, 0.622791, 0.625601, 0.61756, 0.620242, 0.616747, 0.616648, 0.625717, 0.63459, 0.732594, 0.741315, 0.73561, 0.718104, 0.808769, 0.835108, 0.873961, 0.875071, 0.98721, 1.17456, 1.17583, 1.19695, 1.35516, 1.58609, 1.63118, 1.62934, 1.63364, 1.66703, 1.69069, 1.68798, 1.69857, 1.73421, 1.73056, 1.75365, 1.77955, 1.76579, 1.7962, 1.77089, 1.76862, 1.78844, 1.78604, 1.79457, 1.80034, 1.84424, 1.80362, 1.8004, 1.8454, 0.00341249, 0.0038332, 0.00350776, 0.00343286, 0.00352882, 0.00359409, 0.00357504, 1.85274, 0.00349925, 1.81632, 1.81367, 1.82071, 0.0036673, 1.74943, 1.74846, 0.0036615, 1.73888, 1.73695, 1.73507, 0.00379293, 1.73371, 1.7245, 1.7232, 1.7131, 1.71287, 1.71942, 1.58525, 1.57528, 1.53834, 1.55215, 1.49709, 1.4888, 1.4695, 1.45821, 1.46202, 1.46134, 1.44838, 1.4286, 1.44317, 1.43427, 1.43438, 1.43269, 1.42007, 1.40573, 1.39408, 1.36364, 1.36981, 1.34274, 1.41109, 1.3112, 1.3095, 1.34008, 1.34409, 1.36499, 1.3245, 1.31077, 1.31006, 1.31055, 1.32525, 1.29233, 1.2812, 1.28244, 1.29119, 1.25974, 1.27899, 1.24082, 1.25059, 1.25302, 1.21671, 1.21872, 1.23192, 1.2373, 1.2167, 1.19778, 1.1711, 1.20304, 1.18465, 1.1517, 1.1429, 1.14554, 1.17521, 1.17723, 1.18251, 1.18823, 1.19326, 1.19513, 1.19729, 1.20016, 1.2023, 1.19969, 1.20248, 1.20366, 1.20763, 1.20405, 1.20658, 1.20678, 1.20895, 1.20703, 1.21124, 1.21298, 1.21604, 1.21764, 0.00331713, 0.00349937, 0.00344667, 1.25718, 0.00324797, 1.36159, 0.00344319, 1.28129, 1.28197, 1.27819, 1.27919, 1.28243, 0.00349398, 1.28237, 0.00346505, 1.2878, 1.28961, 1.29354, 1.29651, 1.30138, 1.30229, 1.3062, 1.31216, 1.31354, 1.31935, 1.3196, 0.0034427, 0.00353027, 0.00330546, 0.00362549, 0.00361197, 1.52445, 1.53081, 1.51272, 0.00344033, 0.00353381, 0.00301507, 0.00349933, 0.00359529, 1.49461, 1.49251, 1.49769, 1.496, 1.49255, 1.49535, 1.49859, 1.49843, 1.49622, 1.50078, 1.50224, 1.5015, 1.50121, 1.5028, 1.50914, 1.5082, 1.50826, 1.51232, 1.51822, 1.52341, 1.52772, 1.53032, 1.52912
0.939286, 0.00336195, 0.908056, 0.00326668, 0.00361828, 0.00355309, 0.0035073, 0.00344538, 1.00567, 0.00336256, 0.00352337, 0.00373652, 0.00365129, 0.00333505, 0.00391968, 0.00356449, 0.842043, 0.843903, 0.84413, 0.00354865, 0.00332248, 0.00353704, 1.14669, 0.00361309, 0.00377498, 0.00342242, 0.00381757, 0.00368842, 0.820075, 0.00350883, 0.00367013, 0.00356768, 0.00372285, 0.00339018, 0.00357017, 0.00391148, 0.0035745, 0.0036126, 0.753737, 0.00347712, 0.00377567, 0.00345252, 1.40254, 0.00330897, 0.00349667, 0.00357252, 0.00360122, 0.714201, 0.00340348, 0.0035329, 0.00413786, 0.00368625, 0.00348112, 0.697361, 0.697344, 0.697993, 0.686813, 0.688791, 0.689285, 0.677863, 0.677056, 0.686538, 0.681627, 0.681886, 0.682255, 0.679944, 0.680391, 0.679396, 0.680075, 0.679542, 0.679391, 0.673935, 0.674706, 0.676569, 0.6754, 0.677, 0.682006, 1.25759, 1.26083, 0.681415, 0.66152, 0.669204, 0.667191, 0.665008, 0.635306, 0.63611, 0.679463, 0.67953, 0.597256, 0.60849, 0.602733, 0.62566, 0.627397, 0.641278, 0.625611, 0.626665, 0.626328, 0.61858, 0.612467, 0.632422, 0.710295, 0.72849, 0.728614, 0.73284, 0.840218, 0.867924, 0.929911, 1.09871, 1.10098, 1.14763, 1.1815, 1.23339, 1.60218, 1.61649, 1.64309, 1.62704, 1.69602, 1.69954, 1.72757, 1.70698, 1.71484, 1.75084, 1.75105, 1.76225, 1.77325, 1.77223, 1.80729, 1.80609, 1.80488, 1.78883, 1.81772, 1.81166, 1.80829, 1.87954, 1.8423, 1.87864, 1.9025, 0.00342079, 0.00346194, 1.87448, 1.86079, 1.86935, 1.8692, 1.8671, 1.8235, 1.81946, 1.82347, 1.84569, 1.84455, 0.00341961, 1.80786, 1.77555, 1.77441, 1.77837, 1.7585, 1.7459, 1.74621, 1.72492, 1.7233, 1.72769, 1.76155, 1.64691, 1.59811, 1.5995, 1.57491, 1.53798, 1.52045, 1.51917, 1.49466, 1.4933, 1.49997, 1.50022, 1.49972, 1.46131, 1.45156, 1.43904, 1.45684, 1.45809, 1.40297, 1.40142, 1.38055, 1.38277, 1.40971, 1.40971, 1.37489, 1.34644, 1.35244, 1.36448, 1.36858, 1.3689, 1.38112, 1.32418, 1.30203, 1.30159, 1.30219, 1.30298, 1.30872, 1.28208, 1.25025, 1.24528, 1.2474, 1.23728, 1.22665, 1.20702, 1.20548, 1.2307, 1.20045, 1.22044, 1.21859, 1.17864, 1.18058, 1.17036, 1.17137, 1.15804, 1.19181, 1.19434, 1.182, 1.19222, 1.17388, 1.18936, 1.19802, 1.19964, 1.20228, 1.20251, 1.2041, 1.20224, 1.2026, 1.20426, 1.20797, 1.21055, 1.20552, 1.20824, 1.20867, 1.2092, 1.20912, 1.21187, 1.21728, 1.21867, 1.23055, 1.2363, 0.00337855, 0.00323319, 0.00331568, 0.00327857, 0.00380994, 0.00314619, 1.28451, 1.28157, 1.28442, 1.28502, 1.28418, 1.28473, 1.28616, 1.29138, 1.29375, 1.29712, 1.29992, 1.30398, 1.30522, 1.3102, 1.31382, 1.31485, 1.31752, 1.32271, 0.0039116, 0.00340058, 0.00384817, 0.00349765, 1.52305, 1.52474, 1.501, 0.00323239, 0.00379321, 0.00378998, 0.00336644, 0.00371104, 0.00352318, 1.486, 1.49011, 1.4887, 1.49209, 1.49323, 1.49615, 1.49931, 1.50093, 1.50222, 1.49546, 1.49922, 1.50407, 1.50079, 1.49753, 1.50196, 1.50424, 1.5107, 1.51468, 1.517, 1.51671, 1.51873, 1.52657, 1.53169
0.00353501, 0.895715, 0.894697, 1.00488, 0.00332433, 0.0037642, 0.00349034, 0.00355299, 0.945945, 0.00341703, 0.00332996, 0.00349402, 0.00331636, 0.00381211, 0.00352967, 0.0037124, 0.00325771, 1.31639, 0.00358347, 0.00336024, 0.00349086, 0.00369025, 0.00349497, 0.00403329, 0.0033387, 0.00343344, 0.829397, 0.816554, 0.817988, 0.00347894, 0.0033409, 0.00392587, 0.00359371, 0.787509, 0.787726, 0.00320394, 0.0033302, 0.00378593, 0.00372385, 0.00337211, 0.00326497, 0.0036042, 0.00373771, 1.08437, 0.742363, 0.741921, 0.00356193, 0.00343926, 0.00337891, 0.00377379, 0.00372567, 0.00347358, 0.00352941, 0.00351176, 0.00343955, 0.0035435, 0.00331371, 0.00382763, 0.00356488, 0.698111, 0.693383, 0.691756, 0.689048, 0.689637, 0.689894, 0.688721, 0.00335599, 0.68482, 0.686705, 0.686635, 0.684072, 0.684045, 0.685864, 0.682243, 0.68486, 0.685854, 0.684568, 0.685694, 0.686011, 0.688191, 0.687928, 0.687122, 0.672763, 0.635172, 0.636612, 0.68295, 0.635873, 0.637218, 0.633455, 0.642724, 0.646255, 0.610668, 0.660231, 0.641693, 0.639193, 0.701771, 0.702192, 0.691575, 0.655812, 0.689403, 0.731659, 0.731566, 0.739356, 0.760524, 0.980379, 0.980426, 0.980688, 0.981632, 1.10718, 1.14537, 1.14556, 1.23728, 1.21924, 1.64214, 1.64144, 1.63883, 1.70155, 1.70222, 1.70168, 1.73728, 1.75283, 1.74053, 1.77044, 1.7698, 1.76814, 1.77384, 1.82226, 1.85074, 1.84784, 1.85329, 1.83919, 1.83701, 1.85083, 1.8736, 1.87138, 1.90343, 0.00358997, 1.90357, 1.90034, 0.00366665, 0.00368112, 1.93929, 1.87159, 1.87009, 1.83921, 1.83732, 1.83677, 1.83388, 1.83894, 1.83753, 0.0034828, 1.78295, 1.76821, 1.76354, 1.75847, 1.74853, 1.77255, 1.71942, 1.72029, 1.69, 1.72764, 1.64216, 1.64931, 1.7352, 1.59988, 1.54366, 1.53866, 1.56534, 1.53752, 1.54772, 1.52704, 1.50094, 1.48778, 1.49932, 1.46179, 1.45809, 1.44667, 1.44709, 1.46935, 1.42411, 1.4238, 1.42949, 1.46596, 1.46507, 1.40472, 1.40676, 1.38047, 1.38043, 1.41996, 1.38434, 1.38639, 1.33386, 1.30715, 1.30568, 1.31279, 1.32727, 1.27507, 1.27838, 1.28743, 1.2355, 1.24801, 1.24568, 1.23356, 1.22536, 1.23026, 1.22499, 1.21289, 1.19108, 1.20412, 1.2081, 1.18777, 1.19222, 1.1487, 1.14901, 1.18433, 1.17465, 1.18042, 1.17844, 1.17041, 1.17374, 1.19905, 1.20085, 1.20136, 1.20309, 1.20557, 1.20099, 1.20198, 1.20451, 1.20448, 1.20563, 1.20819, 1.20911, 1.20752, 1.20706, 1.2102, 1.21284, 1.21567, 1.21954, 1.22036, 1.22192, 0.00358023, 1.24773, 1.25522, 0.00362887, 0.00337513, 1.36252, 1.28849, 1.28977, 1.28859, 1.28755, 1.28681, 1.28737, 1.29424, 1.29326, 1.29618, 1.29624, 1.30915, 0.00341544, 1.31497, 1.31387, 1.31655, 1.3197, 1.31908, 1.32173, 1.33046, 1.3334, 1.33458, 0.00344128, 1.51591, 0.00349851, 0.00343033, 0.00367697, 0.00362656, 0.00351763, 0.00377782, 0.00367456, 0.00355228, 0.0036228, 1.49838, 1.49775, 1.49599, 1.4977, 1.50061, 1.49952, 1.49977, 1.4978, 1.50012, 1.49425, 1.49829, 1.49769, 1.50128, 1.50491, 1.50287, 1.51246, 0.00342487, 1.51702, 1.51756, 1.51472, 1.51735, 1.52746
0.904601, 0.903072, 1.46194, 0.00326557, 1.49933, 0.906092, 0.003464, 0.00345476, 0.0038542, 0.00341537, 0.00368582, 0.00341936, 0.00363965, 0.897915, 0.00391492, 0.00356657, 0.00330668, 0.00337551, 0.0040068, 0.00343618, 0.00375246, 0.00362596, 0.00322875, 0.00360239, 0.0035485, 0.0036283, 0.00376025, 0.00365549, 0.00356404, 0.822186, 0.822983, 0.00335155, 0.0034444, 0.00340519, 0.00351666, 0.00354232, 1.2119, 0.00341484, 0.00372426, 0.0033847, 0.00354156, 0.00378416, 0.00339246, 0.0034216, 0.00339212, 0.00362722, 0.00364524, 0.00323869, 0.00394428, 0.00344369, 0.00363711, 0.00340584, 0.00373518, 0.00323931, 0.00345754, 0.720037, 0.71375, 0.71385, 0.712729, 0.00318606, 0.00382809, 0.00334168, 0.700871, 0.694886, 0.693669, 0.699888, 0.700544, 0.696218, 0.694582, 0.693039, 0.693204, 0.687915, 0.689069, 0.691063, 0.688247, 0.689694, 0.689706, 0.693017, 0.692895, 0.692652, 0.693061, 0.693591, 0.67994, 0.681923, 0.682639, 0.607456, 0.601987, 0.604489, 0.60524, 0.606518, 0.632708, 0.634691, 0.652779, 0.657553, 0.634609, 0.65606, 0.703069, 0.650512, 0.678411, 0.693127, 0.694215, 0.807923, 0.777056, 0.778654, 0.952001, 0.953723, 0.955303, 0.978544, 1.13365, 1.12799, 1.1298, 1.21376, 1.22618, 1.22708, 1.67559, 1.69256, 1.69013, 1.6877, 1.74608, 1.7439, 1.75795, 1.75474, 1.76269, 1.77255, 1.77096, 1.8418, 1.86472, 1.84642, 1.8497, 0.0037086, 1.87471, 1.89511, 1.89196, 1.86277, 1.89591, 1.90417, 1.92251, 1.9133, 1.91141, 1.91037, 1.91215, 0.00360186, 1.89228, 1.89049, 1.85579, 1.86084, 1.85617, 1.85379, 1.84382, 1.8768, 1.87505, 0.00343634, 1.77191, 1.75058, 1.7481, 1.72881, 1.72781, 1.72125, 1.71792, 1.7164, 1.68976, 1.67237, 1.67206, 1.65783, 1.65134, 1.5661, 1.56434, 1.53273, 1.53231, 1.50876, 1.51401, 1.50929, 1.52291, 1.53481, 1.53485, 1.48135, 1.47918, 1.44253, 1.46889, 1.46835, 1.46783, 1.43861, 1.46265, 1.47219, 1.48614, 1.47957, 1.42004, 1.39694, 1.39765, 1.39581, 1.35737, 1.34928, 1.33738, 1.31215, 1.32384, 1.28681, 1.2899, 1.25815, 1.25474, 1.29554, 1.23319, 1.2172, 1.23285, 1.2326, 1.23714, 1.23988, 1.22685, 1.21894, 1.19539, 1.19621, 1.19214, 1.16417, 1.16999, 1.16685, 1.16731, 1.17785, 1.16438, 1.17253, 1.174, 1.1899, 1.19372, 1.19726, 1.20135, 1.20073, 1.20095, 1.20255, 1.20546, 1.20468, 1.20584, 1.20822, 1.20884, 1.20895, 1.20808, 1.21104, 1.21012, 1.21432, 1.21652, 1.2185, 1.22103, 1.22861, 1.2294, 0.00356705, 0.0032144, 0.00324269, 0.00357351, 0.00349282, 1.29058, 1.29277, 1.29308, 1.29165, 1.28991, 1.29033, 1.29359, 1.29412, 1.30184, 1.30488, 1.30623, 1.30863, 1.31297, 1.31753, 1.3185, 1.3233, 1.32071, 1.32996, 1.42219, 1.33684, 0.00352425, 0.00352094, 1.55113, 1.51801, 1.53507, 0.003339, 1.41499, 1.54859, 1.42917, 0.00364859, 0.00371931, 0.00368026, 1.49227, 1.49204, 1.49571, 1.49578, 1.499, 1.49384, 1.49187, 1.49381, 1.49657, 1.49879, 1.49489, 1.49648, 1.50227, 1.50059, 1.50266, 1.50289, 1.50677, 1.50965, 1.50973, 1.51578, 1.51646, 1.51965
0.912664, 0.925678, 1.53691, 0.00357041, 0.00339956, 1.51568, 0.00353999, 0.0038324, 0.00323516, 0.00362686, 0.00352472, 0.00371601, 0.00361225, 0.00369258, 0.00346605, 0.0037255, 0.00372562, 0.00358242, 0.00352675, 0.00331174, 0.00339424, 0.00362146, 0.00366589, 0.00352955, 0.00348833, 0.851284, 0.0037193, 0.00336379, 0.00343446, 0.0035243, 0.00336564, 0.00388106, 0.00366513, 0.798386, 0.79983, 0.80066, 0.801205, 0.801356, 0.798833, 0.00383653, 0.00344676, 0.788574, 0.78758, 0.00359053, 0.00350977, 1.11375, 0.00328736, 0.00337749, 0.745155, 0.74642, 0.747666, 0.738724, 0.738055, 0.735856, 0.00336869, 0.00397664, 0.00339808, 0.718834, 0.719276, 0.00359201, 0.00338329, 0.705474, 0.70512, 0.704898, 0.707184, 0.705788, 0.706117, 0.702864, 0.702144, 0.6983, 0.699045, 0.700163, 0.700413, 0.700201, 0.699791, 0.697107, 0.704257, 0.705469, 0.706971, 0.707178, 0.684301, 0.688112, 0.689036, 0.68921, 0.663172, 0.663248, 0.65214, 0.614208, 0.607871, 0.608387, 0.656178, 0.645956, 0.645521, 0.684414, 0.660772, 0.660707, 0.693683, 0.702996, 0.700441, 0.701641, 0.700808, 0.759553, 0.856263, 0.856088, 0.902248, 0.91317, 0.911781, 0.92623, 0.946817, 1.08269, 1.12223, 1.19106, 1.22218, 1.63208, 1.68342, 1.67886, 1.67839, 1.7224, 1.71953, 1.73816, 1.74291, 1.74955, 1.78263, 1.85184, 1.84939, 1.84102, 0.00348604, 1.8942, 1.91667, 1.91448, 0.003378, 1.96963, 1.90737, 1.90608, 1.92055, 1.93248, 1.91802, 1.89803, 1.91477, 1.91389, 1.91176, 1.91154, 1.90912, 1.88552, 1.87959, 1.8504, 1.85416, 1.85268, 1.83789, 1.83592, 1.83172, 1.82081, 1.82071, 1.81302, 1.80319, 1.7908, 1.73247, 1.73101, 1.73109, 1.711, 1.74834, 1.74705, 1.67815, 1.64398, 1.65385, 1.65314, 1.66183, 1.65941, 1.5429, 1.53976, 1.52754, 1.60784, 1.54085, 1.54416, 1.54427, 1.57966, 1.57778, 1.58395, 1.46739, 1.46547, 1.46432, 1.46385, 1.44791, 1.42345, 1.42346, 1.41209, 1.40998, 1.40004, 1.39965, 1.40443, 1.34689, 1.34089, 1.29708, 1.29793, 1.29244, 1.28429, 1.27442, 1.26963, 1.2711, 1.23791, 1.23986, 1.22533, 1.24678, 1.25593, 1.25531, 1.22734, 1.22857, 1.23078, 1.17893, 1.18113, 1.19115, 1.20112, 1.20619, 1.20254, 1.20473, 1.1483, 1.15025, 1.18909, 1.17749, 1.18023, 1.19226, 1.18951, 1.19773, 1.2012, 1.20162, 1.20495, 1.20605, 1.20687, 1.20744, 1.20491, 1.20937, 1.21202, 1.2101, 1.21267, 1.21594, 1.2139, 1.21356, 1.22021, 1.22085, 1.22546, 1.22672, 1.23197, 1.24036, 0.00353966, 0.00351298, 0.00339783, 0.00347998, 0.00343308, 1.29868, 1.29703, 1.2988, 1.29793, 1.29861, 1.29885, 1.29832, 1.30207, 1.30626, 1.31251, 1.31323, 1.31568, 1.31668, 0.00357481, 0.0035609, 1.33064, 1.33356, 1.3377, 0.00375647, 1.34577, 1.36569, 1.54628, 1.59057, 1.52672, 0.00347591, 1.48307, 0.00365013, 0.00371036, 0.00362755, 0.00373051, 0.00351186, 1.48873, 1.4881, 1.49474, 1.49845, 1.49406, 1.49405, 1.49769, 1.49841, 1.49778, 1.49411, 1.49386, 1.49602, 1.49863, 1.4949, 1.50394, 1.50463, 1.50601, 1.51631, 1.51587, 1.51608, 1.52144
0.00369822, 1.02282, 0.00387104, 0.00355817, 0.00341367, 0.00348642, 0.921617, 0.923128, 0.923562, 0.00345229, 0.0036572, 0.00346281, 0.00353963, 0.00362218, 0.00361739, 0.00362415, 0.00331364, 0.00358526, 0.00357503, 0.0033954, 0.00368002, 0.00336391, 0.00309352, 0.0034712, 0.00350084, 0.859093, 0.00351876, 0.00371522, 0.00364736, 0.0035552, 0.00361884, 0.00360402, 0.00392701, 0.00355257, 0.00395624, 0.00353146, 0.801754, 0.0036289, 0.00339572, 0.00366211, 0.0039348, 0.00363695, 0.00344795, 0.00356643, 0.0035822, 0.00335518, 0.00364895, 0.00363381, 0.745362, 0.746162, 0.746671, 0.737333, 0.738493, 0.73865, 0.00367462, 0.00353997, 0.00339502, 0.731665, 0.73014, 0.72822, 0.00357685, 0.721172, 0.00379978, 0.00372808, 0.717166, 0.717224, 0.71375, 0.710811, 0.711557, 0.703976, 0.707821, 0.6977, 0.698922, 0.698608, 0.703063, 0.705205, 0.706257, 0.709386, 0.711353, 0.710767, 0.710585, 0.710611, 0.709238, 0.695682, 0.697883, 0.608101, 0.607325, 0.655568, 0.657016, 0.656491, 0.623309, 0.624838, 0.619113, 0.619738, 0.644294, 0.6484, 0.702548, 0.669755, 0.636191, 0.681756, 0.682372, 0.718177, 0.765845, 0.899564, 0.903999, 0.902548, 0.907257, 0.909052, 0.944603, 0.946834, 1.08573, 1.19217, 1.20604, 1.69051, 1.66944, 1.66654, 1.70893, 1.71819, 1.71773, 1.7049, 1.75653, 1.74915, 1.7747, 1.86345, 1.87391, 1.92353, 1.89939, 1.90458, 1.90253, 1.90067, 1.90125, 1.94741, 1.8939, 1.90443, 1.91418, 1.92899, 1.92101, 1.96474, 1.93161, 1.90309, 1.89968, 1.87998, 1.87388, 1.85667, 1.85358, 1.84847, 1.84153, 1.85089, 1.84708, 1.88753, 1.82611, 1.83198, 1.83993, 1.81244, 1.77935, 1.78017, 1.82186, 1.75112, 1.75298, 1.73063, 1.72762, 1.79792, 1.78845, 1.76684, 1.72556, 1.6627, 1.66212, 1.5631, 1.54108, 1.54592, 1.53004, 1.53871, 1.53794, 1.54653, 1.55447, 1.55709, 1.55854, 1.56035, 1.49554, 1.49176, 1.4993, 1.43875, 1.43689, 1.4364, 1.42252, 1.43433, 1.44719, 1.41514, 1.41178, 1.35404, 1.32794, 1.33012, 1.35014, 1.33346, 1.28146, 1.27932, 1.29591, 1.3246, 1.29525, 1.28954, 1.23243, 1.2361, 1.21441, 1.21885, 1.23362, 1.19532, 1.19588, 1.19427, 1.19854, 1.17805, 1.17779, 1.16716, 1.19626, 1.22179, 1.22247, 1.20654, 1.19105, 1.18776, 1.18463, 1.18389, 1.18789, 1.19485, 1.1961, 1.19959, 1.20344, 1.20333, 1.20307, 1.20507, 1.20634, 1.2064, 1.20845, 1.21014, 1.21037, 1.21049, 1.21458, 1.21626, 1.21759, 1.2176, 1.22049, 1.22198, 1.22643, 1.2277, 1.23475, 0.00359534, 0.003646, 0.00342706, 0.00334863, 0.00320293, 1.29939, 1.30203, 1.29897, 1.29749, 1.29669, 1.29873, 1.30167, 1.303, 1.30796, 1.30736, 1.31317, 1.3163, 1.31909, 0.0032549, 1.32716, 1.33099, 1.97256, 1.96884, 1.34194, 0.00355142, 0.003892, 0.00355112, 1.54023, 1.5406, 0.00351267, 1.50989, 1.43661, 1.47421, 0.00349175, 0.00365145, 0.00350853, 1.4979, 0.00343847, 1.4982, 1.49866, 1.4949, 1.49165, 1.49131, 1.49754, 1.49793, 1.4936, 1.491, 1.49389, 1.49843, 1.4982, 1.50334, 1.5049, 1.50626, 1.50859, 1.51355, 1.51347, 1.52268
0.0035081, 0.936116, 0.00377912, 0.0035089, 0.00360502, 0.00375493, 0.00358133, 0.00366278, 0.00326638, 0.00354554, 0.936755, 0.937674, 0.0033135, 0.00391534, 0.00337187, 0.00359332, 0.00331542, 0.00385616, 0.00341406, 0.00335421, 0.003386, 0.003656, 0.0033787, 0.00323841, 0.00368622, 0.00364294, 0.00344527, 0.00328924, 0.00330631, 0.00347417, 0.00341008, 0.00373958, 0.00357879, 0.00352938, 0.00330875, 0.0034794, 0.00356081, 0.00366765, 0.00338629, 0.00354535, 0.00341583, 0.00393124, 0.00343369, 0.00349017, 0.00349162, 0.00340547, 0.00331739, 0.00365927, 0.00338265, 0.00353885, 0.00347152, 0.00336832, 0.00321754, 0.00364904, 0.00335072, 0.00355969, 1.1772, 1.17772, 1.19969, 0.731901, 0.732038, 0.00376018, 0.728397, 0.728021, 0.00325892, 0.722587, 0.715402, 0.718653, 0.0032984, 0.714667, 0.708898, 0.712565, 0.711427, 0.709121, 0.708025, 0.708346, 0.709961, 0.711267, 0.712161, 0.714644, 0.716494, 0.714146, 0.707574, 0.707873, 0.699641, 0.701314, 0.697176, 0.698398, 0.629418, 0.62731, 0.62149, 0.622196, 0.638693, 0.619813, 0.641902, 0.659502, 0.677138, 0.680327, 0.686147, 0.686911, 0.71536, 0.766562, 0.766446, 0.767292, 0.819873, 0.817698, 0.867725, 0.881225, 0.954445, 1.04589, 1.06704, 1.07912, 1.23372, 1.23327, 1.69583, 1.68294, 1.69719, 1.70252, 1.70279, 1.71689, 0.00355356, 1.87286, 1.84485, 1.84374, 0.00335459, 0.00336647, 1.87145, 1.87848, 1.879, 1.89746, 1.88628, 1.91658, 1.91104, 1.95081, 0.00346583, 1.93439, 1.92338, 1.89074, 1.92933, 1.90365, 1.90392, 1.87921, 1.87636, 1.87257, 1.87139, 1.84586, 1.8721, 1.85222, 1.84297, 1.88973, 1.83025, 1.83428, 1.83238, 1.82484, 1.82399, 1.82552, 1.78969, 1.79388, 1.77511, 1.81325, 1.74449, 1.80104, 1.68598, 1.69301, 1.76689, 1.71626, 1.70705, 1.71391, 0.00341182, 1.56507, 1.5344, 1.53453, 1.52128, 1.50497, 1.51384, 1.5237, 1.52673, 1.52595, 1.4762, 1.46403, 1.47707, 1.46145, 0.00350597, 1.43001, 1.3945, 1.4065, 1.40555, 1.37931, 1.37013, 1.35159, 1.35019, 1.36794, 1.33956, 1.35594, 1.29971, 1.3012, 1.32954, 1.3334, 1.28714, 1.28232, 1.28285, 1.27813, 1.24114, 1.23647, 1.19187, 1.19282, 1.19828, 1.20019, 1.22295, 1.20109, 1.20279, 1.20196, 1.22558, 1.22177, 1.16151, 1.14862, 1.14759, 1.1825, 1.18813, 1.1919, 1.18824, 1.19415, 1.19492, 1.19479, 1.19685, 1.19854, 1.20103, 1.20313, 1.20295, 1.20634, 1.20601, 1.20805, 1.20932, 1.21235, 1.21594, 1.21769, 1.2199, 1.22046, 1.21971, 1.22002, 1.22193, 1.22733, 0.00370075, 1.23667, 0.00369896, 0.00353209, 0.00366477, 0.00370066, 1.3026, 1.302, 1.30476, 1.30549, 1.30432, 1.30485, 1.30318, 1.305, 1.31165, 1.31188, 1.31038, 1.31899, 1.92595, 1.32316, 1.32604, 1.32911, 1.33308, 1.33352, 1.34046, 1.34684, 1.34665, 0.0034491, 1.55145, 1.58681, 1.50451, 1.50952, 0.00365829, 1.51319, 0.00338448, 1.44532, 0.00349741, 0.00344214, 0.00326839, 0.00356335, 1.49937, 1.49665, 1.49415, 1.49368, 1.49578, 1.49818, 1.49419, 1.49433, 1.49481, 1.49889, 1.49761, 1.49536, 1.50988, 1.51041, 1.51303, 1.5125, 1.51388, 1.51717
0.936353, 0.938957, 0.938662, 0.939441, 0.938952, 0.937692, 0.938557, 0.938959, 0.93615, 0.937943, 0.00373449, 0.00345207, 0.00358401, 0.00389579, 0.00387603, 0.00330792, 0.00333095, 0.00361159, 0.0037931, 0.00363767, 0.946384, 0.952465, 0.0032732, 0.00336743, 0.00362801, 0.00364767, 0.893927, 0.00351158, 0.00312358, 0.00362193, 0.00376798, 0.00340148, 0.00349436, 0.00363026, 0.00349454, 0.00324576, 0.00356935, 0.00356705, 0.00339777, 0.822553, 0.823104, 0.823107, 0.814559, 0.00361038, 0.00372494, 0.00350968, 0.00352872, 0.00323421, 0.00370744, 0.00345869, 0.00389459, 0.00313462, 0.0036156, 0.00341859, 0.00385583, 0.00359474, 0.760753, 0.00369018, 1.20347, 0.00353065, 0.746417, 0.747358, 0.742067, 0.00343929, 0.734733, 0.735153, 0.00353635, 0.729493, 0.732337, 0.00358912, 0.711999, 0.71496, 0.716442, 0.716668, 0.717634, 0.717728, 0.714464, 0.714827, 0.721531, 0.719967, 0.721257, 0.722986, 0.722498, 0.00336699, 0.708655, 0.701555, 0.694884, 0.703768, 0.733342, 0.662473, 0.622179, 0.622685, 0.649081, 0.653634, 0.641362, 0.652462, 0.656575, 0.657817, 0.688373, 0.688198, 0.724036, 0.725594, 0.726293, 0.768438, 0.791031, 0.811491, 0.811418, 0.843753, 0.999366, 1.00417, 1.08121, 1.06079, 1.062, 1.12691, 1.70537, 1.70475, 1.68147, 1.70806, 1.70762, 1.72308, 1.7415, 1.81986, 1.81347, 1.84346, 1.85921, 1.85939, 1.85957, 1.88038, 1.88701, 1.88566, 1.91357, 1.92149, 1.91989, 1.91188, 1.91355, 1.91274, 1.89815, 1.90049, 1.90126, 1.90045, 1.92427, 1.89879, 1.91305, 1.86914, 1.87494, 1.85254, 1.85215, 1.88218, 1.8818, 1.88221, 1.87746, 1.87509, 1.86628, 1.81441, 1.83335, 1.8307, 1.7962, 1.78981, 1.78104, 1.74156, 1.81057, 1.7384, 1.8176, 1.78505, 1.85164, 1.74385, 1.73508, 0.00355968, 1.71019, 1.57185, 1.65986, 1.54339, 1.53196, 1.52252, 1.52985, 1.5282, 1.50477, 1.50394, 1.46865, 1.46449, 1.47747, 1.4757, 1.41066, 1.40847, 1.41844, 1.39362, 1.36862, 1.37988, 1.38105, 1.36196, 1.35665, 1.36782, 1.36851, 1.4443, 1.32941, 1.31935, 1.32621, 1.33257, 1.33175, 1.25354, 1.25451, 1.26684, 1.2617, 1.26803, 1.24215, 1.20727, 1.21506, 1.21512, 1.18953, 1.19108, 1.24439, 1.2431, 1.17751, 1.16151, 1.11854, 1.142, 1.16568, 1.17868, 1.20475, 1.18767, 1.18849, 1.19104, 1.19283, 1.19626, 1.20009, 1.19798, 1.19793, 1.20384, 1.20585, 1.20726, 1.20864, 1.20907, 1.21291, 1.21355, 1.21611, 1.21683, 1.21814, 1.21917, 1.22058, 1.22234, 1.22524, 0.00349131, 0.00355385, 0.00348248, 1.31064, 0.00334608, 0.00346229, 0.00331793, 1.29803, 1.30329, 1.30486, 1.307, 1.30647, 1.30496, 1.30855, 1.30673, 1.30944, 1.31164, 1.31241, 1.31644, 1.31636, 1.32115, 1.32281, 1.32301, 1.32781, 1.33311, 1.33502, 1.33988, 1.34277, 1.34171, 0.00363252, 1.5032, 1.48896, 0.00347264, 1.51026, 1.51637, 1.4624, 1.45905, 0.00371212, 0.00358987, 0.00370884, 0.00348295, 1.48529, 1.48771, 1.48851, 1.48895, 1.49557, 1.49464, 1.49596, 1.49867, 1.49646, 1.49815, 1.50116, 1.50152, 1.50021, 1.50901, 1.50898, 1.51152, 1.51587, 1.51961
0.945946, 1.27696, 0.943863, 0.945216, 0.945059, 0.942783, 0.943451, 0.942411, 0.940759, 0.943096, 0.94239, 0.942553, 0.00345524, 0.950139, 0.00344994, 0.00374325, 0.00347499, 0.00353873, 0.00345272, 0.00372865, 0.00346164, 0.00321365, 0.00360487, 0.00373441, 0.00338474, 1.01284, 0.00346881, 0.0034256, 0.00321288, 0.00363697, 0.00315653, 0.00344712, 0.0033292, 0.00348459, 0.0034099, 0.00335051, 0.00330877, 0.00356643, 0.00374419, 0.821203, 0.00377627, 0.00373149, 0.00345744, 0.0035497, 0.0034139, 0.00345251, 0.00352818, 0.00344687, 0.00355038, 0.00332878, 0.00335401, 0.00359305, 0.0035761, 0.77665, 0.778589, 0.779706, 0.00335747, 0.00355599, 0.00358324, 1.20261, 0.00346619, 0.00355765, 0.747041, 0.747157, 0.739673, 0.741608, 0.741215, 0.741381, 0.7337, 0.734647, 0.72073, 0.722658, 0.721992, 0.724488, 0.00349813, 0.724244, 0.72356, 0.724199, 0.72595, 0.728629, 0.729091, 0.731531, 0.731153, 0.731387, 0.731236, 0.728851, 0.7138, 0.713837, 0.713157, 0.669202, 0.669186, 0.668267, 0.632829, 0.628185, 0.631158, 0.631445, 0.636754, 0.63796, 0.682766, 0.701396, 0.735459, 0.715082, 0.722659, 0.781478, 0.80413, 0.846793, 0.843706, 0.856131, 1.0039, 0.976586, 1.074, 1.07735, 1.08132, 1.69314, 1.6914, 1.68635, 1.69019, 1.69773, 1.72205, 1.72131, 0.00349364, 1.8109, 1.82043, 1.82371, 1.82645, 1.85544, 1.9062, 1.88982, 1.88884, 1.90957, 1.90456, 1.90423, 1.9118, 1.91621, 1.91428, 1.89901, 1.89596, 1.93812, 1.90302, 1.90084, 1.89958, 1.89325, 1.8888, 1.88533, 1.88581, 1.85153, 1.88703, 1.85859, 1.87303, 1.87979, 1.87699, 0.00382551, 1.80861, 1.81787, 1.78634, 1.80281, 1.80028, 1.78569, 1.75962, 1.73997, 1.75076, 1.82838, 0.00358134, 1.77282, 1.69254, 1.69174, 1.75509, 1.75443, 1.66941, 1.68029, 1.70046, 1.67998, 1.52441, 1.52686, 1.51135, 1.49164, 1.4992, 1.47529, 1.45912, 1.4674, 1.45765, 1.45617, 1.45412, 1.41665, 1.40379, 1.37504, 1.36465, 1.36452, 1.35482, 1.35739, 1.35828, 1.36011, 1.35889, 1.35762, 1.35795, 1.45169, 1.32014, 1.32522, 1.32872, 1.31734, 1.31895, 1.24735, 1.24987, 1.25284, 1.23164, 1.23465, 1.19495, 1.19643, 1.22056, 1.18467, 1.17008, 1.17692, 1.18446, 1.14306, 1.14346, 1.13431, 1.14668, 1.21194, 1.21437, 1.18922, 1.19201, 1.19402, 1.19321, 1.19803, 1.20298, 1.20231, 1.20269, 1.20416, 1.20364, 1.20354, 1.20509, 1.20907, 1.21077, 1.21761, 1.21715, 1.21827, 1.22046, 1.21932, 1.22254, 1.22105, 1.22195, 1.23222, 1.22913, 0.00379998, 0.00330035, 0.00391915, 0.00361948, 0.00369779, 0.00358519, 0.003632, 1.30807, 1.30964, 1.31252, 1.31133, 1.31209, 1.31135, 1.31147, 1.31234, 1.31017, 1.3133, 1.3145, 1.32015, 1.32116, 1.32364, 1.32702, 1.33024, 1.33461, 1.33717, 1.33836, 1.33999, 0.00367065, 1.50795, 0.00330995, 1.56117, 1.56037, 1.47156, 1.46892, 1.46446, 1.46056, 1.46158, 1.4634, 1.4802, 1.48157, 1.47908, 1.48616, 1.49167, 1.49506, 1.49912, 1.49799, 1.49787, 1.49527, 1.49571, 1.49598, 1.497, 1.49873, 1.50176, 1.50702, 1.50656, 1.51703, 1.51834
0.959486, 0.00331109, 0.949959, 0.950156, 0.950225, 0.950306, 0.949369, 0.94718, 0.947566, 0.94744, 0.9479, 0.00320943, 1.38879, 0.00358138, 0.00366137, 0.956455, 0.00395049, 0.00323676, 0.00340373, 0.00311691, 0.00357828, 0.00344111, 0.00367416, 0.00353286, 0.0037578, 0.0033592, 0.0037139, 0.00323499, 0.00345686, 0.00356403, 0.00394683, 0.00351527, 0.00374387, 0.0037078, 0.00363943, 0.00347696, 0.00369529, 0.00358811, 0.00348217, 0.00336305, 0.00354105, 0.00337801, 0.00336439, 0.00339618, 0.00355859, 0.00334121, 0.00334644, 0.00350978, 1.18769, 0.00346374, 0.00364192, 0.00360486, 0.003476, 0.00313732, 0.00363946, 0.00329968, 0.00337556, 0.780475, 0.776706, 0.00332639, 0.00381824, 0.76211, 0.763358, 0.00328508, 0.00323605, 0.00344264, 0.00367836, 0.736405, 0.73815, 0.00349813, 0.741604, 0.74171, 0.728136, 0.729643, 0.731393, 0.00337674, 0.730165, 0.730722, 0.735504, 0.738218, 0.735879, 0.73049, 0.730828, 0.732734, 0.736553, 0.736522, 0.737564, 0.715179, 0.717673, 0.719408, 0.72203, 0.678139, 0.64668, 0.646828, 0.636797, 0.637338, 0.636421, 0.63422, 0.653013, 0.715479, 0.74974, 0.706602, 0.724955, 0.769273, 0.852085, 0.857599, 0.856804, 0.853171, 0.95495, 0.967491, 1.08199, 1.08391, 1.13749, 1.34362, 1.7165, 1.71399, 1.72554, 1.73447, 1.73218, 1.828, 1.82488, 1.83164, 1.8347, 1.81409, 1.8131, 1.8114, 1.82338, 1.8285, 1.82669, 1.9076, 1.94528, 1.92627, 1.93976, 1.92596, 1.90263, 1.91142, 1.90783, 1.90615, 1.93506, 1.88623, 1.93083, 1.87196, 1.87073, 1.9277, 1.87057, 1.84463, 1.87219, 1.85994, 1.85622, 1.87661, 1.83182, 1.83267, 1.82159, 1.79092, 1.78773, 1.78421, 1.78189, 1.78691, 1.75731, 1.74851, 1.74259, 1.74193, 1.73822, 1.70971, 1.69789, 1.68037, 1.6398, 1.63328, 1.61091, 1.68208, 1.55781, 1.5284, 1.52348, 1.53468, 1.5007, 1.50053, 1.49843, 1.46803, 1.46796, 1.46185, 1.44855, 1.44734, 1.41688, 1.43375, 1.39608, 1.36924, 1.36922, 1.37121, 1.36653, 1.3484, 1.33698, 1.35523, 1.34621, 1.37857, 1.42021, 1.32859, 1.32923, 1.32751, 1.32847, 1.35383, 1.31562, 1.24829, 1.25039, 1.23892, 1.23541, 1.22889, 1.21878, 1.21534, 1.21508, 1.16065, 1.16243, 1.16548, 1.16079, 1.13528, 1.1542, 1.14966, 1.24364, 1.23957, 1.224, 1.19079, 1.19125, 1.19797, 1.20049, 1.19756, 1.20226, 1.20501, 1.20457, 1.20579, 1.20722, 1.20648, 1.20451, 1.20349, 1.20637, 1.21074, 1.21428, 1.21584, 1.21595, 1.21668, 1.21847, 1.2182, 1.22235, 1.30932, 1.2282, 1.23374, 0.00361455, 0.00340379, 0.00337956, 0.00318173, 0.00374786, 0.00326617, 0.00369496, 1.30725, 1.31045, 1.31309, 1.31302, 1.31237, 1.31557, 1.30619, 1.30811, 1.30873, 1.31253, 1.31567, 1.31547, 1.32194, 1.32292, 0.00344033, 1.33319, 1.33443, 1.33825, 1.34137, 1.34467, 0.00346254, 1.56646, 1.51703, 1.52051, 1.52722, 1.48602, 0.00359762, 1.68954, 0.00337859, 1.46533, 0.00337941, 1.4813, 1.48145, 1.49077, 1.49063, 1.49301, 1.49847, 1.49956, 1.49847, 1.49875, 1.50036, 1.50171, 1.4988, 1.50076, 1.5046, 1.51386, 1.51097, 1.51377, 1.51516
0.953701, 0.953339, 0.952146, 0.952593, 0.953559, 0.957986, 0.953753, 0.952425, 0.950585, 0.951475, 0.952357, 0.95234, 0.952435, 0.00374208, 0.00351202, 0.00343372, 0.963085, 0.00348853, 0.00339379, 0.00369089, 0.00351107, 0.00333305, 0.00337373, 0.971403, 0.00347781, 0.00313471, 0.00345605, 0.00359517, 0.00352557, 0.00342449, 0.00345032, 0.00366808, 0.00365146, 0.909116, 0.00326591, 0.00355074, 0.00352222, 0.00390343, 0.00366402, 0.00356294, 0.00342368, 0.00350468, 0.00341602, 0.003754, 0.00341053, 1.02052, 0.00370124, 0.00341963, 1.1879, 1.19192, 1.19415, 0.00357445, 0.00337639, 0.00364214, 0.0034871, 0.00353763, 0.003009, 0.787839, 0.00347634, 0.00364732, 0.00320481, 0.769572, 0.765635, 0.765025, 0.00313037, 0.0036204, 0.751747, 0.749594, 0.751097, 0.749679, 0.74841, 0.747381, 0.00360722, 0.738484, 0.736353, 0.736831, 0.738768, 1.3419, 0.736896, 0.737355, 0.73844, 0.738135, 0.740626, 0.740533, 0.740949, 0.741727, 0.742702, 0.728607, 0.719453, 0.720656, 0.721065, 0.745612, 0.693498, 0.695507, 0.694532, 0.658162, 0.657523, 0.667084, 0.689741, 0.69081, 0.676741, 0.724946, 0.707609, 0.732847, 0.722065, 0.859547, 0.8533, 0.894403, 0.895101, 0.905465, 0.99743, 1.15898, 1.24921, 1.27559, 1.73, 1.70345, 1.72621, 1.83527, 1.7385, 1.73516, 1.80231, 1.81063, 1.80899, 1.80581, 1.80762, 1.81716, 1.81807, 1.85275, 1.82581, 1.82496, 1.84567, 1.85173, 1.94258, 1.93522, 1.93749, 1.93398, 1.93125, 1.93598, 1.93673, 1.92222, 1.91465, 1.92475, 1.92167, 1.87354, 1.91934, 1.87534, 1.87235, 1.82905, 1.83548, 1.79622, 1.78974, 1.79854, 1.79535, 1.77635, 1.77872, 1.83387, 1.831, 1.75663, 1.75599, 1.73104, 1.72205, 1.71813, 1.71357, 1.70739, 0.00348264, 1.67298, 1.64615, 1.64247, 1.59903, 1.58752, 1.54626, 1.53418, 1.51624, 1.52824, 1.4994, 1.50538, 1.46769, 1.46779, 1.45942, 1.45283, 1.45348, 1.46094, 1.4297, 1.42607, 1.39577, 1.38723, 1.38402, 1.36815, 1.34619, 1.34083, 1.33953, 1.38792, 1.37819, 1.33923, 1.32916, 1.31216, 1.30307, 1.28369, 1.2842, 1.27486, 1.3064, 1.30874, 1.3098, 1.24685, 1.2501, 1.21161, 1.2205, 1.19988, 1.1914, 1.19632, 1.17824, 1.15533, 1.14943, 1.14787, 1.15532, 1.15692, 1.19155, 1.19282, 1.19459, 1.19186, 1.19091, 1.19766, 1.19749, 1.19927, 1.2034, 1.20351, 1.20711, 1.20868, 1.20741, 1.20799, 1.20446, 1.20467, 1.20476, 1.20545, 1.20933, 1.21039, 1.21218, 1.2122, 1.21554, 0.00324543, 0.0034549, 1.2257, 1.22808, 1.232, 1.23326, 0.00363827, 0.00342918, 1.27142, 0.00342499, 0.00365026, 0.0035771, 1.31269, 1.31011, 1.31342, 1.31542, 1.31789, 1.30473, 1.30566, 1.30763, 1.30865, 1.30919, 1.31297, 1.31385, 1.31652, 0.00358106, 1.32467, 0.00327278, 1.32888, 0.00346711, 0.00368709, 1.34014, 1.3469, 0.00378352, 1.56223, 0.0031595, 1.49578, 1.4798, 1.50342, 0.00361416, 1.46735, 0.00332675, 0.00347181, 1.48752, 1.48753, 1.49024, 1.48785, 1.49321, 1.49522, 1.5005, 1.49758, 1.49509, 1.49679, 1.50189, 1.50333, 1.50135, 1.50463, 1.50631, 1.50818, 1.51046, 1.51318
0.956949, 0.959599, 0.00343748, 0.00330125, 0.00380412, 0.00350771, 0.959754, 0.958424, 0.957063, 0.956358, 0.956494, 0.956873, 0.956246, 0.957856, 0.960597, 0.96372, 0.965587, 0.00351802, 0.00370315, 0.00324297, 0.0035707, 0.00359065, 0.00344041, 0.00349181, 0.00352394, 0.00356729, 0.00364882, 0.00363015, 0.00350867, 0.00332806, 0.00356069, 0.00322226, 0.00343058, 0.0034653, 0.00357662, 0.00354585, 0.00343864, 0.00365605, 0.00350967, 0.00344113, 0.00350339, 0.00341241, 0.00385532, 0.00320908, 0.0035169, 1.19964, 0.00330896, 0.00341767, 0.00351504, 0.00323228, 0.00350558, 0.003461, 0.00361281, 0.00353944, 0.00370859, 0.00353785, 0.00344416, 0.00360134, 0.00355371, 0.00331762, 0.00354725, 0.00333133, 0.00350719, 0.775099, 0.00360671, 0.00387027, 0.764412, 0.762502, 0.756817, 0.756386, 0.755698, 0.755492, 0.752053, 0.752274, 0.7424, 0.745128, 0.745852, 0.746751, 0.745366, 0.745837, 0.746495, 0.752342, 0.753628, 0.753987, 0.74591, 0.746205, 0.747914, 0.748642, 0.723473, 0.725968, 0.726852, 0.7201, 0.693123, 0.694036, 0.694789, 0.664501, 0.680253, 0.659024, 0.672754, 0.672289, 0.697507, 0.691082, 0.716294, 0.693342, 0.693136, 0.87416, 0.874715, 0.895683, 0.966777, 1.11377, 1.14968, 1.14637, 1.29029, 1.30051, 1.45563, 1.70645, 1.73043, 1.72042, 1.72908, 1.72552, 1.75785, 1.76048, 1.83059, 1.79943, 1.88767, 1.81814, 1.82251, 1.83285, 1.84484, 1.83807, 1.83595, 1.8438, 1.84526, 1.93057, 1.92424, 1.91682, 1.91697, 1.93861, 1.92612, 1.93756, 1.89592, 1.89754, 1.85272, 1.85265, 1.88409, 0.00347014, 1.82546, 1.8263, 1.81373, 1.78843, 1.79615, 1.79726, 1.7962, 1.8041, 1.78695, 1.76549, 1.74578, 1.74333, 1.72472, 1.72534, 1.73913, 1.72301, 0.00367488, 1.78224, 1.6407, 1.64793, 1.61658, 1.59373, 1.66352, 1.61646, 1.55167, 1.52307, 1.52245, 1.55173, 1.51239, 1.52439, 1.46869, 1.46283, 1.46047, 1.47159, 1.50544, 1.42666, 1.44977, 1.45053, 1.4267, 1.39916, 1.36306, 1.35544, 1.37487, 1.33084, 1.33696, 1.34714, 1.34839, 1.32574, 1.31502, 1.30635, 1.30124, 1.30573, 1.27484, 1.28142, 1.28164, 1.23574, 1.23445, 1.23987, 1.26784, 1.21601, 1.23339, 1.21677, 1.21703, 1.18205, 1.18483, 1.16405, 1.14379, 1.12747, 1.15013, 1.19246, 1.18203, 1.18395, 1.18788, 1.19068, 1.19075, 1.19531, 1.19605, 1.19699, 1.19786, 1.20332, 1.20443, 1.20169, 1.20825, 1.20666, 1.20788, 1.20161, 1.2024, 1.20499, 1.20753, 1.20998, 1.21147, 1.20788, 1.20812, 1.21894, 1.21811, 1.22085, 1.23109, 1.23561, 1.6174, 0.00330653, 0.00336791, 0.00328889, 0.00353131, 1.66827, 0.00338627, 1.30589, 1.3087, 0.00342809, 0.00367035, 1.3055, 1.2984, 1.30035, 1.30282, 1.30299, 1.30325, 1.30372, 1.30837, 1.31598, 1.31505, 1.31912, 1.32281, 1.3249, 1.32805, 1.33383, 1.33611, 1.34081, 1.34318, 1.51981, 1.51031, 1.57119, 1.48974, 1.49214, 0.00313513, 0.00359978, 0.00387124, 0.00369296, 0.00360258, 1.49957, 1.50015, 1.50161, 1.49655, 1.49568, 1.49939, 1.49954, 1.49964, 1.50025, 1.50326, 1.50325, 1.50041, 1.5083, 1.50746, 1.5054, 1.50562, 1.5127
0.00357524, 0.00344066, 0.00309534, 0.00368329, 0.0033283, 0.00393314, 0.963574, 0.963711, 0.963807, 0.962886, 0.00335315, 0.959501, 0.959934, 0.960851, 0.961003, 0.963153, 0.00329642, 0.00346773, 0.00338644, 0.974501, 0.974324, 0.00381715, 0.00336354, 0.00381196, 0.00353096, 0.00360029, 0.00356691, 0.00360625, 0.00345999, 0.00349476, 0.935076, 0.935765, 0.00332674, 0.00358136, 0.00353278, 0.00349897, 0.00371944, 0.00368932, 0.00326472, 0.00385297, 0.00355742, 0.00378296, 0.00350878, 0.00362722, 0.00352999, 0.862674, 0.863311, 0.863788, 0.00347376, 0.00382245, 1.47621, 1.47434, 0.0032803, 0.0035924, 0.817814, 0.817436, 0.00355308, 0.00370424, 0.00342702, 0.00352567, 0.00365224, 0.00351558, 0.00361075, 0.00374745, 0.784257, 0.00362885, 0.772885, 0.774134, 0.773128, 0.760412, 0.760758, 0.763506, 0.00351806, 0.00371706, 0.00331192, 0.750171, 0.751589, 0.752144, 1.22768, 0.755284, 0.755401, 0.752572, 0.754281, 0.759988, 0.75191, 0.753884, 0.749728, 0.750317, 0.751446, 0.738888, 0.736937, 0.736677, 0.745065, 0.759539, 0.760721, 0.761305, 0.666388, 0.656344, 0.672377, 0.656932, 0.678624, 0.697392, 0.715319, 0.71494, 0.745383, 0.790841, 0.923612, 0.919629, 0.972704, 0.972829, 1.11654, 1.10099, 1.25019, 1.28219, 1.35999, 1.40921, 1.50054, 1.7171, 1.73046, 1.72168, 1.73455, 1.85047, 1.75335, 1.75182, 1.78155, 1.83929, 1.83607, 1.83365, 1.80053, 1.84791, 1.84845, 1.84743, 1.86729, 1.86866, 1.88992, 1.8968, 1.92956, 1.92738, 1.95552, 1.90006, 1.91675, 1.91396, 1.93151, 1.8447, 1.88033, 1.88186, 1.83854, 1.81094, 1.81415, 1.83132, 1.77741, 1.79234, 1.82773, 1.79215, 1.77607, 1.75257, 1.74443, 1.74311, 1.72104, 1.69676, 1.69989, 1.81324, 1.78587, 1.65905, 0.00350427, 1.64762, 1.60826, 1.59971, 1.57155, 1.57313, 1.53836, 1.53554, 1.5577, 1.51252, 1.50104, 1.49463, 1.48584, 1.46765, 1.4767, 1.46386, 1.45036, 1.45212, 0.00355509, 1.40803, 1.39316, 1.39, 1.37451, 1.35725, 1.35783, 1.353, 1.36796, 1.36962, 1.35091, 1.33263, 1.31246, 1.30166, 1.29089, 1.29153, 1.27275, 1.24248, 1.23799, 1.23658, 1.22535, 1.22743, 1.25508, 1.21847, 1.21235, 1.19824, 1.19635, 1.15191, 1.16897, 1.12585, 1.14954, 1.15993, 1.18803, 1.17619, 1.17569, 1.17805, 1.18929, 1.19176, 1.19162, 1.19222, 1.19189, 1.19548, 1.20325, 1.20507, 1.20691, 1.20503, 1.20523, 1.20847, 1.20778, 1.20571, 1.20719, 1.20616, 1.20649, 1.2086, 1.20982, 1.21198, 1.21053, 1.21341, 1.21687, 1.22629, 0.00323536, 0.00344715, 0.00363708, 0.00352301, 0.00310363, 0.00361741, 0.00337226, 1.27283, 0.00326273, 1.57931, 0.00337983, 0.0039475, 1.30398, 1.30263, 1.30531, 1.30312, 1.30236, 1.30017, 1.30213, 1.30358, 1.3066, 1.3084, 1.30951, 1.89891, 0.00364418, 0.00342408, 1.32639, 1.33277, 1.33094, 1.3377, 0.0034116, 0.00353646, 0.00345985, 1.54027, 0.0032515, 1.52685, 0.00342208, 0.00341012, 0.0034561, 0.00368962, 0.00343177, 1.49951, 1.49721, 1.50166, 1.49677, 1.49734, 1.49968, 1.49788, 1.49788, 1.49727, 1.49949, 1.50144, 1.50002, 1.50276, 1.49773, 1.50145, 1.49875, 1.50554
0.00364488, 0.977978, 0.976874, 0.975005, 0.975095, 0.975849, 0.00355459, 0.0033024, 0.96944, 0.00346901, 0.972405, 0.0035646, 0.00360423, 0.96306, 0.963474, 0.00352161, 0.00377499, 0.00358832, 0.00356461, 0.00346382, 0.00376931, 0.00357513, 0.00338013, 0.00375441, 0.973689, 0.00365787, 0.0035455, 0.00349609, 0.00377773, 0.00329195, 0.00373111, 0.00368909, 0.00357978, 0.00337848, 0.00337851, 0.00374115, 0.00383049, 0.00349834, 0.00343166, 0.0034042, 0.00349434, 0.00349214, 0.00357687, 0.0032293, 0.00365299, 0.00343775, 0.98446, 0.00340604, 0.00347283, 0.00325904, 0.00338217, 1.50228, 0.00372732, 0.00352646, 0.00372712, 0.00337103, 0.00357595, 0.00353815, 0.804416, 0.805164, 0.806589, 0.806235, 0.00367813, 0.793671, 0.791854, 0.787341, 0.782902, 0.780553, 0.774485, 0.77421, 0.773763, 0.769421, 0.769416, 0.00344231, 0.00349659, 0.00340887, 0.760656, 0.761531, 0.762784, 0.763522, 0.766238, 0.76716, 0.7611, 0.763651, 0.767014, 0.756967, 0.753388, 0.755911, 0.755861, 0.757476, 0.738239, 0.740504, 0.743074, 0.735233, 0.735523, 0.76671, 0.7684, 0.769971, 0.764935, 0.765668, 0.687731, 0.687771, 0.714316, 0.696112, 0.758975, 0.752794, 0.829578, 0.932688, 0.976509, 0.981395, 1.08977, 1.10454, 1.14779, 1.16826, 1.37732, 1.37622, 1.49218, 1.46905, 1.80089, 1.80498, 1.82854, 1.82628, 1.73483, 1.78303, 1.78487, 1.77133, 1.77581, 1.78124, 1.8049, 1.82267, 1.80481, 1.87658, 1.8621, 1.85992, 1.86468, 1.86331, 1.89114, 1.88996, 1.92108, 1.87224, 1.85107, 1.86531, 1.86199, 1.85354, 1.85203, 1.83454, 1.81258, 1.78596, 1.83155, 1.82534, 1.823, 1.77529, 1.77542, 1.77902, 1.76642, 1.76188, 1.73752, 1.73467, 1.72505, 1.76251, 1.69595, 1.79099, 1.77683, 1.66935, 1.65558, 1.65272, 1.62712, 1.62986, 1.57731, 1.55532, 1.55553, 1.55884, 1.54076, 1.5363, 1.60694, 1.48947, 1.48299, 1.47674, 1.46654, 1.45899, 1.4573, 1.46023, 1.5039, 1.5626, 1.40787, 1.37823, 1.37725, 1.40646, 1.36075, 1.34009, 1.38445, 1.38475, 1.34773, 1.30482, 1.32002, 1.35804, 1.36882, 1.36369, 1.23994, 1.27593, 1.27778, 1.24776, 1.25094, 1.209, 1.1946, 1.20835, 1.19249, 1.19554, 1.14638, 1.14482, 1.12208, 1.1444, 1.16508, 1.1677, 1.15993, 1.19855, 1.17746, 1.18872, 1.19224, 1.19413, 1.19408, 1.19511, 1.19837, 1.19993, 1.20268, 1.20635, 1.20628, 1.2072, 1.20789, 1.20693, 1.20589, 1.20913, 1.21153, 1.20582, 1.20785, 1.20832, 1.21176, 1.21387, 1.2152, 1.21574, 1.21615, 1.22622, 1.22421, 1.23134, 1.23304, 1.23626, 0.00349462, 0.00330621, 0.00365798, 1.26863, 1.27173, 0.00349548, 0.00372594, 1.3005, 1.30032, 1.30301, 1.30254, 1.3057, 1.30427, 1.30494, 1.30182, 1.30308, 1.30052, 1.30093, 1.31282, 1.96324, 1.31675, 1.31801, 1.32067, 1.32138, 1.32716, 1.33113, 1.33484, 0.00304447, 0.00366383, 1.40654, 1.40508, 1.49274, 1.47529, 0.00349785, 0.00361577, 0.00329466, 0.00381589, 0.00313097, 1.49908, 1.50203, 1.50233, 1.5009, 1.4995, 1.49873, 1.50045, 1.5006, 1.49922, 1.50135, 1.50014, 1.49907, 1.49955, 1.49981, 1.50021, 1.50164
0.988954, 0.98769, 0.00363618, 0.981038, 0.981623, 0.00340241, 0.98312, 0.98378, 0.00350545, 0.00349487, 0.00380652, 0.976487, 0.00350913, 0.00360405, 0.973433, 0.973594, 0.974518, 0.976749, 0.977177, 0.00342208, 0.98567, 0.986773, 0.00357252, 0.00343726, 0.984295, 0.00337978, 0.981913, 0.983287, 0.00374053, 0.00341581, 0.00378107, 0.0035145, 0.0034579, 0.00349153, 0.00334647, 0.0034723, 0.00344422, 0.00357742, 0.00339994, 0.00363286, 0.00359097, 0.00354438, 0.00362583, 0.00348619, 0.00350947, 0.00352695, 0.00341984, 0.00331508, 0.00353307, 0.0034157, 0.00368144, 1.49966, 0.00394728, 0.00359816, 0.0033633, 0.00349086, 0.00369443, 0.00349975, 0.00342148, 0.818273, 0.815904, 0.815949, 0.00335111, 0.00344262, 0.00352694, 0.797895, 0.00338643, 0.00346741, 0.788661, 0.788377, 0.77939, 0.780716, 0.78222, 0.783054, 0.783149, 0.767136, 0.769105, 0.769605, 0.00338482, 1.40774, 0.767469, 0.767764, 0.776232, 0.77572, 0.00345611, 0.773914, 0.763812, 0.766428, 0.767034, 0.766142, 0.759014, 0.748805, 0.749077, 0.745385, 0.743058, 0.743339, 0.756175, 0.904347, 0.767765, 0.755809, 0.68749, 0.690237, 0.678478, 0.729796, 0.698856, 0.687725, 0.795256, 0.774689, 0.789165, 0.956904, 0.956517, 0.00344713, 1.1869, 1.19558, 1.23027, 1.24544, 1.30484, 1.30441, 1.43337, 1.7723, 1.76926, 1.74308, 1.7365, 1.73053, 1.73439, 1.74821, 1.74466, 1.74204, 1.75393, 1.80512, 1.8029, 1.8083, 1.80566, 1.85917, 1.83362, 1.84512, 1.87277, 1.83803, 1.83888, 1.84084, 1.87842, 1.84903, 1.86943, 1.85861, 1.83803, 1.83698, 1.83976, 1.78312, 1.79687, 1.82013, 1.81252, 1.77903, 1.78651, 1.7846, 1.75565, 1.73375, 1.74475, 1.71635, 1.71333, 1.69544, 1.75415, 1.74995, 1.65791, 1.65014, 1.6445, 1.63387, 1.61998, 1.63535, 1.59979, 1.56775, 1.55369, 1.55492, 1.5372, 1.53495, 1.5239, 1.52431, 1.5583, 1.57276, 1.47084, 1.57663, 1.45885, 1.45753, 1.513, 1.51311, 1.43002, 1.42554, 1.38026, 1.37595, 1.37574, 1.38868, 1.33911, 1.32453, 1.30469, 1.30506, 1.32477, 1.28479, 1.26824, 1.28373, 1.24399, 1.23344, 1.2344, 1.20509, 1.21138, 1.19825, 1.20195, 1.20237, 1.16933, 1.19283, 1.1263, 1.12955, 1.13275, 1.13323, 1.13421, 1.16382, 1.19525, 1.17604, 1.17774, 1.19092, 1.19146, 1.1954, 1.20064, 1.20209, 1.2023, 1.20168, 1.20202, 1.20234, 1.20538, 1.2078, 1.20602, 1.20789, 1.20726, 1.20818, 1.20558, 1.20501, 1.20558, 1.20717, 1.20935, 1.21288, 1.21503, 1.21601, 1.21494, 1.21538, 0.0034084, 0.00377757, 0.00349302, 0.00342995, 0.00356442, 0.00359391, 0.0035741, 0.00350069, 0.00386179, 0.0035464, 0.00338902, 0.00374423, 1.30215, 1.30394, 1.30628, 1.30574, 1.30753, 1.30681, 1.30458, 1.30724, 1.30509, 1.30801, 1.31177, 1.30994, 1.31251, 1.31502, 1.31626, 1.31908, 1.32445, 1.43348, 0.00332827, 1.33943, 0.00376139, 0.00340013, 0.00352499, 1.49622, 1.55561, 0.00336294, 0.0033457, 0.00352855, 0.00331194, 0.00361698, 0.00326862, 0.00407276, 1.4985, 1.49766, 1.49758, 1.4989, 1.49948, 1.50141, 1.49703, 1.49724, 1.49804, 1.49387, 1.49465, 1.50002, 1.49888, 1.50188
0.00350452, 0.988269, 0.988977, 0.988115, 0.987542, 0.00356522, 0.983387, 0.985727, 0.986709, 0.988052, 0.00354055, 0.00334256, 0.00354613, 0.00337286, 0.00360945, 0.975546, 0.976811, 0.978892, 0.00353932, 0.00309605, 1.0329, 1.02549, 1.07151, 0.993684, 1.06067, 1.05994, 0.987314, 0.0036599, 0.00356551, 0.990394, 0.00345649, 0.994785, 0.992237, 0.00350229, 0.00377144, 0.0032444, 0.00339645, 0.00329404, 0.00361171, 0.00358146, 0.00347591, 0.00347977, 0.00371353, 0.003316, 0.00359312, 0.00372307, 0.00339787, 0.00358753, 0.00354758, 0.00366388, 0.00353356, 0.00345627, 1.51151, 0.00355545, 0.00355805, 0.00330642, 0.00371434, 0.00329657, 0.00377046, 0.827993, 0.82843, 0.00347789, 0.0034668, 0.00340463, 0.00335593, 0.00344513, 0.00358284, 0.00342141, 0.791626, 0.791823, 0.790927, 0.780021, 0.784382, 0.789705, 0.789017, 0.786479, 0.784476, 0.778339, 0.780216, 0.780436, 1.26029, 1.26246, 0.780112, 0.781554, 0.782771, 0.783445, 0.774089, 0.775453, 0.775367, 0.773893, 0.750089, 0.753205, 0.753357, 0.74718, 0.74581, 0.747902, 0.725937, 0.730118, 0.724691, 0.727932, 0.699384, 0.70048, 0.681509, 0.700379, 0.699005, 0.694543, 0.656905, 0.701783, 0.763856, 0.764859, 0.943303, 1.06682, 1.14066, 1.14423, 1.15731, 1.17984, 1.20217, 1.35456, 1.29441, 1.46881, 1.71618, 1.71627, 1.72063, 1.74077, 1.72385, 1.73158, 1.73086, 1.73827, 1.76143, 1.78498, 1.80043, 1.81884, 1.81853, 1.81912, 1.81068, 1.83073, 1.83815, 1.82511, 1.86449, 1.85847, 1.83737, 1.84413, 1.8149, 1.81576, 1.81404, 1.81177, 1.78849, 1.80661, 1.8084, 1.80712, 1.74923, 1.77224, 1.77031, 1.77411, 1.74781, 1.74169, 1.73491, 1.70123, 1.74896, 1.7479, 1.73902, 1.66851, 1.69155, 1.68885, 1.59427, 1.59307, 1.58571, 1.58874, 1.55324, 1.56612, 1.54765, 1.5441, 1.56255, 1.52438, 1.52172, 1.52102, 1.51972, 1.5251, 1.53446, 1.52524, 1.52698, 1.50015, 1.54343, 1.51631, 1.50964, 1.40309, 1.40309, 1.49511, 1.37203, 1.37871, 1.39893, 1.32973, 1.37659, 1.29508, 1.295, 1.28889, 1.2581, 1.26154, 1.27415, 1.27463, 1.2042, 1.21293, 1.20524, 1.17801, 1.17845, 1.18571, 1.15285, 1.16831, 1.13689, 1.1218, 1.12331, 1.1851, 1.14991, 1.1514, 1.17339, 1.1738, 1.18154, 1.18335, 1.18995, 1.18972, 1.19437, 1.19275, 1.19647, 1.1968, 1.19738, 1.19811, 1.19947, 1.20208, 1.20643, 1.20676, 1.20552, 1.20469, 1.19951, 1.20013, 1.20562, 1.20786, 1.20697, 1.20918, 1.21815, 1.21832, 1.2185, 1.21615, 1.21999, 1.2239, 1.22694, 0.00344334, 1.23866, 1.24061, 1.24319, 0.00352248, 0.00356704, 0.00331829, 0.00388474, 0.00350646, 1.30308, 1.30716, 1.30658, 1.30751, 1.30915, 1.30548, 1.30829, 1.30809, 1.30616, 1.30732, 1.30994, 1.30783, 1.3091, 1.31111, 1.31326, 1.31571, 1.32193, 1.32701, 1.32969, 0.00377928, 1.54688, 1.54404, 0.00363438, 0.00350924, 1.46242, 1.47755, 1.46818, 0.00319304, 0.00360725, 0.00307936, 1.48564, 1.48516, 1.49594, 1.49501, 1.49492, 1.49711, 1.49874, 1.49715, 1.49739, 1.50109, 1.49678, 1.49447, 1.49187, 1.49582, 1.49337, 1.49451
0.00324118, 1.03295, 0.00372058, 0.00353229, 0.00337767, 0.00388499, 0.00366838, 0.00358648, 0.0034245, 1.97589, 0.994082, 0.994131, 0.00334282, 0.00377672, 0.00331893, 0.00353885, 0.00347474, 0.00348199, 0.00326805, 0.00347147, 0.00355862, 1.03223, 1.0004, 1.09805, 1.05362, 1.08968, 0.00334729, 0.00339692, 0.00359106, 0.00359122, 0.00349221, 0.00353279, 0.00350139, 0.00358654, 0.00313592, 0.0036367, 0.0037034, 0.00374093, 0.00373728, 0.00380675, 0.00343708, 0.00341002, 0.00334389, 0.00360637, 0.00344769, 0.00342499, 0.00374334, 0.00368669, 0.00359572, 0.00369747, 0.00337505, 0.00319125, 1.28848, 0.00347672, 0.00345343, 0.00349625, 0.00359488, 0.00350332, 0.00336976, 0.00363684, 0.837272, 0.00358299, 0.00324797, 0.828547, 0.818434, 0.817736, 0.00353515, 0.00390649, 0.801668, 0.00369676, 0.794795, 0.796221, 0.790843, 0.791054, 0.792101, 0.790201, 0.791076, 0.788248, 0.782541, 0.784455, 0.785565, 0.787082, 0.783003, 0.783019, 0.783373, 0.783499, 0.778082, 0.777852, 0.781698, 0.783365, 0.778104, 0.755983, 0.756514, 0.758896, 0.747599, 0.746714, 0.746152, 0.746235, 0.748443, 0.79053, 0.704026, 0.703677, 0.701756, 0.714981, 0.711673, 0.679988, 0.655478, 0.655061, 0.780305, 0.801296, 0.948249, 0.949605, 0.951792, 1.16997, 1.1678, 1.16897, 1.17105, 1.2283, 1.23747, 1.32519, 1.32959, 1.71985, 1.72001, 1.72002, 1.73163, 1.73715, 1.72748, 1.74167, 1.73845, 1.78503, 1.78086, 1.79699, 1.79683, 1.7953, 1.81884, 1.82484, 1.84672, 1.84286, 1.85134, 1.863, 1.87593, 1.82467, 1.82118, 1.81327, 1.78461, 1.78292, 1.7812, 1.77509, 1.75608, 1.75593, 1.83425, 1.74141, 1.74128, 1.7321, 1.74201, 1.74139, 1.73216, 1.75917, 1.69584, 1.68172, 1.65965, 1.6433, 1.6617, 1.61479, 1.56613, 1.56361, 1.57036, 1.55515, 1.55242, 1.55138, 1.54109, 1.55082, 1.50977, 1.50886, 1.50868, 1.50825, 1.50831, 1.56176, 1.55577, 1.52482, 1.52429, 1.49542, 1.5059, 1.49493, 1.50595, 1.38838, 1.37755, 1.38683, 1.35064, 1.37941, 1.33008, 1.33059, 1.31843, 1.30629, 1.3123, 1.28899, 1.26644, 1.26756, 1.2366, 1.24812, 1.22227, 1.23593, 1.20484, 1.21502, 1.1708, 1.18427, 1.15759, 1.11177, 1.12708, 1.11157, 1.12219, 1.14963, 1.1861, 1.1725, 1.2004, 1.31336, 1.19314, 1.19318, 1.19449, 1.19792, 1.201, 1.20215, 1.20339, 1.19465, 1.19421, 1.19512, 1.19462, 1.19599, 1.19605, 1.19863, 1.1994, 1.19764, 1.19822, 1.20245, 1.2084, 1.20848, 1.20715, 1.20725, 1.2095, 1.2135, 1.21902, 1.22033, 1.22233, 1.22358, 1.22449, 1.22941, 1.23607, 1.23814, 1.24017, 1.24563, 0.00320364, 0.00341011, 0.00348874, 1.29224, 1.29511, 1.3028, 1.30557, 1.30634, 1.30636, 1.3046, 1.30042, 1.3006, 1.30531, 1.30407, 1.30237, 1.30497, 1.30436, 1.30555, 1.30684, 0.00349057, 0.00341219, 0.00364243, 0.0033674, 1.32989, 0.00327037, 1.54363, 1.54408, 1.55541, 0.0033411, 1.49024, 0.00327435, 0.00357048, 0.00343327, 0.00356814, 0.00327323, 1.48719, 1.48807, 1.49414, 1.49343, 1.49777, 1.49394, 1.49756, 1.49706, 1.49505, 1.49074, 1.49016, 1.49053, 1.48965, 1.49151, 1.495
1.03299, 1.02894, 1.02166, 1.0752, 0.00353118, 0.00345022, 1.01059, 0.00351073, 0.0034688, 0.00333975, 0.00335447, 1.39197, 1.40996, 1.00315, 1.00362, 1.00493, 0.00351695, 0.00319795, 0.00363343, 0.00339586, 0.00342499, 0.00363946, 1.04365, 1.06417, 1.04971, 1.08167, 1.09679, 0.00338281, 0.00326852, 0.00353157, 0.00342012, 0.00363024, 0.00358001, 0.00327024, 0.00346918, 0.00350998, 0.0034986, 0.00346399, 0.00359263, 0.976644, 0.00346727, 0.00333442, 0.00350513, 0.00324242, 0.0035942, 0.00347535, 1.5098, 0.00341584, 0.00342505, 0.00335035, 0.00372414, 0.00336688, 0.00329741, 0.00343552, 1.55941, 0.003735, 0.00362058, 0.00358105, 0.00371994, 0.00331745, 0.00374258, 0.00339837, 0.00355066, 0.00351071, 0.00350533, 0.00361023, 0.00361162, 0.00332042, 0.816953, 0.00370119, 0.00345311, 0.803975, 0.796149, 0.797359, 0.798551, 0.789096, 0.00360021, 0.793023, 0.794609, 0.796491, 0.794701, 0.794721, 0.791509, 0.791422, 1.29281, 0.0035524, 0.0034396, 0.7796, 0.781948, 0.783295, 0.783688, 0.75913, 0.760248, 0.762159, 0.76111, 0.761942, 0.7577, 0.749217, 0.74887, 0.745233, 0.746637, 0.734675, 0.737724, 0.710002, 0.711217, 0.711209, 0.709559, 0.687279, 0.707302, 0.717505, 0.801515, 0.892578, 0.943927, 1.09647, 1.09843, 1.17693, 1.16806, 1.22586, 1.22989, 1.2499, 1.39989, 1.3806, 1.54372, 1.55827, 1.71819, 1.7311, 1.75498, 1.7575, 1.75136, 1.78499, 1.79328, 1.79289, 1.79941, 1.79683, 1.83725, 1.81908, 1.79592, 1.81022, 1.80715, 1.82085, 1.82281, 1.82345, 1.78721, 1.78698, 1.79264, 1.76665, 1.76799, 1.76192, 1.80377, 1.81051, 1.78759, 1.74208, 1.72528, 1.78877, 1.70094, 1.78547, 1.73437, 1.73722, 1.7003, 1.69916, 1.68156, 1.69565, 1.59841, 1.59381, 1.5752, 1.57301, 1.56376, 1.56952, 1.53557, 1.52648, 1.52519, 1.55248, 1.51651, 1.50573, 1.50264, 1.49803, 1.55569, 1.57501, 1.57272, 1.5438, 1.50967, 1.50142, 1.52326, 1.49582, 1.45496, 1.45532, 1.44876, 1.36901, 1.44178, 1.33717, 1.32756, 1.32883, 1.33088, 1.33349, 1.38059, 1.31995, 1.2868, 1.30696, 1.24271, 1.24128, 1.28954, 1.24077, 1.19074, 1.21228, 1.21167, 1.23101, 1.13899, 1.14322, 1.14188, 1.13064, 1.1638, 1.17852, 1.20136, 1.16926, 1.17095, 1.19216, 1.19368, 1.19534, 1.19704, 1.19803, 1.19781, 1.20043, 1.20143, 1.19415, 1.19458, 1.19255, 1.19428, 1.19422, 1.19256, 1.19695, 1.19877, 1.1936, 1.19439, 1.19665, 1.20238, 1.20503, 1.20642, 1.20594, 1.20857, 1.21347, 1.21726, 1.2219, 1.22271, 1.22537, 1.22763, 1.22921, 1.22997, 0.00338672, 0.00334398, 0.00336111, 0.00339464, 0.00350334, 0.00361471, 0.00365987, 0.00361396, 1.29985, 1.30544, 1.30529, 1.29999, 1.30152, 1.30133, 1.3012, 1.30037, 1.30134, 1.30015, 1.30158, 1.29947, 1.30191, 1.30321, 1.30892, 1.3111, 1.31283, 1.32054, 1.32301, 1.32701, 1.53807, 0.00356407, 0.00351387, 0.00368426, 0.00350055, 1.49247, 0.00341196, 0.00369387, 0.0034565, 0.0034253, 0.00334148, 1.49138, 1.49233, 1.49498, 1.49537, 1.49404, 1.49941, 1.49761, 1.49544, 1.49265, 1.48923, 1.49294, 1.49612, 1.4953, 1.4951
