0.259795, 0.266271, 0.266098, 0.277666, 0.277069, 0.284612, 0.284501, 0.283301, 0.312215, 0.310039, 0.317056, 0.318502, 0.316756, 0.317489, 0.336953, 0.337692, 0.336422, 0.337528, 0.338788, 0.349853, 0.359531, 0.362158, 0.359634, 0.368101, 0.367379, 0.378301, 0.00330776, 0.00321348, 0.397834, 0.410003, 0.411914, 0.410368, 0.417522, 0.417889, 0.420289, 0.420468, 0.424586, 0.42108, 0.00310617, 0.42582, 0.00320486, 0.00340749, 0.00333294, 0.744522, 0.451583, 0.450978, 0.4532, 0.45307, 0.453637, 0.452402, 0.454764, 0.00319631, 0.470914, 0.46984, 0.480068, 0.479619, 0.00324873, 0.487648, 0.493044, 0.492378, 0.503515, 0.502642, 0.503285, 0.508782, 0.511047, 0.510282, 0.509348, 0.504636, 0.502872, 0.509423, 0.507927, 0.508766, 0.51208, 0.525057, 0.525891, 0.529358, 0.540772, 0.542095, 0.543501, 0.542029, 0.539736, 0.538605, 0.520431, 0.542967, 0.514385, 0.505364, 0.484738, 0.514135, 0.512895, 1.92787, 1.91628, 1.94305, 1.93493, 1.94562, 1.95468, 1.95445, 1.96825, 1.9694, 2.00119, 1.99266, 1.99342, 2.00165, 2.00161, 2.1085, 0.00328538, 2.0109, 2.0118, 2.01145, 2.01156, 2.01057, 2.04097, 2.09096, 2.09683, 2.1298, 2.14646, 2.15648, 2.13634, 2.12813, 2.17653, 2.17541, 2.1936, 2.13535, 2.13425, 2.15495, 2.12912, 2.12768, 2.19054, 2.22833, 2.25307, 2.25593, 2.21229, 2.20944, 2.20107, 2.19049, 2.20436, 2.20116, 2.1809, 2.19364, 2.18187, 2.19524, 2.21772, 2.2087, 2.23462, 2.23592, 2.22557, 2.19982, 2.20027, 2.20763, 2.15953, 2.15898, 0.00328194, 0.00351222, 0.00314565, 2.15736, 0.00311815, 0.00329803, 0.00323859, 0.00323538, 1.95481, 1.95764, 1.94747, 1.93733, 1.91126, 1.91313, 1.91258, 0.00330514, 0.00316029, 0.00328475, 1.78407, 1.78353, 1.75878, 1.7582, 1.71696, 1.7162, 1.71524, 1.71013, 1.69051, 1.69209, 1.69191, 1.65338, 1.65146, 1.63938, 1.63373, 1.60239, 1.64931, 1.6604, 1.67427, 1.49022, 1.4899, 1.47465, 1.47328, 1.46879, 1.45159, 1.45711, 1.3772, 1.38515, 1.41357, 1.3951, 1.28268, 1.295, 1.24153, 1.2465, 1.47759, 1.25073, 1.46714, 0.00315646, 1.16148, 1.17687, 1.17777, 1.16297, 1.12904, 1.14552, 1.17246, 1.11168, 1.11135, 1.11875, 1.10535, 1.11642, 1.12768, 1.15346, 0.00299718, 0.00300463, 0.00305539, 0.00331548, 1.48517, 1.62418, 0.00317503, 0.00331887, 0.00341125, 1.25388, 1.25481, 1.26335, 0.00327565, 1.27869, 1.28416, 1.28968, 1.29827, 1.30206, 0.00339363, 1.31908, 1.32516, 1.32735, 1.33457, 1.34103, 0.00326832, 0.00343167, 1.3624, 1.36511, 1.37095, 1.37667, 1.38251, 1.38575, 1.38809, 1.38939, 1.39689, 1.40137, 1.40609, 1.41385, 1.41667, 1.41899, 1.41958, 1.42689, 1.4273, 1.43199, 1.4362, 1.44647, 1.44693, 1.46082, 1.46116, 0.00342492, 1.47226, 0.00332334, 1.48163, 1.48364, 1.4823, 0.00330963, 0.00318912, 1.50365, 1.51101, 1.51274, 1.51756, 0.00333425, 0.00308107, 0.00339987, 0.00340256, 1.54703, 0.00326671, 1.55913, 1.56711, 1.57177, 0.00313232, 1.58579, 1.58816, 1.58928, 0.00320586, 1.59901, 1.60043, 1.6027, 0.00325745, 1.62043
0.259414, 0.00313181, 0.00317957, 0.278202, 0.27658, 0.286115, 0.284692, 0.283408, 0.00341531, 0.31031, 0.304262, 0.311325, 0.317664, 0.316619, 0.31514, 0.335901, 0.336272, 0.0031911, 0.352001, 0.355664, 0.356365, 0.354957, 0.367209, 0.389114, 0.389735, 0.389119, 0.388543, 0.391967, 0.396792, 0.39519, 0.40389, 0.401626, 0.404228, 0.40542, 0.404954, 0.416303, 0.418889, 0.00300983, 0.00316749, 0.00326957, 0.00334804, 0.00318403, 0.0031529, 0.00317325, 0.445758, 0.434164, 0.434272, 0.448435, 0.447958, 0.446129, 0.00316899, 0.00303246, 0.47161, 0.473175, 0.473207, 0.00311078, 0.00329609, 0.00321526, 0.489436, 0.491684, 0.490859, 0.490113, 0.502554, 0.797681, 0.796728, 0.507619, 0.507329, 0.505878, 0.503181, 0.502244, 0.501504, 0.501154, 0.501227, 0.506954, 0.784817, 0.760382, 0.53966, 0.539573, 0.556099, 0.539057, 0.537117, 0.540238, 0.638548, 0.500558, 0.498485, 0.508146, 0.485557, 0.487386, 0.481117, 0.602709, 1.93382, 1.92904, 1.94394, 1.93873, 1.938, 1.9857, 1.97559, 1.99305, 2.00167, 2.00014, 2.0049, 2.00217, 2.00406, 2.02708, 2.03721, 2.01406, 2.01395, 2.06227, 2.07257, 2.06551, 2.07209, 2.07463, 2.08368, 2.10736, 2.09339, 0.00327245, 2.15606, 2.18583, 2.18002, 2.19707, 2.22764, 0.00304506, 2.11851, 2.09825, 2.13929, 2.14475, 2.21443, 2.21453, 2.21551, 2.22128, 2.2202, 2.20994, 2.17981, 2.18422, 2.19449, 2.19193, 2.17407, 2.23237, 2.17958, 2.20427, 2.21986, 2.20973, 2.23161, 2.23074, 2.24309, 2.26615, 2.27151, 2.27226, 2.16583, 2.16279, 0.00346975, 0.00301545, 0.00329896, 0.00315256, 0.00352356, 0.00316614, 0.00305674, 1.99012, 1.95789, 1.96505, 1.9271, 1.87502, 1.87272, 1.8748, 0.0032614, 0.00314672, 0.0035821, 0.00294105, 1.74185, 1.74188, 1.74026, 1.74002, 1.72013, 1.70497, 1.70435, 1.71903, 1.71254, 1.71154, 1.65503, 0.00308423, 1.64035, 0.00331099, 0.00321292, 0.00312201, 1.53752, 1.66843, 1.51008, 1.51019, 1.46181, 1.46022, 1.47564, 1.42655, 1.43314, 1.43297, 1.38955, 1.39521, 1.3965, 1.24783, 1.26102, 1.25974, 1.31661, 1.32033, 1.19954, 0.00332227, 0.00323663, 1.13212, 1.12409, 1.11623, 1.09313, 1.10094, 1.09825, 1.07924, 1.07912, 1.07673, 1.07733, 1.097, 1.11784, 1.11875, 1.25023, 0.00307963, 1.61005, 0.00334512, 1.20344, 1.62995, 0.00321326, 1.51301, 0.00337376, 1.24134, 1.24126, 1.24526, 1.25385, 0.00322027, 1.26901, 1.26884, 1.2821, 1.28746, 1.28897, 0.00324255, 1.30554, 0.00344685, 1.31554, 1.32227, 0.00293719, 0.00327587, 0.00284827, 1.35337, 1.35818, 1.36728, 1.36675, 1.37156, 1.3761, 1.38062, 1.38304, 1.38771, 1.38834, 1.39653, 1.40073, 1.40563, 1.40742, 1.41405, 1.41239, 1.41691, 0.00319911, 1.42791, 1.43285, 0.00318242, 1.45422, 1.45335, 1.45779, 1.4655, 1.46571, 1.46678, 0.00297506, 1.47781, 1.4853, 0.00339497, 1.49175, 1.50017, 1.50412, 0.00324732, 0.0032994, 0.00329084, 0.00338415, 1.53328, 1.54054, 1.54708, 1.54351, 0.00322196, 0.00319897, 1.57022, 1.5737, 0.00291993, 1.58455, 1.58346, 1.58561, 0.00327745, 1.60308, 1.60234, 1.60349, 0.00321046
0.243148, 0.242369, 0.00307351, 0.260008, 0.25971, 0.275727, 0.275692, 0.276658, 0.276943, 0.301462, 0.303506, 0.301351, 0.315397, 0.315135, 0.3138, 0.322263, 0.00362635, 0.34414, 0.00325002, 0.00335818, 0.00320014, 0.00330644, 0.00330096, 0.390722, 0.390699, 0.391148, 0.392664, 0.391756, 0.394702, 0.399417, 0.400085, 0.398398, 0.399096, 0.398011, 0.403343, 0.403341, 0.403396, 0.403284, 0.402264, 0.402285, 0.402018, 0.00337935, 0.00285673, 0.420263, 0.430104, 0.429836, 0.435136, 0.438727, 0.445012, 0.444259, 0.00327394, 0.00302576, 0.458484, 0.456932, 0.460641, 0.459917, 0.00340156, 0.00329828, 0.469282, 0.487218, 0.486084, 0.485375, 0.492518, 0.492083, 0.00318455, 0.500469, 0.502266, 0.501796, 0.50081, 0.496784, 0.495483, 0.496667, 0.75628, 0.784939, 0.785244, 0.78467, 0.783733, 0.504842, 0.569971, 0.517355, 0.517208, 0.499691, 0.655502, 0.556032, 0.560008, 0.537045, 0.536649, 0.455171, 0.452891, 0.470896, 0.521571, 0.522277, 1.93976, 1.93782, 1.94462, 2.00514, 1.98045, 1.99993, 1.98649, 1.98647, 2.00175, 2.00193, 2.03022, 2.03108, 2.00939, 2.00723, 2.0133, 2.07213, 2.07547, 2.04706, 2.05811, 2.07013, 2.06082, 2.06106, 2.1307, 2.14518, 2.13217, 2.13359, 0.00334898, 2.14812, 2.23095, 2.13976, 2.1173, 2.13532, 2.13255, 2.21887, 2.22153, 2.22907, 2.23265, 2.2187, 2.18473, 2.18373, 2.21404, 2.206, 2.21362, 2.21022, 2.23721, 2.23415, 2.21964, 2.21924, 2.24201, 2.2424, 0.00281065, 2.20401, 0.00304602, 0.00354221, 2.20822, 2.21409, 2.15158, 2.15029, 2.14983, 2.14908, 0.00313238, 0.00309306, 0.00325771, 0.003434, 1.9819, 1.9518, 1.95141, 0.00320905, 1.87269, 1.88414, 1.84188, 1.84198, 0.00292034, 1.84113, 1.84107, 1.75398, 1.7535, 1.81372, 1.81314, 1.81317, 0.00308614, 1.69444, 1.71406, 1.71074, 1.73352, 1.73208, 1.73636, 1.61771, 1.61283, 1.61263, 0.00301743, 1.49622, 1.49597, 1.57232, 1.46387, 1.444, 1.44355, 1.46707, 1.44284, 1.44036, 1.44202, 1.52158, 1.31473, 1.31675, 1.32843, 1.41859, 1.3292, 1.42772, 1.19548, 1.25419, 1.2849, 1.14751, 1.12972, 1.11335, 1.10698, 1.12122, 1.08818, 1.08068, 1.08158, 1.07922, 1.07436, 1.0748, 1.0823, 1.11115, 1.1373, 0.00316608, 0.00325661, 0.00341023, 1.18801, 1.18911, 0.00366418, 0.00323437, 0.00327102, 0.00306096, 1.23209, 1.2324, 0.00328481, 1.24966, 1.25015, 1.25706, 0.0029154, 1.27375, 1.27489, 1.28205, 1.28324, 1.29283, 0.00337169, 1.30791, 1.31367, 1.31576, 0.0034036, 0.00315992, 0.00312829, 1.34819, 1.3559, 1.36031, 1.36408, 1.36843, 1.3729, 1.37766, 1.38421, 1.38407, 1.39123, 1.39211, 1.39348, 1.40096, 1.40031, 1.40396, 1.40617, 0.00346332, 0.00353633, 1.42934, 1.43493, 1.43587, 1.45046, 0.00312089, 0.0030555, 1.4648, 1.46539, 1.47002, 1.47078, 1.47779, 0.00313604, 1.49172, 1.49303, 1.49826, 1.50628, 1.50644, 0.0034462, 1.52374, 1.52278, 1.53034, 0.00339202, 0.003229, 1.55754, 1.5568, 1.56403, 1.57273, 1.57252, 1.5744, 1.58578, 1.58406, 1.58991, 1.59066, 1.6025, 1.60071, 1.5997, 1.60835
0.244228, 0.00306403, 0.242649, 0.241836, 0.260685, 0.278017, 0.277419, 0.277286, 0.275182, 0.290797, 0.296868, 0.303472, 0.308049, 0.308362, 0.319034, 0.331284, 0.332365, 0.332054, 0.341953, 0.351981, 0.00354645, 0.00325579, 0.373578, 0.379607, 0.390559, 0.390815, 0.392796, 0.39335, 0.391201, 0.392351, 0.392169, 0.394622, 0.396598, 0.389868, 0.385837, 0.384666, 0.392354, 0.390898, 0.406266, 0.405866, 0.404847, 0.404054, 0.421841, 0.424038, 0.427361, 0.425631, 0.43157, 0.00312553, 0.442036, 0.00330042, 0.443491, 0.451378, 0.451331, 0.452451, 0.451175, 0.450222, 0.452917, 0.452458, 0.451682, 0.471575, 0.479145, 0.481259, 0.480868, 0.480598, 0.492817, 0.493287, 0.493419, 0.492633, 0.490449, 0.496858, 0.49344, 0.492001, 0.491739, 0.491288, 0.828783, 0.500216, 0.500494, 0.498859, 0.506155, 0.519279, 0.518334, 0.610908, 0.610807, 0.491411, 0.490952, 0.539367, 0.444076, 0.443365, 0.442565, 0.448236, 0.446567, 0.445841, 0.484987, 0.47751, 1.97468, 1.97998, 1.9795, 1.99731, 2.00093, 1.98742, 2.01817, 2.01693, 2.02883, 2.03844, 2.04175, 2.02976, 2.04997, 2.06941, 2.05992, 2.07273, 2.08263, 2.07701, 2.07557, 2.0629, 2.06182, 2.1412, 2.14872, 2.14159, 2.13498, 2.15341, 2.15262, 2.16192, 2.14962, 2.18064, 2.17316, 2.21902, 2.22679, 2.20123, 2.21771, 2.21832, 2.21664, 2.22588, 2.23807, 2.25183, 2.25843, 2.23845, 2.20642, 2.26532, 2.24621, 0.00318157, 0.00317293, 0.00328519, 2.21787, 0.00303657, 0.0031416, 0.00311092, 2.13427, 2.134, 2.13582, 0.00329891, 0.00316887, 0.00309543, 0.00350439, 0.00311807, 0.00315782, 0.00309981, 0.00306592, 0.00296226, 1.91516, 0.00328717, 1.8728, 1.8596, 1.83481, 0.00310045, 1.83395, 1.83388, 1.75736, 1.75992, 1.76113, 0.0032094, 1.81246, 1.81381, 1.8497, 1.7105, 0.00317992, 0.00300368, 0.00312828, 1.62983, 1.61614, 1.62892, 1.62779, 0.00307037, 1.49731, 1.50762, 0.00338692, 1.47317, 1.4748, 1.49274, 1.50917, 1.37734, 1.44517, 1.4508, 1.451, 1.40911, 1.40936, 1.41584, 1.36078, 1.36018, 1.44433, 1.45038, 1.45192, 1.45964, 1.46393, 1.13529, 1.11289, 1.11291, 1.13867, 1.13862, 1.07762, 1.12403, 1.11684, 1.12829, 1.11407, 1.10059, 1.10126, 1.14742, 0.00323144, 0.00328771, 1.21499, 0.00301496, 1.18707, 1.18633, 0.00303275, 0.00334117, 1.21715, 1.22124, 1.22594, 1.23159, 1.23988, 1.2461, 0.0034665, 1.26258, 1.26423, 1.26996, 0.00319904, 1.28381, 1.28786, 1.29316, 1.29495, 1.30398, 1.30758, 1.31661, 1.32578, 0.00313074, 0.00333922, 0.00307593, 1.35751, 1.35984, 1.36656, 1.3669, 1.37091, 0.00307842, 1.3703, 0.00300328, 0.0032874, 1.38507, 1.38873, 1.3942, 1.39223, 1.4017, 1.41082, 1.41412, 1.42132, 0.00307329, 1.43676, 1.4406, 1.44285, 1.44418, 0.00301595, 0.0030366, 1.46402, 1.47124, 1.4721, 1.4797, 1.48233, 1.48842, 1.49464, 1.49915, 1.50826, 1.50743, 1.51861, 1.51922, 1.53038, 1.53169, 1.55375, 1.55126, 1.55085, 1.55672, 1.55815, 1.56139, 0.00324013, 1.57464, 1.58124, 0.0031976, 1.5923, 1.59532, 1.60229, 1.59933, 1.59912, 1.60253
0.233702, 0.244858, 0.243791, 0.243273, 0.00291987, 0.266553, 0.265767, 0.274259, 0.283115, 0.283258, 0.302251, 0.30029, 0.299957, 0.304797, 0.00322786, 0.324209, 0.003232, 0.00331424, 0.00325902, 0.350534, 0.00316155, 0.37211, 0.00287486, 0.00315908, 0.379874, 0.379748, 0.378311, 0.384009, 0.383669, 0.382842, 0.386601, 0.374292, 0.375544, 0.375591, 0.3741, 0.373943, 0.00333008, 0.381691, 0.391397, 0.389333, 0.401646, 0.400539, 0.40001, 0.400213, 0.426623, 0.426604, 0.426789, 0.427139, 0.431289, 0.444116, 0.443066, 0.442106, 0.442987, 0.447382, 0.452693, 0.453218, 0.452186, 0.453888, 0.463885, 0.46312, 0.00293629, 0.481705, 0.482812, 0.481838, 0.00311273, 0.493325, 0.493143, 0.49334, 0.488945, 0.489764, 0.488069, 0.490442, 0.489538, 0.853643, 0.498731, 0.498703, 0.499804, 0.501061, 0.506822, 0.52535, 0.612826, 0.612893, 0.612275, 0.493831, 0.493486, 0.481346, 0.479989, 0.452583, 0.461895, 0.444984, 0.442028, 0.457504, 0.467169, 0.517059, 0.4944, 0.495611, 1.98712, 1.9845, 1.99738, 2.02527, 2.02671, 2.02398, 2.04408, 2.0369, 2.03944, 2.04383, 2.06046, 2.07073, 2.06289, 2.06294, 2.09461, 2.0922, 2.0849, 2.08498, 2.08618, 2.09022, 2.12558, 2.12826, 0.00312067, 2.11581, 2.1383, 2.13518, 2.12559, 2.19833, 2.16197, 2.16059, 2.20264, 2.22577, 2.24424, 2.24326, 2.23198, 2.22519, 2.23906, 2.23208, 2.24052, 2.28686, 2.32048, 2.26646, 0.00302778, 0.00311579, 0.00331039, 0.00313777, 2.21824, 2.21962, 2.16255, 2.13521, 2.13456, 0.00342426, 0.0032275, 0.0035022, 0.00310502, 0.003288, 0.00339188, 2.02104, 0.00356477, 1.98745, 1.98631, 0.00329139, 0.00327747, 0.00329959, 1.86251, 1.83032, 1.83028, 1.82995, 0.00324145, 1.82129, 0.00296617, 1.73094, 1.72768, 1.72931, 1.84945, 1.69165, 1.84058, 1.70373, 1.68605, 1.66171, 0.00331202, 0.00319165, 0.00307879, 0.00324797, 0.00315432, 1.48801, 1.48793, 1.48856, 1.42335, 1.39929, 1.38287, 1.37027, 1.37062, 1.3605, 1.45231, 1.45328, 0.00344544, 1.38961, 1.42059, 1.23698, 1.36539, 1.44354, 1.44355, 1.44655, 1.15505, 1.20156, 1.20094, 1.19634, 1.10525, 1.10588, 1.0894, 1.10951, 1.06526, 1.06692, 1.04953, 1.04967, 1.07519, 1.12314, 1.10479, 1.10683, 0.00299871, 0.00326044, 0.00314041, 1.18388, 0.00326503, 1.18894, 0.0032595, 1.20499, 1.21132, 1.2215, 1.22306, 1.23195, 1.23662, 1.24051, 0.00319167, 1.2587, 1.26284, 1.26739, 0.00327244, 1.28464, 1.28518, 1.29118, 1.29491, 1.29971, 1.3042, 1.31787, 1.32184, 1.32523, 0.00316045, 1.34384, 1.34731, 1.35336, 1.35931, 1.36627, 1.36693, 1.3653, 1.36534, 0.0034856, 1.37649, 1.37814, 1.37929, 1.38613, 1.3933, 1.40195, 1.40433, 1.41259, 1.42077, 1.42015, 0.00328878, 1.44324, 1.44421, 1.45136, 1.45575, 1.45836, 1.46308, 1.46478, 1.47127, 1.47725, 1.48547, 1.48804, 1.4906, 1.4999, 1.5094, 1.5085, 1.51101, 0.00326696, 1.53082, 0.0032084, 1.54468, 1.5487, 1.54775, 1.55492, 1.55298, 1.56411, 1.5617, 1.56927, 0.00322636, 1.5814, 1.5817, 1.58639, 0.00287205, 1.59726, 1.59839, 1.60482
0.230507, 0.00295753, 0.259207, 0.258583, 0.256388, 0.257266, 0.271057, 0.268688, 0.269158, 0.282754, 0.288556, 0.286509, 0.285409, 0.30399, 0.313175, 0.00326173, 0.00314739, 0.00285471, 0.00300397, 0.00320008, 0.369118, 0.369306, 0.369851, 0.363749, 0.36304, 0.363254, 0.362728, 0.363597, 0.362919, 0.362634, 0.366208, 0.370423, 0.376705, 0.375049, 0.375009, 0.374445, 0.382467, 0.379318, 0.37832, 0.387575, 0.388989, 0.401845, 0.399981, 0.421816, 0.427049, 0.427114, 0.427382, 0.427483, 0.428782, 0.443359, 0.443403, 0.443445, 0.441703, 0.442313, 0.445471, 0.447879, 0.449098, 0.449805, 0.00357164, 0.00322623, 0.00300913, 0.465674, 0.465294, 0.470875, 0.471424, 0.48776, 0.487225, 0.485132, 0.485249, 0.485271, 0.485695, 0.485444, 0.484471, 0.486644, 0.487601, 0.498648, 0.502626, 0.502456, 0.501799, 0.485204, 0.485149, 0.484283, 0.484517, 0.483137, 0.481919, 0.480689, 0.460729, 0.474003, 0.458211, 0.464322, 0.465115, 0.431327, 0.450832, 0.415215, 0.415307, 0.450903, 0.511387, 0.504714, 1.99785, 2.00901, 2.00989, 2.01097, 2.02482, 2.05107, 2.06599, 2.03557, 2.05311, 2.07302, 2.06751, 2.06058, 2.06587, 2.09826, 2.10427, 2.11375, 2.11492, 2.08938, 2.10754, 2.10687, 2.10178, 2.107, 2.14493, 2.13803, 2.139, 2.16615, 2.16767, 2.22213, 2.2118, 2.22481, 2.23273, 2.23047, 2.2313, 0.00326979, 0.00340277, 0.00315517, 0.00333072, 2.27661, 2.28411, 2.28634, 2.28587, 0.00303266, 0.00341042, 2.19197, 2.19244, 0.00327585, 0.00347763, 0.00317017, 0.00331205, 0.00297142, 0.00323014, 0.00285001, 0.00339772, 0.00324405, 0.00318961, 0.00332779, 1.96524, 0.00312168, 0.00317515, 1.98518, 1.98305, 1.98322, 0.00337572, 0.00308595, 0.00340458, 1.87339, 1.87293, 1.72864, 1.73052, 1.72417, 1.68858, 1.68877, 1.67926, 1.83925, 1.69031, 1.67364, 1.68348, 1.62356, 0.00308762, 0.00333447, 0.00306984, 1.53604, 1.47145, 1.48831, 1.42933, 1.42793, 1.39457, 1.39246, 1.36777, 1.36791, 1.36103, 1.33456, 0.0032208, 1.30153, 1.23535, 1.23535, 1.22785, 0.00317386, 1.25185, 1.25187, 1.17587, 1.16481, 1.1831, 1.40473, 1.40254, 0.00300999, 0.00306676, 1.18726, 1.09294, 1.09315, 1.03665, 1.03611, 1.03585, 1.0646, 1.08448, 1.09133, 1.13716, 1.13669, 0.00334265, 0.0033521, 0.00331833, 0.00319508, 0.00318653, 0.00292646, 1.48658, 0.00325973, 1.20841, 1.21541, 1.2235, 1.22896, 1.23505, 1.24383, 1.24479, 1.24987, 1.26182, 1.26331, 0.0032217, 1.27805, 1.28249, 1.28572, 1.29569, 0.00337855, 1.30326, 0.00316223, 1.31683, 1.32657, 1.33405, 0.00324531, 1.34495, 1.34888, 1.35579, 1.35644, 1.35664, 1.35902, 1.3593, 1.36662, 1.36822, 1.37384, 1.37383, 1.38179, 0.00296632, 0.00345613, 0.0033273, 0.00304321, 1.4153, 1.429, 1.43233, 1.43438, 0.00345992, 1.44963, 1.4501, 1.45529, 1.45888, 1.46029, 1.46324, 0.00315692, 0.00314707, 0.00349083, 1.49128, 1.49579, 1.49569, 1.50247, 0.00307285, 1.51963, 0.00332611, 0.00330026, 1.53769, 1.53667, 1.539, 0.00343571, 1.5574, 1.55351, 1.56106, 1.56746, 0.00294132, 1.57649, 1.58245, 1.58299, 1.58345, 0.00320701, 1.5939, 1.59495
0.00302517, 0.226947, 0.243074, 0.245578, 0.25802, 0.253755, 0.260168, 0.268096, 0.268668, 0.272928, 0.28606, 0.286976, 0.00327231, 0.0033371, 0.00308779, 0.313487, 0.34873, 0.347651, 0.34738, 0.349515, 0.367138, 0.365899, 0.363446, 0.36201, 0.359327, 0.345753, 0.362112, 0.360446, 0.359961, 0.365069, 0.354724, 0.371966, 0.366257, 0.364857, 0.369973, 0.374862, 0.377231, 0.376475, 0.370452, 0.381525, 0.0031621, 0.00323924, 0.00322711, 0.00307535, 0.42103, 0.414985, 0.422664, 0.421878, 0.00310876, 0.43583, 0.435196, 0.435257, 0.441747, 0.441069, 0.441051, 0.442161, 0.446426, 0.450652, 0.45065, 0.450409, 0.462977, 0.463113, 0.463192, 0.469302, 0.468801, 0.470979, 0.471074, 0.480411, 0.484244, 0.483873, 0.483642, 0.483696, 0.483358, 0.485331, 0.485453, 0.502555, 0.502048, 0.501646, 0.49983, 0.775377, 0.487412, 0.476741, 0.484937, 0.482921, 0.483724, 0.483037, 0.477228, 0.480206, 0.462119, 0.452269, 0.455351, 0.456284, 0.443496, 0.418809, 0.446621, 0.422072, 0.427462, 0.439057, 0.479019, 0.476875, 1.99913, 1.99879, 2.00682, 2.04022, 2.03543, 2.05986, 2.05767, 2.06156, 2.08346, 2.07651, 2.07704, 2.13762, 2.09594, 2.09574, 2.12719, 2.08411, 2.08973, 2.12219, 2.12137, 2.11673, 2.11821, 2.12486, 2.18695, 2.18037, 0.0029368, 2.22786, 0.00334406, 2.23569, 2.24935, 2.25608, 2.27531, 0.0032525, 0.00317092, 2.31076, 2.26987, 2.23506, 0.00309799, 0.00333495, 2.20006, 2.20971, 0.00331935, 2.15733, 2.15735, 0.00321099, 0.00301592, 0.00331242, 0.00327677, 2.07593, 2.0753, 2.07207, 0.00289183, 0.00343525, 1.96617, 1.95546, 1.95309, 1.94194, 0.00304813, 1.92937, 0.00305702, 1.95539, 1.94781, 1.7816, 1.75424, 1.75505, 1.73523, 1.73363, 1.74484, 1.74458, 1.66907, 1.66881, 1.66822, 1.77135, 1.69628, 0.00323384, 1.56612, 1.56848, 1.67411, 0.0029712, 1.4954, 0.00301616, 1.46494, 1.46425, 1.48346, 1.37749, 1.52453, 1.39569, 0.00328057, 1.34834, 1.34856, 1.30239, 1.28921, 1.2893, 1.22709, 1.22546, 1.22105, 1.22244, 0.00295516, 0.0031641, 1.17225, 1.19589, 1.15783, 0.00312232, 0.00320836, 1.14891, 0.00305582, 1.06143, 1.02744, 1.04536, 1.13109, 1.03974, 1.08984, 1.05595, 1.11816, 1.12201, 1.12294, 0.00318319, 0.00319373, 0.00287977, 0.00314169, 1.17371, 1.17733, 0.00330059, 0.00328466, 1.19646, 1.20513, 1.46805, 1.21613, 1.2241, 0.00324768, 0.00306353, 1.24463, 1.2468, 1.25476, 1.26379, 1.26764, 1.27279, 1.27913, 1.28573, 1.29144, 1.29166, 1.3029, 1.30538, 1.31553, 1.31583, 0.00325272, 1.33937, 1.33962, 1.34316, 1.34517, 1.34681, 1.34749, 1.3497, 1.3567, 1.36022, 1.36065, 0.00351274, 0.0030087, 1.37411, 1.38402, 1.38916, 1.39509, 1.40967, 1.41297, 0.00320787, 1.42586, 1.4293, 0.00313113, 1.43996, 1.4409, 0.00295999, 1.45402, 1.45459, 1.45523, 0.00305537, 0.00300734, 0.0031306, 1.48204, 0.00337803, 1.49691, 0.00292103, 1.50911, 0.00330049, 0.00329378, 1.52265, 0.00321674, 0.00301183, 0.00313415, 1.54043, 0.00299233, 0.00315005, 0.00314551, 1.56279, 1.56355, 0.00341912, 0.00322481, 1.57605, 1.5813, 1.5855, 1.5867, 1.59269
0.227832, 0.0030398, 0.251031, 0.252188, 0.24953, 0.246623, 0.259938, 0.267837, 0.267889, 0.268409, 0.286284, 0.701883, 0.700474, 0.00306621, 0.00330396, 0.00308941, 0.348756, 0.348703, 0.347655, 0.358187, 0.358803, 0.345423, 0.342659, 0.342977, 0.344568, 0.348436, 0.34734, 0.341473, 0.343699, 0.349407, 0.355081, 0.355732, 0.351628, 0.352517, 0.359066, 0.367456, 0.00314177, 0.369555, 0.369369, 0.370546, 0.369623, 0.00359858, 0.00309879, 0.00313485, 0.411615, 0.416492, 0.418836, 0.418232, 0.421042, 0.434193, 0.432503, 0.431444, 0.439269, 0.440828, 0.440857, 0.440548, 0.442072, 0.448197, 0.447384, 0.448409, 0.461942, 0.459886, 0.460368, 0.45856, 0.463682, 0.463484, 0.467416, 0.467846, 0.470757, 0.470262, 0.479561, 0.478904, 0.484892, 0.486764, 0.486432, 0.48577, 0.498049, 0.00305662, 0.497186, 0.49659, 0.492406, 0.489361, 0.486461, 0.485892, 0.485989, 0.486557, 0.486088, 0.473548, 0.477379, 0.480368, 0.478064, 0.47823, 0.473111, 0.447104, 0.439419, 0.437924, 0.413817, 0.413171, 0.413575, 0.463342, 2.00418, 1.99698, 2.10342, 2.05548, 2.05291, 2.08348, 2.05894, 2.0623, 2.07717, 2.07998, 2.15262, 2.08401, 2.08813, 2.09684, 2.11676, 2.11696, 2.14825, 2.10613, 2.12804, 2.1283, 2.14668, 0.00312216, 2.16605, 0.00295124, 2.22174, 2.22243, 0.00347794, 0.00300765, 2.24818, 2.22835, 2.26031, 2.24599, 2.25281, 2.24843, 2.24859, 2.2463, 2.23519, 0.00327862, 2.19703, 0.00297256, 2.1604, 2.17147, 2.15806, 0.00343867, 0.00312727, 0.0029647, 0.00328078, 2.09078, 2.07166, 2.07014, 0.0032111, 0.00314622, 0.00332487, 1.95151, 1.92318, 1.92286, 1.93489, 1.93385, 1.93375, 1.86072, 1.78422, 1.76932, 1.76933, 1.74734, 1.7137, 1.70807, 1.68868, 1.69589, 1.66876, 0.00295613, 1.67474, 1.67434, 1.67453, 0.00288843, 1.55048, 0.00351292, 1.46536, 1.48209, 1.51301, 1.40786, 1.67707, 1.49576, 1.52499, 1.55041, 1.3584, 1.48242, 1.31999, 1.32299, 1.32408, 1.26682, 1.26866, 0.00323929, 0.00326798, 1.30454, 0.0030901, 1.18719, 1.18787, 1.17525, 1.16377, 1.15978, 1.16017, 0.00301086, 1.14044, 0.00320465, 1.04419, 1.05258, 1.0147, 1.01265, 1.03341, 1.01909, 1.0222, 1.04939, 1.10681, 0.00320939, 0.00319212, 0.00312126, 0.00298036, 0.00327893, 1.16206, 0.00314406, 0.00330108, 0.00306475, 0.0031841, 1.19791, 1.20165, 1.2059, 1.21628, 0.00292706, 1.23229, 1.23637, 1.23979, 1.24362, 0.00364343, 0.00318007, 1.26509, 1.272, 1.27299, 0.00308936, 1.2917, 1.29415, 1.29718, 1.30574, 1.30597, 1.31544, 1.32637, 1.32736, 1.33367, 1.33946, 1.34063, 1.34283, 1.34428, 1.34406, 1.34885, 1.35104, 1.35988, 1.36215, 1.36616, 1.37161, 1.37807, 1.38446, 1.38454, 0.00331724, 1.41147, 1.41283, 1.41691, 1.42656, 1.42876, 0.00323018, 1.43982, 0.00314674, 1.44951, 1.44931, 0.00292503, 0.00344729, 0.00320997, 0.00316339, 0.00324189, 0.00314687, 0.00308671, 0.0030468, 0.00330046, 1.51737, 1.51691, 1.51652, 1.52347, 1.53019, 1.53038, 1.53524, 0.00348771, 0.0035159, 0.00315852, 1.55867, 1.56267, 1.56318, 1.56519, 0.00308416, 1.57531, 1.57935, 1.58888, 1.58864
0.231929, 0.229573, 0.228943, 0.250316, 0.249576, 0.247911, 0.247367, 0.263554, 0.268455, 0.266545, 0.00313635, 0.00339213, 0.00317307, 0.00318832, 0.00328272, 0.34221, 0.00320979, 0.346684, 0.352556, 0.348082, 0.347513, 0.344227, 0.342353, 0.34223, 0.336401, 0.335134, 0.34385, 0.34322, 0.335964, 0.351203, 0.343359, 0.34839, 0.354838, 0.353483, 0.354991, 0.354199, 0.355671, 0.369753, 0.370188, 0.370459, 0.36977, 0.00308805, 0.382864, 0.00317301, 0.0031283, 0.417765, 0.417012, 0.420476, 0.00298186, 0.430654, 0.432005, 0.432253, 0.432565, 0.433321, 0.441803, 0.445409, 0.445876, 0.448525, 0.448971, 0.449692, 0.454713, 0.456005, 0.455859, 0.456607, 0.463085, 0.46606, 0.468749, 0.468854, 0.469523, 0.470421, 0.470153, 0.482506, 0.481764, 0.486218, 0.484676, 0.487268, 0.488502, 0.487699, 0.48692, 0.487087, 0.487136, 0.489347, 0.479519, 0.486209, 0.651113, 0.488327, 0.649972, 0.485924, 0.485745, 0.482704, 0.483054, 0.47263, 0.441157, 0.453119, 0.432828, 0.475668, 0.445727, 0.418228, 0.459745, 0.481711, 0.465486, 2.06479, 2.06689, 2.06754, 2.06651, 2.06637, 2.0666, 2.07223, 2.07023, 2.08419, 2.08954, 2.0795, 2.08613, 2.08302, 2.10937, 2.09306, 2.09275, 2.09949, 2.11543, 2.11489, 2.13943, 2.21847, 2.1874, 2.2556, 0.00321392, 2.24867, 0.00318072, 2.25205, 2.26237, 2.24808, 2.26985, 2.27001, 2.25249, 2.25209, 2.26719, 2.26422, 2.26357, 2.28635, 2.29366, 0.00301777, 0.00319442, 0.00284611, 0.00331791, 0.00352841, 0.00330916, 0.00311871, 0.00326383, 2.04298, 2.04311, 2.0249, 1.99947, 1.99965, 2.02263, 2.02208, 1.9341, 1.93467, 1.93604, 1.93545, 1.93423, 0.00302702, 0.0030576, 1.77513, 1.78347, 0.00333263, 1.69307, 1.69252, 1.67375, 1.72692, 1.85465, 1.7238, 1.65564, 1.65547, 1.55799, 1.52413, 0.00319403, 1.46405, 1.46237, 1.45071, 1.49919, 1.4834, 1.48259, 1.53349, 1.52282, 1.34326, 0.00333991, 1.30154, 1.30213, 1.28943, 1.29472, 1.2778, 1.64001, 1.20599, 1.19858, 1.19593, 1.20005, 1.16218, 1.16182, 1.15722, 1.13999, 1.13983, 1.1627, 1.31005, 1.30958, 1.04181, 1.02225, 1.01341, 0.995493, 1.00195, 1.04979, 1.05024, 1.03937, 1.10926, 1.10982, 0.00329102, 0.00316515, 0.00307612, 0.00306695, 0.0031398, 1.53758, 0.00296756, 0.0032526, 0.00322905, 1.18898, 1.19466, 1.20121, 1.20229, 1.21657, 1.22568, 1.2268, 1.23126, 1.23742, 1.24028, 0.00322522, 1.25697, 1.26378, 1.27118, 1.2776, 1.28229, 1.28805, 1.29438, 1.29774, 1.30209, 1.31219, 1.31319, 1.31711, 1.32438, 1.32914, 1.32998, 1.33591, 1.3372, 1.34107, 1.34313, 1.34498, 1.35093, 1.35495, 1.35872, 1.36284, 1.37007, 1.37497, 1.38155, 0.00282729, 0.00314189, 0.00322286, 1.41229, 1.41275, 1.4173, 1.42351, 1.42789, 1.42964, 1.43593, 1.43776, 0.00341448, 0.00320976, 0.00332442, 0.00319299, 0.00316579, 0.00301462, 0.00331107, 0.00321869, 0.00310845, 1.51434, 1.51659, 1.51563, 1.515, 1.5206, 1.52089, 0.00322525, 1.53502, 0.00328478, 1.55106, 1.55059, 1.55309, 1.55439, 1.55804, 1.55853, 0.00332763, 0.00313919, 0.00281263, 0.00311635, 1.58399
0.233938, 0.232595, 0.231254, 0.243263, 0.247873, 0.254733, 0.252574, 0.263353, 0.263613, 0.268402, 0.0032864, 0.00303004, 0.00315052, 0.00333669, 0.00316813, 0.346086, 0.345616, 0.342228, 0.34123, 0.343405, 0.341157, 0.317675, 0.338449, 0.334672, 0.32485, 0.328782, 0.337719, 0.337527, 0.337669, 0.337623, 0.338298, 0.338262, 0.338966, 0.355145, 0.352903, 0.00299764, 0.00321986, 0.363473, 0.36257, 0.361614, 0.369553, 0.380305, 0.00332214, 0.00299637, 0.397232, 0.398679, 0.397511, 0.39661, 0.00304026, 0.429186, 0.427809, 0.0028487, 0.435837, 0.444463, 0.445783, 0.446299, 0.448345, 0.448957, 0.44716, 0.454927, 0.455748, 0.455709, 0.457003, 0.457025, 0.462927, 0.466158, 0.465694, 0.472447, 0.472688, 0.471067, 0.476483, 0.478394, 0.478537, 0.480558, 0.483992, 0.484463, 0.484416, 0.483401, 0.478617, 0.477463, 0.477583, 0.478891, 0.474469, 0.483154, 0.485839, 0.483813, 0.48971, 0.484862, 0.484936, 0.482704, 0.481585, 0.479311, 0.545386, 0.473449, 0.473072, 0.465982, 0.465983, 0.476221, 0.431288, 0.429106, 0.483191, 0.508053, 2.09046, 2.07614, 2.07613, 2.06576, 2.06558, 2.06951, 2.0668, 2.08362, 2.08357, 2.08836, 2.08648, 2.08973, 2.09988, 2.1057, 2.12041, 2.08531, 0.00316933, 0.00305914, 0.00362688, 0.00304875, 2.23726, 0.00309436, 2.30204, 2.28037, 2.28048, 2.26345, 2.27621, 2.26602, 2.26332, 2.2653, 2.26683, 2.26039, 0.00320873, 0.00314498, 2.22871, 0.00311377, 0.00295425, 0.00316988, 0.0034819, 0.00322273, 0.00306066, 0.00296743, 0.00308198, 0.0031795, 0.00333087, 0.0032739, 2.00585, 2.0044, 1.96679, 0.00332026, 1.97674, 0.0032192, 0.00305264, 0.00320098, 0.00337354, 0.00296357, 0.0035315, 0.00305951, 0.00321761, 1.79609, 1.71296, 1.71287, 1.69538, 1.69258, 1.72308, 0.00315564, 1.63348, 1.59295, 1.59432, 1.58664, 1.57386, 1.64761, 1.48869, 1.46672, 1.45379, 1.48868, 1.47781, 1.48593, 1.36268, 1.36191, 1.3828, 1.38183, 1.37259, 1.31413, 1.31388, 1.29937, 1.34856, 1.38219, 1.18388, 1.31726, 1.25415, 1.25315, 1.25498, 1.12587, 1.11771, 1.09736, 1.11858, 1.16674, 1.12259, 1.12432, 1.06556, 1.00494, 1.01587, 1.02582, 0.994103, 1.02885, 1.02639, 1.02756, 1.07595, 1.07635, 0.00324319, 0.00312522, 0.0031955, 0.00328306, 0.00331345, 1.15023, 0.00312569, 0.00310943, 0.00341376, 0.00323626, 0.00347869, 1.37464, 1.42381, 1.21218, 1.21513, 1.21774, 1.21758, 1.22705, 0.0030111, 1.24182, 1.24728, 1.25697, 1.26281, 0.00308109, 1.27523, 1.27926, 0.0035454, 0.00318022, 1.29804, 1.3044, 0.00324172, 1.31352, 1.31621, 1.31965, 1.32881, 1.33021, 1.33157, 1.33422, 1.33792, 0.00298769, 0.00339183, 0.00331571, 1.35434, 1.35778, 1.36389, 1.37063, 1.3749, 1.37885, 1.3877, 1.39494, 1.399, 1.40563, 1.40556, 0.00308779, 1.42214, 1.42236, 1.42545, 1.42638, 1.43719, 1.44107, 0.0030447, 0.00306369, 0.00335228, 0.00312071, 0.00321026, 0.00302719, 0.0031179, 0.00328447, 0.0031543, 1.51901, 1.51754, 1.52159, 1.52098, 1.52604, 1.53079, 1.52994, 1.537, 1.5404, 1.5405, 0.00298942, 1.5512, 1.55079, 0.00317716, 0.00324211, 0.00319665, 1.57455, 1.57233, 1.58593
0.238511, 0.237998, 0.237086, 0.244492, 0.243714, 0.253093, 0.266849, 0.266741, 0.265248, 0.00338947, 0.0031624, 0.0031426, 0.00314761, 0.00313273, 0.00323809, 0.340892, 0.341631, 0.340869, 0.338374, 0.328303, 0.330939, 0.320994, 0.32084, 0.319015, 0.319196, 0.320129, 0.321972, 0.328182, 0.331129, 0.328801, 0.335314, 0.329021, 0.338381, 0.338132, 0.00318023, 0.00347381, 0.00326258, 0.00317976, 0.00324758, 0.00322499, 0.00317267, 0.371064, 0.00325458, 0.00320158, 0.399422, 0.397272, 0.397729, 0.00325232, 0.0032787, 0.423568, 0.422891, 0.421994, 0.436905, 0.435377, 0.438036, 0.44417, 0.45167, 0.451648, 0.451614, 0.451009, 0.454044, 0.453484, 0.461475, 0.461151, 0.464442, 0.46589, 0.464473, 0.467122, 0.4673, 0.469908, 0.479726, 0.480016, 0.480585, 0.479543, 0.479857, 0.480491, 0.480803, 0.479376, 0.473396, 0.472304, 0.472753, 0.471479, 0.472962, 0.472036, 0.482157, 0.480135, 0.481691, 0.481078, 0.477866, 0.483115, 0.47956, 0.478865, 0.480295, 0.480911, 0.47755, 0.492299, 0.465545, 0.463103, 0.433226, 0.433208, 0.432005, 0.482301, 0.485724, 2.1012, 2.12668, 2.11072, 2.07823, 2.07797, 2.07962, 2.081, 2.09272, 2.09214, 2.09157, 2.09789, 2.09297, 2.14542, 2.15243, 2.20345, 2.19952, 2.19866, 0.00319678, 2.2568, 2.23625, 2.23684, 2.25947, 2.27754, 2.278, 2.26341, 2.26015, 2.25012, 2.24686, 2.25141, 2.24604, 0.0030995, 0.00322842, 2.21243, 0.00313181, 2.1996, 0.00308989, 0.00338744, 0.00319078, 0.00314206, 0.00307115, 0.00324207, 0.00316969, 2.00411, 2.00405, 1.97947, 1.97931, 1.97905, 0.00318542, 0.00308091, 0.00328195, 1.87555, 0.00321544, 1.96253, 0.00300915, 0.00298236, 1.83055, 1.74918, 1.74571, 0.0033305, 1.71394, 1.74687, 1.74767, 1.62224, 1.62316, 1.62202, 1.66566, 1.80261, 1.8025, 1.50838, 1.60262, 1.60409, 1.60332, 1.46143, 1.41026, 1.47506, 1.35614, 1.40577, 0.00295246, 1.32624, 1.3269, 1.38083, 1.34768, 1.26996, 1.33724, 1.3568, 1.35187, 1.15609, 1.12562, 1.12618, 1.13322, 1.12328, 1.12391, 1.06166, 1.11403, 1.12851, 1.12277, 1.0609, 1.05899, 1.05963, 0.991277, 0.992361, 1.06058, 1.03254, 1.04368, 1.02792, 1.00412, 1.07108, 0.00320278, 0.00325146, 0.00305318, 1.14265, 0.00316031, 1.1343, 0.00302098, 0.00336364, 0.00296731, 0.00331876, 0.00285681, 0.0033742, 0.00317848, 1.19156, 1.20137, 1.20937, 1.21048, 1.21232, 1.21422, 1.2217, 0.00302808, 1.24269, 1.24251, 1.25251, 0.0032722, 1.26234, 1.26867, 1.27398, 0.00306891, 1.28489, 0.00320411, 1.29866, 1.30161, 0.0032255, 0.0031385, 1.32442, 1.32765, 1.32816, 1.3327, 1.33504, 1.3339, 1.33414, 0.00333293, 1.35041, 1.35286, 1.35933, 1.36438, 1.37095, 1.37814, 1.3826, 1.38281, 1.38641, 1.39432, 1.39894, 0.00309982, 1.40976, 1.41563, 1.41552, 1.42113, 0.00327066, 0.00326988, 0.00318791, 1.44716, 0.00331935, 0.00317001, 0.0032023, 0.00291683, 0.0033204, 0.00325623, 0.00297173, 0.00316387, 1.51699, 1.51823, 1.52183, 1.52407, 1.52516, 1.52919, 1.52974, 1.53018, 1.53035, 1.5372, 0.00329006, 0.00302676, 1.55362, 1.55653, 1.56142, 0.00319542, 0.00343567, 1.5718, 0.00320304
0.237212, 0.238417, 0.238168, 0.239154, 0.245969, 0.00322953, 0.269352, 0.267537, 0.00310741, 0.00336258, 0.00297974, 0.00304077, 0.00317193, 0.00333432, 0.00312131, 0.00308492, 0.00329363, 0.00325569, 0.331981, 0.32488, 0.323692, 0.32274, 0.322336, 0.318732, 0.320219, 0.32337, 0.324088, 0.322565, 0.32131, 0.328564, 0.328203, 0.328106, 0.327827, 0.330051, 0.331456, 0.00301793, 0.00306033, 0.0031875, 0.00311767, 0.00340261, 0.00314754, 0.00337757, 0.373186, 0.00318716, 0.00308641, 0.00309525, 0.406539, 0.404922, 0.405173, 0.424541, 0.422779, 0.425258, 0.425495, 0.437979, 0.440927, 0.444735, 0.447761, 0.448092, 0.448703, 0.449844, 0.45572, 0.456316, 0.457261, 0.464326, 0.469291, 0.46803, 0.470228, 0.468925, 0.477286, 0.47738, 0.476517, 0.475869, 0.480878, 0.479734, 0.480529, 0.479407, 0.474942, 0.47587, 0.473039, 0.472231, 0.469143, 0.467703, 0.466549, 0.473446, 0.476408, 0.483034, 0.481634, 0.480761, 0.477209, 0.475593, 0.474961, 0.475524, 0.477547, 0.478776, 0.481024, 0.491159, 0.492194, 0.485367, 0.436428, 0.435199, 0.424085, 0.424739, 0.490438, 0.521983, 0.525299, 2.08768, 2.09998, 2.0869, 2.08777, 2.09154, 2.0945, 2.10522, 2.102, 2.1112, 2.16486, 2.16302, 0.00311762, 0.00314373, 2.19541, 2.19515, 0.00329836, 2.2629, 2.22986, 2.23894, 2.24834, 2.24813, 2.24827, 2.26326, 2.27439, 2.24653, 2.26864, 2.24171, 0.0030966, 2.20413, 2.20481, 0.00303446, 0.0030581, 0.00336644, 0.0031898, 0.00324761, 0.00303457, 0.00306579, 0.0030927, 0.00304083, 0.00318587, 0.00309496, 0.00307721, 0.00312216, 0.00312578, 0.00322222, 0.00313599, 0.003213, 1.87644, 1.87638, 1.96687, 1.96801, 1.78254, 1.75931, 1.75032, 1.72973, 1.73009, 1.7237, 0.00297699, 0.0030956, 1.6123, 1.61177, 1.60996, 1.57162, 1.57062, 0.00358419, 1.5964, 1.59483, 1.42277, 0.0032508, 1.39833, 1.40526, 1.35259, 1.47553, 1.29605, 1.27194, 1.27193, 1.26104, 1.2399, 1.33167, 1.19876, 1.16904, 1.34827, 0.00336749, 1.19616, 1.17037, 1.09448, 1.09489, 0.00313613, 1.07015, 1.05609, 1.04929, 1.02924, 1.00809, 1.07308, 1.05052, 1.04671, 1.00817, 1.00722, 0.985439, 0.991535, 0.998743, 0.983982, 1.00213, 1.02106, 0.0031925, 0.00337823, 0.00338317, 1.12892, 0.00320069, 0.00308417, 1.13453, 1.47799, 0.00308372, 0.0033496, 1.15673, 1.34623, 0.00310238, 1.18202, 1.19105, 1.19277, 0.00309037, 1.20551, 1.20968, 0.00323097, 0.00324036, 1.23027, 1.23299, 1.24271, 1.24417, 1.25325, 0.00301407, 0.00336352, 1.27017, 1.27581, 1.28217, 1.28616, 0.00326, 0.00291393, 1.30474, 1.31031, 0.00317602, 1.32692, 1.32658, 1.32987, 1.33114, 1.33593, 1.33858, 1.34464, 1.35147, 1.36362, 1.36247, 1.37258, 1.3773, 1.37815, 1.38037, 1.38254, 1.38461, 1.39138, 1.3913, 1.39793, 1.40211, 1.407, 0.00299985, 1.41727, 0.00309987, 1.42671, 0.00300436, 0.00314338, 0.00327119, 0.00312609, 0.00329627, 0.00318715, 0.00332853, 1.49835, 1.50119, 1.50704, 1.5124, 1.5155, 1.51771, 1.51736, 1.51979, 1.52755, 1.52708, 1.52722, 1.52622, 0.00313487, 0.00332802, 1.54548, 0.00322209, 1.55208, 0.00309937, 1.56811, 1.56647, 1.57035, 1.57127
0.227155, 0.237243, 0.235344, 0.234288, 0.00320915, 0.00339831, 0.00306961, 0.00331373, 0.00308695, 0.31099, 0.310843, 0.310259, 0.316153, 0.00338431, 0.00332714, 0.00353217, 0.00296921, 0.323609, 0.323566, 0.323821, 0.324094, 0.324129, 0.323427, 0.322706, 0.318648, 0.318647, 0.323848, 0.302991, 0.304423, 0.314946, 0.314381, 0.327504, 0.328176, 0.327471, 0.319077, 0.318121, 0.317676, 0.321416, 0.00303649, 0.00325978, 0.00326214, 0.00297072, 0.00281682, 0.377039, 0.00332251, 0.398702, 0.399821, 0.400185, 0.40354, 0.00326161, 0.00310054, 0.426517, 0.426964, 0.426472, 0.42829, 0.435838, 0.436237, 0.445976, 0.445247, 0.445926, 0.450786, 0.449838, 0.448872, 0.467382, 0.465716, 0.477878, 0.478259, 0.476951, 0.477109, 0.478956, 0.47461, 0.474578, 0.473234, 0.477567, 0.479389, 0.47654, 0.476353, 0.475019, 0.473135, 0.471571, 0.469899, 0.470169, 0.469897, 0.47109, 0.47317, 0.473138, 0.475295, 0.474409, 0.473816, 0.474247, 0.473619, 0.474897, 0.47558, 0.476846, 0.477613, 0.497546, 0.496384, 0.449253, 0.449247, 0.450039, 0.427429, 0.441822, 0.450515, 0.479462, 0.512397, 0.493663, 2.09574, 2.09709, 2.09069, 2.09029, 2.08259, 2.09719, 2.09752, 2.17036, 2.18098, 2.20509, 0.00298956, 0.0031502, 0.00321617, 2.23072, 2.27621, 2.26221, 2.26348, 2.25439, 2.23404, 2.28724, 2.25206, 2.24852, 2.23804, 2.23174, 0.00305227, 0.00314485, 0.00330798, 2.16796, 2.1666, 2.16583, 0.00318201, 0.0034914, 0.00303683, 0.00315216, 0.00320328, 0.00317298, 0.00311457, 0.00320766, 0.00300317, 0.00344004, 0.00316374, 0.00313818, 0.00317697, 0.00325112, 0.00309506, 0.00338802, 0.00325076, 1.85362, 0.00328542, 1.96241, 0.00326717, 1.81656, 1.76192, 1.73071, 1.73865, 1.73874, 1.64373, 1.7265, 1.59861, 1.56853, 1.63128, 1.50322, 0.00321823, 1.60909, 1.45466, 1.45311, 1.40537, 1.38879, 1.38415, 1.36836, 1.32052, 1.31631, 0.00312568, 1.26557, 0.00313242, 1.23362, 1.18845, 1.28762, 1.28889, 1.33565, 1.12663, 1.10583, 1.097, 1.32803, 1.05815, 1.05961, 1.03779, 1.0389, 1.0091, 1.03286, 1.00785, 1.06538, 0.976889, 0.973882, 0.974712, 0.974061, 0.974194, 0.967862, 0.999275, 0.978193, 0.990561, 1.00829, 0.00299386, 0.00329805, 0.00290801, 0.00309436, 0.00321363, 1.1594, 0.00318975, 0.00327247, 0.00318454, 1.15058, 1.15279, 1.15801, 1.3937, 0.00300598, 1.1838, 1.18514, 0.00316514, 1.19773, 1.20406, 0.00318424, 0.00298372, 1.22035, 1.2286, 1.23117, 1.23591, 1.24454, 0.00327537, 1.25549, 0.00304864, 1.2671, 1.27153, 1.27252, 1.28046, 1.28161, 0.00308364, 1.29927, 1.30601, 1.31266, 1.31692, 1.3288, 1.32729, 1.33148, 1.33272, 1.33859, 1.34645, 1.34761, 0.00303462, 0.00305409, 1.36953, 1.37383, 1.37298, 1.3713, 1.37668, 1.37958, 1.38395, 1.3864, 1.3924, 1.40235, 1.40247, 0.00329355, 0.00314894, 1.42311, 1.42614, 1.43393, 0.00312608, 0.00329598, 0.0032118, 0.00321187, 0.00329251, 0.00301707, 0.00313846, 1.4997, 1.499, 0.00335669, 0.00320099, 0.00322259, 1.51646, 1.51624, 0.00316472, 1.52573, 1.52661, 1.52613, 0.00329645, 1.5393, 0.00348504, 1.55177, 1.55233, 1.55489, 1.55749, 1.55758, 0.0029693, 1.56717
0.228911, 0.239112, 0.238122, 0.00302631, 0.0036645, 0.00330724, 0.00315041, 0.300102, 0.307604, 0.308397, 0.308322, 0.307236, 0.304606, 0.297755, 0.298242, 0.00312214, 0.0030095, 0.00316796, 0.312577, 0.315871, 0.323392, 0.322376, 0.314209, 0.316797, 0.310659, 0.294006, 0.293081, 0.301846, 0.300922, 0.307369, 0.314131, 0.312192, 0.323316, 0.322244, 0.320775, 0.31929, 0.317903, 0.317054, 0.00369956, 0.33867, 0.00333951, 0.0030098, 0.00348389, 0.363013, 0.38249, 0.393531, 0.396303, 0.392404, 0.390548, 0.00308855, 0.00334016, 0.00317031, 0.0030788, 0.00360109, 0.431613, 0.431511, 0.434313, 0.447048, 0.446221, 0.445512, 0.447625, 0.449844, 0.4506, 0.451443, 0.459495, 0.466183, 0.477828, 0.479119, 0.477746, 0.472293, 0.471438, 0.477996, 0.478043, 0.476552, 0.477156, 0.476094, 0.472601, 0.469725, 0.470105, 0.472577, 0.472624, 0.471835, 0.471, 0.4712, 0.470885, 0.472568, 0.473088, 0.474319, 0.474332, 0.475132, 0.474687, 0.473776, 0.472771, 0.476044, 0.473453, 0.472712, 0.512772, 0.513399, 0.472558, 0.450372, 0.447211, 0.47381, 0.46635, 0.487627, 0.469762, 0.447152, 0.4544, 0.534557, 0.535586, 2.09515, 2.09311, 2.09393, 2.09294, 0.00332689, 2.21062, 2.20969, 2.20008, 2.1779, 2.18152, 2.19407, 2.19299, 2.18741, 2.2262, 0.00312983, 2.22474, 2.22119, 2.21678, 0.00324701, 0.00336409, 0.00347308, 2.1564, 2.15535, 2.14706, 2.14651, 0.00327585, 0.00337433, 0.002988, 0.00323565, 0.0032806, 0.00331171, 0.00323361, 0.00314477, 0.00340836, 0.00280832, 0.00334618, 0.00310391, 0.00352961, 0.0030152, 0.00305625, 0.00322178, 0.00309895, 1.87137, 1.87074, 1.77761, 1.74032, 1.76142, 1.71258, 0.0030244, 1.8134, 0.0030824, 1.63371, 1.63329, 0.00309426, 1.64821, 1.5815, 1.57463, 1.55937, 1.4918, 1.48888, 1.58258, 1.43279, 1.43276, 1.6111, 1.34107, 1.30308, 1.30313, 1.27487, 1.25029, 1.25111, 1.23963, 1.24093, 1.28264, 1.28933, 1.15273, 1.15322, 1.13074, 1.29123, 1.13956, 1.06275, 1.05651, 1.04232, 1.03991, 1.01666, 1.03373, 0.99919, 0.970557, 0.968644, 0.981616, 0.973998, 1.0016, 1.02213, 0.971653, 0.970941, 1.01283, 0.981887, 0.982367, 0.981988, 1.03432, 0.00310803, 0.00328444, 0.00315645, 0.00317232, 0.00316373, 0.0030833, 0.00324163, 0.00326796, 1.13965, 1.14461, 1.29992, 1.29119, 0.0033538, 1.17729, 1.1796, 1.18497, 1.19255, 1.1947, 1.20271, 0.00329864, 1.21885, 1.21887, 1.2222, 0.00292553, 1.2344, 1.23683, 1.2472, 1.24982, 1.26024, 1.26063, 1.26436, 1.27042, 1.27409, 1.2778, 0.00307981, 0.00319537, 0.00306256, 1.30916, 1.30902, 1.31238, 1.31673, 1.32527, 1.33114, 1.33342, 1.34125, 1.34811, 1.34894, 1.35741, 0.00322591, 1.36262, 1.36844, 1.36771, 1.3734, 1.37439, 1.37893, 1.37997, 1.38715, 1.39493, 1.40003, 0.00324901, 0.00313488, 1.41842, 1.41891, 0.00322585, 0.00349785, 0.00323163, 0.00327069, 0.00332232, 1.48013, 0.00326931, 1.48696, 1.49581, 1.49508, 1.49419, 1.49825, 1.50286, 1.50501, 1.50871, 1.51264, 1.51768, 1.52351, 1.52936, 1.53088, 1.53651, 1.54098, 1.54202, 1.542, 0.00322908, 1.55455, 1.55696, 1.56103, 1.56097
0.224481, 0.00319341, 0.00317859, 0.00287671, 0.00339857, 0.00328097, 0.301228, 0.300108, 0.308177, 0.308419, 0.307866, 0.307435, 0.301777, 0.299501, 0.298532, 0.296911, 0.300449, 0.313969, 0.314651, 0.313297, 0.310101, 0.310209, 0.313356, 0.296195, 0.29395, 0.293548, 0.2937, 0.292771, 0.298097, 0.300008, 0.299764, 0.303772, 0.307954, 0.320434, 0.320096, 0.332206, 0.330805, 0.330324, 0.331633, 0.342238, 0.341685, 0.349299, 0.00309998, 0.378826, 0.377642, 0.378879, 0.378482, 0.392801, 0.391053, 0.389516, 0.00313405, 0.416991, 0.416124, 0.415493, 0.424152, 0.422188, 0.43257, 0.00332948, 0.445502, 0.445081, 0.445031, 0.439395, 0.449984, 0.449447, 0.469354, 0.470488, 0.469763, 0.470509, 0.468872, 0.471472, 0.470981, 0.47869, 0.478867, 0.476609, 0.476079, 0.475791, 0.471177, 0.46945, 0.469208, 0.472814, 0.472341, 0.472393, 0.472253, 0.471749, 0.470652, 0.472083, 0.47116, 0.468928, 0.469828, 0.471988, 0.4718, 0.472413, 0.472998, 0.471783, 0.472526, 0.47185, 0.487856, 0.484935, 0.483513, 0.451913, 0.449735, 0.465727, 0.468544, 0.453808, 0.457066, 0.455052, 0.450108, 0.457635, 0.456602, 0.537858, 2.08671, 2.13154, 2.08917, 2.08897, 0.00296741, 2.20967, 2.18008, 0.00304566, 0.00320046, 2.21114, 0.00305032, 2.16608, 0.0034612, 2.22072, 0.00325505, 0.00329544, 2.1378, 2.13824, 2.14857, 2.14969, 2.14822, 0.00321474, 0.00303847, 0.00301789, 0.00320288, 0.00334278, 0.00319084, 0.00362114, 0.00296284, 0.00305372, 0.00323859, 0.00319223, 1.93755, 0.00316681, 1.85773, 1.85652, 0.00326635, 0.00329186, 0.00334639, 1.93132, 1.93024, 0.00315302, 1.76915, 1.72385, 1.71994, 1.74962, 0.0030703, 1.82163, 1.82102, 1.66113, 1.83658, 1.83686, 1.55247, 1.5537, 1.55369, 0.00300291, 1.48946, 1.49489, 1.49925, 1.43021, 1.43131, 1.43187, 1.3556, 1.27673, 1.26479, 1.2632, 0.0031697, 1.38535, 1.23957, 1.23684, 0.00318253, 1.15906, 1.29943, 1.1237, 1.11725, 1.06393, 1.06721, 1.067, 1.05356, 1.02201, 1.04244, 0.978453, 0.985327, 0.983496, 1.00945, 0.931662, 0.950744, 0.950099, 0.966575, 0.942157, 0.950961, 0.9515, 0.962897, 0.963051, 1.02272, 1.01711, 1.02862, 0.00304562, 0.00323991, 0.00311027, 0.00352107, 0.00330649, 0.00306862, 0.00327743, 1.37449, 1.13114, 1.13476, 1.34782, 0.00328296, 0.00316241, 1.16532, 1.17333, 1.17811, 1.19079, 1.19062, 1.19593, 1.19965, 1.20676, 1.20983, 1.21599, 1.22079, 1.22321, 1.22907, 1.22901, 1.24389, 1.24883, 1.2525, 1.25423, 1.25837, 1.26438, 1.27239, 1.27723, 1.28491, 1.28848, 1.29333, 1.29698, 0.00308878, 1.30459, 0.00315589, 1.32002, 1.32615, 1.33463, 1.33617, 1.33691, 1.33884, 1.34376, 1.35124, 1.35038, 0.00307906, 0.00311001, 0.00323193, 1.37295, 1.37385, 1.37965, 1.38783, 1.38751, 0.0033005, 0.00341628, 0.00315429, 1.41513, 0.0031419, 0.00305211, 0.00305839, 0.00325628, 0.00317914, 0.00332234, 0.00322892, 0.00318846, 0.00317759, 0.00317764, 1.48684, 1.48865, 1.48936, 1.49385, 1.502, 1.50143, 1.50884, 1.5157, 1.517, 1.51873, 1.52964, 1.52841, 1.5329, 1.53762, 1.54145, 1.54324, 1.54771, 1.5488, 1.55164, 1.55442
0.00336105, 0.00298756, 0.0030658, 0.00306051, 0.290359, 0.299683, 0.300062, 0.299517, 0.296747, 0.304834, 0.304539, 0.304196, 0.3028, 0.300214, 0.299437, 0.298842, 0.29709, 0.00312399, 0.303269, 0.303605, 0.306284, 0.30431, 0.296821, 0.293975, 0.292138, 0.292781, 0.292439, 0.292297, 0.295509, 0.293203, 0.29354, 0.303834, 0.307939, 0.306894, 0.307686, 0.331075, 0.331094, 0.331886, 0.329325, 0.335828, 0.334963, 0.350537, 0.349554, 0.37531, 0.378901, 0.378588, 0.378421, 0.377211, 0.376867, 0.00300483, 0.00329142, 0.414777, 0.414477, 0.413566, 0.420846, 0.422704, 0.421994, 0.427571, 0.438383, 0.440375, 0.439322, 0.438177, 0.437571, 0.467053, 0.469003, 0.468937, 0.470262, 0.469748, 0.469765, 0.47116, 0.477554, 0.478259, 0.477364, 0.47627, 0.475639, 0.472099, 0.472193, 0.471961, 0.470499, 0.46973, 0.468572, 0.470316, 0.469944, 0.469815, 0.470438, 0.469795, 0.467521, 0.468333, 0.46856, 0.469962, 0.471299, 0.472492, 0.473578, 0.473115, 0.472628, 0.472431, 0.473855, 0.475024, 0.476072, 0.444362, 0.443789, 0.479653, 0.528164, 0.527265, 0.524995, 0.441893, 0.443131, 0.445613, 0.447091, 0.455948, 0.458252, 0.466876, 0.535359, 0.00318306, 2.12758, 2.11764, 2.10293, 2.10676, 2.12083, 2.10665, 2.13422, 2.1284, 0.00322545, 2.16006, 2.13073, 2.11828, 0.00340501, 0.00318124, 2.1025, 0.0031645, 0.00327973, 0.00303866, 0.00312809, 0.00322309, 0.00323887, 0.00327953, 0.00302971, 0.00324518, 0.00344175, 0.00329868, 0.00327514, 1.85135, 1.84271, 1.84443, 0.00319729, 0.00305858, 1.81445, 1.89981, 0.00336961, 0.00320436, 1.74515, 1.72678, 1.72378, 1.70687, 1.70329, 1.70223, 1.75132, 1.63989, 1.59968, 1.58328, 1.58821, 0.00313952, 1.49016, 1.47035, 1.44029, 1.4392, 1.40248, 1.38846, 0.00303789, 1.36074, 1.38251, 1.3816, 1.34717, 1.343, 1.22534, 1.18537, 1.22786, 1.21953, 1.21292, 1.15189, 1.16149, 1.27491, 1.31957, 1.1269, 1.12647, 1.06942, 1.07027, 1.01068, 1.00197, 0.980255, 0.981022, 0.973442, 0.954511, 0.974007, 0.970707, 0.978215, 0.936707, 0.935849, 0.950258, 1.0254, 1.0014, 0.00316214, 1.00231, 1.00303, 0.00299598, 0.00298801, 0.00325914, 0.00303565, 0.0033456, 0.00301025, 0.0034513, 0.0028635, 0.00325853, 0.00320377, 1.11979, 1.12722, 0.00319551, 0.00312323, 1.1511, 1.1595, 1.1606, 1.16776, 1.17678, 1.18053, 1.18439, 1.19196, 0.00349044, 1.25315, 1.20527, 1.21182, 1.21634, 0.00306394, 1.22318, 1.23259, 1.23533, 1.24146, 1.2444, 0.00296811, 1.25778, 1.26532, 1.26814, 1.27779, 1.2804, 1.28448, 1.28452, 1.28992, 1.29316, 1.30197, 0.00303473, 1.31439, 1.31636, 1.32245, 1.32971, 1.32957, 0.00326532, 0.00312169, 1.33818, 1.33932, 0.00318583, 0.00300795, 1.35694, 0.00323181, 0.00343263, 0.00293177, 0.00332387, 0.00307653, 0.0033428, 0.00316729, 0.00318077, 1.41352, 1.4212, 0.00316496, 0.0029591, 0.00331906, 1.45493, 1.45736, 0.00339966, 1.46842, 1.47471, 1.47484, 1.47959, 1.48204, 1.48793, 1.48877, 0.00312456, 1.50079, 1.5022, 1.50692, 1.5128, 1.5167, 1.52339, 1.52722, 1.5296, 1.53501, 1.53421, 1.53641, 1.54007, 1.54137, 0.00327093, 0.00302914
0.00295448, 0.00320791, 0.00311464, 0.0034069, 0.00333142, 0.296666, 0.291519, 0.293553, 0.297023, 0.294381, 0.287829, 0.300515, 0.300767, 0.299285, 0.297734, 0.29453, 0.285206, 0.284729, 0.283994, 0.286266, 0.283757, 0.278554, 0.277232, 0.27668, 0.275972, 0.275104, 0.290629, 0.291362, 0.292695, 0.286726, 0.293839, 0.304267, 0.305261, 0.301797, 0.306935, 0.305636, 0.327068, 0.325417, 0.335498, 0.335875, 0.335396, 0.33598, 0.350497, 0.359513, 0.359723, 0.370453, 0.375968, 0.37681, 0.389453, 0.389395, 0.389375, 0.389277, 0.00326451, 0.416046, 0.422151, 0.423383, 0.42301, 0.425876, 0.00309623, 0.442845, 0.438068, 0.00335662, 0.00301251, 0.465411, 0.468515, 0.469829, 0.469406, 0.470632, 0.472478, 0.474365, 0.47126, 0.470421, 0.468378, 0.468994, 0.47193, 0.47405, 0.474127, 0.472699, 0.469778, 0.469072, 0.469211, 0.469343, 0.471261, 0.470732, 0.470745, 0.470434, 0.469386, 0.468748, 0.467593, 0.702869, 0.702186, 0.701049, 0.473687, 0.473643, 0.474848, 0.47488, 0.47416, 0.474441, 0.44177, 0.441658, 0.442875, 0.444099, 0.481192, 0.476471, 0.528454, 0.443287, 0.442182, 0.474759, 0.434645, 0.464521, 0.441132, 0.441798, 0.493306, 0.47264, 0.558479, 0.558359, 2.10698, 2.10037, 2.10435, 2.06345, 2.07702, 2.12145, 0.00304232, 0.00318711, 0.00310279, 0.00317865, 0.00319297, 0.00331224, 0.0032245, 0.00325306, 0.00310314, 0.00348015, 0.00309639, 0.00339364, 0.00307227, 0.00333626, 2.05882, 2.05967, 0.00308769, 0.0032885, 1.79785, 1.87379, 1.85417, 1.8549, 1.68295, 0.00346687, 0.00318377, 1.75792, 1.66493, 1.61379, 1.74117, 1.74044, 0.00321974, 1.66781, 1.63218, 1.55447, 1.58068, 1.56855, 1.47867, 1.5043, 1.49497, 1.56896, 1.42318, 1.41363, 1.40454, 1.40604, 1.39505, 1.41248, 1.37091, 1.23238, 1.18789, 1.2629, 1.23243, 1.25809, 1.16357, 1.15689, 1.17774, 1.13857, 1.12087, 0.00313615, 1.115, 1.07103, 1.08429, 1.06118, 1.06783, 0.998181, 1.00364, 0.991727, 1.00501, 1.00653, 0.983605, 0.98882, 0.951082, 0.964103, 0.915622, 0.916183, 0.918166, 0.95668, 0.928323, 1.052, 0.00317677, 0.00308746, 0.00302593, 0.00313109, 0.00312749, 0.0030831, 0.00291359, 1.47498, 0.00312832, 0.00324163, 0.0032043, 1.09375, 1.09471, 1.11534, 1.11635, 1.12681, 0.00327425, 0.00344094, 1.14948, 1.15219, 1.15725, 1.16906, 1.17059, 1.17861, 1.18521, 1.18902, 1.19421, 1.19887, 1.20478, 1.20589, 1.21399, 1.22408, 1.22482, 1.2333, 1.23345, 1.23775, 1.24393, 1.24798, 1.24919, 0.00300291, 1.26805, 1.27044, 1.27337, 1.27807, 1.28001, 1.28436, 1.28902, 0.00308347, 0.00328852, 0.0032477, 0.00315934, 0.00337445, 0.0033573, 0.00320865, 0.00311768, 0.0032734, 1.33302, 0.0032986, 1.34942, 1.3496, 1.35003, 0.00320552, 0.00338493, 0.00325687, 0.00309893, 0.00314829, 0.00300508, 0.00334029, 0.00331414, 0.00337421, 1.42582, 0.00284435, 1.44047, 1.44161, 0.00313599, 1.45375, 0.00324756, 1.46377, 1.471, 1.46977, 1.47753, 1.47756, 1.48446, 1.48476, 1.48666, 1.49377, 0.00320814, 0.00345002, 0.00314381, 1.51804, 1.51756, 1.52536, 1.53064, 1.53311, 1.5331, 1.53219, 1.53973, 1.54356, 1.5434, 0.00330393
0.0029729, 0.00323944, 0.00313989, 0.00314388, 0.00312701, 0.00317783, 0.00316845, 0.00326337, 0.00351988, 0.00299466, 0.00326598, 0.00295849, 0.265881, 0.268443, 0.268081, 0.267768, 0.00335273, 0.26271, 0.00347947, 0.00307017, 0.266484, 0.280931, 0.279241, 0.279203, 0.277615, 0.278233, 0.291112, 0.291727, 0.291347, 0.290482, 0.291065, 0.307694, 0.306318, 0.307143, 0.307617, 0.330547, 0.330925, 0.330312, 0.330713, 0.325056, 0.337142, 0.345069, 0.359402, 0.361617, 0.361804, 0.362725, 0.368982, 0.371709, 0.37069, 0.392978, 0.391485, 0.397842, 0.40467, 0.404736, 0.410618, 0.408563, 0.4208, 0.00308304, 0.00342961, 0.443156, 0.442848, 0.447485, 0.00341647, 0.465775, 0.465246, 0.46858, 0.468114, 0.468632, 0.474533, 0.475152, 0.469038, 0.470045, 0.46872, 0.468885, 0.473605, 0.473682, 0.474304, 0.472701, 0.472316, 0.472651, 0.473014, 0.472077, 0.471374, 0.470224, 0.46569, 0.465597, 0.470539, 0.470731, 0.472018, 0.473663, 0.471339, 0.471724, 0.473955, 0.474659, 0.475229, 0.47637, 0.477066, 0.476383, 0.476795, 0.477728, 0.481782, 0.476629, 0.476359, 0.473632, 0.466419, 0.464664, 0.507432, 0.506265, 0.499568, 0.4606, 0.472955, 0.439646, 0.438994, 0.439752, 0.439569, 0.479782, 0.503989, 0.528211, 0.00308165, 0.00300779, 2.02396, 0.00311132, 0.00313064, 0.00319373, 0.00323338, 0.00308729, 0.00335462, 0.00308322, 0.00308592, 0.00315309, 0.00322518, 0.00328916, 0.00321271, 0.00306065, 1.74991, 1.74822, 0.00322846, 1.6502, 0.00334244, 1.63837, 1.6359, 1.63495, 1.6462, 1.59135, 1.6305, 1.65137, 1.64368, 1.64349, 1.54672, 1.56133, 1.5349, 1.54042, 1.5347, 1.50392, 1.55927, 1.53696, 1.5451, 1.40851, 1.38986, 1.38873, 1.3853, 1.34699, 1.34412, 1.34335, 1.2287, 1.25303, 1.17949, 1.17315, 1.18355, 1.12978, 1.12994, 0.00283469, 1.10926, 1.11631, 1.07365, 1.08946, 1.05508, 1.05472, 1.07993, 1.05632, 1.03589, 1.00583, 1.00672, 0.97509, 0.960873, 0.948324, 0.947795, 0.960268, 0.950104, 0.921882, 0.94953, 0.941145, 0.903335, 0.915933, 0.916687, 0.917188, 1.01581, 1.00999, 1.0104, 0.96893, 0.0032883, 0.00314102, 0.00310354, 0.00321324, 0.00328158, 0.00341647, 0.00301271, 0.00322945, 0.00342053, 0.00321071, 0.00317425, 0.00310078, 0.00313017, 0.00322693, 1.11719, 0.00330851, 0.00298755, 1.14016, 1.14682, 1.15239, 1.15843, 1.1633, 1.1692, 0.00345862, 1.18376, 1.18606, 1.18684, 0.00292893, 0.00325264, 1.20597, 1.20781, 0.0032378, 1.22001, 1.22438, 1.23198, 1.23542, 1.23981, 1.24373, 0.00314762, 0.00312242, 1.26333, 1.26606, 1.27037, 1.27209, 1.27621, 1.28568, 1.2875, 1.29896, 1.29308, 1.2946, 0.00331419, 0.00309984, 0.0032284, 0.00314545, 0.00327206, 1.33271, 1.33422, 1.34061, 1.34443, 1.34655, 1.34999, 1.35062, 0.00317006, 0.00313516, 0.00330655, 0.00308355, 0.00314129, 0.00322736, 0.00316785, 0.00321042, 0.00323824, 0.00336806, 1.43593, 1.43786, 1.45284, 1.45136, 1.45166, 1.45561, 0.00323535, 0.00315533, 0.00340099, 1.47193, 1.47518, 1.48244, 1.48468, 1.48464, 1.48784, 0.00342557, 0.00339006, 0.00310094, 1.51672, 0.00335176, 1.52308, 1.52372, 0.00320962, 0.00296543, 0.00317191, 0.00323839, 1.55552, 1.5577
0.00304252, 0.00329637, 0.00305802, 0.00306672, 0.00326478, 0.00358662, 0.00312097, 0.00315647, 0.00316182, 0.248388, 0.250398, 0.251416, 0.26622, 0.266594, 0.00296378, 0.265425, 0.260284, 0.263038, 0.258953, 0.258132, 0.263505, 0.26782, 0.267604, 0.277446, 0.266203, 0.264811, 0.263493, 0.287536, 0.284541, 0.293275, 0.292798, 0.291626, 0.00317336, 0.311596, 0.313657, 0.328588, 0.331453, 0.333277, 0.333054, 0.333396, 0.335226, 0.347455, 0.352757, 0.356372, 0.363062, 0.364753, 0.00305002, 0.372326, 0.00305762, 0.0030052, 0.00299028, 0.404757, 0.407061, 0.406817, 0.407446, 0.411412, 0.413762, 0.413445, 0.413538, 0.00315788, 0.00305262, 0.441693, 0.00295163, 0.452807, 0.462023, 0.466169, 0.465541, 0.472356, 0.469265, 0.463411, 0.460761, 0.457424, 0.466629, 0.465615, 0.465861, 0.465949, 0.465757, 0.473054, 0.472344, 0.473567, 0.47311, 0.470479, 0.470344, 0.469645, 0.47003, 0.470012, 0.47249, 0.475488, 0.475584, 0.476819, 0.47717, 0.476156, 0.475811, 0.476483, 0.477979, 0.477242, 0.477043, 0.479734, 0.480755, 0.480607, 0.480898, 0.479207, 0.47963, 0.481377, 0.483328, 0.506742, 0.507376, 0.507892, 0.494765, 0.494538, 0.494256, 0.454832, 0.448194, 0.444535, 0.489381, 0.455612, 0.501368, 0.520666, 0.517815, 0.00354679, 0.00302685, 0.00309685, 0.00303597, 0.00350303, 0.00303551, 0.00306759, 0.00308794, 0.003171, 0.00319697, 0.00301387, 0.00310022, 1.62209, 0.0032837, 0.00299564, 0.00325722, 1.70913, 1.54632, 1.5918, 1.60334, 1.60247, 1.63486, 0.00318706, 0.00313832, 0.00327232, 1.49713, 1.63424, 0.00289013, 1.51121, 1.51257, 1.31714, 1.3168, 1.26774, 1.23747, 1.248, 1.24863, 1.19236, 1.20865, 1.23817, 1.23705, 1.19125, 1.2117, 1.11942, 1.12643, 1.15762, 1.11483, 1.09246, 1.10496, 1.10526, 1.2053, 1.16479, 1.16025, 1.00749, 1.26124, 1.07379, 1.03951, 0.980642, 0.982276, 0.971331, 0.0030764, 0.00313427, 0.974143, 0.925108, 0.926354, 0.91901, 0.934785, 0.907457, 0.907671, 0.908892, 0.91097, 0.909775, 0.932973, 0.982287, 0.958387, 0.981872, 0.947465, 0.952431, 0.951253, 0.0029793, 0.00307397, 0.00329259, 0.00310737, 0.00326284, 1.51259, 1.50247, 0.00315099, 1.03601, 0.00314642, 0.00340042, 0.00299492, 0.00313602, 1.07697, 0.00338842, 0.00295659, 1.10824, 0.00310404, 0.00322755, 1.13377, 1.1385, 0.00313285, 1.14806, 1.1501, 1.16051, 0.00324393, 1.17422, 1.1754, 1.18471, 1.18676, 1.1913, 1.19815, 1.20238, 1.20511, 1.21131, 1.21707, 1.2241, 1.22456, 0.00318287, 0.00312331, 1.24063, 1.24533, 0.0032371, 1.25779, 1.25976, 1.26686, 1.27003, 1.27846, 1.28536, 0.00300151, 1.29814, 1.30433, 1.30404, 1.30342, 1.30404, 0.00299121, 0.00313396, 0.00318541, 1.33143, 1.33141, 1.33498, 1.33961, 1.34529, 1.35239, 1.35717, 0.00315668, 1.36624, 1.37221, 0.00304756, 0.00300131, 1.40109, 0.00289165, 0.0030557, 0.00303907, 0.0028947, 0.0032281, 1.43446, 0.00302119, 0.0032807, 1.44695, 1.44556, 1.44936, 0.0029887, 0.00304737, 0.00322705, 0.00333281, 0.00310718, 1.48657, 1.48588, 1.49124, 1.49615, 1.50041, 1.50404, 1.50607, 1.51273, 1.51532, 1.51694, 0.0029699, 0.00332648, 0.0031544, 1.54195, 1.5413, 1.55709
0.230837, 0.00328793, 0.00332647, 0.00308933, 0.00308312, 0.00317798, 0.00327125, 0.00291485, 0.239254, 0.238677, 0.237149, 0.25103, 0.237148, 0.23717, 0.235307, 0.235315, 0.239297, 0.244135, 0.248759, 0.247057, 0.255539, 0.263836, 0.271624, 0.271228, 0.270877, 0.26884, 0.276781, 0.282683, 0.289537, 0.292631, 0.293057, 0.292342, 0.294028, 0.314538, 0.314798, 0.315306, 0.336915, 0.336695, 0.332783, 0.336364, 0.335436, 0.351542, 0.352903, 0.358132, 0.35718, 0.357043, 0.355397, 0.354725, 0.00317523, 0.00330384, 0.00315028, 0.402852, 0.402975, 0.406485, 0.411159, 0.410772, 0.411422, 0.412087, 0.417699, 0.430304, 0.436379, 0.434818, 0.00295017, 0.447901, 0.00300459, 0.466816, 0.467294, 0.464273, 0.463261, 0.458993, 0.45219, 0.455949, 0.462519, 0.461469, 0.466327, 0.46604, 0.463417, 0.47135, 0.471324, 0.470919, 0.468079, 0.469357, 0.471803, 0.472219, 0.472598, 0.470997, 0.471201, 0.478997, 0.477707, 0.478175, 0.479153, 0.479728, 0.479649, 0.481715, 0.482429, 0.478644, 0.479568, 0.482572, 0.481492, 0.484049, 0.485416, 0.484553, 0.483555, 0.482932, 0.482412, 0.482499, 0.486304, 0.488917, 0.491646, 0.49685, 0.495346, 0.46942, 0.466788, 0.4736, 0.455877, 0.45552, 0.450852, 0.46684, 0.462257, 0.534871, 0.742227, 0.659405, 0.659795, 0.00308037, 1.56806, 1.36402, 1.36741, 0.00338407, 0.00292265, 1.21905, 1.21774, 1.27721, 1.27747, 0.00302224, 1.52929, 1.2236, 1.45571, 1.48773, 1.48722, 1.38483, 1.35544, 1.37204, 1.35721, 1.38168, 1.3396, 1.31256, 1.27756, 1.25365, 1.25335, 1.25843, 1.24128, 1.23253, 1.17867, 1.12627, 1.13681, 1.12166, 1.11672, 1.12986, 1.12935, 1.12808, 1.09286, 1.10219, 1.0641, 1.06371, 1.14971, 1.15227, 1.01344, 1.01435, 1.01239, 0.994428, 0.985152, 0.960485, 1.2541, 0.95249, 0.9571, 0.980567, 0.00317898, 0.00335665, 0.967769, 0.00324559, 0.905141, 0.894002, 0.906929, 0.907376, 0.887752, 0.887872, 0.933983, 0.908494, 0.887189, 0.940286, 0.971149, 0.961715, 0.908846, 0.974549, 0.00317943, 0.949741, 0.00301624, 0.00322211, 0.00324832, 0.0032966, 0.00302921, 0.00301138, 1.38861, 0.00309829, 1.16, 0.00295648, 1.04639, 0.00311134, 0.00307105, 0.00319971, 0.00283529, 1.0911, 1.0994, 0.00319066, 0.00309106, 1.12766, 1.12992, 1.13348, 0.00316153, 1.14381, 1.14614, 0.0029781, 0.00328533, 1.16713, 1.17393, 1.18122, 1.183, 0.00328575, 1.19213, 1.19937, 1.20525, 0.00326156, 0.00299586, 1.2171, 0.00309649, 1.22815, 1.23547, 1.23694, 1.23944, 0.0031229, 0.00335927, 1.26087, 1.2653, 0.00318911, 0.0029987, 1.2884, 1.29283, 1.29981, 1.29997, 1.30146, 1.30196, 1.30199, 1.31467, 1.31638, 1.32482, 1.32536, 1.33255, 1.33616, 1.33949, 1.34656, 1.34748, 1.35434, 1.3596, 1.36176, 1.36709, 0.0032187, 0.0031957, 0.00318302, 0.00321516, 0.00302055, 1.41727, 1.42117, 1.42399, 1.43081, 0.00310177, 1.44063, 1.43954, 1.4393, 1.44535, 0.00300676, 1.4524, 0.00305091, 1.46718, 1.4677, 1.47659, 1.47834, 1.48214, 0.00318229, 0.00341882, 1.49909, 1.50245, 1.50595, 0.00324449, 0.00315315, 0.00323228, 1.53268, 1.53364, 1.5398, 1.53904, 0.00319256
0.227451, 0.228415, 0.00344446, 0.229996, 0.22812, 0.228056, 0.0031447, 0.223424, 0.222621, 0.238073, 0.221045, 0.226931, 0.224048, 0.2363, 0.23547, 0.239221, 0.244395, 0.244834, 0.242283, 0.241375, 0.00298819, 0.00337099, 0.271195, 0.270954, 0.271368, 0.278784, 0.276006, 0.280119, 0.285445, 0.2837, 0.284893, 0.294216, 0.294245, 0.321317, 0.322846, 0.322546, 0.337521, 0.336092, 0.336812, 0.334264, 0.332175, 0.00330132, 0.349924, 0.359222, 0.357155, 0.355852, 0.365764, 0.365651, 0.383384, 0.387168, 0.392587, 0.391777, 0.400601, 0.40019, 0.40322, 0.404003, 0.410748, 0.416619, 0.415435, 0.414154, 0.414244, 0.434606, 0.433226, 0.431913, 0.437969, 0.00302148, 0.456728, 0.456859, 0.448312, 0.450063, 0.455504, 0.457773, 0.455965, 0.454842, 0.454483, 0.457489, 0.467127, 0.466067, 0.470675, 0.470662, 0.470067, 0.470168, 0.470683, 0.473539, 0.474132, 0.472864, 0.474201, 0.474756, 0.477504, 0.478964, 0.479219, 0.482781, 0.483717, 0.483309, 0.48223, 0.479492, 0.478697, 0.482596, 0.482564, 0.482852, 0.484693, 0.48673, 0.486339, 0.483524, 0.492045, 0.492048, 0.49175, 0.491674, 0.466737, 0.463517, 0.467388, 0.476863, 0.510429, 0.508875, 0.465416, 0.483794, 0.441155, 0.453458, 0.484336, 0.472349, 0.487048, 0.605727, 0.605428, 0.61428, 0.622057, 0.619265, 0.607581, 0.77692, 0.00319811, 0.70383, 0.704988, 0.705253, 0.903631, 0.904334, 0.883248, 0.888466, 0.875142, 1.05281, 1.05263, 1.05285, 1.02642, 0.00308168, 0.00320502, 0.974804, 0.00302765, 0.00317167, 1.15108, 1.13066, 1.06385, 1.06429, 1.05321, 1.04366, 0.960607, 0.994427, 1.00798, 0.934982, 0.930306, 0.981594, 0.932319, 1.06473, 1.06546, 0.895093, 1.18428, 0.00311588, 0.00332016, 1.10653, 1.10784, 1.10437, 1.10491, 1.00349, 0.950173, 1.24783, 0.874375, 0.871678, 0.857564, 0.857968, 0.898579, 0.85847, 0.882775, 0.883709, 0.787748, 0.796916, 0.875563, 0.85532, 0.852883, 0.843185, 0.840218, 0.915235, 0.894069, 0.846861, 0.84679, 0.892228, 0.892462, 0.916014, 0.00306088, 0.00328378, 0.00292229, 0.00307954, 0.00312734, 1.01237, 1.04318, 0.00310709, 0.0031459, 1.02219, 0.0032967, 0.00308573, 0.00317541, 0.00336613, 0.00313531, 1.08193, 1.08817, 0.00338433, 0.00318714, 1.11152, 1.1174, 1.12197, 1.12802, 1.12918, 1.13107, 1.13424, 1.14094, 0.00312412, 0.00304731, 0.00315594, 0.00322167, 1.17744, 1.18454, 1.18881, 1.19118, 0.00333838, 0.0033159, 0.00338334, 0.00312741, 1.21505, 1.21695, 1.22015, 1.2239, 1.23308, 0.00320286, 1.24801, 1.25265, 0.00329931, 0.0033169, 1.27506, 0.00321442, 1.29454, 1.29366, 1.29742, 1.29554, 1.29814, 1.29969, 1.30191, 1.3134, 1.31217, 0.00314457, 1.32601, 1.3301, 1.34242, 1.34052, 1.34592, 1.34703, 1.3519, 1.35724, 1.36397, 0.00317952, 0.00334241, 0.0032946, 0.00327978, 1.40791, 1.40814, 1.40928, 1.41541, 1.41963, 1.42454, 1.43062, 1.43007, 1.43384, 1.43505, 1.44097, 1.44698, 0.00285624, 0.00306488, 1.46011, 1.4701, 1.47336, 1.47678, 0.00315447, 1.48641, 1.49261, 1.49354, 1.4986, 1.50582, 0.00314098, 1.51509, 1.51814, 0.00315261, 0.00321427, 0.00323267, 0.0031999, 0.00319618
0.00325915, 0.00296464, 0.221084, 0.00318163, 0.00318894, 0.00307653, 0.222482, 0.221456, 0.221244, 0.220397, 0.218762, 0.215068, 0.214855, 0.223907, 0.226465, 0.238397, 0.236305, 0.232877, 0.241601, 0.234696, 0.239188, 0.245745, 0.25674, 0.258703, 0.25769, 0.258026, 0.272945, 0.272157, 0.27312, 0.281313, 0.280249, 0.291224, 0.291135, 0.297165, 0.303024, 0.337696, 0.33879, 0.337742, 0.336138, 0.336537, 0.335884, 0.33769, 0.33622, 0.346681, 0.352541, 0.35033, 0.0032551, 0.00314786, 0.00318741, 0.392646, 0.393002, 0.391871, 0.39339, 0.393437, 0.397409, 0.41063, 0.409783, 0.410765, 0.417558, 0.417292, 0.419327, 0.417993, 0.432519, 0.433669, 0.435194, 0.437868, 0.447314, 0.447651, 0.447324, 0.445388, 0.448294, 0.450764, 0.449866, 0.454981, 0.462459, 0.464061, 0.466641, 0.467976, 0.472255, 0.471845, 0.471266, 0.473215, 0.474425, 0.47502, 0.476511, 0.475771, 0.477559, 0.477962, 0.476932, 0.477616, 0.481275, 0.48421, 0.4838, 0.483286, 0.483452, 0.482811, 0.48252, 0.483548, 0.482838, 0.485446, 0.485193, 0.485705, 0.484466, 0.489036, 0.492897, 0.493712, 0.493297, 0.49265, 0.523103, 0.523549, 0.522989, 0.458461, 0.507535, 0.506663, 0.473741, 0.453523, 0.45286, 0.449791, 0.448631, 0.449245, 0.463909, 0.469669, 0.470652, 0.562334, 0.559764, 0.559293, 0.580572, 0.548083, 0.571705, 0.577305, 0.55906, 0.537933, 0.538053, 0.570217, 0.670409, 0.676053, 0.66082, 0.587018, 0.566893, 0.584139, 0.580865, 0.608013, 0.919624, 0.820539, 0.83347, 0.797284, 0.794114, 0.86109, 0.84735, 0.769545, 0.746139, 0.735667, 0.747051, 0.751777, 0.752008, 0.808373, 0.769808, 0.769407, 0.810432, 0.811825, 0.859585, 0.774077, 0.77342, 0.754909, 0.766171, 0.755523, 0.797519, 0.774716, 0.837464, 0.750673, 0.802739, 0.811905, 0.815304, 0.797307, 0.815853, 0.804688, 0.796381, 0.788338, 0.768604, 0.772448, 0.797862, 0.776254, 0.894474, 0.901641, 0.851811, 0.848675, 0.845453, 0.847644, 0.847542, 0.848851, 0.00315386, 0.00326688, 0.00319839, 0.00294738, 0.0032159, 0.00327316, 0.950006, 0.00304933, 0.987661, 0.00303104, 1.41034, 0.00324113, 1.19886, 0.0030985, 1.02897, 0.00312589, 0.00324124, 0.00301811, 1.0696, 1.2544, 1.08352, 0.00303254, 1.10335, 1.10498, 1.10968, 1.12157, 1.12611, 1.12632, 1.13267, 1.1361, 1.13985, 1.14321, 0.00312613, 0.00310964, 0.00339764, 1.17769, 1.1836, 1.18468, 1.18614, 1.18772, 1.18839, 0.00314648, 0.00298423, 0.00298466, 1.21688, 1.22077, 1.22329, 1.23058, 0.00317205, 1.24312, 1.25261, 0.00321306, 0.0033524, 0.00327706, 0.00319308, 1.28923, 0.00317357, 1.29727, 1.29634, 1.29818, 1.30483, 1.30501, 1.30851, 1.31659, 1.31981, 1.3239, 1.32577, 1.33772, 1.34002, 1.34294, 1.34628, 1.35348, 0.00338631, 1.36547, 1.3748, 1.37837, 0.00322218, 1.39502, 1.39895, 1.40088, 1.40467, 1.40898, 1.41632, 1.41932, 1.42483, 1.42716, 1.42858, 1.43422, 1.434, 1.44073, 1.44497, 0.00296579, 0.003214, 1.46369, 1.46324, 1.4743, 1.47431, 1.4817, 1.48335, 1.4943, 1.49563, 0.00291926, 0.00326898, 1.51744, 1.51935, 0.00318843, 0.0033369, 0.00314329, 0.00288986, 0.00297488
0.00309533, 0.00310722, 0.0030248, 0.00327262, 0.00308194, 0.21133, 0.00303627, 0.00308439, 0.00320785, 0.218143, 0.197597, 0.217068, 0.215752, 0.219595, 0.217333, 0.223543, 0.221509, 0.235112, 0.23693, 0.234557, 0.247403, 0.252231, 0.250008, 0.249598, 0.25188, 0.263963, 0.258992, 0.266812, 0.269308, 0.272492, 0.280454, 0.279491, 0.279739, 0.293735, 0.296488, 0.302569, 0.30146, 0.303952, 0.00311587, 0.333727, 0.00328277, 0.33832, 0.336299, 0.335228, 0.335708, 0.00327753, 0.00315596, 0.00318436, 0.00298918, 0.387622, 0.390285, 0.388235, 0.390594, 0.390403, 0.396889, 0.397354, 0.407266, 0.401176, 0.400358, 0.417471, 0.417955, 0.420445, 0.419019, 0.428089, 0.436037, 0.435567, 0.443253, 0.445972, 0.448957, 0.449803, 0.448967, 0.449391, 0.451838, 0.451036, 0.45025, 0.460342, 0.463411, 0.47023, 0.472198, 0.471565, 0.470761, 0.47595, 0.475094, 0.476179, 0.476311, 0.477192, 0.476221, 0.477247, 0.477389, 0.48149, 0.481541, 0.481645, 0.481045, 0.482183, 0.482096, 0.483965, 0.483299, 0.483917, 0.484357, 0.482945, 0.487084, 0.48744, 0.486839, 0.49134, 0.490854, 0.491912, 0.491115, 0.492328, 0.492764, 0.462663, 0.462163, 0.505542, 0.511253, 0.511319, 0.45256, 0.452953, 0.45136, 0.449474, 0.448696, 0.456277, 0.505698, 0.504399, 0.483946, 0.528643, 0.48233, 0.469449, 0.507165, 0.506095, 0.507768, 0.53383, 0.538675, 0.538163, 0.528438, 0.528133, 0.5376, 0.515927, 0.522569, 0.524954, 0.520113, 0.520669, 0.575896, 0.576684, 0.59396, 0.593708, 0.616157, 0.618775, 0.61777, 0.625293, 0.621402, 0.650635, 0.737373, 0.668032, 0.688319, 0.708753, 0.708267, 0.688132, 0.740021, 0.714454, 0.714443, 0.691014, 0.00323485, 0.679617, 0.681772, 0.696859, 0.653946, 0.674415, 0.680627, 0.679772, 0.718306, 0.719416, 0.756504, 0.779717, 0.780964, 0.781623, 0.780801, 0.790295, 0.745007, 0.762397, 0.756197, 0.754847, 0.773376, 0.774468, 0.804151, 0.759504, 0.761371, 0.00323234, 0.845544, 0.846539, 0.859971, 0.00304575, 0.00317214, 0.00321244, 0.00313147, 0.00324641, 0.932666, 0.00323919, 0.00315287, 0.00305538, 0.968331, 0.98093, 0.0031842, 0.00320718, 0.00310754, 0.00310088, 0.00302322, 0.00320774, 0.00324335, 0.00349647, 0.00332378, 0.00307461, 0.00312758, 0.00319941, 0.00333593, 1.10124, 0.00274888, 1.11853, 1.12217, 1.12377, 1.13113, 1.13743, 1.13976, 1.14301, 1.14989, 0.00319968, 0.0032845, 1.17455, 1.17669, 1.18132, 1.18261, 1.1867, 1.18935, 0.00322921, 0.00309491, 1.21065, 1.21623, 1.22219, 1.223, 1.22906, 1.2344, 1.23967, 1.24675, 1.25688, 1.26064, 0.00313369, 0.00300936, 0.003335, 0.00319556, 1.29753, 1.29971, 1.29972, 1.30194, 1.30906, 1.31087, 1.31448, 1.31604, 0.00332876, 1.33358, 1.33615, 1.3383, 1.33839, 1.34574, 1.34752, 0.00298173, 1.36481, 0.00306428, 1.38782, 1.39162, 1.39033, 1.39383, 1.39563, 0.003166, 1.41471, 1.41368, 1.41721, 1.41759, 1.42172, 1.42484, 0.0031472, 1.43547, 1.43752, 1.44409, 1.44387, 1.45188, 1.45919, 1.46192, 0.00316072, 0.00289458, 1.47944, 0.00308898, 0.00327316, 0.00328699, 0.0031439, 0.00315926, 0.00310201, 0.00331559, 1.51994, 1.52447, 1.52587, 0.00302568, 0.0033754
0.186981, 0.00322885, 0.00324401, 0.00333587, 0.00309111, 0.00309399, 0.188371, 0.188836, 0.18722, 0.00315899, 0.19608, 0.19635, 0.198387, 0.199621, 0.206198, 0.20517, 0.212003, 0.210895, 0.23619, 0.234661, 0.22791, 0.24512, 0.245775, 0.254338, 0.251811, 0.25557, 0.262321, 0.259286, 0.261232, 0.265887, 0.268879, 0.271616, 0.279974, 0.280181, 0.287312, 0.287226, 0.00307099, 0.307806, 0.306858, 0.309106, 0.308666, 0.32091, 0.322008, 0.329558, 0.32739, 0.00332761, 0.00319007, 0.00303714, 0.00317311, 0.00301553, 0.00327802, 0.00329511, 0.00325585, 0.00311369, 0.399354, 0.399475, 0.401424, 0.40399, 0.401257, 0.40773, 0.417166, 0.413553, 0.413939, 0.412139, 0.410999, 0.98181, 0.428483, 0.980384, 0.450163, 0.449433, 0.449968, 0.448672, 0.450882, 0.451475, 0.449651, 0.456575, 0.45605, 0.471282, 0.472033, 0.47108, 0.472419, 0.472166, 0.476925, 0.478737, 0.477224, 0.478359, 0.479143, 0.478054, 0.48053, 0.481291, 0.483268, 0.481587, 0.479903, 0.483097, 0.481829, 0.482684, 0.487346, 0.487476, 0.487369, 0.487861, 0.488528, 0.490412, 0.491482, 0.490453, 0.493111, 0.496321, 0.495591, 0.494909, 0.494402, 0.493437, 0.505495, 0.506409, 0.50754, 0.50398, 0.502504, 0.50925, 0.510496, 0.501733, 0.50519, 0.504336, 0.511435, 0.525402, 0.524388, 0.524489, 0.472801, 0.476238, 0.475453, 0.4841, 0.483459, 0.538925, 0.570828, 0.551884, 0.549723, 0.52196, 0.542305, 0.521962, 0.518758, 0.522383, 0.514168, 0.516054, 0.601686, 0.532499, 0.529397, 0.580378, 0.537457, 0.538377, 0.590148, 0.563595, 0.566299, 0.566236, 0.566444, 0.567517, 0.638923, 0.640346, 0.641261, 0.659258, 0.591317, 0.642577, 0.642243, 0.779547, 0.777967, 0.791931, 0.776129, 0.650301, 0.659339, 0.656987, 0.73058, 0.757722, 0.66211, 0.660377, 0.662386, 0.685966, 0.736811, 0.799388, 0.718188, 0.748702, 0.739412, 0.811526, 0.741889, 0.741067, 0.825658, 0.82432, 0.858936, 0.764079, 0.763005, 0.854286, 0.837544, 0.00306648, 0.00342697, 0.00313311, 0.003293, 0.00329084, 0.916625, 0.0030961, 0.0032571, 0.00325982, 0.00333564, 0.00302684, 0.00320803, 0.981043, 1.13257, 0.00331527, 0.00332823, 1.01823, 0.00325745, 0.00294567, 1.042, 1.05669, 0.00320795, 0.00324329, 1.08406, 1.09, 1.091, 0.00322043, 1.10571, 1.11314, 0.00292662, 1.12371, 1.12681, 0.00294386, 0.00326213, 1.14236, 1.14765, 0.00313568, 0.00328838, 1.16477, 1.17371, 1.17723, 1.17828, 1.18556, 1.1891, 1.19524, 1.20212, 1.20936, 1.2118, 0.00314149, 1.22003, 1.2248, 1.22861, 1.24004, 1.24676, 1.25379, 0.00301334, 1.27194, 1.27218, 0.00322634, 0.00338196, 1.29246, 1.29401, 1.295, 0.00319374, 1.30966, 1.31232, 1.31382, 1.31623, 0.00313526, 0.00321179, 1.33522, 1.33586, 1.33811, 1.34145, 0.00306881, 1.3569, 0.00306134, 0.00327009, 1.38241, 1.38762, 1.38599, 1.39675, 1.39734, 1.40135, 1.40846, 1.40916, 1.41273, 1.41297, 1.41433, 1.42263, 1.4247, 1.4271, 0.00333623, 1.43797, 1.44482, 1.4495, 1.45111, 1.4568, 0.00308188, 0.00317878, 0.00298004, 0.00301566, 0.00336777, 1.5023, 1.50217, 1.50893, 1.50868, 1.51473, 1.51663, 1.51686, 1.52241, 0.00309698, 0.00316372
0.173418, 0.172102, 0.00308744, 0.00331008, 0.179304, 0.160923, 0.0030336, 0.183037, 0.188869, 0.189374, 0.188464, 0.187213, 0.199882, 0.202598, 0.214136, 0.214355, 0.213795, 0.213185, 0.00308894, 0.223796, 0.223363, 0.23427, 0.233505, 0.00331721, 0.00304975, 0.00317568, 0.00319987, 0.258074, 0.00319122, 0.272428, 0.272395, 0.271189, 0.278584, 0.2778, 0.278496, 0.27882, 0.00316107, 0.299113, 0.299095, 0.298276, 0.307551, 0.00321686, 0.316426, 0.321937, 0.324833, 0.00324415, 0.334373, 0.340577, 0.00290137, 0.00319583, 0.00308361, 0.00307505, 0.00319825, 0.00311987, 0.396429, 0.390958, 0.396103, 0.394197, 0.00307505, 0.405363, 0.407141, 0.405874, 0.404464, 0.413417, 0.41129, 0.410781, 0.00313335, 0.428358, 0.00316666, 0.439934, 0.00311345, 0.00305672, 0.00306162, 1.40672, 0.447356, 0.449434, 0.450148, 0.00325525, 0.471276, 0.467759, 0.470411, 0.479062, 0.47896, 0.479501, 0.481028, 0.481185, 0.482637, 0.481963, 0.481265, 0.480633, 0.48039, 0.481664, 0.481694, 0.482625, 0.482695, 0.481565, 0.485037, 0.489477, 0.487819, 0.488393, 0.492438, 0.493551, 0.49388, 0.492488, 0.496575, 0.497482, 0.497036, 0.49864, 0.50348, 0.506628, 0.507458, 0.507595, 0.506515, 0.750889, 0.749999, 0.514358, 0.514197, 0.504133, 0.50368, 0.505731, 0.505572, 0.559976, 0.525683, 0.542226, 0.500345, 0.541952, 0.488327, 0.490331, 0.492139, 0.537664, 0.547363, 0.547172, 0.528361, 0.537105, 0.588916, 0.588852, 0.545529, 0.544715, 0.543191, 0.543455, 0.523397, 0.526197, 0.549324, 0.543465, 0.542886, 0.538518, 0.579375, 0.579624, 0.566583, 0.568753, 0.569295, 0.5683, 0.568218, 0.584306, 0.584617, 0.663249, 0.5953, 0.650985, 0.628815, 0.646929, 0.645595, 0.68097, 0.774826, 0.776098, 0.779873, 0.705278, 0.71473, 0.00308093, 0.643178, 0.643185, 0.641336, 0.663507, 0.663385, 0.785427, 0.724065, 0.724849, 0.80128, 0.801355, 0.77706, 0.818867, 0.780302, 0.778714, 0.794411, 0.819906, 0.819981, 0.00316514, 0.00307441, 0.00319048, 0.00284774, 0.00357318, 0.88484, 0.8852, 0.00317102, 0.00307891, 0.00310729, 0.00343192, 0.00302064, 0.00321843, 0.964982, 0.00314473, 0.986602, 0.00307576, 0.00299588, 0.00299434, 0.00317217, 0.00293154, 0.00302914, 0.00344608, 0.00301143, 0.00324069, 1.08135, 1.08531, 0.00296679, 0.00345804, 1.10614, 1.10821, 1.1083, 1.11832, 1.1222, 1.13225, 1.1323, 1.14311, 1.14726, 1.15423, 1.16075, 1.16538, 1.16804, 1.17145, 0.00302883, 1.18284, 1.1896, 1.19326, 0.00311651, 0.00321171, 1.20879, 1.21295, 1.2156, 1.22566, 0.00309133, 0.00321257, 0.00317997, 0.00342625, 0.00315038, 1.26721, 1.26969, 1.27096, 0.00317761, 1.28449, 1.28589, 0.00342985, 0.00316445, 1.30249, 1.30893, 1.31182, 1.32235, 1.32344, 1.32753, 1.33254, 1.33446, 1.33778, 1.33931, 1.35119, 1.3584, 1.37263, 1.37228, 1.37496, 1.38133, 1.3832, 1.39076, 1.39254, 1.39927, 1.39978, 1.40158, 1.40502, 1.40881, 1.41112, 1.41832, 1.42186, 1.42299, 1.42517, 1.43908, 1.43828, 1.44692, 1.45025, 1.4521, 1.4531, 0.00343821, 0.00324082, 0.0031576, 0.00324773, 0.00319685, 1.49744, 1.50038, 1.50062, 0.0029879, 1.50851, 0.00287397, 1.52536, 1.52825, 1.53012
0.165862, 0.00341497, 0.16918, 0.00309863, 0.16761, 0.163828, 0.162932, 0.163685, 0.188907, 0.183608, 0.186906, 0.00317718, 0.190075, 0.188589, 0.188922, 0.201561, 0.20078, 0.00289527, 0.210111, 0.224753, 0.224201, 0.221213, 0.221218, 0.219779, 0.21811, 0.246895, 0.248187, 0.248288, 0.247861, 0.248147, 0.254653, 0.277451, 0.277315, 0.273114, 0.283523, 0.280708, 0.282517, 0.283189, 0.289149, 0.00321454, 0.289719, 0.00313046, 0.31722, 0.322685, 0.319948, 0.324166, 0.00327953, 0.0031281, 0.00317631, 0.003129, 0.00314784, 0.00301256, 0.00322747, 0.00315007, 0.00305159, 0.00312897, 0.391212, 0.390275, 0.399923, 0.400488, 0.397816, 0.405061, 0.405155, 0.408185, 0.407523, 0.412327, 0.411346, 0.431614, 0.431671, 0.43276, 0.432584, 0.432386, 0.448694, 0.448899, 0.451263, 0.450329, 0.456295, 0.456047, 0.467198, 0.465309, 0.475625, 0.476846, 0.475961, 0.47678, 0.482504, 0.483387, 0.481725, 0.482393, 0.483898, 0.483642, 0.483516, 0.483256, 0.483102, 0.482373, 0.482852, 0.486172, 0.485274, 0.486159, 0.49001, 0.493037, 0.492889, 0.491822, 0.493254, 0.497371, 0.497311, 0.499019, 0.501161, 0.503144, 0.5041, 0.508856, 0.51084, 0.510783, 0.5137, 0.513862, 0.514194, 0.514831, 0.520777, 0.505838, 0.505999, 0.506556, 0.549546, 0.546251, 0.544451, 0.544341, 0.548935, 0.525297, 0.489562, 0.489436, 0.490766, 0.566594, 0.518396, 0.00322596, 0.56231, 0.553296, 0.556831, 0.555976, 0.538221, 0.535756, 0.534358, 0.545723, 0.520539, 0.566936, 0.563841, 0.545777, 0.544805, 0.534694, 0.543137, 0.54084, 0.00320114, 0.592808, 0.592332, 0.61141, 0.606138, 0.605666, 0.605899, 0.605973, 0.00314245, 0.639407, 0.639949, 0.626072, 0.626587, 0.768927, 0.640772, 0.645073, 0.645451, 0.648846, 0.652476, 0.636821, 0.641534, 0.785452, 0.666011, 0.650005, 0.663303, 0.732167, 0.734981, 0.734131, 0.00305331, 1.0722, 1.07008, 0.78156, 0.788125, 0.00295566, 0.0033278, 0.00318595, 0.00319801, 1.2435, 1.2375, 0.00323388, 0.00322914, 0.874256, 0.0032934, 0.00296085, 0.00328165, 0.0028403, 0.00295697, 0.00295386, 1.17517, 0.00320788, 0.976347, 0.00312531, 0.00315365, 0.996891, 1.00605, 0.00309679, 0.00326889, 0.00287375, 0.00311039, 0.00308831, 0.00346498, 0.00302844, 1.08154, 1.08652, 1.08756, 0.00296104, 0.00307082, 1.1075, 1.11217, 1.11553, 1.12118, 0.00300501, 1.13591, 1.14251, 1.14922, 0.00293012, 0.00336932, 1.1644, 1.16724, 1.17476, 1.17577, 1.1846, 1.18855, 1.19002, 1.19867, 1.20005, 1.20706, 1.21163, 1.21728, 0.00306106, 1.23234, 1.23605, 1.24054, 1.25219, 1.25191, 1.25273, 1.25274, 0.00332305, 0.00315904, 0.00326937, 1.28748, 1.29264, 1.2938, 1.29593, 1.31347, 1.31528, 1.31873, 1.32143, 1.32854, 1.3295, 1.33523, 0.00313113, 0.00361685, 0.00316336, 0.00304353, 0.00313713, 1.36909, 1.37112, 0.0030347, 1.38268, 1.38407, 1.39476, 1.39494, 1.39486, 1.39694, 1.4022, 1.40735, 1.40985, 1.41808, 1.41877, 1.42614, 1.42634, 1.4338, 1.43506, 1.44208, 1.44606, 1.44857, 0.00300705, 0.00314004, 0.00311224, 0.00316606, 0.00321712, 1.48818, 1.48891, 1.49333, 1.49855, 0.00328468, 1.5228, 1.52205, 0.00301893, 1.53042, 1.53343
0.00323581, 0.00311692, 0.152672, 0.152063, 0.150851, 0.16974, 0.162741, 0.169857, 0.175218, 0.175462, 0.175349, 0.174609, 0.174262, 0.179916, 0.183881, 0.189921, 0.192315, 0.1934, 0.202891, 0.203516, 0.209521, 0.207452, 0.221771, 0.221348, 0.21968, 0.227815, 0.229203, 0.248117, 0.248774, 0.249681, 0.250883, 0.00320586, 0.276577, 0.275634, 0.283008, 0.28551, 0.284621, 0.272157, 0.279885, 0.283142, 0.290631, 0.313163, 0.313171, 0.311805, 0.317588, 0.316371, 0.00291819, 0.003373, 0.00300887, 0.00316316, 0.00316092, 0.00309639, 0.00332147, 0.00329041, 0.381098, 0.380669, 0.37967, 0.392785, 0.39319, 0.392103, 0.391752, 0.396153, 0.403235, 0.403446, 0.402232, 0.412978, 0.410622, 0.431978, 0.432944, 0.432969, 0.43167, 0.431705, 0.443839, 0.448087, 0.4504, 0.449852, 0.45049, 0.457112, 0.456122, 0.464105, 0.465868, 0.465469, 0.465055, 0.47894, 0.479857, 0.478103, 0.478145, 0.478335, 0.480515, 0.478394, 0.483204, 0.484153, 0.48298, 0.483902, 0.483555, 0.483202, 0.485345, 0.486068, 0.488382, 0.491173, 0.493344, 0.493593, 0.496026, 0.496668, 0.500986, 0.503026, 0.502804, 0.502271, 0.506575, 0.512635, 0.513058, 0.734513, 0.516201, 0.52068, 0.524936, 0.527713, 0.527875, 0.0031255, 0.543555, 0.546617, 0.547359, 0.546935, 0.00287016, 0.553127, 0.554636, 0.554762, 0.555344, 0.552462, 0.551761, 0.552888, 0.552927, 0.551114, 0.548604, 0.547315, 0.546344, 0.545753, 0.548851, 0.549532, 0.61215, 0.515426, 0.508777, 0.522227, 0.520826, 0.51853, 0.542608, 0.55066, 0.559163, 0.853149, 0.583384, 0.592874, 0.606256, 0.607702, 0.60702, 0.616141, 0.618095, 0.617776, 0.00332835, 0.725486, 0.723677, 0.724611, 0.00304401, 0.749507, 0.00319897, 0.00329285, 0.652937, 0.649534, 0.648957, 0.648443, 0.631029, 0.631728, 0.630963, 0.653545, 0.652589, 0.732538, 0.726332, 0.739732, 1.0723, 1.07181, 1.06999, 1.06999, 0.00314231, 0.0032468, 0.811151, 0.812457, 0.00322224, 1.30384, 1.23712, 0.0030748, 0.00308699, 0.00315832, 0.00303084, 0.00312574, 0.00325539, 0.00358444, 0.00301228, 1.49141, 0.00303856, 0.00309311, 0.0030929, 0.00327199, 0.00295762, 0.00305829, 0.00304306, 0.00346805, 0.00328166, 1.03241, 1.04254, 1.04199, 0.00316707, 1.07445, 1.07557, 1.08709, 1.08794, 1.09309, 1.09949, 1.10783, 1.1116, 1.11409, 1.12103, 0.00305781, 0.00298114, 1.14171, 0.00303735, 1.15339, 1.15916, 1.16148, 1.16574, 1.17104, 1.17871, 0.00302117, 0.00344989, 1.19742, 1.19673, 1.20106, 1.20311, 1.20996, 0.003005, 0.00298491, 1.2316, 1.23838, 0.00317361, 1.24951, 1.24828, 1.24903, 1.25644, 1.25817, 1.27313, 1.27725, 1.28627, 1.28892, 1.29303, 1.29783, 1.31242, 1.31397, 1.31655, 1.32175, 1.32299, 0.00334182, 1.33679, 1.34216, 0.00321861, 1.35904, 1.36024, 1.36033, 1.36358, 1.36556, 1.36807, 0.00311126, 1.38444, 1.38506, 1.39037, 1.3918, 1.39367, 1.39915, 1.40454, 1.40631, 1.41278, 1.41575, 1.41978, 1.42978, 1.42839, 1.43274, 1.43845, 0.00307242, 0.00308823, 0.00340598, 0.00326407, 1.47134, 1.47183, 0.00336803, 1.48463, 1.48497, 1.48876, 0.00324173, 0.00306936, 0.00328704, 0.00334038, 0.00357465, 0.00316855, 0.00327715
0.128636, 0.00312151, 0.147904, 0.147773, 0.152252, 0.149356, 0.163053, 0.163974, 0.16187, 0.159449, 0.176563, 0.176004, 0.18197, 0.179197, 0.173149, 0.18323, 0.189428, 0.196084, 0.189691, 0.188999, 0.0032103, 0.206894, 0.204453, 0.20963, 0.220571, 0.217956, 0.00333389, 0.00312283, 0.251642, 0.25163, 0.250776, 0.251169, 0.250332, 0.256452, 0.272895, 0.27325, 0.272594, 0.274044, 0.274793, 0.27535, 0.316633, 0.317172, 0.316132, 0.314393, 0.316002, 0.309977, 0.308663, 0.00307639, 0.00314287, 0.00314766, 0.00343195, 0.00313732, 0.00313881, 0.00315853, 0.369793, 0.379905, 0.381481, 0.379653, 0.38344, 0.390276, 0.391133, 0.3952, 0.394819, 0.413964, 0.413975, 0.414601, 0.412982, 0.411815, 0.412683, 0.431142, 0.441918, 0.441422, 0.443014, 0.451175, 0.446583, 0.452035, 0.450053, 0.457406, 0.457067, 0.463001, 0.462853, 0.467575, 0.465901, 0.463945, 0.465987, 0.473255, 0.470836, 0.480418, 0.479887, 0.483289, 0.482642, 0.482742, 0.483693, 0.484982, 0.485957, 0.486315, 0.490498, 0.490582, 0.492794, 0.493876, 0.494029, 0.498166, 0.500973, 0.501078, 0.504867, 0.507034, 0.504283, 0.50404, 0.509044, 0.514679, 0.518211, 0.517579, 0.519582, 0.524334, 0.524098, 0.528642, 0.530007, 0.540501, 0.544705, 0.543625, 0.546146, 0.546558, 0.684185, 0.556561, 0.557993, 0.560645, 0.56072, 0.55853, 0.557466, 0.55696, 0.553968, 0.553208, 0.553346, 0.552851, 0.549998, 0.548686, 0.61461, 0.614742, 0.614718, 0.509268, 0.509488, 0.525752, 0.524576, 0.527091, 0.808235, 0.846667, 0.789767, 0.790036, 0.00327954, 0.00332516, 0.00302385, 0.842785, 0.842247, 0.623336, 0.624398, 0.624863, 0.628359, 0.643705, 0.644435, 0.644251, 0.766464, 0.00321736, 0.00316642, 0.00314367, 0.61503, 0.00320941, 0.641611, 0.598798, 0.599142, 0.599174, 0.626479, 0.6254, 0.623823, 0.646176, 0.654129, 0.00316574, 1.07871, 1.0724, 1.07164, 1.07386, 1.0673, 0.00310608, 0.0031158, 0.00303652, 1.21834, 0.00277404, 0.00317098, 0.00301647, 0.00310298, 0.00321943, 0.00325283, 0.00317463, 0.00332511, 0.00296034, 0.928899, 0.00321915, 0.00321199, 0.00307526, 0.00328008, 0.00310837, 0.988256, 0.00309738, 0.0030799, 0.00319177, 1.02684, 1.03299, 0.00316884, 1.05055, 1.06008, 0.00307447, 0.00297341, 1.0813, 1.0886, 1.09426, 1.09628, 1.10425, 1.10481, 1.11692, 1.12562, 1.12568, 1.13354, 0.00306519, 1.14762, 1.155, 1.15668, 1.16023, 1.16066, 0.00317392, 0.00326849, 1.18065, 1.18378, 1.19128, 1.19126, 1.19521, 1.20533, 0.00309244, 1.22079, 1.22415, 0.0032624, 0.00323705, 0.00317125, 0.00307731, 1.24946, 0.00336126, 1.26463, 1.26781, 1.27081, 1.27885, 1.28175, 1.28769, 1.28809, 0.00301086, 1.3086, 0.00312548, 0.00312754, 1.32538, 1.32539, 1.3366, 1.33649, 1.33775, 1.35529, 1.35682, 1.35778, 1.36414, 1.36748, 1.36884, 1.3726, 1.37346, 0.00324939, 0.00275329, 1.38451, 1.38933, 1.39046, 1.39728, 1.40117, 1.40407, 1.40605, 0.00299142, 1.41751, 1.42316, 1.42786, 1.43362, 1.43431, 0.00311774, 0.00326216, 1.45667, 1.4669, 1.47046, 1.47205, 1.47554, 1.47806, 1.47857, 1.488, 0.00316711, 1.50999, 0.00322057, 0.00349177, 0.00295763, 1.51899, 1.51678
0.13081, 0.131338, 0.149033, 0.135174, 0.143345, 0.143221, 0.00319976, 0.14392, 0.161923, 0.162234, 0.162122, 0.17594, 0.175823, 0.175671, 0.176151, 0.17714, 0.183948, 0.188688, 0.190373, 0.191302, 0.190121, 0.194062, 0.197982, 0.210242, 0.0031253, 0.211603, 0.00318822, 0.00316187, 0.252549, 0.252728, 0.252548, 0.250871, 0.247696, 0.257824, 0.256506, 0.256065, 0.255272, 0.276022, 0.278148, 0.277348, 0.0031251, 0.30316, 0.304764, 0.305732, 0.303333, 0.30216, 0.00343873, 0.00311331, 0.00323243, 0.00329443, 0.00324097, 0.00306133, 0.352308, 0.35262, 0.00293119, 0.372854, 0.379069, 0.380106, 0.380247, 0.379913, 0.00336441, 0.398598, 0.417877, 0.418227, 0.418355, 0.417865, 0.417089, 0.414111, 0.421536, 0.00298664, 0.438956, 0.44059, 0.439663, 0.446741, 0.445898, 0.444739, 0.445545, 0.446361, 0.458478, 0.457429, 0.459121, 0.459835, 0.460454, 0.461143, 0.46686, 0.469166, 0.468563, 0.471365, 0.477875, 0.478127, 0.479888, 0.484348, 0.486099, 0.485367, 0.483897, 0.491619, 0.491015, 0.493189, 0.495854, 0.496067, 0.496793, 0.497334, 0.502542, 0.501843, 0.505125, 0.510386, 0.510545, 0.51014, 0.512604, 0.515107, 0.518765, 0.518679, 0.519462, 0.522041, 0.00299469, 0.54322, 0.550169, 0.550168, 0.547832, 0.546535, 0.544634, 0.713797, 0.711454, 0.553309, 0.552853, 0.561108, 0.566043, 0.566002, 0.558673, 0.562461, 0.563778, 0.562713, 0.554657, 0.558929, 0.56042, 0.56234, 0.562997, 0.00346612, 0.0030828, 0.569561, 0.00311508, 0.921728, 0.921176, 0.828183, 0.815196, 0.763498, 0.762429, 0.860202, 0.860449, 0.00300151, 0.616516, 0.803784, 0.621758, 0.624188, 0.00319514, 0.627693, 0.00308041, 0.644588, 0.655764, 0.65603, 0.00298496, 0.673335, 0.67438, 0.678228, 0.67666, 1.20484, 0.602401, 0.602052, 0.684448, 0.68402, 0.672462, 0.675625, 0.00302099, 0.00302748, 1.16365, 0.963546, 0.998736, 0.00334804, 0.00309473, 0.791773, 0.796644, 0.79743, 0.796983, 1.15079, 1.0953, 0.00312299, 0.00288736, 0.00330187, 0.00319787, 0.00315836, 0.00304807, 0.00317858, 0.00316454, 0.00332957, 0.00318339, 0.00325818, 0.00290667, 0.966062, 0.967132, 0.971558, 0.974435, 0.00333887, 0.00312741, 1.0173, 0.00302461, 1.03912, 1.03983, 1.05015, 1.05538, 0.00288068, 0.00310639, 1.07367, 1.08188, 1.08777, 1.09198, 1.09839, 1.10045, 1.10915, 1.11906, 1.12534, 1.12655, 1.13751, 1.14315, 1.14656, 1.1481, 1.15339, 0.00316167, 0.00306484, 1.16679, 1.17439, 1.18069, 1.18452, 0.00326966, 0.00336997, 0.00317709, 1.20918, 0.00306251, 0.00311337, 1.24032, 1.24078, 1.24324, 1.25042, 1.2522, 1.26057, 1.26108, 1.2644, 1.26955, 1.27884, 1.27906, 1.28779, 0.00309968, 1.30399, 1.3082, 1.31235, 1.31893, 1.3221, 1.32276, 1.33612, 1.33754, 1.34777, 1.35206, 1.35304, 1.3541, 1.3544, 1.36153, 1.36225, 1.37103, 1.36927, 1.36834, 1.37482, 0.00333942, 1.38556, 1.38811, 1.38834, 1.39694, 1.39957, 0.00304024, 1.41078, 1.41429, 1.41925, 0.00313921, 1.42858, 0.00308015, 0.00302997, 0.00309454, 0.00308728, 0.00309231, 1.46563, 1.46773, 1.46818, 1.46992, 0.00324467, 1.47961, 1.48263, 1.48442, 1.48517, 0.00304525, 0.00315765, 1.5123, 1.51515
0.130129, 0.128604, 0.129604, 0.128935, 0.126713, 0.134948, 0.13401, 0.133206, 0.00331253, 0.148102, 0.161123, 0.162671, 0.172047, 0.163484, 0.168962, 0.00321889, 0.188884, 0.186316, 0.178021, 0.189216, 0.188634, 0.187716, 0.189269, 0.191354, 0.204029, 0.00295187, 0.00328126, 0.00317785, 0.00314473, 0.25405, 0.246309, 0.248889, 0.248881, 0.259325, 0.25834, 0.256949, 0.259491, 0.00316397, 0.265516, 0.00308427, 0.0030384, 0.303257, 0.304543, 0.306842, 0.306432, 0.301661, 0.00319651, 0.00326671, 0.00307683, 0.00291528, 0.00347317, 0.354426, 0.3546, 0.35404, 0.358902, 0.359313, 0.36488, 0.00314095, 0.374777, 0.00307692, 0.003015, 0.00321196, 0.00322704, 0.420839, 0.418849, 0.421541, 0.420299, 0.423954, 0.42213, 0.436637, 0.439164, 0.440985, 0.441307, 0.438839, 0.43973, 0.433562, 0.432666, 0.442256, 0.445977, 0.458511, 0.456528, 0.45295, 0.453995, 0.455198, 0.457303, 0.463158, 0.468695, 0.469557, 0.471912, 0.472342, 0.47335, 0.482686, 0.484233, 0.483477, 0.489647, 0.490967, 0.490748, 0.492532, 0.498722, 0.499194, 0.499795, 0.499213, 0.502953, 0.502967, 0.504142, 0.511377, 0.510432, 0.512068, 0.519829, 0.520236, 0.520368, 0.520763, 0.522248, 0.52471, 0.524254, 0.542706, 0.548802, 0.546965, 0.544095, 0.542101, 0.54238, 0.543565, 0.550551, 0.550647, 0.554994, 0.553771, 0.566151, 0.561555, 0.562151, 0.562802, 0.565654, 0.565611, 0.567501, 0.563623, 0.563178, 0.564331, 0.564146, 0.580306, 0.579641, 0.0033386, 0.910883, 0.585713, 0.811926, 0.828975, 0.828412, 0.600196, 0.604181, 0.605565, 0.611115, 0.613966, 0.80391, 0.803061, 0.619667, 0.622189, 0.628761, 0.629057, 0.00309484, 0.656535, 0.657857, 0.656854, 0.658536, 0.673178, 0.669514, 0.670283, 0.677469, 0.687252, 0.687956, 0.69238, 0.691925, 0.698419, 0.00295221, 0.00295817, 1.14651, 0.731378, 0.00332112, 0.00307313, 0.0030902, 0.00326096, 0.00309793, 0.00309393, 0.798841, 0.798597, 1.00117, 0.00312722, 0.00307051, 0.00330981, 0.00319595, 0.00308379, 0.860009, 0.860372, 0.00317707, 0.00348226, 0.00297732, 0.00308061, 0.00330862, 0.00309158, 0.00322448, 0.956069, 0.00308458, 0.00309663, 0.00305578, 0.00325418, 0.00305575, 0.00307186, 0.00334078, 1.02947, 0.00310029, 0.00307276, 0.00297547, 1.06208, 1.07015, 1.07322, 0.00308482, 1.08583, 1.09032, 1.09226, 1.09557, 0.00310263, 1.11372, 1.11542, 0.00323122, 0.00323515, 1.13607, 1.13713, 1.14442, 1.14963, 1.15058, 1.16214, 1.16481, 1.17339, 1.17461, 1.17966, 0.00317185, 0.00307153, 0.00310925, 0.0032781, 0.0032428, 0.00317783, 0.00308498, 0.00304046, 1.24391, 1.24501, 1.24653, 0.0029209, 1.25976, 1.26376, 1.26646, 0.0030493, 1.28111, 0.00333945, 1.29523, 1.30429, 1.30845, 0.00306841, 1.32111, 1.32378, 1.32464, 0.00330453, 1.34931, 1.34945, 1.34782, 1.34853, 1.34893, 1.35489, 1.35818, 1.36112, 1.36787, 1.37033, 1.36929, 1.37621, 1.37757, 1.37789, 1.38466, 1.38808, 1.39236, 1.39938, 1.40505, 1.40655, 1.41358, 1.41467, 1.41693, 1.42445, 0.00343364, 1.44431, 1.44367, 1.44829, 1.45697, 1.46165, 1.46234, 1.46504, 1.46747, 1.47493, 1.47465, 1.47497, 1.48464, 1.48347, 1.48571, 0.00314927, 0.00308798, 0.00326035
0.00310707, 0.11729, 0.116539, 0.116605, 0.128567, 0.127178, 0.13516, 0.133658, 0.00314545, 0.00327604, 0.148659, 0.149607, 0.149952, 0.158982, 0.00299167, 0.171839, 0.172598, 0.172048, 0.179334, 0.178123, 0.186988, 0.179815, 0.186312, 0.187143, 0.00308601, 0.207497, 0.212742, 0.212178, 0.00300953, 0.0032639, 0.247347, 0.241521, 0.247659, 0.246266, 0.245011, 0.257145, 0.2553, 0.267116, 0.267423, 0.266622, 0.00319224, 0.305664, 0.302659, 0.301373, 0.299222, 0.299291, 0.00294658, 0.00312679, 0.00303238, 0.00308826, 0.00288864, 0.344386, 0.343748, 0.344051, 0.344206, 0.351914, 0.369139, 0.00319636, 0.375381, 0.376023, 0.375652, 0.00309195, 0.00315868, 0.405121, 0.00321295, 0.00321308, 0.423328, 0.422966, 0.42566, 0.424735, 0.433292, 0.439146, 0.437913, 0.430759, 0.429084, 0.422079, 0.434601, 0.432953, 0.441287, 0.441164, 0.449927, 0.450018, 0.455587, 0.457072, 0.45862, 0.460382, 0.462066, 0.46469, 0.463993, 0.47083, 0.469811, 0.481905, 0.48155, 0.489625, 0.487315, 0.490551, 0.491656, 0.490909, 0.859836, 0.499829, 0.499819, 0.500148, 0.500334, 0.50544, 0.504536, 0.513855, 0.513755, 0.51678, 0.516501, 0.521042, 0.52076, 0.522251, 0.521821, 0.521773, 0.566005, 0.565817, 0.564978, 0.542555, 0.532279, 0.535876, 0.542797, 0.543875, 0.548489, 0.549624, 0.549949, 0.550662, 0.552547, 0.558599, 0.559464, 0.564601, 0.56608, 0.567385, 0.568967, 0.577911, 0.57884, 0.577769, 0.585655, 0.589087, 0.592621, 0.592633, 0.594111, 0.597212, 0.598762, 0.599437, 0.60058, 0.604112, 0.610092, 0.612659, 0.613195, 0.614755, 0.61615, 0.615874, 0.61656, 0.618262, 0.826275, 0.00307897, 0.00308401, 0.662331, 0.663772, 0.663574, 0.662869, 0.663671, 0.66724, 0.670699, 0.670585, 0.687879, 0.689529, 0.690746, 0.699573, 0.700361, 0.945593, 1.0083, 0.00328836, 1.17056, 0.00322944, 0.00324265, 1.04269, 1.08338, 1.04243, 1.0996, 0.00287609, 0.804367, 0.00305683, 1.12132, 0.00320268, 0.839794, 0.0030985, 0.00335018, 0.00320793, 0.00326279, 0.00300992, 0.00331509, 0.00318974, 0.911669, 0.00311549, 0.00294297, 0.00304042, 0.00324066, 0.00315645, 0.0032545, 0.00301821, 0.992547, 0.994578, 0.00325241, 1.01889, 0.00326767, 1.03703, 0.0030333, 0.00305622, 1.05778, 0.00293885, 1.06823, 1.07449, 1.08144, 0.00302704, 1.09409, 1.10075, 1.10138, 1.10788, 0.003342, 1.11617, 1.12237, 1.12407, 1.13535, 0.00310229, 1.14268, 1.14811, 1.14844, 1.158, 1.16342, 1.16765, 1.17456, 0.00316654, 0.00327535, 1.19745, 0.00297487, 0.0031549, 0.00318984, 0.00305911, 0.00313012, 0.00292269, 0.00319377, 0.00299515, 0.00340016, 0.0030675, 0.00333293, 0.0030298, 0.00306751, 0.00321193, 0.0029791, 0.00319689, 1.30215, 1.30797, 1.31081, 0.00302897, 0.00302335, 0.00307473, 1.33278, 1.33518, 1.34263, 1.34562, 1.34536, 0.00299997, 1.35556, 1.35679, 1.35661, 1.35728, 0.00305566, 1.36842, 1.36941, 1.37745, 1.37751, 1.38422, 1.38523, 1.3922, 1.39487, 1.40355, 1.4023, 1.40326, 1.41253, 1.4141, 1.41962, 0.00300135, 0.00337531, 1.44935, 1.44692, 0.003247, 1.45327, 1.45718, 1.4655, 1.46784, 1.47233, 1.47201, 1.47771, 1.47736, 0.00323208, 0.00316567, 0.00319378, 0.00305818, 0.0031068
0.107702, 0.117791, 0.110363, 0.114345, 0.118179, 0.106076, 0.00313547, 0.00299681, 0.00305089, 0.00319423, 0.150584, 0.151114, 0.149668, 0.149033, 0.16198, 0.159837, 0.159335, 0.164928, 0.179198, 0.178697, 0.177343, 0.17911, 0.180026, 0.00330791, 0.00332716, 0.202303, 0.203059, 0.213297, 0.212358, 0.221944, 0.236452, 0.241098, 0.241037, 0.239354, 0.262603, 0.260608, 0.265608, 0.271176, 0.269267, 0.266615, 0.00328524, 0.296947, 0.297636, 0.298599, 0.296651, 0.302403, 0.304302, 0.306085, 0.319244, 0.318859, 0.31776, 0.00304251, 0.344601, 0.344174, 0.343979, 0.00309813, 0.361864, 0.363468, 0.363712, 0.374072, 0.373938, 0.382059, 0.382643, 0.00309292, 0.00310688, 0.409548, 0.418663, 0.422095, 0.417769, 0.419971, 0.436794, 0.438196, 0.438338, 0.42965, 0.427685, 0.425928, 0.426322, 0.439499, 0.438642, 0.436955, 0.444583, 0.442923, 0.451924, 0.451784, 0.451646, 0.462144, 0.462534, 0.465386, 0.464541, 0.469648, 0.469119, 0.482758, 0.482894, 0.48204, 0.480912, 0.480362, 0.493234, 0.494096, 0.493656, 0.491606, 0.500053, 0.499046, 0.503721, 0.506712, 0.507263, 0.513132, 0.515581, 0.51518, 0.517031, 0.519064, 0.521238, 0.521595, 0.52118, 0.00301936, 0.00309367, 0.53289, 0.532988, 0.535242, 0.534384, 0.532682, 0.546286, 0.547021, 0.547897, 0.550562, 0.550161, 0.550792, 0.554021, 0.556344, 0.558389, 0.560875, 0.560858, 0.572412, 0.573824, 0.00324026, 0.580948, 0.581961, 0.585216, 0.584911, 0.590747, 0.594052, 0.597695, 0.598094, 0.602693, 0.60464, 0.60235, 0.611629, 0.612943, 0.613648, 0.614775, 0.614926, 0.615112, 0.614201, 0.617415, 0.618007, 0.863716, 0.640206, 0.662099, 0.663867, 0.663526, 0.662012, 0.663389, 0.663626, 0.665111, 0.00297207, 0.673823, 0.00317022, 1.17965, 0.690895, 0.00339573, 0.00306042, 0.00309368, 0.00327442, 0.0032537, 1.17057, 0.00325097, 0.00298559, 1.08828, 0.00332428, 0.00320805, 0.00341016, 1.12506, 0.0029611, 0.812761, 1.09829, 0.828942, 0.836926, 0.838818, 0.00312811, 0.00330245, 0.00308454, 1.29515, 1.3083, 0.0032554, 0.00311354, 0.00306007, 0.00311238, 0.941917, 0.943377, 0.00345288, 0.00313715, 0.98112, 0.00324956, 0.997317, 0.997265, 0.00330993, 0.00310378, 0.00297036, 1.04047, 1.04961, 1.05383, 1.05382, 1.06718, 1.06902, 1.07914, 1.08396, 1.08994, 1.09461, 1.09627, 1.10275, 1.10682, 1.1138, 1.11882, 1.11918, 1.12046, 0.00332402, 1.13497, 1.13979, 1.14873, 1.15259, 1.15567, 0.00322331, 0.00311407, 1.18102, 1.18601, 1.19229, 0.0029399, 0.00313324, 1.2047, 1.20831, 0.00314334, 0.00307666, 0.00295779, 0.00334171, 0.00309858, 1.25046, 1.25801, 1.25906, 0.0031255, 1.27638, 0.00312514, 1.29279, 1.29854, 1.30269, 1.30758, 0.00312865, 0.00320787, 1.62307, 0.00311897, 1.3359, 1.3364, 1.33722, 1.33705, 1.34325, 1.34566, 1.3529, 1.35257, 1.35352, 1.35853, 1.36035, 0.00306926, 1.3685, 1.37408, 1.38391, 1.38506, 1.38673, 1.39127, 1.39184, 1.39996, 1.4075, 1.41046, 1.41012, 1.41257, 0.00310652, 0.00319185, 1.44404, 1.45361, 1.45153, 1.45437, 1.4536, 1.46198, 1.46613, 1.46594, 0.00318671, 1.47413, 1.47612, 1.48641, 1.48598, 0.00317218, 0.0031266, 0.00309332
