0.837855, 0.854432, 0.84217, 0.837263, 0.836875, 0.83859, 0.837126, 0.838467, 0.837722, 0.84299, 0.837405, 0.837783, 0.838225, 0.838106, 0.83981, 0.839633, 0.840883, 0.833669, 0.83302, 0.836861, 0.835606, 0.836979, 0.835552, 0.835436, 0.836076, 0.834954, 0.837399, 0.838286, 0.849545, 0.846748, 0.847451, 0.83406, 0.834262, 0.847263, 0.847724, 0.83858, 0.836814, 0.843569, 0.839393, 0.845689, 0.834998, 0.835616, 0.832888, 0.867633, 0.847027, 0.849209, 0.839751, 0.839057, 0.817326, 0.816934, 0.83596, 0.891601, 0.915297, 0.915986, 0.956782, 0.969829, 1.00551, 1.30613, 1.21884, 1.21846, 1.2164, 1.13035, 1.13027, 1.04823, 0.943861, 0.931646, 0.901557, 0.871532, 0.818713, 0.817253, 0.812848, 0.818743, 0.827684, 0.818707, 0.819107, 0.816829, 0.820301, 0.820785, 0.822073, 0.81955, 0.819139, 0.817761, 0.817797, 0.819722, 0.817551, 0.8201, 0.817535, 0.81795, 0.81904, 0.818479, 0.820175, 0.826859, 0.810311, 0.812357, 0.814861, 0.808664, 0.794716, 0.806489, 0.804902, 0.821737, 0.811848, 0.813187, 0.81423, 0.812456, 0.812291, 0.818048, 0.813071, 0.8215, 0.819627, 0.809003, 0.806277, 0.804783, 0.804575, 0.807322, 0.812127, 0.799768, 0.803378, 0.803648, 0.798375, 0.798668, 0.801695, 0.801602, 0.808176, 0.803078, 0.804912, 0.805243, 0.804641, 0.805183, 0.802697, 0.829229, 0.805523, 0.822373, 0.816097, 0.941692, 0.957591, 0.938501, 0.963637, 0.932634, 0.816031, 0.803469, 0.80209, 0.801823, 0.801695, 0.801558, 0.801492, 0.801746, 0.853327, 0.798739, 0.796279, 0.7952, 0.792326, 0.794085, 0.79784, 0.801007, 0.797146, 0.7971, 0.795569, 0.794556, 0.798924, 0.799412, 0.806802, 0.808416, 0.765765, 0.81037, 0.813546, 0.814807, 0.804575, 0.81488, 0.79614, 0.798322, 0.800029, 0.79878, 0.799987, 0.799348, 0.826238, 0.795803, 0.79621, 0.800836, 0.794194, 0.795817, 0.801491, 0.795505, 0.798597, 0.796009, 0.798363, 0.792324, 0.801181, 0.800046, 0.793825, 0.795904, 0.808015, 0.798052, 0.803539, 0.793205, 0.795964, 0.795427, 0.797248, 0.798575, 0.800946, 0.803275, 0.807002, 0.803292, 0.804212, 0.809817, 0.818034, 0.815809, 0.801795, 0.802553, 0.800728, 0.802527, 0.805845, 0.796381, 0.795682, 0.798452, 0.803602, 0.792787, 0.793899, 0.791907, 0.792061, 0.785055, 0.796951, 0.789594, 0.756914, 0.751028, 0.749387, 0.750862, 0.732968, 0.738606, 0.77013, 0.812871, 0.776248, 0.785525, 0.870811, 0.838799, 1.20181, 1.20421, 1.22268, 0.950286, 0.940579, 0.92915, 0.835557, 0.858655, 0.819325, 0.79871, 0.786248, 0.787144, 0.77833, 0.787608, 0.791103, 0.794624, 0.791389, 0.788645, 0.79357, 0.797864, 0.796036, 0.798311, 0.7888, 0.788326, 0.787018, 0.786748, 0.794561, 0.797279, 0.785466, 0.785772, 0.786457, 0.785455, 0.784986, 0.783611, 0.782936, 0.785758, 0.784096, 0.783392, 0.781753, 0.783064, 0.782358, 0.783303, 0.784046, 0.783731, 0.797519, 0.791849, 0.783627, 0.784235, 0.788035, 0.782249, 0.783002, 0.784633, 0.784242, 0.78947, 0.780888, 0.781851, 0.781553, 0.782883, 0.778936, 0.779941, 0.780716, 0.78029, 0.783604, 0.778811, 0.78071, 0.778734
0.838031, 0.836015, 0.835686, 0.837039, 0.838801, 0.838978, 0.836112, 0.839229, 0.863366, 0.838761, 0.838756, 0.838299, 0.838571, 0.838501, 0.836028, 0.838489, 0.838455, 0.833774, 0.836725, 0.835379, 0.835452, 0.840344, 0.836864, 0.836706, 0.837564, 0.838098, 0.836519, 0.836343, 0.859988, 0.835739, 0.847401, 0.845866, 0.838841, 0.837782, 0.836376, 0.835753, 0.835866, 0.834017, 0.836716, 0.839717, 0.844119, 0.842848, 0.860442, 0.834102, 0.832914, 0.832122, 0.83321, 0.820294, 0.816268, 0.823502, 0.81825, 0.887027, 0.911842, 0.935586, 0.947523, 0.964911, 1.01554, 1.26457, 1.26863, 1.26883, 1.2524, 1.24638, 1.1292, 0.991626, 0.959385, 0.93144, 0.911616, 0.897826, 0.842836, 0.832044, 0.832996, 0.811441, 0.81501, 0.815003, 0.81627, 0.822399, 0.822812, 0.821426, 0.821639, 0.821122, 0.821462, 0.81915, 0.821937, 0.817038, 0.817047, 0.819436, 0.82439, 0.82194, 0.820053, 0.81775, 0.818184, 0.814592, 0.813382, 0.812611, 0.806258, 0.811285, 0.806531, 0.822641, 0.811264, 0.813232, 0.808221, 0.825612, 0.810456, 0.811615, 0.813051, 0.811614, 0.825909, 0.814617, 0.81, 0.811267, 0.803062, 0.802868, 0.800963, 0.800449, 0.799609, 0.797636, 0.796268, 0.795617, 0.798349, 0.79915, 0.805273, 0.805668, 0.801195, 0.81128, 0.809874, 0.805038, 0.803817, 0.805246, 0.807368, 0.802401, 0.817775, 0.805447, 0.8063, 0.806467, 0.808346, 0.816437, 0.828732, 0.819217, 0.821396, 0.803977, 0.803547, 0.8023, 0.803443, 0.80214, 0.801259, 0.80129, 0.804658, 0.796407, 0.797528, 0.791215, 0.798037, 0.809611, 0.794583, 0.805637, 0.793505, 0.794176, 0.795189, 0.800307, 0.800465, 0.801303, 0.804693, 0.745589, 0.770771, 0.808185, 0.809897, 0.806264, 0.801217, 0.794484, 0.807789, 0.804943, 0.798617, 0.801222, 0.797725, 0.798121, 0.798843, 0.797321, 0.798328, 0.795078, 0.794651, 0.794722, 0.806593, 0.805128, 0.795168, 0.804723, 0.808723, 0.807537, 0.793951, 0.797005, 0.794715, 0.798077, 0.801555, 0.801797, 0.804308, 0.795495, 0.798893, 0.811292, 0.801534, 0.801407, 0.799384, 0.801042, 0.800536, 0.801445, 0.80138, 0.806282, 0.808552, 0.805781, 0.804816, 0.80253, 0.816392, 0.808668, 0.805293, 0.797449, 0.795168, 0.801112, 0.798907, 0.797131, 0.793468, 0.789862, 0.786996, 0.791416, 0.797217, 0.784602, 0.756151, 0.748899, 0.736258, 0.741977, 0.742156, 0.733047, 0.757471, 0.743509, 0.77709, 0.775232, 0.829883, 0.830609, 1.18779, 1.17704, 1.18378, 1.18234, 0.937656, 0.938583, 0.851311, 0.827972, 0.809919, 0.801307, 0.776706, 0.772575, 0.77393, 0.779066, 0.781473, 0.788963, 0.790069, 0.78961, 0.791764, 0.793685, 0.789981, 0.788732, 0.787667, 0.786941, 0.787909, 0.788045, 0.790022, 0.786229, 0.78655, 0.787968, 0.785612, 0.798356, 0.785787, 0.790609, 0.808835, 0.78359, 0.784226, 0.788488, 0.784203, 0.783838, 0.782912, 0.783742, 0.814972, 0.784002, 0.804101, 0.793526, 0.785154, 0.784352, 0.780533, 0.782488, 0.783224, 0.781714, 0.780536, 0.782567, 0.78189, 0.78355, 0.783564, 0.785123, 0.783755, 0.779289, 0.787313, 0.779603, 0.780378, 0.778573, 0.779039, 0.780559
0.836761, 0.836, 0.837108, 0.838655, 0.838388, 0.839172, 0.840285, 0.861422, 0.83856, 0.855214, 0.83881, 0.838596, 0.83784, 0.836842, 0.837818, 0.836514, 0.839152, 0.838844, 0.840266, 0.832838, 0.835444, 0.836096, 0.837187, 0.836294, 0.835194, 0.838674, 0.839381, 0.840199, 0.84262, 0.835675, 0.835359, 0.839295, 0.846236, 0.835702, 0.837187, 0.857086, 0.843276, 0.835145, 0.835139, 0.838925, 0.837796, 0.83834, 0.837912, 0.862767, 0.839765, 0.832176, 0.829438, 0.817047, 0.818633, 0.815382, 0.824631, 0.840859, 0.91851, 0.925693, 0.954609, 0.975259, 1.00664, 1.2916, 1.28973, 1.30938, 1.2921, 1.29137, 1.14096, 0.978617, 0.944058, 0.936881, 0.892501, 0.881695, 0.870452, 0.828622, 0.814469, 0.809874, 0.813545, 0.812216, 0.817713, 0.821051, 0.82207, 0.821483, 0.82146, 0.823417, 0.817269, 0.817012, 0.819048, 0.821922, 0.830062, 0.831309, 0.821438, 0.825699, 0.824956, 0.821434, 0.821917, 0.821913, 0.812767, 0.812066, 0.810869, 0.81076, 0.808503, 0.807789, 0.811072, 0.825194, 0.809132, 0.822513, 0.814822, 0.814386, 0.814618, 0.813512, 0.825826, 0.827546, 0.816727, 0.809196, 0.808981, 0.801774, 0.803791, 0.799983, 0.800125, 0.798915, 0.795864, 0.800192, 0.796753, 0.80363, 0.802416, 0.804443, 0.804663, 0.804121, 0.814525, 0.804539, 0.805786, 0.805055, 0.81228, 0.804795, 0.806077, 0.805974, 0.806323, 0.806431, 0.806804, 0.806247, 0.805723, 0.804349, 0.804383, 0.804303, 0.804269, 0.803763, 0.806506, 0.799698, 0.795611, 0.798214, 0.801336, 0.801715, 0.796106, 0.797506, 0.804303, 0.794016, 0.797318, 0.798215, 0.797044, 0.798043, 0.798928, 0.800462, 0.800496, 0.815458, 0.805002, 0.731077, 0.733034, 0.803717, 0.813665, 0.808003, 0.810988, 0.802244, 0.794872, 0.801858, 0.795978, 0.797414, 0.801245, 0.797357, 0.797872, 0.808513, 0.809004, 0.797851, 0.798615, 0.797653, 0.795835, 0.79704, 0.798055, 0.795481, 0.794038, 0.795417, 0.795254, 0.794678, 0.772613, 0.798454, 0.798124, 0.797792, 0.795685, 0.795639, 0.798472, 0.804091, 0.812122, 0.81225, 0.803335, 0.79918, 0.798966, 0.802848, 0.814134, 0.805192, 0.80692, 0.812342, 0.81148, 0.806167, 0.803973, 0.806302, 0.805671, 0.797235, 0.796, 0.796692, 0.798477, 0.794461, 0.791449, 0.789993, 0.787498, 0.792153, 0.791554, 0.780005, 0.774077, 0.742743, 0.743278, 0.742058, 0.741939, 0.770123, 0.753838, 0.769578, 0.776222, 0.788245, 0.789127, 0.829461, 1.17928, 1.17196, 1.16372, 1.14914, 0.976082, 0.848507, 0.828747, 0.811817, 0.811587, 0.786849, 0.778776, 0.761579, 0.766894, 0.764808, 0.787135, 0.780656, 0.788049, 0.790774, 0.791387, 0.787909, 0.792502, 0.790937, 0.792115, 0.793383, 0.788337, 0.797572, 0.790608, 0.788155, 0.790215, 0.787616, 0.806194, 0.787336, 0.787377, 0.787779, 0.804979, 0.785631, 0.786691, 0.796354, 0.784398, 0.784901, 0.785313, 0.784242, 0.778579, 0.7824, 0.785151, 0.793019, 0.782655, 0.79023, 0.790137, 0.790596, 0.780848, 0.79798, 0.783655, 0.782277, 0.80002, 0.782385, 0.782223, 0.781771, 0.787146, 0.78119, 0.787492, 0.788345, 0.776994, 0.780004, 0.776033, 0.775393
0.835891, 0.836145, 0.83896, 0.837282, 0.836002, 0.83696, 0.840905, 0.85966, 0.83868, 0.840695, 0.839303, 0.838949, 0.839721, 0.837292, 0.83626, 0.837541, 0.839618, 0.839565, 0.83961, 0.835578, 0.837215, 0.840731, 0.837272, 0.838494, 0.83624, 0.843374, 0.845816, 0.848508, 0.846208, 0.835645, 0.836423, 0.835527, 0.838808, 0.840887, 0.839269, 0.839245, 0.835661, 0.833859, 0.845224, 0.84568, 0.83702, 0.836576, 0.847094, 0.836491, 0.838952, 0.819289, 0.816965, 0.807937, 0.82494, 0.798047, 0.81042, 0.819532, 0.860729, 0.904578, 0.936838, 0.978516, 1.01384, 1.28532, 1.30566, 1.3138, 1.32323, 1.31948, 1.13979, 0.980168, 0.967434, 0.945498, 0.911197, 0.839593, 0.853104, 0.826901, 0.832499, 0.812736, 0.815505, 0.813379, 0.818454, 0.816741, 0.827084, 0.823042, 0.82278, 0.820491, 0.821219, 0.818275, 0.819372, 0.81872, 0.818427, 0.822739, 0.822603, 0.820768, 0.82259, 0.821523, 0.821355, 0.819011, 0.815216, 0.812626, 0.813059, 0.811558, 0.808344, 0.816028, 0.812536, 0.794209, 0.812681, 0.813032, 0.813926, 0.81607, 0.828703, 0.832986, 0.833874, 0.819092, 0.807905, 0.804682, 0.802212, 0.803847, 0.798635, 0.798776, 0.807277, 0.808423, 0.794856, 0.795665, 0.799951, 0.799372, 0.802571, 0.805092, 0.805368, 0.805073, 0.82642, 0.8059, 0.804238, 0.803757, 0.815285, 0.805759, 0.805668, 0.806763, 0.80855, 0.807, 0.807188, 0.805304, 0.808002, 0.805108, 0.804334, 0.816928, 0.804336, 0.817574, 0.807822, 0.799331, 0.8121, 0.795536, 0.795165, 0.801048, 0.797306, 0.801705, 0.798629, 0.797834, 0.80058, 0.797058, 0.79742, 0.804396, 0.799168, 0.798865, 0.801547, 0.805735, 0.803323, 0.815381, 0.813693, 0.805979, 0.806643, 0.805514, 0.818304, 0.804435, 0.807545, 0.797482, 0.797314, 0.795656, 0.797017, 0.801183, 0.801956, 0.798412, 0.80029, 0.79894, 0.798127, 0.799021, 0.79707, 0.804419, 0.797113, 0.796879, 0.797827, 0.801666, 0.809582, 0.794966, 0.802589, 0.798273, 0.794786, 0.79791, 0.793869, 0.80325, 0.80089, 0.8083, 0.812768, 0.810056, 0.806943, 0.801114, 0.808205, 0.803156, 0.807337, 0.803058, 0.803487, 0.80563, 0.806077, 0.81128, 0.805097, 0.805043, 0.808257, 0.801161, 0.800747, 0.80172, 0.794951, 0.794344, 0.787935, 0.790681, 0.785428, 0.784944, 0.791742, 0.769974, 0.764017, 0.762036, 0.745775, 0.747326, 0.748776, 0.736334, 0.743449, 0.750657, 0.764905, 0.771772, 0.774435, 0.837098, 1.19145, 1.19174, 1.17479, 1.04048, 0.905644, 0.861474, 0.810413, 0.807593, 0.793425, 0.81996, 0.777549, 0.794912, 0.785225, 0.780563, 0.781226, 0.788261, 0.787902, 0.783563, 0.788347, 0.791574, 0.787563, 0.789344, 0.790699, 0.787489, 0.789008, 0.807772, 0.807782, 0.790953, 0.790037, 0.790951, 0.804828, 0.793963, 0.798266, 0.789248, 0.787013, 0.786973, 0.78703, 0.786873, 0.784859, 0.786435, 0.781086, 0.781373, 0.7824, 0.788524, 0.790044, 0.787868, 0.783626, 0.784587, 0.805027, 0.781469, 0.782552, 0.783246, 0.79728, 0.785284, 0.798366, 0.797608, 0.781074, 0.78345, 0.783342, 0.777564, 0.777796, 0.777011, 0.788517, 0.782147, 0.787745, 0.783692
0.841882, 0.838839, 0.837484, 0.838329, 0.837723, 0.843903, 0.835819, 0.840078, 0.839263, 0.836519, 0.839396, 0.837951, 0.837192, 0.838143, 0.834298, 0.833926, 0.842299, 0.838617, 0.838284, 0.838058, 0.839442, 0.844, 0.843807, 0.836046, 0.837789, 0.841151, 0.84222, 0.841603, 0.862763, 0.851965, 0.836923, 0.836648, 0.837102, 0.848041, 0.839875, 0.837085, 0.851254, 0.838889, 0.837013, 0.843321, 0.844331, 0.856154, 0.840392, 0.852975, 0.844936, 0.826559, 0.836879, 0.808791, 0.812076, 0.802985, 0.804, 0.84017, 0.883414, 0.884182, 0.960697, 0.983019, 1.02608, 1.02607, 1.30488, 1.31259, 1.32313, 1.31302, 1.13097, 1.00924, 0.975902, 0.939275, 0.852802, 0.852367, 0.840089, 0.824814, 0.83293, 0.812976, 0.819706, 0.819418, 0.821196, 0.822688, 0.82786, 0.821743, 0.822384, 0.821048, 0.818583, 0.819471, 0.815788, 0.821408, 0.821339, 0.821924, 0.82245, 0.821723, 0.831891, 0.822861, 0.823804, 0.821714, 0.821078, 0.812929, 0.813544, 0.814398, 0.812997, 0.814725, 0.814034, 0.812072, 0.82549, 0.814938, 0.812833, 0.834847, 0.81151, 0.81166, 0.81497, 0.810524, 0.8082, 0.811711, 0.80226, 0.815638, 0.800368, 0.798027, 0.798, 0.798522, 0.795981, 0.801436, 0.807707, 0.800081, 0.799647, 0.81101, 0.804872, 0.804029, 0.805633, 0.805115, 0.804238, 0.825543, 0.812259, 0.806171, 0.807322, 0.807755, 0.807332, 0.806858, 0.807339, 0.822239, 0.807679, 0.806049, 0.806854, 0.805718, 0.808018, 0.811772, 0.807777, 0.801951, 0.799138, 0.798087, 0.806272, 0.808438, 0.800251, 0.797744, 0.799176, 0.79854, 0.798547, 0.804203, 0.799286, 0.802116, 0.802439, 0.800741, 0.803636, 0.816481, 0.802797, 0.81056, 0.80582, 0.805086, 0.810471, 0.805166, 0.805215, 0.812023, 0.796957, 0.797563, 0.79901, 0.796511, 0.803931, 0.801486, 0.80022, 0.800104, 0.800885, 0.800519, 0.800308, 0.800634, 0.800201, 0.798123, 0.798838, 0.806943, 0.794922, 0.793888, 0.797758, 0.787502, 0.802098, 0.800891, 0.804135, 0.804469, 0.804564, 0.81113, 0.808108, 0.805983, 0.818366, 0.842755, 0.809344, 0.807991, 0.803161, 0.806966, 0.810113, 0.808705, 0.808112, 0.804169, 0.804868, 0.811455, 0.811328, 0.803791, 0.804679, 0.806024, 0.817393, 0.794634, 0.802269, 0.788006, 0.786286, 0.788155, 0.788026, 0.785206, 0.783671, 0.77946, 0.767317, 0.750505, 0.742183, 0.75496, 0.758281, 0.759778, 0.759818, 0.75063, 0.76435, 0.760307, 0.787519, 0.798647, 0.835253, 1.27822, 1.29224, 1.09869, 1.05803, 0.847071, 0.811824, 0.806044, 0.80637, 0.805648, 0.790893, 0.783345, 0.794408, 0.776295, 0.794276, 0.793715, 0.792937, 0.792356, 0.792319, 0.793783, 0.798427, 0.796438, 0.790646, 0.792527, 0.791559, 0.79408, 0.79359, 0.809624, 0.811869, 0.790914, 0.792938, 0.802285, 0.799866, 0.799593, 0.790702, 0.789256, 0.786768, 0.78831, 0.786644, 0.783888, 0.784368, 0.787709, 0.794586, 0.784388, 0.784325, 0.78362, 0.786798, 0.787577, 0.780725, 0.791511, 0.78479, 0.787126, 0.784768, 0.785157, 0.783471, 0.782553, 0.782731, 0.780111, 0.777966, 0.777709, 0.770044, 0.775575, 0.781338, 0.779465, 0.783779, 0.782045
0.839963, 0.837928, 0.836673, 0.835645, 0.843324, 0.837419, 0.840149, 0.838123, 0.841372, 0.838755, 0.83765, 0.839854, 0.839395, 0.834897, 0.842426, 0.842831, 0.83618, 0.836291, 0.837905, 0.83908, 0.838899, 0.838501, 0.839296, 0.838617, 0.838209, 0.837094, 0.845262, 0.852652, 0.837848, 0.849388, 0.836442, 0.837004, 0.847407, 0.8377, 0.836901, 0.837283, 0.839904, 0.836501, 0.8424, 0.8381, 0.838677, 0.841857, 0.839263, 0.852623, 0.844601, 0.838431, 0.822338, 0.807741, 0.836836, 0.800081, 0.800383, 0.81578, 0.862784, 0.913582, 0.947098, 0.970718, 1.01585, 1.05172, 1.33359, 1.33394, 1.32241, 1.33671, 1.0295, 1.00201, 0.956881, 0.950119, 0.885494, 0.853645, 0.841699, 0.825879, 0.827588, 0.828548, 0.827082, 0.823784, 0.828797, 0.826448, 0.825586, 0.824068, 0.829801, 0.825267, 0.819034, 0.827485, 0.82486, 0.818655, 0.821496, 0.82164, 0.825105, 0.825069, 0.825184, 0.828264, 0.820507, 0.822954, 0.825872, 0.817622, 0.814039, 0.813966, 0.815933, 0.815261, 0.813123, 0.813186, 0.816204, 0.814194, 0.814581, 0.811912, 0.821843, 0.812078, 0.814693, 0.807884, 0.815902, 0.808907, 0.807452, 0.804691, 0.787388, 0.796942, 0.794899, 0.794079, 0.796192, 0.795228, 0.784909, 0.795594, 0.804533, 0.80138, 0.805265, 0.80571, 0.829657, 0.807409, 0.805507, 0.811921, 0.810761, 0.806848, 0.80729, 0.807439, 0.807417, 0.807912, 0.80618, 0.8073, 0.80662, 0.80695, 0.806305, 0.806411, 0.822662, 0.812525, 0.807403, 0.798683, 0.799462, 0.798978, 0.797937, 0.800652, 0.798485, 0.799234, 0.799456, 0.801565, 0.802086, 0.801804, 0.80339, 0.803025, 0.812568, 0.813181, 0.813214, 0.814183, 0.80454, 0.809016, 0.803957, 0.811501, 0.810646, 0.81553, 0.807422, 0.797288, 0.797646, 0.801605, 0.800289, 0.79731, 0.799738, 0.798783, 0.833118, 0.799681, 0.800725, 0.800917, 0.800619, 0.800811, 0.801324, 0.798193, 0.79922, 0.7973, 0.797512, 0.795989, 0.796157, 0.794895, 0.793509, 0.799962, 0.800179, 0.802641, 0.80439, 0.808146, 0.809721, 0.812434, 0.838606, 0.831075, 0.81508, 0.818235, 0.81023, 0.804861, 0.803531, 0.801785, 0.807944, 0.811757, 0.800221, 0.799995, 0.799943, 0.813873, 0.800547, 0.809586, 0.822435, 0.798449, 0.799947, 0.794197, 0.797201, 0.781287, 0.800897, 0.786699, 0.786637, 0.782148, 0.760355, 0.73844, 0.737141, 0.757121, 0.790561, 0.787594, 0.766423, 0.78855, 0.761799, 0.756646, 0.766463, 0.821372, 0.823404, 1.30486, 1.30593, 1.20222, 1.06801, 0.854866, 0.836253, 0.803076, 0.791334, 0.807816, 0.76879, 0.77043, 0.773567, 0.794912, 0.794507, 0.795909, 0.795519, 0.798414, 0.794326, 0.79526, 0.798764, 0.797637, 0.794447, 0.791029, 0.795432, 0.796509, 0.794073, 0.794886, 0.79388, 0.79355, 0.794044, 0.805374, 0.792651, 0.792214, 0.79014, 0.791058, 0.789687, 0.788002, 0.790586, 0.78697, 0.779573, 0.779397, 0.79037, 0.785036, 0.784893, 0.785214, 0.784988, 0.78559, 0.798091, 0.784948, 0.785186, 0.786033, 0.78435, 0.785121, 0.784262, 0.78067, 0.780534, 0.789997, 0.783966, 0.775871, 0.787348, 0.793164, 0.779914, 0.784127, 0.783996, 0.783913
0.835451, 0.835687, 0.837795, 0.836908, 0.838367, 0.835877, 0.841324, 0.846485, 0.845072, 0.843017, 0.840544, 0.841988, 0.83876, 0.841741, 0.842236, 0.852671, 0.839904, 0.837958, 0.839562, 0.840392, 0.839024, 0.841884, 0.864591, 0.842407, 0.842852, 0.838773, 0.846892, 0.838368, 0.839882, 0.84278, 0.83741, 0.837332, 0.837916, 0.842839, 0.838492, 0.837216, 0.842639, 0.839905, 0.848258, 0.836867, 0.839026, 0.840488, 0.839475, 0.890041, 0.892619, 0.861198, 0.836623, 0.810696, 0.79598, 0.798168, 0.801226, 0.800509, 0.824406, 0.863275, 0.927797, 0.956881, 1.05774, 1.04643, 1.1061, 1.34403, 1.10958, 1.05975, 1.04004, 1.00941, 1.00621, 0.89234, 0.893803, 0.871304, 0.854132, 0.83087, 0.823225, 0.829573, 0.830419, 0.828419, 0.835287, 0.832451, 0.831232, 0.828793, 0.82544, 0.820251, 0.822628, 0.818074, 0.818268, 0.828965, 0.822177, 0.828502, 0.824456, 0.825938, 0.823045, 0.823249, 0.822071, 0.826551, 0.822939, 0.828337, 0.816472, 0.816468, 0.814242, 0.814033, 0.812726, 0.825207, 0.817501, 0.826415, 0.822136, 0.812385, 0.811357, 0.809217, 0.811376, 0.806274, 0.81202, 0.808172, 0.805657, 0.797535, 0.799598, 0.800784, 0.800871, 0.797801, 0.797056, 0.795625, 0.794059, 0.804367, 0.776044, 0.80089, 0.801058, 0.801432, 0.803914, 0.803624, 0.803534, 0.803243, 0.807251, 0.808022, 0.809469, 0.807537, 0.807191, 0.805732, 0.805279, 0.806433, 0.825073, 0.805897, 0.819802, 0.807628, 0.80822, 0.808889, 0.809151, 0.80395, 0.804461, 0.798201, 0.800325, 0.80161, 0.801209, 0.803295, 0.80124, 0.801043, 0.800849, 0.803834, 0.802548, 0.808338, 0.815284, 0.819873, 0.819135, 0.815628, 0.821096, 0.817748, 0.809302, 0.819968, 0.829097, 0.811829, 0.811598, 0.7972, 0.798627, 0.801967, 0.798469, 0.79948, 0.799505, 0.799466, 0.798586, 0.800213, 0.800375, 0.801026, 0.802451, 0.828283, 0.822663, 0.805909, 0.80391, 0.815981, 0.807355, 0.807786, 0.79764, 0.795841, 0.804029, 0.805043, 0.801112, 0.815418, 0.805435, 0.812826, 0.806389, 0.821874, 0.819169, 0.804938, 0.804185, 0.805748, 0.80488, 0.80829, 0.810932, 0.808111, 0.801377, 0.79852, 0.798474, 0.805182, 0.801535, 0.801908, 0.801463, 0.798096, 0.803039, 0.801789, 0.800933, 0.785267, 0.790727, 0.790158, 0.78903, 0.78813, 0.789955, 0.782846, 0.766683, 0.732963, 0.746775, 0.769992, 0.759616, 0.755267, 0.744322, 0.786761, 0.781704, 0.758513, 0.784772, 0.790958, 0.805035, 1.27959, 1.33695, 1.23293, 1.10281, 0.851304, 0.83246, 0.817979, 0.812308, 0.775942, 0.774654, 0.773627, 0.773606, 0.790741, 0.793162, 0.792067, 0.794923, 0.795311, 0.794836, 0.798092, 0.795429, 0.798743, 0.794333, 0.795279, 0.794102, 0.8079, 0.809022, 0.808829, 0.799526, 0.80582, 0.804539, 0.811118, 0.810821, 0.795103, 0.800882, 0.792153, 0.789417, 0.797215, 0.788834, 0.78369, 0.789292, 0.787757, 0.790521, 0.791169, 0.789024, 0.788598, 0.788071, 0.788416, 0.786102, 0.786235, 0.787235, 0.785248, 0.784364, 0.822707, 0.787373, 0.788209, 0.771205, 0.77994, 0.77384, 0.770751, 0.770755, 0.776417, 0.787359, 0.787235, 0.809429, 0.784936
0.836778, 0.839543, 0.839151, 0.837113, 0.838259, 0.838622, 0.838622, 0.846262, 0.842177, 0.839665, 0.850463, 0.842742, 0.840779, 0.840118, 0.837435, 0.840171, 0.834022, 0.836199, 0.838133, 0.840286, 0.839932, 0.86486, 0.859663, 0.840472, 0.842362, 0.837739, 0.839709, 0.840322, 0.839901, 0.838933, 0.837537, 0.837089, 0.836114, 0.841032, 0.838304, 0.850072, 0.8389, 0.838908, 0.840636, 0.839929, 0.840951, 0.869023, 0.844167, 0.897488, 0.891605, 0.83387, 0.827308, 0.810491, 0.805506, 0.814663, 0.795431, 0.813666, 0.81684, 0.918845, 0.914652, 0.952526, 1.05433, 1.07432, 1.10826, 1.11536, 1.10124, 1.08922, 1.07191, 1.02896, 1.02604, 0.911565, 0.880848, 0.878147, 0.86256, 0.849698, 0.815684, 0.818904, 0.828923, 0.831939, 0.843002, 0.849695, 0.827386, 0.83032, 0.823901, 0.825042, 0.818628, 0.820412, 0.819192, 0.828707, 0.822877, 0.824309, 0.823214, 0.823624, 0.824225, 0.827175, 0.825927, 0.825623, 0.825528, 0.825249, 0.82213, 0.822897, 0.828059, 0.82074, 0.823639, 0.814542, 0.815146, 0.815654, 0.818692, 0.811994, 0.812209, 0.812106, 0.808657, 0.80651, 0.808064, 0.805803, 0.808692, 0.800889, 0.798613, 0.799125, 0.804878, 0.796715, 0.794988, 0.798994, 0.790492, 0.791981, 0.804433, 0.798707, 0.807918, 0.798752, 0.800102, 0.799451, 0.798999, 0.804444, 0.807275, 0.807614, 0.815329, 0.807627, 0.807603, 0.807705, 0.807747, 0.807521, 0.807326, 0.807539, 0.807398, 0.809442, 0.808174, 0.806836, 0.804629, 0.801816, 0.801781, 0.800784, 0.795246, 0.800918, 0.800694, 0.800844, 0.799874, 0.799019, 0.805492, 0.801857, 0.803459, 0.820929, 0.845541, 0.853422, 0.815985, 0.815984, 0.816609, 0.832101, 0.825119, 0.815108, 0.814392, 0.81691, 0.814721, 0.800058, 0.798677, 0.817422, 0.811728, 0.799516, 0.801099, 0.800004, 0.800561, 0.801531, 0.811869, 0.799307, 0.801322, 0.801734, 0.801317, 0.804365, 0.82251, 0.825348, 0.815494, 0.798754, 0.803766, 0.801086, 0.796303, 0.798069, 0.798507, 0.805503, 0.805762, 0.812982, 0.812191, 0.83531, 0.811759, 0.825919, 0.802473, 0.800996, 0.799743, 0.799003, 0.802494, 0.801795, 0.799283, 0.802217, 0.798829, 0.797753, 0.801125, 0.798938, 0.8054, 0.801388, 0.797866, 0.800457, 0.794335, 0.793485, 0.788852, 0.801629, 0.797851, 0.801736, 0.787828, 0.785723, 0.763403, 0.746088, 0.72739, 0.732353, 0.7111, 0.721563, 0.743082, 0.75402, 0.755963, 0.779609, 0.815434, 0.794031, 0.81745, 1.33387, 1.22527, 1.22222, 1.21085, 0.870573, 0.827993, 0.860729, 0.816129, 0.76586, 0.773782, 0.772935, 0.773711, 0.780396, 0.789296, 0.796275, 0.794694, 0.795904, 0.794292, 0.795651, 0.798638, 0.798461, 0.791983, 0.812083, 0.800524, 0.799138, 0.798244, 0.819664, 0.797909, 0.797592, 0.796817, 0.797577, 0.798253, 0.797687, 0.796242, 0.798, 0.792769, 0.791215, 0.796877, 0.786426, 0.79449, 0.804465, 0.825713, 0.791963, 0.792943, 0.791569, 0.790687, 0.808346, 0.787508, 0.789044, 0.788154, 0.790709, 0.787501, 0.788675, 0.783975, 0.784303, 0.784025, 0.776791, 0.775164, 0.771608, 0.772565, 0.784232, 0.78571, 0.794803, 0.784079, 0.785016
0.839025, 0.838674, 0.837491, 0.835497, 0.839297, 0.839617, 0.842537, 0.842735, 0.836815, 0.844958, 0.840814, 0.841243, 0.848988, 0.8397, 0.838718, 0.838145, 0.838641, 0.84121, 0.842836, 0.840618, 0.848982, 0.841194, 0.843244, 0.845273, 0.839126, 0.846633, 0.840503, 0.847122, 0.844669, 0.853174, 0.840121, 0.840979, 0.83962, 0.838702, 0.850053, 0.838547, 0.840429, 0.843806, 0.840079, 0.850123, 0.840493, 0.85218, 0.855891, 0.850317, 0.83991, 0.83701, 0.835617, 0.822447, 0.811172, 0.796836, 0.801736, 0.810011, 0.830054, 0.855917, 0.907285, 0.958184, 1.02343, 1.07559, 1.08716, 1.10149, 1.12319, 1.12286, 1.04153, 1.03971, 0.939328, 0.888254, 0.877456, 0.863786, 0.856889, 0.835751, 0.83483, 0.842132, 0.836665, 0.836514, 0.838285, 0.849299, 0.82666, 0.82525, 0.820237, 0.825338, 0.826739, 0.819527, 0.829656, 0.828421, 0.826508, 0.828245, 0.823011, 0.836708, 0.832734, 0.831329, 0.83125, 0.826119, 0.824384, 0.824934, 0.823744, 0.824708, 0.821637, 0.819165, 0.819207, 0.818839, 0.821503, 0.816168, 0.804588, 0.821265, 0.810749, 0.815692, 0.808722, 0.814437, 0.802665, 0.802102, 0.802492, 0.797947, 0.79545, 0.796022, 0.810233, 0.797938, 0.796629, 0.800405, 0.795399, 0.795057, 0.797872, 0.792383, 0.797704, 0.799613, 0.800062, 0.80065, 0.80132, 0.79787, 0.808589, 0.807545, 0.808039, 0.809982, 0.808612, 0.807594, 0.807271, 0.807757, 0.815579, 0.808641, 0.809063, 0.808381, 0.808559, 0.808803, 0.805595, 0.80698, 0.803116, 0.805158, 0.801426, 0.805239, 0.802035, 0.801932, 0.806233, 0.798665, 0.804918, 0.804522, 0.808905, 0.816814, 0.816946, 0.82747, 0.828307, 0.818697, 0.842288, 0.821776, 0.819976, 0.822803, 0.818051, 0.825951, 0.820141, 0.799551, 0.799404, 0.798203, 0.809024, 0.798992, 0.79936, 0.800215, 0.800459, 0.799974, 0.822627, 0.799343, 0.801242, 0.802895, 0.803578, 0.804769, 0.811402, 0.826031, 0.80441, 0.804751, 0.799787, 0.801103, 0.803484, 0.791871, 0.806079, 0.807906, 0.803291, 0.80483, 0.811915, 0.820962, 0.815396, 0.808132, 0.803332, 0.805056, 0.807094, 0.795913, 0.804531, 0.814759, 0.808403, 0.801741, 0.800995, 0.80411, 0.798503, 0.802074, 0.812064, 0.813954, 0.797628, 0.797483, 0.797915, 0.799049, 0.79264, 0.791219, 0.792307, 0.794171, 0.789627, 0.769227, 0.770927, 0.728458, 0.742978, 0.735919, 0.718578, 0.727073, 0.753503, 0.756266, 0.763951, 0.762146, 0.808042, 0.825627, 0.839373, 1.30964, 1.23585, 1.21909, 0.926616, 0.887359, 0.861226, 0.810281, 0.783156, 0.784787, 0.777231, 0.763045, 0.766213, 0.788059, 0.792921, 0.800957, 0.7977, 0.797829, 0.796986, 0.795735, 0.798375, 0.795326, 0.800626, 0.801052, 0.800502, 0.799649, 0.807779, 0.795862, 0.804159, 0.804806, 0.80618, 0.797489, 0.798554, 0.79736, 0.798702, 0.795278, 0.792909, 0.791994, 0.791537, 0.79147, 0.79238, 0.794664, 0.794067, 0.792482, 0.793992, 0.794383, 0.791498, 0.792067, 0.791054, 0.79087, 0.825141, 0.791047, 0.793554, 0.788139, 0.787629, 0.781633, 0.782197, 0.782794, 0.780035, 0.78482, 0.782959, 0.791456, 0.788713, 0.78733, 0.794252, 0.783594
0.856896, 0.836176, 0.845372, 0.848557, 0.836432, 0.838987, 0.839586, 0.845098, 0.860541, 0.840992, 0.840764, 0.839981, 0.840137, 0.842223, 0.844713, 0.842316, 0.839481, 0.840398, 0.856685, 0.844237, 0.86421, 0.839719, 0.851579, 0.840552, 0.839995, 0.848807, 0.839626, 0.848862, 0.857216, 0.840306, 0.847342, 0.840216, 0.838102, 0.839396, 0.836762, 0.849308, 0.840349, 0.840519, 0.838681, 0.843442, 0.845111, 0.846495, 0.852445, 0.841324, 0.849613, 0.845662, 0.81978, 0.811945, 0.802861, 0.802028, 0.800327, 0.828468, 0.835415, 0.861154, 0.886403, 0.965961, 1.04371, 1.07498, 1.09364, 1.12046, 1.1222, 1.1297, 1.08697, 1.05024, 0.907845, 0.908388, 0.884436, 0.884593, 0.874896, 0.860112, 0.850234, 0.811528, 0.832275, 0.822761, 0.826391, 0.840161, 0.839041, 0.823941, 0.828023, 0.828176, 0.82368, 0.829255, 0.828637, 0.825991, 0.824012, 0.831711, 0.823644, 0.832372, 0.826794, 0.827966, 0.826499, 0.827332, 0.835968, 0.828451, 0.826409, 0.826517, 0.824528, 0.826041, 0.821483, 0.820119, 0.819717, 0.82111, 0.825036, 0.818967, 0.813129, 0.810874, 0.809171, 0.810453, 0.807379, 0.811158, 0.800812, 0.799601, 0.79706, 0.796849, 0.795245, 0.794797, 0.797645, 0.797323, 0.79774, 0.799322, 0.787732, 0.791138, 0.792126, 0.799321, 0.802839, 0.799024, 0.799664, 0.799541, 0.809635, 0.808866, 0.807857, 0.807688, 0.806138, 0.807997, 0.807986, 0.808907, 0.808379, 0.809984, 0.80829, 0.80952, 0.809977, 0.80847, 0.806086, 0.805388, 0.80384, 0.803747, 0.802471, 0.80169, 0.802301, 0.799264, 0.79801, 0.815479, 0.80689, 0.812527, 0.818999, 0.814847, 0.84335, 0.811691, 0.811413, 0.848078, 0.825301, 0.814194, 0.835845, 0.836754, 0.817389, 0.83296, 0.811451, 0.821569, 0.810464, 0.811921, 0.798212, 0.799729, 0.800306, 0.812127, 0.800479, 0.801009, 0.800342, 0.801131, 0.804643, 0.803747, 0.805512, 0.855938, 0.850324, 0.829598, 0.809463, 0.807861, 0.810801, 0.797797, 0.808626, 0.79831, 0.806015, 0.80319, 0.804536, 0.80405, 0.803899, 0.804778, 0.811994, 0.804847, 0.803061, 0.800622, 0.808743, 0.800842, 0.796267, 0.796072, 0.797493, 0.801403, 0.799093, 0.797794, 0.798675, 0.803019, 0.816583, 0.80176, 0.800226, 0.798966, 0.804839, 0.796271, 0.799102, 0.794475, 0.794632, 0.801673, 0.80569, 0.781934, 0.783006, 0.756723, 0.741769, 0.733066, 0.728951, 0.731418, 0.739644, 0.76226, 0.776551, 0.771213, 0.801832, 0.823063, 0.905007, 1.32899, 1.31944, 1.24595, 0.90848, 0.884187, 0.825328, 0.796476, 0.798127, 0.772916, 0.763993, 0.761905, 0.774357, 0.774574, 0.803552, 0.794864, 0.803984, 0.804189, 0.806804, 0.815079, 0.802713, 0.798828, 0.799658, 0.799474, 0.799239, 0.802444, 0.801347, 0.799509, 0.804672, 0.797929, 0.798931, 0.798458, 0.800798, 0.800498, 0.801293, 0.793893, 0.795322, 0.796068, 0.79409, 0.792978, 0.79368, 0.800978, 0.797391, 0.795213, 0.794726, 0.794029, 0.793681, 0.792764, 0.792748, 0.811755, 0.789311, 0.794873, 0.788263, 0.787568, 0.783438, 0.783964, 0.784887, 0.783104, 0.784382, 0.788062, 0.789716, 0.788507, 0.788424, 0.789393, 0.797991, 0.78655
0.845706, 0.841317, 0.841996, 0.838125, 0.83639, 0.83594, 0.839551, 0.840198, 0.840368, 0.83974, 0.841211, 0.840158, 0.853365, 0.843896, 0.870675, 0.842389, 0.845068, 0.840116, 0.83973, 0.859289, 0.839554, 0.842136, 0.840234, 0.853427, 0.845849, 0.840582, 0.840273, 0.840269, 0.840303, 0.839546, 0.83964, 0.840038, 0.837418, 0.838578, 0.841752, 0.840184, 0.84262, 0.844364, 0.847925, 0.843021, 0.842575, 0.842653, 0.843018, 0.850399, 0.850118, 0.856848, 0.831826, 0.818239, 0.809357, 0.810762, 0.80564, 0.812445, 0.828417, 0.850593, 0.88835, 0.903613, 1.04259, 1.06943, 1.14246, 1.19085, 1.17728, 1.17144, 1.12608, 1.05233, 0.935239, 0.906624, 0.885042, 0.864167, 0.85841, 0.863273, 0.807691, 0.807532, 0.83585, 0.820275, 0.839334, 0.84497, 0.829842, 0.825288, 0.825198, 0.824333, 0.824214, 0.83185, 0.826782, 0.827995, 0.826943, 0.823345, 0.827789, 0.829663, 0.82813, 0.828634, 0.828168, 0.827697, 0.827732, 0.827462, 0.826845, 0.825562, 0.82526, 0.82564, 0.824302, 0.822868, 0.821553, 0.819609, 0.818523, 0.838745, 0.818227, 0.829623, 0.818232, 0.808316, 0.813036, 0.802024, 0.801485, 0.80104, 0.797461, 0.795673, 0.793037, 0.791297, 0.794713, 0.795674, 0.797948, 0.795693, 0.793748, 0.791776, 0.804491, 0.795295, 0.804887, 0.804825, 0.799185, 0.798579, 0.799675, 0.808156, 0.809043, 0.812427, 0.80892, 0.808396, 0.808531, 0.809001, 0.809228, 0.809424, 0.809737, 0.809763, 0.812154, 0.811432, 0.808295, 0.815185, 0.807181, 0.810732, 0.806408, 0.804969, 0.801579, 0.801654, 0.810023, 0.802253, 0.801156, 0.811139, 0.809432, 0.844159, 0.835888, 0.856303, 0.857508, 0.820999, 0.81883, 0.823614, 0.829459, 0.846235, 0.826438, 0.827356, 0.80903, 0.818485, 0.811465, 0.811646, 0.799577, 0.800156, 0.800221, 0.800259, 0.800239, 0.801573, 0.802611, 0.804771, 0.804686, 0.817451, 0.806148, 0.804995, 0.820375, 0.817603, 0.801724, 0.800167, 0.807816, 0.809691, 0.798924, 0.80479, 0.802201, 0.80312, 0.805361, 0.80569, 0.804917, 0.802271, 0.802532, 0.802592, 0.809378, 0.810231, 0.80819, 0.807227, 0.80205, 0.803674, 0.802063, 0.799727, 0.798014, 0.798677, 0.800734, 0.8007, 0.801381, 0.80062, 0.801127, 0.800843, 0.805026, 0.79896, 0.800433, 0.790698, 0.788886, 0.789911, 0.785618, 0.783177, 0.756135, 0.756979, 0.740363, 0.728652, 0.743904, 0.736443, 0.733361, 0.750416, 0.779561, 0.781787, 0.819698, 0.898227, 0.919914, 1.28722, 1.26546, 1.27933, 0.977927, 0.829725, 0.816372, 0.796845, 0.77039, 0.766707, 0.763777, 0.770779, 0.787322, 0.796002, 0.803261, 0.822755, 0.800163, 0.800722, 0.818521, 0.801356, 0.804676, 0.798585, 0.799817, 0.798903, 0.800218, 0.80151, 0.802251, 0.801585, 0.79855, 0.806014, 0.800256, 0.79954, 0.80058, 0.797695, 0.798043, 0.796795, 0.794885, 0.797554, 0.795526, 0.796132, 0.795496, 0.795528, 0.796272, 0.795323, 0.795773, 0.794201, 0.79395, 0.835125, 0.792775, 0.815154, 0.79696, 0.790889, 0.789785, 0.789422, 0.785254, 0.785262, 0.784833, 0.785358, 0.786394, 0.788932, 0.787615, 0.789233, 0.791439, 0.791118, 0.790736, 0.788616
0.837318, 0.841952, 0.842129, 0.842988, 0.836035, 0.839373, 0.840531, 0.838815, 0.839058, 0.840946, 0.859362, 0.841716, 0.841202, 0.84175, 0.840267, 0.855351, 0.849506, 0.841037, 0.841473, 0.843375, 0.841751, 0.839808, 0.841472, 0.850363, 0.839249, 0.847518, 0.840038, 0.840601, 0.842555, 0.843221, 0.850744, 0.847814, 0.838031, 0.838631, 0.837952, 0.836524, 0.8388, 0.842921, 0.84511, 0.843014, 0.843494, 0.857424, 0.844968, 0.856607, 0.858537, 0.846561, 0.820065, 0.816366, 0.80752, 0.807303, 0.802804, 0.810051, 0.87055, 0.879466, 0.909768, 0.933759, 0.933618, 1.08576, 1.18521, 1.23993, 1.41565, 1.41689, 1.08858, 0.959835, 0.950209, 0.904189, 0.895372, 0.862745, 0.863059, 0.838782, 0.808399, 0.807467, 0.805888, 0.825813, 0.834774, 0.828454, 0.828193, 0.827536, 0.825904, 0.831589, 0.822022, 0.822423, 0.828317, 0.826168, 0.828432, 0.830615, 0.82552, 0.828677, 0.829019, 0.829393, 0.829272, 0.828438, 0.828404, 0.84996, 0.827433, 0.82749, 0.825397, 0.824527, 0.824905, 0.821781, 0.821163, 0.820057, 0.819078, 0.819455, 0.817712, 0.815711, 0.813038, 0.808105, 0.808624, 0.801178, 0.801789, 0.802664, 0.793545, 0.792397, 0.795056, 0.788478, 0.788702, 0.803282, 0.792038, 0.796913, 0.798091, 0.797156, 0.792691, 0.794304, 0.794914, 0.795763, 0.810219, 0.803436, 0.801962, 0.807383, 0.807819, 0.809196, 0.808918, 0.810652, 0.817291, 0.814314, 0.815364, 0.822688, 0.810772, 0.809731, 0.810156, 0.809434, 0.807617, 0.804129, 0.81127, 0.801056, 0.801368, 0.801613, 0.807433, 0.801618, 0.800918, 0.803877, 0.803337, 0.810865, 0.818222, 0.812352, 0.811438, 0.874797, 0.866144, 0.815473, 0.811934, 0.818123, 0.818238, 0.818567, 0.81932, 0.830461, 0.814131, 0.80975, 0.803092, 0.800875, 0.819604, 0.800909, 0.80125, 0.801439, 0.819611, 0.801959, 0.803974, 0.80467, 0.814325, 0.813791, 0.806267, 0.815028, 0.845848, 0.832344, 0.801566, 0.800942, 0.802588, 0.802034, 0.800991, 0.808885, 0.806033, 0.802793, 0.805783, 0.805585, 0.8057, 0.802126, 0.803868, 0.803423, 0.802673, 0.805727, 0.800949, 0.801063, 0.801602, 0.802579, 0.803919, 0.800343, 0.798549, 0.802728, 0.800051, 0.798754, 0.802175, 0.804244, 0.815261, 0.826532, 0.808694, 0.798845, 0.795534, 0.800058, 0.790901, 0.791468, 0.783601, 0.784576, 0.781511, 0.773533, 0.753948, 0.756868, 0.737714, 0.755101, 0.739347, 0.7569, 0.778276, 0.809232, 0.814057, 0.985082, 1.28184, 1.2757, 1.27818, 1.27888, 1.01139, 0.825613, 0.818852, 0.784419, 0.784996, 0.763915, 0.773949, 0.78939, 0.772782, 0.786551, 0.800478, 0.805684, 0.801235, 0.80011, 0.79998, 0.800893, 0.798931, 0.804849, 0.835095, 0.800309, 0.801192, 0.809268, 0.825539, 0.797387, 0.804007, 0.8022, 0.800983, 0.801034, 0.80045, 0.801067, 0.788804, 0.796281, 0.800003, 0.798829, 0.799148, 0.832111, 0.796209, 0.796871, 0.797267, 0.798264, 0.795384, 0.796354, 0.795736, 0.79472, 0.796012, 0.795922, 0.792668, 0.792056, 0.791791, 0.792532, 0.787427, 0.785449, 0.786225, 0.787393, 0.786883, 0.787238, 0.786859, 0.793941, 0.788876, 0.793481, 0.791357, 0.791906
0.835121, 0.838957, 0.838793, 0.841229, 0.839645, 0.837604, 0.838745, 0.841493, 0.841748, 0.841841, 0.842747, 0.845526, 0.846679, 0.843597, 0.846252, 0.846471, 0.846709, 0.843476, 0.842571, 0.856072, 0.855713, 0.840656, 0.839856, 0.839526, 0.839834, 0.849356, 0.860085, 0.841425, 0.856534, 0.838149, 0.839545, 0.840237, 0.846677, 0.839228, 0.840115, 0.856392, 0.842135, 0.844151, 0.844605, 0.844956, 0.845118, 0.844906, 0.854917, 0.845604, 0.86133, 0.840875, 0.836167, 0.820245, 0.819454, 0.804496, 0.800436, 0.808583, 0.878102, 0.868075, 0.909083, 0.926202, 0.994516, 1.07358, 1.23078, 1.21866, 1.42824, 1.34458, 1.09, 0.980562, 0.958245, 0.912263, 0.894954, 0.848696, 0.849462, 0.811859, 0.815548, 0.815995, 0.811718, 0.829571, 0.839552, 0.829866, 0.839932, 0.834707, 0.826136, 0.825671, 0.822894, 0.827768, 0.829042, 0.822738, 0.829499, 0.829175, 0.833043, 0.828533, 0.828823, 0.828805, 0.828969, 0.842554, 0.828397, 0.829107, 0.827639, 0.827561, 0.826214, 0.825336, 0.82473, 0.824281, 0.821538, 0.83977, 0.829975, 0.818533, 0.818032, 0.814404, 0.812337, 0.825524, 0.805674, 0.803524, 0.807908, 0.803584, 0.797358, 0.793168, 0.787691, 0.78819, 0.791972, 0.791597, 0.801936, 0.793176, 0.796825, 0.794212, 0.790973, 0.792469, 0.793437, 0.797625, 0.798775, 0.798429, 0.802354, 0.801817, 0.811335, 0.812685, 0.807904, 0.808459, 0.808511, 0.812574, 0.810954, 0.809901, 0.810133, 0.810065, 0.810353, 0.807837, 0.806576, 0.80678, 0.810374, 0.81273, 0.805568, 0.804461, 0.803237, 0.804566, 0.808082, 0.804145, 0.802924, 0.802529, 0.805396, 0.805541, 0.809408, 0.822044, 0.82702, 0.811398, 0.809289, 0.807148, 0.79987, 0.829171, 0.820016, 0.812393, 0.815683, 0.817984, 0.813776, 0.812547, 0.801457, 0.803624, 0.825227, 0.802572, 0.801977, 0.802944, 0.804057, 0.80445, 0.804414, 0.804919, 0.806305, 0.804432, 0.804214, 0.83517, 0.805091, 0.804544, 0.804967, 0.804421, 0.805586, 0.805679, 0.808758, 0.804196, 0.805371, 0.805539, 0.80476, 0.805804, 0.803147, 0.805897, 0.799545, 0.799526, 0.801067, 0.800194, 0.800955, 0.795132, 0.813661, 0.79793, 0.799902, 0.802171, 0.80044, 0.80787, 0.807579, 0.805315, 0.804844, 0.822968, 0.815484, 0.802426, 0.805264, 0.79556, 0.794721, 0.793972, 0.793959, 0.785892, 0.783689, 0.783307, 0.777849, 0.766971, 0.762513, 0.757055, 0.759068, 0.766814, 0.820377, 0.821353, 1.00449, 1.07129, 1.27433, 1.29355, 1.29472, 1.03013, 0.987882, 0.825335, 0.819271, 0.801488, 0.798458, 0.784962, 0.792717, 0.770236, 0.808434, 0.800182, 0.800541, 0.818701, 0.802053, 0.815405, 0.802018, 0.821335, 0.798464, 0.800843, 0.799987, 0.808793, 0.809273, 0.801835, 0.801964, 0.80263, 0.803324, 0.802647, 0.803859, 0.8023, 0.808844, 0.800961, 0.799828, 0.799424, 0.800484, 0.799758, 0.799036, 0.796151, 0.805078, 0.797884, 0.7975, 0.796987, 0.797346, 0.795339, 0.796135, 0.794706, 0.794223, 0.793868, 0.794268, 0.796403, 0.790709, 0.787486, 0.788751, 0.788321, 0.791802, 0.786679, 0.787609, 0.786944, 0.789173, 0.789396, 0.79375, 0.7894, 0.79176, 0.821692
0.842328, 0.84869, 0.844104, 0.839266, 0.837096, 0.842071, 0.852772, 0.84161, 0.840999, 0.843261, 0.852254, 0.855999, 0.845894, 0.844238, 0.852631, 0.855304, 0.860096, 0.843054, 0.848548, 0.845138, 0.842193, 0.840932, 0.845511, 0.838635, 0.850335, 0.841673, 0.84329, 0.841128, 0.840733, 0.842409, 0.839026, 0.84339, 0.867229, 0.84483, 0.840974, 0.840596, 0.842332, 0.85927, 0.852982, 0.849829, 0.845614, 0.845069, 0.845234, 0.845382, 0.844662, 0.849658, 0.83008, 0.823761, 0.81462, 0.81227, 0.800969, 0.809516, 0.850643, 0.886133, 0.898378, 0.956777, 0.994432, 0.994452, 1.20135, 1.35441, 1.3478, 1.34859, 1.11403, 0.990323, 0.963765, 0.91674, 0.923088, 0.837071, 0.835142, 0.830168, 0.807226, 0.805686, 0.815793, 0.821764, 0.825878, 0.828968, 0.828986, 0.828923, 0.82892, 0.826049, 0.826053, 0.82654, 0.827342, 0.827133, 0.829272, 0.824754, 0.83249, 0.826554, 0.828211, 0.829059, 0.828774, 0.828634, 0.829136, 0.828845, 0.827948, 0.827765, 0.830941, 0.826997, 0.824857, 0.837561, 0.822671, 0.831578, 0.817963, 0.818403, 0.815827, 0.822059, 0.818093, 0.815137, 0.805361, 0.804116, 0.798443, 0.797371, 0.795604, 0.794892, 0.795782, 0.791573, 0.788474, 0.789417, 0.796827, 0.806767, 0.794514, 0.794677, 0.789928, 0.789394, 0.790839, 0.794887, 0.801502, 0.797822, 0.799643, 0.804418, 0.808589, 0.811748, 0.811016, 0.810959, 0.809631, 0.808652, 0.810862, 0.808672, 0.809354, 0.809325, 0.809025, 0.810383, 0.812309, 0.805094, 0.805598, 0.807897, 0.807943, 0.805828, 0.80477, 0.803702, 0.805372, 0.805849, 0.803919, 0.804728, 0.812318, 0.805391, 0.821736, 0.821437, 0.826856, 0.808614, 0.810303, 0.829575, 0.841363, 0.831869, 0.833258, 0.853111, 0.861382, 0.822373, 0.811125, 0.81028, 0.839167, 0.802752, 0.803702, 0.804075, 0.804015, 0.804037, 0.834826, 0.804602, 0.822348, 0.821516, 0.805096, 0.804767, 0.804758, 0.804778, 0.805068, 0.805731, 0.822783, 0.821736, 0.807887, 0.803871, 0.80491, 0.805523, 0.806125, 0.806302, 0.805318, 0.807497, 0.804491, 0.805722, 0.808574, 0.802069, 0.80142, 0.802517, 0.808176, 0.814952, 0.80665, 0.808376, 0.804943, 0.808728, 0.797977, 0.80492, 0.804846, 0.802393, 0.808175, 0.805122, 0.809157, 0.802801, 0.800961, 0.814365, 0.794968, 0.79387, 0.791381, 0.791599, 0.789946, 0.779973, 0.773261, 0.773456, 0.763625, 0.770096, 0.780668, 0.798807, 0.819008, 0.867871, 0.88547, 1.27826, 1.27527, 1.29673, 1.31297, 1.04571, 1.04626, 0.825669, 0.819481, 0.81854, 0.816197, 0.818156, 0.816053, 0.789875, 0.784878, 0.79549, 0.799112, 0.801572, 0.810525, 0.807844, 0.80763, 0.808032, 0.810243, 0.804723, 0.815002, 0.801297, 0.801432, 0.817108, 0.802051, 0.802062, 0.802372, 0.804162, 0.808549, 0.802071, 0.801363, 0.800606, 0.799509, 0.803729, 0.814196, 0.820606, 0.818218, 0.796332, 0.797511, 0.799681, 0.798398, 0.800602, 0.797141, 0.796768, 0.795225, 0.812208, 0.798529, 0.800849, 0.794621, 0.795151, 0.792063, 0.792245, 0.795045, 0.790376, 0.788433, 0.787145, 0.789833, 0.800682, 0.791665, 0.791043, 0.790375, 0.78963, 0.802744, 0.79284
0.83829, 0.842101, 0.841757, 0.841533, 0.850248, 0.845307, 0.85003, 0.842851, 0.844911, 0.843668, 0.843302, 0.84376, 0.842568, 0.845584, 0.849737, 0.921961, 0.845891, 0.843005, 0.843277, 0.845389, 0.842728, 0.842595, 0.865898, 0.840912, 0.840717, 0.841999, 0.841198, 0.840249, 0.841552, 0.840377, 0.839847, 0.838911, 0.835531, 0.839271, 0.839174, 0.842506, 0.842878, 0.843872, 0.843706, 0.846117, 0.844576, 0.847308, 0.849281, 0.8459, 0.851607, 0.850638, 0.826374, 0.815748, 0.819996, 0.805698, 0.818609, 0.819271, 0.890661, 0.902088, 0.925823, 0.942204, 0.974273, 1.07359, 1.25064, 1.26429, 1.35542, 1.35106, 1.0116, 1.01222, 1.00256, 0.953592, 0.91921, 0.855188, 0.82295, 0.805227, 0.79671, 0.829098, 0.818007, 0.817712, 0.843963, 0.836785, 0.835068, 0.829328, 0.828362, 0.82846, 0.828061, 0.827704, 0.82762, 0.827017, 0.82651, 0.826296, 0.825771, 0.825658, 0.829219, 0.842826, 0.829741, 0.829557, 0.8302, 0.82933, 0.829243, 0.82753, 0.826344, 0.826157, 0.826945, 0.825933, 0.845023, 0.818905, 0.82081, 0.815229, 0.814559, 0.818747, 0.814091, 0.811401, 0.803852, 0.804737, 0.801855, 0.797808, 0.798705, 0.809269, 0.803189, 0.801504, 0.792838, 0.805139, 0.800506, 0.797773, 0.789278, 0.790089, 0.786839, 0.789511, 0.794489, 0.796862, 0.798861, 0.812574, 0.802413, 0.805714, 0.809041, 0.808123, 0.80941, 0.814906, 0.81503, 0.808989, 0.809336, 0.807524, 0.807984, 0.808954, 0.809832, 0.812334, 0.805634, 0.808282, 0.807538, 0.81104, 0.804166, 0.807313, 0.807872, 0.808003, 0.808269, 0.80513, 0.805591, 0.80549, 0.805829, 0.815397, 0.824928, 0.822195, 0.810173, 0.821969, 0.808825, 0.814545, 0.832269, 0.827932, 0.840706, 0.841582, 0.864494, 0.814503, 0.816386, 0.836484, 0.82389, 0.820843, 0.804994, 0.803865, 0.82971, 0.805526, 0.804622, 0.805558, 0.80558, 0.805634, 0.851234, 0.80559, 0.805127, 0.806047, 0.807233, 0.814528, 0.807311, 0.807616, 0.815596, 0.804419, 0.806955, 0.806868, 0.807068, 0.807709, 0.804892, 0.804817, 0.808993, 0.802476, 0.801556, 0.806917, 0.804106, 0.806585, 0.801747, 0.802468, 0.804431, 0.80242, 0.800847, 0.801183, 0.798058, 0.80094, 0.7992, 0.802884, 0.801494, 0.808006, 0.807594, 0.81038, 0.801031, 0.794993, 0.794288, 0.795745, 0.794107, 0.793472, 0.783793, 0.770616, 0.783505, 0.782761, 0.78087, 0.78078, 0.802466, 0.808215, 0.867773, 0.869801, 0.885914, 0.895921, 0.908941, 1.29992, 1.30144, 1.15774, 1.16448, 0.885144, 0.857085, 0.822308, 0.856965, 0.878309, 0.857055, 0.788307, 0.794685, 0.795479, 0.802137, 0.807911, 0.803115, 0.820893, 0.808723, 0.805908, 0.800829, 0.798952, 0.80146, 0.801201, 0.802275, 0.805163, 0.804019, 0.802907, 0.802142, 0.803666, 0.805944, 0.804924, 0.800819, 0.801312, 0.801812, 0.801292, 0.801217, 0.802753, 0.798609, 0.798304, 0.80053, 0.798665, 0.799704, 0.799581, 0.801104, 0.788954, 0.798153, 0.798067, 0.798563, 0.794603, 0.793751, 0.792937, 0.794668, 0.792041, 0.790885, 0.789326, 0.791193, 0.791181, 0.790002, 0.797915, 0.78784, 0.789962, 0.787782, 0.791837, 0.795507, 0.797382
0.838625, 0.846184, 0.840267, 0.84175, 0.841795, 0.84035, 0.846205, 0.846427, 0.84933, 0.842643, 0.843425, 0.848929, 0.847445, 0.852131, 0.920688, 0.950879, 0.91951, 0.851968, 0.84925, 0.863988, 0.843148, 0.860808, 0.841258, 0.85247, 0.842653, 0.842875, 0.841819, 0.842953, 0.842496, 0.841741, 0.842289, 0.846854, 0.844926, 0.837816, 0.843118, 0.842555, 0.850035, 0.845015, 0.854896, 0.852846, 0.844521, 0.843509, 0.845842, 0.859877, 0.852932, 0.84193, 0.828582, 0.815404, 0.803591, 0.797625, 0.814989, 0.856901, 0.831026, 0.916233, 0.916586, 0.989331, 1.01009, 1.07457, 1.27743, 1.27645, 1.33343, 1.33321, 1.023, 1.01867, 1.00178, 0.954597, 0.953944, 0.85328, 0.85371, 0.814959, 0.798819, 0.819862, 0.819171, 0.811298, 0.833411, 0.837221, 0.825734, 0.826175, 0.827103, 0.827393, 0.826438, 0.827539, 0.826287, 0.833301, 0.832594, 0.823937, 0.825844, 0.828923, 0.828285, 0.828371, 0.828537, 0.829601, 0.830038, 0.830379, 0.826777, 0.827999, 0.828349, 0.828879, 0.830802, 0.823331, 0.822527, 0.822194, 0.8223, 0.830537, 0.823833, 0.813574, 0.823324, 0.815839, 0.812473, 0.802262, 0.811296, 0.808045, 0.801418, 0.799637, 0.804901, 0.796673, 0.801638, 0.792499, 0.792189, 0.789675, 0.790707, 0.794706, 0.793423, 0.792139, 0.792239, 0.795441, 0.798728, 0.808956, 0.800526, 0.806196, 0.807929, 0.808333, 0.80972, 0.809519, 0.810259, 0.809174, 0.808311, 0.815303, 0.809727, 0.808008, 0.81475, 0.805997, 0.807331, 0.809868, 0.812487, 0.805965, 0.811727, 0.808875, 0.808789, 0.807483, 0.808085, 0.805596, 0.806178, 0.807692, 0.809076, 0.808982, 0.814347, 0.810472, 0.810698, 0.810604, 0.811606, 0.816584, 0.834673, 0.829738, 0.853902, 0.813495, 0.815007, 0.815323, 0.81572, 0.820344, 0.836019, 0.826283, 0.82518, 0.805298, 0.806149, 0.80733, 0.806175, 0.805342, 0.805986, 0.828289, 0.806426, 0.806331, 0.806214, 0.807617, 0.807265, 0.807843, 0.819233, 0.832098, 0.850226, 0.825165, 0.827639, 0.809982, 0.810914, 0.803712, 0.80897, 0.808649, 0.808946, 0.80862, 0.809157, 0.801413, 0.802305, 0.801523, 0.802251, 0.80309, 0.801816, 0.801663, 0.803717, 0.802294, 0.799269, 0.802139, 0.802216, 0.802394, 0.802137, 0.815712, 0.802933, 0.802555, 0.807601, 0.801205, 0.799324, 0.799536, 0.795092, 0.791423, 0.784512, 0.773981, 0.783949, 0.777729, 0.811145, 0.795134, 0.886641, 0.88793, 0.888198, 0.867153, 0.874925, 0.890397, 0.890084, 0.9024, 0.897933, 1.18154, 1.18308, 0.922684, 0.902384, 0.867724, 0.890717, 0.89415, 0.834607, 0.791305, 0.797841, 0.795488, 0.788074, 0.799795, 0.808067, 0.801715, 0.80107, 0.811046, 0.808306, 0.801603, 0.803039, 0.802383, 0.802217, 0.804616, 0.806819, 0.80351, 0.8058, 0.801005, 0.805802, 0.801881, 0.80457, 0.799437, 0.801379, 0.803725, 0.80175, 0.798503, 0.798589, 0.797187, 0.800652, 0.799649, 0.79905, 0.79926, 0.800367, 0.797977, 0.796994, 0.7968, 0.796689, 0.797562, 0.793768, 0.793011, 0.80119, 0.794178, 0.800184, 0.795713, 0.794617, 0.790791, 0.793993, 0.789396, 0.794162, 0.789193, 0.798358, 0.792912, 0.783237, 0.797421
0.845415, 0.841837, 0.842131, 0.846978, 0.841063, 0.841636, 0.852849, 0.854412, 0.845814, 0.846627, 0.846985, 0.847006, 0.845859, 0.845949, 0.845356, 0.902311, 0.93158, 0.851778, 0.845837, 0.849295, 0.849804, 0.857271, 0.844031, 0.844042, 0.843561, 0.852972, 0.842289, 0.842583, 0.842959, 0.844607, 0.852291, 0.848812, 0.84136, 0.84047, 0.85235, 0.843748, 0.842937, 0.844913, 0.857431, 0.846609, 0.8455, 0.847411, 0.851169, 0.853464, 0.844014, 0.836395, 0.830137, 0.829713, 0.809804, 0.802177, 0.802101, 0.839557, 0.84305, 0.93577, 0.939919, 0.999055, 1.02927, 1.06615, 1.1382, 1.344, 1.33046, 1.33573, 1.15009, 1.04965, 1.00436, 0.961472, 0.959328, 0.845365, 0.832641, 0.809651, 0.808899, 0.825435, 0.820481, 0.825445, 0.839668, 0.829407, 0.829427, 0.836417, 0.826154, 0.826823, 0.837057, 0.839285, 0.849388, 0.826771, 0.828344, 0.823281, 0.822494, 0.832535, 0.830462, 0.82799, 0.828968, 0.828984, 0.827773, 0.828455, 0.82719, 0.848887, 0.838148, 0.826935, 0.826539, 0.824726, 0.822794, 0.82547, 0.845864, 0.835372, 0.830766, 0.826458, 0.813187, 0.816167, 0.804469, 0.804194, 0.808005, 0.81521, 0.794325, 0.800931, 0.798965, 0.798946, 0.800042, 0.794446, 0.789433, 0.794067, 0.794598, 0.794678, 0.804699, 0.801274, 0.801998, 0.800953, 0.809014, 0.800739, 0.783716, 0.815211, 0.809578, 0.808913, 0.809198, 0.822491, 0.810545, 0.814565, 0.808685, 0.809429, 0.810684, 0.804852, 0.80522, 0.807608, 0.814023, 0.811234, 0.817661, 0.815973, 0.811007, 0.812096, 0.81072, 0.812501, 0.813502, 0.812872, 0.808105, 0.808879, 0.806336, 0.808093, 0.810134, 0.811712, 0.823027, 0.825535, 0.822736, 0.843978, 0.816335, 0.823216, 0.842697, 0.816757, 0.816216, 0.816625, 0.817331, 0.818257, 0.828025, 0.825588, 0.839462, 0.807459, 0.829367, 0.808086, 0.807349, 0.806292, 0.826044, 0.806218, 0.806423, 0.807336, 0.831493, 0.808054, 0.808569, 0.82273, 0.823259, 0.818985, 0.827225, 0.850202, 0.828544, 0.82927, 0.804686, 0.805234, 0.806561, 0.80512, 0.804341, 0.804262, 0.814087, 0.805984, 0.807163, 0.805781, 0.811499, 0.804599, 0.803183, 0.804445, 0.801382, 0.806077, 0.804877, 0.801692, 0.801045, 0.802507, 0.802585, 0.803109, 0.804195, 0.80396, 0.801888, 0.801922, 0.802885, 0.797393, 0.798347, 0.794627, 0.775147, 0.769277, 0.776522, 0.808315, 0.783798, 0.801727, 0.892842, 0.905112, 0.879151, 0.878115, 0.87147, 0.887057, 0.890463, 0.8909, 0.909204, 1.20522, 1.20168, 0.91768, 0.924817, 0.917588, 0.903298, 0.889072, 0.825838, 0.800233, 0.779653, 0.801586, 0.791163, 0.792299, 0.802918, 0.800955, 0.804389, 0.806514, 0.814883, 0.800678, 0.81581, 0.801966, 0.805525, 0.800907, 0.801242, 0.817937, 0.803705, 0.80253, 0.817689, 0.802687, 0.802284, 0.799624, 0.798244, 0.797728, 0.799884, 0.800161, 0.800419, 0.799791, 0.798823, 0.798176, 0.799544, 0.800097, 0.798463, 0.798288, 0.799206, 0.798042, 0.797654, 0.797449, 0.798162, 0.796295, 0.799508, 0.792292, 0.791715, 0.793435, 0.792242, 0.790871, 0.801135, 0.787755, 0.78876, 0.791382, 0.790748, 0.791904, 0.793422, 0.792918
0.842351, 0.843712, 0.84224, 0.844556, 0.844928, 0.840413, 0.845169, 0.850176, 0.846804, 0.846248, 0.847326, 0.847457, 0.846562, 0.847487, 0.846374, 0.852406, 0.866493, 0.868428, 0.853259, 0.85935, 0.854923, 0.859579, 0.857431, 0.845368, 0.84388, 0.844169, 0.845706, 0.845964, 0.844516, 0.852488, 0.847886, 0.84673, 0.842184, 0.844897, 0.846818, 0.844822, 0.847966, 0.852742, 0.846603, 0.84778, 0.844083, 0.843946, 0.852827, 0.846869, 0.857632, 0.8377, 0.8227, 0.812385, 0.806695, 0.79112, 0.802305, 0.819445, 0.8539, 0.853703, 0.943304, 1.00718, 1.0478, 1.05787, 1.18144, 1.31424, 1.33211, 1.17454, 1.16696, 1.0325, 0.995396, 0.967744, 0.967231, 0.893484, 0.846903, 0.820505, 0.81233, 0.812176, 0.825403, 0.826105, 0.833592, 0.829255, 0.828895, 0.828261, 0.828981, 0.827887, 0.83278, 0.864346, 0.843097, 0.837593, 0.82791, 0.826846, 0.825166, 0.825475, 0.828268, 0.828596, 0.828694, 0.826453, 0.827202, 0.829745, 0.829493, 0.827368, 0.825452, 0.825655, 0.829208, 0.822525, 0.822713, 0.83042, 0.825593, 0.829676, 0.832249, 0.822519, 0.819142, 0.812851, 0.814097, 0.805334, 0.806158, 0.797493, 0.797687, 0.796783, 0.799686, 0.801335, 0.804255, 0.812761, 0.79164, 0.792268, 0.792425, 0.798262, 0.800638, 0.798337, 0.796986, 0.805636, 0.808001, 0.800904, 0.781073, 0.780676, 0.807969, 0.808962, 0.809332, 0.810426, 0.809869, 0.809062, 0.809178, 0.816002, 0.808369, 0.804838, 0.803967, 0.811381, 0.818105, 0.806003, 0.806385, 0.806412, 0.806486, 0.807563, 0.81081, 0.818387, 0.809216, 0.814816, 0.809909, 0.8065, 0.802198, 0.802645, 0.819545, 0.82896, 0.81208, 0.838998, 0.830441, 0.835986, 0.844795, 0.849767, 0.849516, 0.84717, 0.817305, 0.835575, 0.830559, 0.816754, 0.864071, 0.809529, 0.826487, 0.808271, 0.80848, 0.808221, 0.807467, 0.807522, 0.807231, 0.807453, 0.808793, 0.807787, 0.807077, 0.8074, 0.807844, 0.818596, 0.835533, 0.818923, 0.814486, 0.814937, 0.826166, 0.82267, 0.824621, 0.822843, 0.801685, 0.802548, 0.808603, 0.802899, 0.80438, 0.809126, 0.801724, 0.808063, 0.810683, 0.805172, 0.815173, 0.803336, 0.819048, 0.798569, 0.802087, 0.805219, 0.8056, 0.806178, 0.805387, 0.808128, 0.804513, 0.804434, 0.809678, 0.801645, 0.802283, 0.797793, 0.795045, 0.791229, 0.77044, 0.769349, 0.770342, 0.772163, 0.786921, 0.801162, 0.80519, 0.876185, 0.895151, 0.880195, 0.884468, 0.904634, 0.885223, 0.901935, 1.20571, 1.22272, 1.20007, 0.991358, 0.966123, 0.967982, 0.79762, 0.776989, 0.787075, 0.778603, 0.777011, 0.789057, 0.78291, 0.802495, 0.801939, 0.802268, 0.798052, 0.828916, 0.800866, 0.801776, 0.801156, 0.801563, 0.804598, 0.801377, 0.801543, 0.806303, 0.808272, 0.808749, 0.805722, 0.805711, 0.800461, 0.801893, 0.803355, 0.798713, 0.801306, 0.800234, 0.801209, 0.799869, 0.800693, 0.803849, 0.812337, 0.799823, 0.799292, 0.798906, 0.798029, 0.797354, 0.798932, 0.798656, 0.80039, 0.797428, 0.794096, 0.790572, 0.790353, 0.791728, 0.792744, 0.79308, 0.787614, 0.793474, 0.789091, 0.788103, 0.78806, 0.781887, 0.792382, 0.794635
0.857408, 0.846738, 0.844379, 0.845067, 0.846192, 0.849497, 0.84543, 0.849144, 0.848445, 0.847655, 0.849016, 0.850445, 0.852695, 0.852332, 0.847392, 0.849509, 0.862791, 0.858993, 0.852875, 0.853698, 0.877586, 0.878245, 0.86032, 0.842589, 0.844317, 0.859453, 0.863573, 0.881486, 0.855289, 0.856229, 0.847039, 0.842599, 0.842812, 0.842046, 0.849219, 0.844057, 0.852481, 0.842713, 0.844069, 0.844184, 0.846383, 0.844397, 0.846308, 0.845326, 0.846072, 0.839314, 0.825681, 0.836694, 0.817326, 0.812768, 0.793861, 0.794572, 0.80509, 0.865882, 0.866504, 0.995516, 1.05619, 1.07713, 1.20714, 1.34671, 1.34087, 1.19383, 1.16085, 1.06785, 0.991047, 0.990635, 0.872431, 0.853729, 0.854424, 0.825655, 0.822379, 0.835715, 0.828719, 0.835101, 0.826718, 0.827252, 0.842143, 0.832541, 0.827243, 0.836524, 0.849011, 0.825309, 0.826348, 0.825501, 0.825565, 0.829389, 0.828165, 0.82614, 0.831237, 0.832814, 0.83377, 0.836688, 0.826627, 0.826272, 0.82607, 0.82589, 0.825162, 0.822741, 0.831397, 0.823198, 0.821317, 0.834783, 0.828813, 0.828613, 0.823117, 0.819967, 0.815167, 0.813717, 0.807308, 0.805998, 0.800288, 0.800934, 0.80364, 0.804065, 0.796773, 0.794726, 0.811016, 0.79794, 0.799408, 0.801454, 0.795466, 0.794971, 0.798143, 0.808822, 0.79788, 0.80126, 0.802958, 0.801464, 0.812413, 0.784787, 0.808815, 0.809024, 0.808211, 0.82491, 0.815248, 0.813826, 0.808252, 0.818325, 0.819764, 0.821341, 0.829153, 0.815713, 0.815482, 0.806386, 0.813134, 0.807455, 0.812672, 0.808662, 0.81131, 0.814763, 0.815465, 0.819872, 0.821413, 0.822118, 0.808457, 0.809563, 0.814243, 0.81338, 0.815455, 0.846905, 0.836023, 0.836399, 0.819173, 0.821525, 0.833308, 0.82817, 0.829992, 0.839929, 0.830107, 0.830673, 0.824992, 0.810569, 0.810349, 0.809556, 0.810063, 0.816861, 0.825296, 0.807592, 0.807259, 0.807851, 0.806205, 0.806964, 0.808441, 0.808875, 0.809019, 0.833377, 0.838713, 0.815402, 0.82526, 0.821424, 0.84408, 0.821747, 0.835811, 0.81867, 0.804972, 0.808024, 0.812303, 0.810816, 0.805276, 0.801646, 0.802772, 0.802625, 0.808132, 0.801922, 0.804905, 0.806351, 0.808549, 0.79893, 0.810929, 0.810926, 0.805009, 0.804851, 0.801857, 0.803351, 0.803549, 0.811849, 0.803615, 0.816049, 0.809685, 0.810419, 0.798081, 0.786936, 0.772632, 0.773092, 0.773813, 0.787352, 0.78943, 0.804714, 0.812295, 0.869005, 0.867386, 0.888889, 0.891617, 0.894745, 0.9225, 0.907142, 1.23982, 1.21721, 1.1925, 1.00153, 1.00067, 0.812647, 0.774769, 0.774874, 0.773233, 0.780904, 0.779834, 0.777076, 0.778205, 0.800602, 0.802475, 0.802487, 0.804501, 0.80132, 0.812171, 0.800679, 0.79971, 0.800334, 0.797853, 0.794191, 0.797813, 0.808131, 0.7987, 0.796052, 0.80094, 0.80277, 0.795721, 0.797945, 0.798849, 0.800775, 0.800343, 0.797812, 0.79764, 0.812562, 0.818012, 0.796133, 0.812266, 0.798865, 0.838216, 0.799894, 0.799179, 0.799941, 0.799469, 0.798038, 0.799653, 0.800661, 0.805833, 0.794939, 0.792001, 0.791492, 0.78894, 0.78895, 0.794669, 0.801088, 0.789982, 0.786922, 0.785887, 0.787754, 0.790923, 0.792442
0.846825, 0.850111, 0.84542, 0.844093, 0.857372, 0.852231, 0.846909, 0.852708, 0.866511, 0.856843, 0.859653, 0.849959, 0.848692, 0.848646, 0.849784, 0.851539, 0.849258, 0.848366, 0.870157, 0.858453, 0.860255, 0.871302, 0.853144, 0.855807, 0.859633, 0.855069, 0.879862, 0.880612, 0.880498, 0.852553, 0.845622, 0.850514, 0.849457, 0.839755, 0.843736, 0.845267, 0.84787, 0.84472, 0.845165, 0.844418, 0.844332, 0.849803, 0.845148, 0.843544, 0.842145, 0.840084, 0.836132, 0.827039, 0.827054, 0.790503, 0.795414, 0.799248, 0.81215, 0.863856, 0.866935, 0.938711, 1.06363, 1.08689, 1.20492, 1.372, 1.35364, 1.32897, 1.18524, 1.09027, 1.05121, 0.976904, 0.885016, 0.870617, 0.870037, 0.823613, 0.833454, 0.80766, 0.809113, 0.846987, 0.839034, 0.828516, 0.846459, 0.828457, 0.82758, 0.827017, 0.82516, 0.825048, 0.832189, 0.826477, 0.828398, 0.832273, 0.831752, 0.827796, 0.832939, 0.825932, 0.82805, 0.825402, 0.826406, 0.833532, 0.829359, 0.84106, 0.82813, 0.827843, 0.822577, 0.821864, 0.82093, 0.818832, 0.818569, 0.819372, 0.818475, 0.816205, 0.815675, 0.812751, 0.815698, 0.806347, 0.805942, 0.79834, 0.800198, 0.798605, 0.79376, 0.793139, 0.791463, 0.798383, 0.801938, 0.795924, 0.794237, 0.801733, 0.795559, 0.801401, 0.795523, 0.795344, 0.802064, 0.803096, 0.805089, 0.807994, 0.799903, 0.809147, 0.809587, 0.809142, 0.811624, 0.809099, 0.805946, 0.810781, 0.814001, 0.808885, 0.819036, 0.809604, 0.806293, 0.812323, 0.819329, 0.809073, 0.82518, 0.814667, 0.812425, 0.813081, 0.819607, 0.810454, 0.810863, 0.815975, 0.80926, 0.814331, 0.814023, 0.813855, 0.814086, 0.846654, 0.833648, 0.838809, 0.837581, 0.836203, 0.838997, 0.830504, 0.835804, 0.820568, 0.825479, 0.811911, 0.811487, 0.812916, 0.811116, 0.808134, 0.80914, 0.810462, 0.808985, 0.808644, 0.808324, 0.807192, 0.806097, 0.809148, 0.808162, 0.807781, 0.825082, 0.82368, 0.842536, 0.800485, 0.802953, 0.823968, 0.820948, 0.810914, 0.812177, 0.812268, 0.802097, 0.810953, 0.809961, 0.804445, 0.802309, 0.803463, 0.811709, 0.808555, 0.814549, 0.813701, 0.802104, 0.812089, 0.804697, 0.825178, 0.80709, 0.802995, 0.811547, 0.804772, 0.805013, 0.821487, 0.802325, 0.804804, 0.805635, 0.80476, 0.811715, 0.802262, 0.800357, 0.801015, 0.788836, 0.770694, 0.788911, 0.790563, 0.793256, 0.80961, 0.809169, 0.865807, 0.854478, 0.875485, 0.929473, 0.945754, 0.935281, 1.25486, 1.24929, 1.23341, 1.20429, 1.05296, 0.796493, 0.791061, 0.777745, 0.777258, 0.777099, 0.78135, 0.787819, 0.78162, 0.781956, 0.81104, 0.799633, 0.803068, 0.801868, 0.802361, 0.807163, 0.804768, 0.802232, 0.800831, 0.800831, 0.794838, 0.793735, 0.795498, 0.799373, 0.798487, 0.802035, 0.803545, 0.79685, 0.801334, 0.798425, 0.799996, 0.807539, 0.796697, 0.796311, 0.797827, 0.796297, 0.822111, 0.798764, 0.79982, 0.79925, 0.798469, 0.80551, 0.79883, 0.79955, 0.799721, 0.799948, 0.800121, 0.799046, 0.800597, 0.79078, 0.78983, 0.789907, 0.791564, 0.788285, 0.787749, 0.789382, 0.788022, 0.79099, 0.793721, 0.799463, 0.790533
0.845977, 0.846005, 0.847999, 0.855185, 0.847592, 0.852766, 0.848967, 0.849851, 0.850644, 0.848968, 0.852158, 0.883904, 0.850961, 0.849419, 0.849311, 0.863943, 0.849256, 0.855074, 0.854327, 0.871017, 0.883338, 0.856105, 0.857633, 0.857266, 0.866785, 0.873529, 0.884654, 0.886083, 0.878256, 0.853027, 0.880814, 0.852233, 0.850081, 0.849633, 0.849765, 0.844064, 0.845564, 0.853402, 0.855159, 0.846881, 0.846312, 0.844058, 0.842084, 0.839691, 0.841186, 0.841909, 0.833947, 0.832436, 0.819005, 0.805512, 0.790215, 0.810556, 0.807621, 0.87148, 0.9045, 0.91353, 1.09352, 1.1786, 1.22201, 1.35526, 1.35666, 1.33435, 1.24009, 1.10359, 1.08067, 1.01115, 0.892002, 0.864076, 0.860512, 0.825091, 0.827728, 0.822899, 0.818036, 0.822459, 0.827664, 0.827562, 0.83074, 0.832621, 0.828002, 0.825975, 0.830217, 0.828536, 0.829305, 0.827113, 0.825624, 0.847123, 0.834199, 0.825591, 0.828857, 0.82945, 0.825423, 0.836299, 0.824903, 0.830739, 0.828123, 0.820914, 0.825255, 0.821225, 0.820012, 0.831878, 0.817751, 0.817158, 0.829058, 0.821037, 0.818348, 0.81635, 0.815735, 0.811778, 0.809129, 0.803842, 0.797411, 0.79799, 0.798252, 0.796219, 0.796307, 0.796926, 0.800949, 0.796009, 0.798152, 0.797265, 0.799085, 0.794851, 0.80434, 0.803363, 0.801185, 0.801396, 0.802794, 0.804935, 0.804983, 0.811082, 0.810118, 0.828688, 0.829011, 0.833441, 0.81301, 0.810763, 0.813613, 0.81275, 0.813503, 0.810911, 0.813007, 0.80879, 0.805884, 0.815771, 0.807657, 0.808686, 0.80841, 0.812254, 0.812678, 0.819658, 0.815154, 0.812233, 0.81238, 0.80993, 0.817659, 0.81265, 0.814389, 0.814442, 0.814529, 0.814499, 0.815498, 0.819129, 0.819016, 0.835957, 0.833911, 0.834802, 0.849435, 0.860644, 0.860508, 0.812955, 0.832867, 0.811048, 0.811502, 0.811707, 0.821989, 0.822306, 0.821433, 0.809899, 0.808064, 0.807649, 0.808811, 0.808976, 0.826475, 0.809292, 0.809297, 0.81608, 0.815453, 0.804525, 0.7981, 0.810419, 0.809427, 0.807108, 0.806505, 0.811993, 0.805715, 0.810361, 0.806215, 0.804849, 0.803103, 0.806542, 0.810708, 0.805343, 0.804224, 0.80536, 0.806003, 0.807008, 0.803597, 0.807543, 0.807841, 0.816621, 0.804624, 0.805997, 0.804105, 0.80705, 0.806012, 0.805132, 0.806418, 0.809674, 0.803946, 0.819602, 0.803115, 0.800147, 0.795245, 0.779876, 0.779448, 0.794064, 0.800052, 0.802357, 0.843572, 0.877944, 0.867166, 0.873766, 0.952607, 0.938621, 1.03663, 1.2582, 1.2471, 1.25516, 1.07047, 0.857163, 0.844072, 0.800921, 0.788371, 0.785382, 0.788177, 0.776881, 0.792113, 0.784074, 0.783563, 0.797636, 0.814362, 0.801286, 0.812902, 0.800998, 0.798548, 0.799263, 0.817809, 0.799755, 0.792822, 0.797867, 0.795764, 0.8035, 0.794652, 0.806248, 0.793953, 0.788931, 0.795533, 0.79511, 0.804753, 0.798328, 0.815738, 0.797931, 0.796933, 0.797197, 0.798446, 0.818999, 0.810822, 0.798874, 0.798368, 0.799345, 0.798771, 0.798482, 0.799164, 0.799366, 0.798422, 0.799233, 0.815834, 0.797345, 0.802706, 0.789561, 0.790757, 0.787692, 0.787421, 0.789726, 0.788731, 0.789659, 0.790728, 0.803989, 0.788919, 0.790946
0.846348, 0.84457, 0.845141, 0.866448, 0.846741, 0.854482, 0.852633, 0.863339, 0.849021, 0.8491, 0.850127, 0.850237, 0.849868, 0.850578, 0.84998, 0.849808, 0.84952, 0.852475, 0.864028, 0.850432, 0.867408, 0.866382, 0.858281, 0.863645, 0.873102, 0.864424, 0.867855, 0.883958, 0.860673, 0.859192, 0.870358, 0.858276, 0.858712, 0.849568, 0.844144, 0.843234, 0.858643, 0.845016, 0.844494, 0.842594, 0.842926, 0.853099, 0.849777, 0.849777, 0.843327, 0.839897, 0.836098, 0.793932, 0.820796, 0.795647, 0.79642, 0.7988, 0.825506, 0.856428, 0.884598, 0.9134, 1.15381, 1.17369, 1.24479, 1.24926, 1.36588, 1.36711, 1.29627, 1.13426, 1.1096, 1.0053, 0.889639, 0.856831, 0.84367, 0.82836, 0.808693, 0.813361, 0.812132, 0.818835, 0.832166, 0.824264, 0.832623, 0.82523, 0.828137, 0.823962, 0.823766, 0.822597, 0.834117, 0.825334, 0.825281, 0.840001, 0.836358, 0.830546, 0.827323, 0.826365, 0.824954, 0.826635, 0.825583, 0.82921, 0.823567, 0.822563, 0.829656, 0.825447, 0.824296, 0.822502, 0.822961, 0.815283, 0.816871, 0.821598, 0.817197, 0.817584, 0.813473, 0.811297, 0.818286, 0.802126, 0.807752, 0.798275, 0.797663, 0.797264, 0.797178, 0.795782, 0.795365, 0.798626, 0.798855, 0.799373, 0.794739, 0.800487, 0.80042, 0.815779, 0.800344, 0.800611, 0.806937, 0.804671, 0.816009, 0.81131, 0.812538, 0.811521, 0.811888, 0.826927, 0.817984, 0.812734, 0.809176, 0.808115, 0.812352, 0.81726, 0.815675, 0.818511, 0.819507, 0.808101, 0.805647, 0.814687, 0.815738, 0.814532, 0.817552, 0.814095, 0.814081, 0.811884, 0.81256, 0.808735, 0.80983, 0.819751, 0.816138, 0.816111, 0.815184, 0.815146, 0.864553, 0.815199, 0.826037, 0.812765, 0.835963, 0.829397, 0.825805, 0.812087, 0.812933, 0.812876, 0.819619, 0.811446, 0.836727, 0.812119, 0.811518, 0.811429, 0.8213, 0.809609, 0.809806, 0.825665, 0.80984, 0.808843, 0.809675, 0.830596, 0.809708, 0.80869, 0.807745, 0.808195, 0.808905, 0.808242, 0.804733, 0.806812, 0.807299, 0.808118, 0.813907, 0.814516, 0.805545, 0.808945, 0.807399, 0.81172, 0.805112, 0.804766, 0.804982, 0.805317, 0.817834, 0.809921, 0.810754, 0.814235, 0.801393, 0.805472, 0.80744, 0.811963, 0.812213, 0.805444, 0.80794, 0.80555, 0.818381, 0.807893, 0.808944, 0.80528, 0.803556, 0.795181, 0.796189, 0.783934, 0.795508, 0.807365, 0.818359, 0.825521, 0.83163, 0.856612, 0.887391, 0.91674, 0.932686, 1.23018, 1.25366, 1.26842, 1.26032, 1.26029, 1.25756, 0.851209, 0.849895, 0.809197, 0.801246, 0.8048, 0.778615, 0.794863, 0.794183, 0.807339, 0.808887, 0.809705, 0.81065, 0.799742, 0.804252, 0.80077, 0.800998, 0.801168, 0.800902, 0.797697, 0.804872, 0.801041, 0.797312, 0.799835, 0.806448, 0.792468, 0.798085, 0.800575, 0.809245, 0.80506, 0.798762, 0.798692, 0.798713, 0.799292, 0.798412, 0.798568, 0.797796, 0.832703, 0.797545, 0.819284, 0.826402, 0.7985, 0.798244, 0.79764, 0.804936, 0.797867, 0.797495, 0.797818, 0.797502, 0.828192, 0.793343, 0.79447, 0.792189, 0.789095, 0.788511, 0.79773, 0.788294, 0.789636, 0.790645, 0.787782, 0.788106, 0.797602
0.843105, 0.846525, 0.846715, 0.847746, 0.848162, 0.846653, 0.851824, 0.85027, 0.849678, 0.849751, 0.853005, 0.867353, 0.848768, 0.849647, 0.850841, 0.849737, 0.850023, 0.85004, 0.852914, 0.868288, 0.873435, 0.85541, 0.857192, 0.867413, 0.885824, 0.877691, 0.877704, 0.883967, 0.873907, 0.884581, 0.854195, 0.885282, 0.877108, 0.854456, 0.858281, 0.854576, 0.843957, 0.860811, 0.851009, 0.842547, 0.843381, 0.853299, 0.842493, 0.842627, 0.850554, 0.842167, 0.842683, 0.808913, 0.799395, 0.799077, 0.794682, 0.815444, 0.838648, 0.891642, 0.892605, 0.893202, 0.93014, 1.18569, 1.2399, 1.35939, 1.44262, 1.42786, 1.30312, 1.26846, 1.14197, 0.971014, 0.908524, 0.860196, 0.853572, 0.835965, 0.845393, 0.811165, 0.8187, 0.817979, 0.824942, 0.829769, 0.827906, 0.827478, 0.827916, 0.82899, 0.828924, 0.827981, 0.838905, 0.826125, 0.827785, 0.82778, 0.826908, 0.836026, 0.833185, 0.829892, 0.828892, 0.828569, 0.821693, 0.822035, 0.822005, 0.820768, 0.820237, 0.819112, 0.825929, 0.816284, 0.816839, 0.817674, 0.817972, 0.818896, 0.821952, 0.813043, 0.818903, 0.816368, 0.81931, 0.809502, 0.796122, 0.802683, 0.807804, 0.808541, 0.798396, 0.797852, 0.798113, 0.800848, 0.794951, 0.796925, 0.79514, 0.794509, 0.799212, 0.797589, 0.798692, 0.803331, 0.807103, 0.804587, 0.808575, 0.81162, 0.812732, 0.812018, 0.813739, 0.813696, 0.813769, 0.81019, 0.809213, 0.811602, 0.812343, 0.814114, 0.812837, 0.811291, 0.812118, 0.814365, 0.81543, 0.811823, 0.817297, 0.812838, 0.813104, 0.813741, 0.814754, 0.815845, 0.8098, 0.809119, 0.822031, 0.816663, 0.816507, 0.815663, 0.815448, 0.81465, 0.815059, 0.814515, 0.813086, 0.814492, 0.812595, 0.811653, 0.813355, 0.814974, 0.814418, 0.812087, 0.811864, 0.812232, 0.812615, 0.811644, 0.81102, 0.812188, 0.812162, 0.824943, 0.833625, 0.808198, 0.808558, 0.808564, 0.808591, 0.808686, 0.809062, 0.809398, 0.807174, 0.80654, 0.804478, 0.80513, 0.811465, 0.809499, 0.818355, 0.803847, 0.808316, 0.80314, 0.805098, 0.807339, 0.805152, 0.805061, 0.810503, 0.80351, 0.809252, 0.81124, 0.811562, 0.806737, 0.807713, 0.807559, 0.805117, 0.814299, 0.805638, 0.804629, 0.808513, 0.802355, 0.807361, 0.807566, 0.811075, 0.809247, 0.806446, 0.803734, 0.802914, 0.797352, 0.798182, 0.800484, 0.793274, 0.789668, 0.834184, 0.82021, 0.82959, 0.820127, 0.876512, 0.876787, 0.947521, 0.963756, 1.24288, 1.27229, 1.26844, 1.25587, 1.13208, 0.858357, 0.864051, 0.815396, 0.7883, 0.800829, 0.784988, 0.778088, 0.784231, 0.769423, 0.784732, 0.798015, 0.798305, 0.800622, 0.804381, 0.80454, 0.804745, 0.802906, 0.794412, 0.793251, 0.802283, 0.796113, 0.793761, 0.79152, 0.795409, 0.792491, 0.805183, 0.797691, 0.793804, 0.794735, 0.794964, 0.796016, 0.796875, 0.797999, 0.795616, 0.794973, 0.797451, 0.796451, 0.797373, 0.797844, 0.797716, 0.798906, 0.797424, 0.811835, 0.801706, 0.803406, 0.797469, 0.800597, 0.798075, 0.797743, 0.797959, 0.795695, 0.793366, 0.789165, 0.791142, 0.788985, 0.788244, 0.798157, 0.787103, 0.791051, 0.789205, 0.789887
0.848643, 0.847533, 0.849314, 0.84904, 0.852004, 0.866303, 0.849453, 0.852047, 0.849726, 0.849652, 0.865266, 0.849253, 0.851819, 0.850627, 0.849471, 0.850229, 0.850155, 0.849538, 0.849809, 0.848756, 0.848781, 0.849727, 0.856142, 0.864302, 0.861446, 0.862856, 0.891166, 0.892, 0.866581, 0.866343, 0.849438, 0.895605, 0.892058, 0.856789, 0.854782, 0.844983, 0.856456, 0.852749, 0.859551, 0.857346, 0.855697, 0.843563, 0.853908, 0.853601, 0.863535, 0.857763, 0.846449, 0.825129, 0.830084, 0.804457, 0.800143, 0.798214, 0.852973, 0.86699, 0.885617, 0.932691, 1.13603, 1.17971, 1.26818, 1.30354, 1.42194, 1.42764, 1.30293, 1.26161, 0.986965, 0.928234, 0.918708, 0.884969, 0.848832, 0.825709, 0.83244, 0.82331, 0.809071, 0.825138, 0.83931, 0.829185, 0.829044, 0.828599, 0.825978, 0.824433, 0.825373, 0.826346, 0.827183, 0.826075, 0.828712, 0.826865, 0.826146, 0.832594, 0.824357, 0.829152, 0.824651, 0.824903, 0.823337, 0.822317, 0.829944, 0.819228, 0.832277, 0.822211, 0.818585, 0.824998, 0.817763, 0.817362, 0.816191, 0.816861, 0.825045, 0.817503, 0.821691, 0.820903, 0.808828, 0.815018, 0.803004, 0.805013, 0.804513, 0.804142, 0.801166, 0.797395, 0.801137, 0.7948, 0.79542, 0.80799, 0.799994, 0.804884, 0.80385, 0.807782, 0.798786, 0.807049, 0.807602, 0.807364, 0.808989, 0.815072, 0.822859, 0.814271, 0.815224, 0.815547, 0.832392, 0.812825, 0.812457, 0.809941, 0.815769, 0.812905, 0.812526, 0.80777, 0.808407, 0.815158, 0.817702, 0.811157, 0.811591, 0.814383, 0.812788, 0.812394, 0.812572, 0.813879, 0.810326, 0.81016, 0.813035, 0.813127, 0.825557, 0.814868, 0.815398, 0.814677, 0.814775, 0.814182, 0.8133, 0.812424, 0.814965, 0.813004, 0.814928, 0.820821, 0.815493, 0.810287, 0.811408, 0.812298, 0.811445, 0.812742, 0.840545, 0.811456, 0.811441, 0.810437, 0.809072, 0.808737, 0.808013, 0.808548, 0.808692, 0.809872, 0.808432, 0.810421, 0.801859, 0.805803, 0.804592, 0.806795, 0.80572, 0.804524, 0.806393, 0.808329, 0.808341, 0.804688, 0.803911, 0.80529, 0.806011, 0.809381, 0.806881, 0.805343, 0.80589, 0.81477, 0.80582, 0.806039, 0.807083, 0.80869, 0.804761, 0.804304, 0.804119, 0.807556, 0.808889, 0.812511, 0.80551, 0.811886, 0.808205, 0.808554, 0.815834, 0.809312, 0.815687, 0.797065, 0.821109, 0.794154, 0.796042, 0.825352, 0.840367, 0.841775, 0.836577, 0.828338, 0.851954, 0.877891, 0.91562, 0.942122, 1.2616, 1.33481, 1.33462, 1.34891, 1.1645, 0.839433, 0.85917, 0.831689, 0.826548, 0.793898, 0.784096, 0.787906, 0.78088, 0.78467, 0.788881, 0.788997, 0.79663, 0.799943, 0.80209, 0.801668, 0.799895, 0.797783, 0.795191, 0.791584, 0.791677, 0.79401, 0.793577, 0.792886, 0.794904, 0.801031, 0.791986, 0.791956, 0.799239, 0.797033, 0.798168, 0.800588, 0.798076, 0.794387, 0.798181, 0.794233, 0.797332, 0.808215, 0.819919, 0.797643, 0.79716, 0.797975, 0.797092, 0.797621, 0.799937, 0.79434, 0.795317, 0.795551, 0.795502, 0.795854, 0.79712, 0.791994, 0.791814, 0.795621, 0.795455, 0.793121, 0.786888, 0.790759, 0.785279, 0.783977, 0.787211, 0.790953
0.851358, 0.847229, 0.852594, 0.849725, 0.846317, 0.847445, 0.852211, 0.855984, 0.849453, 0.851184, 0.850369, 0.852804, 0.85109, 0.850008, 0.850918, 0.851093, 0.850527, 0.849518, 0.849113, 0.850891, 0.849277, 0.86374, 0.862515, 0.863241, 0.869707, 0.881358, 0.869198, 0.876632, 0.876605, 0.876387, 0.863716, 0.893945, 0.892038, 0.877042, 0.857121, 0.846902, 0.844591, 0.847391, 0.857588, 0.843741, 0.843335, 0.842737, 0.840416, 0.846637, 0.841632, 0.844964, 0.835663, 0.825403, 0.820606, 0.808475, 0.804752, 0.798546, 0.850329, 0.853619, 0.898969, 0.957432, 0.936827, 1.26041, 1.27633, 1.3055, 1.4374, 1.43722, 1.34018, 1.29486, 0.998702, 0.904479, 0.922808, 0.897336, 0.841208, 0.834152, 0.829029, 0.836787, 0.83224, 0.834313, 0.827625, 0.843705, 0.846242, 0.826478, 0.843382, 0.836038, 0.839028, 0.825524, 0.824662, 0.824481, 0.827117, 0.825589, 0.826336, 0.828134, 0.826355, 0.82542, 0.825823, 0.827616, 0.828099, 0.827097, 0.823113, 0.825808, 0.825105, 0.82335, 0.822369, 0.815463, 0.826322, 0.825014, 0.819578, 0.814901, 0.814033, 0.811803, 0.808854, 0.811343, 0.818016, 0.810902, 0.807053, 0.807606, 0.808285, 0.803484, 0.811975, 0.801202, 0.797161, 0.809311, 0.795205, 0.797984, 0.797582, 0.801632, 0.803866, 0.800646, 0.80022, 0.798774, 0.801631, 0.812985, 0.81045, 0.811272, 0.819542, 0.817852, 0.815677, 0.815687, 0.815268, 0.814908, 0.811974, 0.825538, 0.820013, 0.822579, 0.818784, 0.814106, 0.818719, 0.80993, 0.815983, 0.81244, 0.812514, 0.811798, 0.813226, 0.81189, 0.818534, 0.810612, 0.810446, 0.811778, 0.815111, 0.812856, 0.812999, 0.82127, 0.815168, 0.814634, 0.815794, 0.813931, 0.81356, 0.813599, 0.81387, 0.812267, 0.814379, 0.835372, 0.810934, 0.810242, 0.811456, 0.823214, 0.809808, 0.810083, 0.809803, 0.811053, 0.826436, 0.823684, 0.825067, 0.853596, 0.809497, 0.808928, 0.818248, 0.80943, 0.808629, 0.805673, 0.802091, 0.801964, 0.812441, 0.814308, 0.804301, 0.80492, 0.805122, 0.821948, 0.825227, 0.808404, 0.808125, 0.809242, 0.806251, 0.808245, 0.811089, 0.811251, 0.806476, 0.803579, 0.809406, 0.803177, 0.807283, 0.808838, 0.809665, 0.804513, 0.802424, 0.811516, 0.80759, 0.807186, 0.82181, 0.808481, 0.804286, 0.803921, 0.81418, 0.803824, 0.816238, 0.798891, 0.801091, 0.801344, 0.795861, 0.801564, 0.857915, 0.849348, 0.849202, 0.859579, 0.868049, 0.866883, 0.920291, 0.946815, 1.36851, 1.33775, 1.34013, 1.33911, 1.17721, 0.841445, 0.832359, 0.839923, 0.817309, 0.81555, 0.791763, 0.782136, 0.784383, 0.786519, 0.793352, 0.790565, 0.797556, 0.812042, 0.80463, 0.801219, 0.797258, 0.810705, 0.798246, 0.791981, 0.792372, 0.794215, 0.788737, 0.795439, 0.791633, 0.801968, 0.795956, 0.790215, 0.798615, 0.797136, 0.794478, 0.812517, 0.812349, 0.798573, 0.794103, 0.794915, 0.798177, 0.79488, 0.796608, 0.797218, 0.798382, 0.790135, 0.797042, 0.795827, 0.795435, 0.796707, 0.795824, 0.809077, 0.795765, 0.794815, 0.797851, 0.800196, 0.798747, 0.78823, 0.796958, 0.793208, 0.793042, 0.788241, 0.788655, 0.788193, 0.790731, 0.79501
0.846841, 0.849072, 0.843873, 0.844392, 0.84613, 0.846661, 0.851577, 0.851698, 0.853688, 0.859252, 0.851617, 0.852358, 0.851013, 0.851442, 0.868695, 0.85103, 0.850339, 0.851064, 0.852031, 0.853431, 0.853374, 0.856205, 0.863705, 0.870528, 0.866447, 0.862787, 0.871262, 0.888092, 0.902618, 0.864904, 0.894817, 0.874627, 0.870266, 0.866619, 0.853063, 0.852643, 0.842734, 0.844016, 0.842093, 0.842963, 0.84174, 0.843365, 0.843729, 0.841328, 0.839331, 0.841769, 0.841315, 0.82067, 0.821765, 0.829729, 0.813498, 0.8115, 0.839969, 0.866953, 0.887353, 0.899546, 0.97851, 0.982704, 1.28374, 1.30936, 1.33246, 1.32532, 1.35056, 0.99926, 0.999304, 0.912158, 0.91168, 0.869265, 0.881364, 0.8543, 0.832817, 0.829451, 0.847158, 0.853188, 0.847365, 0.846553, 0.828072, 0.832016, 0.830335, 0.846071, 0.840661, 0.835794, 0.837022, 0.829553, 0.832814, 0.827968, 0.828736, 0.832558, 0.82654, 0.830194, 0.826925, 0.828071, 0.825057, 0.823602, 0.82203, 0.833085, 0.823382, 0.846496, 0.820445, 0.818527, 0.835774, 0.829412, 0.826119, 0.817966, 0.814774, 0.814935, 0.80902, 0.811524, 0.815215, 0.81922, 0.812257, 0.807595, 0.803787, 0.801395, 0.799099, 0.800052, 0.802044, 0.808853, 0.797866, 0.797198, 0.795727, 0.807539, 0.795942, 0.802592, 0.804054, 0.805068, 0.804982, 0.810327, 0.809103, 0.813289, 0.816777, 0.817585, 0.828589, 0.8292, 0.816481, 0.815313, 0.815218, 0.812721, 0.82111, 0.818318, 0.810889, 0.810557, 0.826137, 0.819449, 0.812477, 0.812517, 0.813112, 0.813544, 0.8146, 0.81807, 0.817896, 0.815299, 0.814137, 0.806092, 0.807745, 0.813938, 0.812958, 0.810447, 0.81138, 0.811291, 0.814892, 0.814736, 0.814964, 0.814228, 0.825493, 0.812118, 0.812294, 0.811562, 0.812836, 0.81585, 0.811144, 0.810025, 0.808068, 0.808751, 0.809516, 0.809136, 0.832106, 0.833335, 0.825946, 0.809486, 0.808288, 0.807956, 0.807198, 0.807809, 0.807672, 0.80645, 0.804836, 0.810265, 0.811454, 0.804515, 0.809972, 0.803715, 0.803888, 0.803679, 0.80217, 0.805471, 0.807662, 0.806129, 0.808319, 0.805045, 0.824696, 0.805953, 0.806513, 0.814736, 0.806619, 0.810999, 0.802547, 0.805288, 0.805593, 0.803571, 0.804575, 0.804767, 0.805142, 0.804554, 0.811783, 0.812474, 0.803944, 0.80519, 0.804593, 0.80587, 0.8157, 0.815797, 0.79385, 0.806141, 0.802577, 0.807226, 0.887987, 0.881272, 0.880787, 0.896711, 0.863256, 0.892729, 0.909536, 1.3418, 1.353, 1.35441, 1.37509, 1.36431, 1.18519, 0.87823, 0.858501, 0.856748, 0.853429, 0.841585, 0.784757, 0.78528, 0.762013, 0.773122, 0.782546, 0.792018, 0.794968, 0.808046, 0.79725, 0.79858, 0.797026, 0.806788, 0.796361, 0.79502, 0.792093, 0.791963, 0.790849, 0.788516, 0.798077, 0.799369, 0.790164, 0.794266, 0.796009, 0.797491, 0.790467, 0.797881, 0.792462, 0.793582, 0.794195, 0.793406, 0.811082, 0.796536, 0.810166, 0.794883, 0.804485, 0.801891, 0.839858, 0.795614, 0.79586, 0.795853, 0.805174, 0.807821, 0.794623, 0.791736, 0.79271, 0.793706, 0.790654, 0.789835, 0.790461, 0.783968, 0.783766, 0.799613, 0.788216, 0.789069, 0.784262, 0.783732
0.846284, 0.846293, 0.843666, 0.842925, 0.856856, 0.850376, 0.851814, 0.851267, 0.869798, 0.851135, 0.852339, 0.852968, 0.85232, 0.853561, 0.853145, 0.852618, 0.852481, 0.868381, 0.884654, 0.866321, 0.867078, 0.866847, 0.866105, 0.866228, 0.86365, 0.864988, 0.866837, 0.873105, 0.864548, 0.870152, 0.867302, 0.880195, 0.865856, 0.857383, 0.854396, 0.853661, 0.845336, 0.843045, 0.847226, 0.848838, 0.84077, 0.841972, 0.840585, 0.840524, 0.84211, 0.841056, 0.845881, 0.82842, 0.815183, 0.81162, 0.815696, 0.834444, 0.835503, 0.853388, 0.85628, 0.936826, 0.986362, 1.0043, 1.32354, 1.3269, 1.32308, 1.33041, 1.33191, 1.34968, 0.96357, 0.933004, 0.897949, 0.901651, 0.863639, 0.831756, 0.853567, 0.868123, 0.862516, 0.8471, 0.847564, 0.835867, 0.845822, 0.840746, 0.827207, 0.827316, 0.837264, 0.835981, 0.835344, 0.828917, 0.827008, 0.827137, 0.827999, 0.828322, 0.836651, 0.833259, 0.833047, 0.823001, 0.821916, 0.821995, 0.822673, 0.821126, 0.821767, 0.819364, 0.846712, 0.830323, 0.83566, 0.825122, 0.821592, 0.824493, 0.818378, 0.814829, 0.814704, 0.813956, 0.818039, 0.814099, 0.809194, 0.809549, 0.804557, 0.79865, 0.794991, 0.79978, 0.803027, 0.799587, 0.805813, 0.802258, 0.801467, 0.804582, 0.804977, 0.810937, 0.808589, 0.813837, 0.807583, 0.806656, 0.812273, 0.815812, 0.818282, 0.818578, 0.818098, 0.820924, 0.825564, 0.817652, 0.822172, 0.820039, 0.809986, 0.814616, 0.811653, 0.813497, 0.812398, 0.815867, 0.81801, 0.815512, 0.815419, 0.816193, 0.81408, 0.819211, 0.820594, 0.809513, 0.821975, 0.80857, 0.817772, 0.802566, 0.806586, 0.807112, 0.808136, 0.809273, 0.811067, 0.811249, 0.812222, 0.811946, 0.812679, 0.809831, 0.811767, 0.81022, 0.810467, 0.809655, 0.810341, 0.811605, 0.809712, 0.80956, 0.809017, 0.809899, 0.808799, 0.808997, 0.808459, 0.807652, 0.807996, 0.806561, 0.807717, 0.806466, 0.820375, 0.821657, 0.812502, 0.811125, 0.811947, 0.811878, 0.805468, 0.805282, 0.818688, 0.811478, 0.805787, 0.809875, 0.811988, 0.814614, 0.804861, 0.787664, 0.803335, 0.803052, 0.801559, 0.811316, 0.810611, 0.807602, 0.802726, 0.807806, 0.812805, 0.800639, 0.80681, 0.805004, 0.801871, 0.804429, 0.803659, 0.803879, 0.816212, 0.814332, 0.82572, 0.805611, 0.806241, 0.815548, 0.7979, 0.79802, 0.794335, 0.853688, 0.877381, 0.878141, 0.884123, 0.893716, 0.917033, 0.970233, 1.14317, 1.34802, 1.36, 1.36163, 1.36451, 1.3689, 1.36874, 0.894593, 0.889604, 0.874279, 0.866515, 0.798391, 0.798727, 0.763748, 0.753663, 0.782778, 0.783156, 0.790603, 0.792839, 0.80828, 0.805985, 0.807833, 0.800717, 0.800975, 0.802389, 0.802054, 0.79938, 0.791167, 0.7982, 0.790848, 0.791664, 0.797336, 0.794335, 0.791937, 0.790368, 0.788851, 0.78894, 0.791444, 0.794704, 0.792068, 0.794356, 0.792775, 0.792813, 0.794106, 0.794704, 0.821103, 0.807984, 0.794542, 0.795573, 0.800119, 0.793802, 0.792559, 0.809411, 0.804436, 0.806684, 0.792262, 0.792777, 0.793585, 0.790094, 0.785605, 0.788097, 0.783379, 0.779994, 0.790251, 0.784468, 0.788539, 0.78293, 0.78364
0.852154, 0.848944, 0.844535, 0.853347, 0.856605, 0.85528, 0.856922, 0.858044, 0.853116, 0.852386, 0.853455, 0.853545, 0.854119, 0.852493, 0.852, 0.852464, 0.852525, 0.850813, 0.849477, 0.872552, 0.871843, 0.862661, 0.860245, 0.859062, 0.862761, 0.866996, 0.862927, 0.87214, 0.873325, 0.866709, 0.864312, 0.862135, 0.850802, 0.853357, 0.852869, 0.853183, 0.849752, 0.860364, 0.842654, 0.843544, 0.841561, 0.841089, 0.845227, 0.842875, 0.842344, 0.845906, 0.859438, 0.851956, 0.826951, 0.80844, 0.810328, 0.835019, 0.84072, 0.872546, 0.878664, 0.943226, 0.966425, 1.01843, 1.0193, 1.32788, 1.35411, 1.34449, 1.34147, 1.01233, 0.992004, 0.937433, 0.911509, 0.885681, 0.886922, 0.853498, 0.829514, 0.833247, 0.856946, 0.856336, 0.832892, 0.846977, 0.842139, 0.838743, 0.849836, 0.829233, 0.83622, 0.835291, 0.835364, 0.834387, 0.832353, 0.82586, 0.845564, 0.846516, 0.826672, 0.827396, 0.825484, 0.838788, 0.831031, 0.839645, 0.822257, 0.822852, 0.82125, 0.825752, 0.822491, 0.839634, 0.837482, 0.828519, 0.82285, 0.818061, 0.831956, 0.817202, 0.816224, 0.814421, 0.81144, 0.81161, 0.806601, 0.805723, 0.808776, 0.801353, 0.802706, 0.802241, 0.810127, 0.802594, 0.802779, 0.81141, 0.800566, 0.805789, 0.816265, 0.811492, 0.809064, 0.818251, 0.820532, 0.818584, 0.818073, 0.815647, 0.817545, 0.81783, 0.824861, 0.81979, 0.818704, 0.818986, 0.818129, 0.818338, 0.814298, 0.815235, 0.814798, 0.815471, 0.811887, 0.815132, 0.814722, 0.81826, 0.814267, 0.816108, 0.816964, 0.818061, 0.814482, 0.815765, 0.808961, 0.808337, 0.82205, 0.807839, 0.804567, 0.811727, 0.806682, 0.808889, 0.811652, 0.812664, 0.864165, 0.81152, 0.811229, 0.811808, 0.811591, 0.810952, 0.809984, 0.822916, 0.805684, 0.811975, 0.808987, 0.809547, 0.809762, 0.810289, 0.81079, 0.809656, 0.809227, 0.810653, 0.820135, 0.811646, 0.836197, 0.836414, 0.815572, 0.807692, 0.814902, 0.807905, 0.816278, 0.807516, 0.80647, 0.807825, 0.804884, 0.81183, 0.805109, 0.810479, 0.811978, 0.809284, 0.802082, 0.804474, 0.811311, 0.803258, 0.804344, 0.80075, 0.800763, 0.804836, 0.803688, 0.803798, 0.800464, 0.802912, 0.803165, 0.802508, 0.800884, 0.801189, 0.801061, 0.805765, 0.80474, 0.810577, 0.814604, 0.824498, 0.807312, 0.818729, 0.804692, 0.790782, 0.796731, 0.80716, 0.874654, 0.873187, 0.889657, 0.897079, 0.971526, 1.03322, 1.15252, 1.35999, 1.34533, 1.35525, 1.35986, 1.37556, 1.37399, 1.16046, 0.915128, 0.911943, 0.816826, 0.798454, 0.789908, 0.759767, 0.783533, 0.773156, 0.774349, 0.782826, 0.794188, 0.793553, 0.793109, 0.793033, 0.793031, 0.804127, 0.804319, 0.802439, 0.801246, 0.798469, 0.797881, 0.809038, 0.798248, 0.795014, 0.794686, 0.798877, 0.799658, 0.791217, 0.790017, 0.792164, 0.791888, 0.791402, 0.792599, 0.792951, 0.794151, 0.793699, 0.793976, 0.794095, 0.807041, 0.802141, 0.79473, 0.794191, 0.793794, 0.794117, 0.790348, 0.792329, 0.790392, 0.816725, 0.790998, 0.791428, 0.789204, 0.787563, 0.797177, 0.781404, 0.794194, 0.789753, 0.784555, 0.789312, 0.781551, 0.783195
0.852646, 0.853836, 0.852857, 0.855286, 0.860806, 0.865656, 0.862111, 0.861074, 0.855608, 0.855726, 0.854367, 0.854077, 0.853862, 0.854804, 0.85274, 0.852093, 0.851726, 0.851456, 0.851263, 0.852646, 0.852256, 0.859761, 0.854018, 0.874033, 0.867836, 0.880828, 0.870679, 0.855587, 0.859813, 0.860722, 0.881338, 0.863489, 0.862294, 0.850219, 0.860531, 0.846899, 0.844964, 0.843149, 0.857573, 0.842583, 0.851718, 0.852585, 0.842746, 0.850646, 0.859309, 0.849456, 0.843667, 0.829408, 0.81436, 0.835975, 0.823698, 0.843472, 0.824241, 0.852848, 0.874978, 0.914765, 0.984813, 0.990578, 1.34018, 1.3401, 1.36385, 1.37185, 1.35717, 1.03536, 0.986746, 0.943854, 0.926568, 0.861887, 0.861641, 0.842979, 0.843125, 0.842751, 0.843244, 0.837449, 0.846886, 0.845661, 0.829392, 0.8295, 0.839526, 0.84356, 0.844876, 0.835063, 0.834984, 0.83497, 0.831636, 0.835786, 0.843279, 0.832027, 0.827544, 0.826169, 0.826885, 0.822029, 0.832139, 0.834991, 0.835788, 0.857985, 0.845939, 0.827129, 0.826472, 0.824328, 0.828583, 0.822095, 0.821373, 0.820279, 0.812749, 0.815367, 0.811923, 0.811261, 0.811645, 0.808695, 0.807679, 0.807192, 0.804096, 0.804431, 0.810639, 0.807809, 0.811245, 0.812057, 0.809046, 0.801447, 0.807863, 0.806852, 0.81439, 0.80837, 0.808511, 0.808832, 0.811592, 0.809676, 0.817255, 0.812315, 0.813155, 0.818068, 0.81812, 0.819498, 0.821597, 0.820859, 0.820393, 0.822856, 0.815025, 0.814818, 0.814112, 0.829161, 0.811616, 0.815674, 0.812353, 0.813895, 0.815063, 0.81388, 0.814143, 0.806192, 0.825224, 0.814409, 0.81008, 0.811986, 0.81051, 0.809719, 0.808409, 0.81251, 0.812109, 0.81153, 0.811122, 0.811858, 0.868555, 0.813186, 0.811844, 0.813252, 0.812755, 0.811578, 0.811299, 0.811034, 0.805594, 0.806045, 0.83173, 0.810912, 0.811568, 0.810736, 0.810472, 0.809287, 0.808746, 0.809194, 0.82291, 0.832131, 0.832349, 0.833892, 0.826446, 0.806034, 0.805151, 0.804693, 0.821632, 0.824135, 0.815805, 0.810359, 0.824538, 0.814309, 0.835867, 0.819817, 0.812197, 0.812081, 0.800663, 0.812087, 0.800716, 0.807586, 0.799359, 0.79686, 0.803215, 0.79966, 0.799582, 0.79936, 0.799513, 0.799963, 0.800536, 0.809524, 0.808533, 0.803947, 0.818328, 0.804092, 0.805999, 0.804781, 0.80503, 0.806802, 0.80832, 0.805062, 0.797624, 0.793849, 0.789818, 0.788968, 0.806222, 0.874178, 0.937666, 1.01321, 1.04937, 1.04587, 1.22966, 1.34082, 1.34096, 1.34902, 1.37796, 1.36922, 1.36794, 1.15912, 0.959561, 0.841199, 0.808449, 0.810453, 0.805652, 0.790527, 0.766933, 0.771734, 0.774717, 0.792136, 0.801793, 0.801578, 0.805646, 0.7936, 0.794049, 0.792416, 0.804426, 0.808009, 0.7955, 0.796734, 0.79692, 0.797265, 0.798807, 0.797811, 0.798516, 0.800969, 0.798111, 0.790734, 0.789653, 0.789388, 0.796721, 0.793753, 0.793065, 0.793099, 0.792111, 0.804454, 0.818686, 0.794297, 0.817701, 0.807346, 0.79384, 0.794597, 0.795294, 0.794319, 0.792786, 0.790711, 0.790229, 0.790921, 0.787853, 0.789473, 0.789547, 0.797722, 0.785863, 0.787659, 0.782763, 0.785035, 0.787805, 0.783712, 0.784688, 0.784357
0.856361, 0.849295, 0.856136, 0.852727, 0.874801, 0.863664, 0.854398, 0.860161, 0.867719, 0.854156, 0.854157, 0.853474, 0.85456, 0.852866, 0.865668, 0.851185, 0.85195, 0.851872, 0.851764, 0.857048, 0.853034, 0.854087, 0.857291, 0.863093, 0.912466, 0.867375, 0.87039, 0.877685, 0.858053, 0.860706, 0.864516, 0.89178, 0.895609, 0.857579, 0.859665, 0.853053, 0.852505, 0.84414, 0.843341, 0.842944, 0.843724, 0.849568, 0.85385, 0.847197, 0.85061, 0.863446, 0.841313, 0.828673, 0.829487, 0.80969, 0.806244, 0.821496, 0.849929, 0.850526, 0.882642, 0.863817, 0.984205, 0.985145, 1.06099, 1.3678, 1.39174, 1.37839, 1.01749, 1.01758, 0.970469, 0.936069, 0.877527, 0.876011, 0.847624, 0.835846, 0.824603, 0.828407, 0.831313, 0.837651, 0.849121, 0.857035, 0.842754, 0.829275, 0.828277, 0.835898, 0.835149, 0.829233, 0.826241, 0.827554, 0.827379, 0.863461, 0.859164, 0.826113, 0.826942, 0.824801, 0.823353, 0.823308, 0.824744, 0.823622, 0.835274, 0.831892, 0.83731, 0.825859, 0.822064, 0.81815, 0.818729, 0.817797, 0.814898, 0.813193, 0.818701, 0.813949, 0.814768, 0.822276, 0.811334, 0.807801, 0.812245, 0.805083, 0.806554, 0.806202, 0.802778, 0.798054, 0.803601, 0.802681, 0.804927, 0.805612, 0.81629, 0.811342, 0.828033, 0.807351, 0.810924, 0.809653, 0.806209, 0.807991, 0.817843, 0.81611, 0.819223, 0.816704, 0.819004, 0.820191, 0.821657, 0.821842, 0.821035, 0.818328, 0.817374, 0.818277, 0.814969, 0.816444, 0.818371, 0.809952, 0.811813, 0.813304, 0.817705, 0.816658, 0.814108, 0.814286, 0.813279, 0.814268, 0.81965, 0.815329, 0.817329, 0.809418, 0.808458, 0.808658, 0.811214, 0.811466, 0.811249, 0.811366, 0.811567, 0.826421, 0.81366, 0.812681, 0.814807, 0.813557, 0.809868, 0.826463, 0.806009, 0.805309, 0.810382, 0.8076, 0.810413, 0.810439, 0.80952, 0.808632, 0.808876, 0.816209, 0.816184, 0.814373, 0.821601, 0.83656, 0.846793, 0.799667, 0.7967, 0.805652, 0.811608, 0.810231, 0.815209, 0.804402, 0.80715, 0.829561, 0.829569, 0.810448, 0.808465, 0.800088, 0.800808, 0.797519, 0.796801, 0.79741, 0.797838, 0.798761, 0.799661, 0.798683, 0.79801, 0.798073, 0.802314, 0.801879, 0.801912, 0.814571, 0.801623, 0.811755, 0.805011, 0.811521, 0.807262, 0.823533, 0.813469, 0.812316, 0.806931, 0.806216, 0.811141, 0.805926, 0.787405, 0.79466, 0.783656, 0.873598, 0.902164, 1.01695, 1.04487, 1.08133, 1.21593, 1.22727, 1.3542, 1.38532, 1.38603, 1.39541, 1.37832, 1.18809, 1.16822, 0.854148, 0.828531, 0.824772, 0.796117, 0.793703, 0.773406, 0.791553, 0.788332, 0.790812, 0.794985, 0.792999, 0.804333, 0.807257, 0.793204, 0.793951, 0.79269, 0.794861, 0.795025, 0.794997, 0.7953, 0.796631, 0.79657, 0.795832, 0.795456, 0.795012, 0.795387, 0.794833, 0.790415, 0.791591, 0.804768, 0.792144, 0.791714, 0.792227, 0.792056, 0.793441, 0.825194, 0.794153, 0.794139, 0.804777, 0.805822, 0.792497, 0.794078, 0.794564, 0.792294, 0.793254, 0.792492, 0.790129, 0.789751, 0.789156, 0.788112, 0.786786, 0.784188, 0.782851, 0.782217, 0.787522, 0.783777, 0.782987, 0.781671, 0.783358
0.857836, 0.853936, 0.861375, 0.864857, 0.852135, 0.857234, 0.853644, 0.866258, 0.869754, 0.855912, 0.852878, 0.852848, 0.853727, 0.863015, 0.852199, 0.851799, 0.850648, 0.852429, 0.853955, 0.849465, 0.849242, 0.846789, 0.856022, 0.865174, 0.866918, 0.883958, 0.87406, 0.874684, 0.88199, 0.852358, 0.850389, 0.86446, 0.864582, 0.855416, 0.844142, 0.860471, 0.848997, 0.85054, 0.844426, 0.843249, 0.842665, 0.825159, 0.832511, 0.839789, 0.845899, 0.841164, 0.847375, 0.825134, 0.825741, 0.812253, 0.81251, 0.829482, 0.844595, 0.852583, 0.880619, 0.878068, 1.00884, 0.991802, 1.08409, 1.16288, 1.39292, 1.12598, 1.05502, 0.993444, 1.00327, 0.922854, 0.904756, 0.863672, 0.83762, 0.853836, 0.819817, 0.810407, 0.822711, 0.82757, 0.85492, 0.832417, 0.833004, 0.832601, 0.828622, 0.836266, 0.826931, 0.827928, 0.846472, 0.827354, 0.826678, 0.825999, 0.825448, 0.823278, 0.825708, 0.822137, 0.821697, 0.824787, 0.825201, 0.828609, 0.829118, 0.829788, 0.829511, 0.819813, 0.816239, 0.816607, 0.817156, 0.816335, 0.815537, 0.818018, 0.815859, 0.819855, 0.808705, 0.808782, 0.811059, 0.812161, 0.814417, 0.803551, 0.80497, 0.805143, 0.794268, 0.794945, 0.803512, 0.804386, 0.805426, 0.807197, 0.806668, 0.80889, 0.808452, 0.809645, 0.809454, 0.819305, 0.818855, 0.819394, 0.812091, 0.813227, 0.815829, 0.81767, 0.819225, 0.822219, 0.821908, 0.837468, 0.82055, 0.833053, 0.819121, 0.814699, 0.821362, 0.80237, 0.80525, 0.815631, 0.824544, 0.814995, 0.817202, 0.816726, 0.81886, 0.815566, 0.820824, 0.813325, 0.811277, 0.813137, 0.816266, 0.811548, 0.808605, 0.809673, 0.812209, 0.81475, 0.808975, 0.811403, 0.811516, 0.809739, 0.810715, 0.810734, 0.810375, 0.809247, 0.809471, 0.810686, 0.804534, 0.806945, 0.80804, 0.808424, 0.808638, 0.810047, 0.807502, 0.807549, 0.807636, 0.814935, 0.822879, 0.815013, 0.814481, 0.814419, 0.815032, 0.788814, 0.80099, 0.800863, 0.806201, 0.797501, 0.819167, 0.798452, 0.80266, 0.805364, 0.806292, 0.805147, 0.801159, 0.800829, 0.79822, 0.794514, 0.801427, 0.800302, 0.795115, 0.79551, 0.798316, 0.800296, 0.796842, 0.797876, 0.801535, 0.800994, 0.80123, 0.801836, 0.818467, 0.805372, 0.801277, 0.8024, 0.805291, 0.805338, 0.805897, 0.807951, 0.808109, 0.824693, 0.80787, 0.809048, 0.791917, 0.794266, 0.804319, 0.797959, 0.956423, 1.01848, 1.06172, 1.07831, 1.09915, 1.23292, 1.38835, 1.38557, 1.40261, 1.40153, 1.37826, 1.37864, 1.15432, 0.908114, 0.855976, 0.801782, 0.781919, 0.781462, 0.802698, 0.785744, 0.789305, 0.791669, 0.805504, 0.805306, 0.803577, 0.802487, 0.790333, 0.795301, 0.791454, 0.812287, 0.821666, 0.817942, 0.795638, 0.805203, 0.796016, 0.800685, 0.795183, 0.794538, 0.798749, 0.800821, 0.789317, 0.793593, 0.796572, 0.790679, 0.791846, 0.790556, 0.790751, 0.791865, 0.791912, 0.792249, 0.791477, 0.791648, 0.794954, 0.791938, 0.791983, 0.806845, 0.798549, 0.791679, 0.807859, 0.790761, 0.789782, 0.789576, 0.787778, 0.786977, 0.790061, 0.787154, 0.78391, 0.782806, 0.782106, 0.787302, 0.784008, 0.782937
0.85946, 0.854907, 0.853321, 0.855239, 0.859603, 0.86018, 0.854908, 0.855535, 0.854199, 0.854435, 0.854423, 0.852858, 0.853713, 0.852551, 0.852558, 0.852524, 0.869176, 0.848242, 0.847086, 0.848138, 0.845995, 0.849131, 0.853291, 0.868221, 0.853082, 0.874914, 0.874831, 0.876396, 0.861585, 0.867765, 0.857694, 0.857896, 0.862736, 0.853249, 0.847875, 0.846875, 0.853812, 0.863407, 0.843378, 0.850831, 0.843101, 0.832078, 0.833275, 0.852447, 0.849633, 0.842342, 0.8439, 0.825604, 0.828554, 0.822043, 0.821511, 0.814556, 0.815686, 0.867423, 0.869864, 0.910121, 0.927929, 1.03253, 1.07181, 1.12874, 1.13298, 1.12625, 1.11139, 1.05272, 0.995629, 0.949387, 0.91625, 0.86952, 0.866283, 0.846121, 0.807754, 0.808584, 0.819069, 0.828226, 0.829708, 0.834327, 0.833391, 0.832941, 0.839295, 0.830334, 0.837078, 0.834739, 0.825732, 0.827656, 0.825945, 0.825514, 0.825705, 0.822494, 0.822208, 0.819689, 0.827622, 0.825221, 0.823627, 0.822479, 0.822135, 0.818426, 0.847262, 0.821278, 0.821076, 0.814987, 0.81565, 0.828205, 0.818719, 0.817081, 0.818466, 0.813455, 0.808707, 0.808473, 0.81096, 0.807438, 0.806581, 0.808578, 0.803883, 0.803268, 0.803084, 0.809949, 0.804911, 0.810035, 0.804303, 0.804789, 0.815812, 0.812821, 0.815068, 0.811066, 0.8105, 0.80785, 0.816776, 0.81466, 0.814707, 0.8257, 0.816234, 0.818781, 0.819485, 0.819966, 0.825817, 0.819811, 0.827146, 0.821758, 0.819168, 0.817679, 0.823006, 0.811224, 0.804464, 0.812361, 0.81468, 0.814367, 0.814326, 0.81661, 0.815565, 0.814361, 0.815202, 0.813938, 0.814904, 0.822067, 0.809702, 0.808905, 0.809733, 0.810402, 0.811283, 0.811005, 0.811048, 0.811392, 0.809213, 0.821928, 0.808712, 0.807703, 0.808644, 0.807524, 0.808637, 0.806842, 0.807157, 0.8057, 0.806637, 0.807446, 0.80802, 0.807685, 0.807999, 0.806369, 0.83243, 0.83845, 0.830306, 0.831535, 0.808909, 0.838463, 0.824425, 0.806873, 0.801437, 0.799149, 0.802009, 0.798751, 0.798767, 0.799626, 0.804607, 0.7996, 0.798815, 0.800058, 0.797425, 0.805435, 0.798141, 0.805445, 0.797784, 0.797799, 0.789732, 0.794377, 0.794436, 0.796589, 0.797793, 0.798109, 0.798243, 0.803173, 0.801728, 0.80352, 0.802481, 0.800734, 0.802259, 0.808131, 0.806957, 0.805505, 0.806022, 0.811879, 0.806104, 0.819087, 0.8248, 0.797741, 0.810973, 0.773437, 0.771066, 0.787817, 0.886307, 1.01171, 1.07359, 1.08179, 1.09246, 1.24977, 1.27281, 1.40911, 1.42669, 1.41891, 1.38958, 1.38958, 1.10436, 1.10565, 0.821247, 0.821949, 0.777321, 0.783052, 0.79416, 0.788201, 0.795484, 0.79263, 0.794124, 0.793809, 0.794466, 0.801385, 0.794308, 0.790363, 0.79869, 0.799009, 0.791866, 0.795517, 0.793039, 0.79335, 0.793372, 0.793624, 0.794133, 0.804806, 0.80575, 0.799287, 0.791382, 0.7907, 0.788288, 0.791108, 0.789083, 0.789417, 0.78977, 0.812285, 0.790201, 0.791557, 0.808506, 0.792484, 0.804944, 0.793142, 0.795402, 0.790396, 0.791195, 0.790493, 0.788469, 0.793711, 0.790219, 0.790257, 0.79211, 0.781624, 0.783725, 0.788059, 0.787742, 0.787026, 0.783895, 0.795249, 0.791743, 0.786645
