0.00328251,0.310618,0.00338399,0.326775,0.325106,0.32853,0.330673,0.330981,0.329572,0.32831,0.339857,0.338532,0.340154,0.338838,0.338765,0.345179,0.343441,0.346252,0.693494,0.367221,0.372292,0.370748,0.386126,0.386037,0.377209,0.377156,0.378297,0.0034493,0.394983,0.392897,0.393391,0.390149,0.395347,0.396128,0.407487,0.409043,0.409488,0.409628,0.00332817,0.413114,0.4137,0.413075,0.411856,0.413971,0.413853,0.413702,0.00340061,0.427654,0.425336,0.42511,0.00334382,0.00328609,0.00350236,0.463764,0.464378,0.465968,0.467815,0.467998,0.472665,0.473702,0.475833,0.476406,0.492232,0.493688,0.00358357,0.499243,0.50271,0.502674,0.51051,0.513893,0.512075,0.513137,0.513584,0.524528,0.525516,0.00360317,0.00341394,0.00334334,0.00340151,0.00345037,0.00348315,0.00362543,0.00360156,0.00372835,0.578941,0.580491,0.582687,0.582872,0.586558,0.586065,0.597639,0.598375,0.600243,0.601312,0.608989,0.609825,0.611475,0.604915,0.625382,0.677066,0.67828,0.677383,0.65675,0.658302,0.648954,0.657402,0.64873,0.690579,0.655052,0.656018,0.685942,0.67274,0.694688,0.692092,0.694782,0.693414,0.6697,0.671445,0.740089,0.740598,0.746428,0.771479,0.768081,0.783457,0.784118,0.786528,0.816147,0.855725,0.863882,0.862915,0.866198,0.916612,0.882154,0.898928,0.898765,0.899589,0.901844,0.990698,1.01231,1.01601,1.016,1.03528,1.02728,1.0447,1.03362,1.06864,1.0752,1.07733,1.06666,1.05614,1.07481,1.08191,1.07427,1.06096,1.06277,1.06353,1.06407,1.05361,1.06367,1.19897,1.1321,1.07328,1.16003,1.12264,1.11968,1.12347,1.07794,0.969174,0.972002,1.0039,0.95308,0.950479,0.95179,0.914591,0.917639,0.922682,0.918638,0.91989,0.909685,0.911779,0.91499,0.917452,0.900106,0.898303,0.899474,0.899928,0.897161,0.907844,0.888973,0.890572,0.970757,0.906479,0.945394,0.933921,0.897654,0.900278,0.849831,0.852924,0.850848,0.873026,0.872126,0.866607,0.872264,0.878921,0.880738,0.87607,0.879669,0.884193,0.895057,0.890099,0.891741,0.89124,0.881209,0.881591,0.889104,0.891023,0.90174,0.905592,0.903084,0.902884,0.904158,0.904012,0.904249,0.900884,0.902954,0.00337092,0.00346544,0.916309,0.00348177,0.00337623,0.929192,0.92896,0.927948,0.929832,0.931855,0.928305,0.929597,0.933359,0.933878,0.939415,0.940641,0.00332805,0.953747,0.954066,0.957822,0.00366982,0.964191,0.00351458,0.00340744,0.00366536,0.0033343,1.07513,0.00320575,0.00371341,0.00345589,0.00330119,0.964112,0.968828,0.97209,0.971824,0.973476,0.975892,0.98055,0.984874,0.987885,0.991031,0.990839,0.991724,0.995256,0.999789,1.00355,1.01196,1.01544,1.01906,1.02558,1.02607,1.02756,1.03093,1.03251,1.03578,0.00335243,0.0036817,0.00343925,0.00330253,1.61711,1.11891,1.34823,1.16065,1.09105,1.09554,1.1021,1.10629,1.10812,1.19632,1.11874,1.12729,1.13054,1.13944,1.14248,1.21405
0.477782,0.00346437,0.00358203,0.324254,0.322279,0.321393,0.320227,0.321077,0.320611,0.327808,0.335326,0.336045,0.337654,0.336445,0.335827,0.345594,0.346978,0.347641,0.346651,0.00340671,0.371603,0.373147,0.375821,0.378034,0.377578,0.376777,0.375944,0.38729,0.38929,0.389677,0.39143,0.392016,0.391602,0.391916,0.393758,0.00365262,0.00339104,0.00355464,0.393444,0.00345178,0.0034711,0.411942,0.412577,0.412895,0.413144,0.41326,0.413633,0.425197,0.427323,0.427337,0.427325,0.426562,0.0032737,0.00319952,0.465859,0.466948,0.468776,0.468102,0.473124,0.475639,0.475486,0.477255,0.478131,0.49805,0.49967,0.500316,0.501626,0.502153,0.512078,0.512946,0.513046,0.513277,0.511284,0.512278,0.00339014,0.00341033,0.534431,0.0032902,0.00355017,0.00350847,0.00347646,0.567975,0.570451,0.572041,0.571745,0.00340834,0.00360993,0.589416,0.587681,0.602046,0.590105,0.591075,0.594212,0.598385,0.594903,0.626328,0.594943,0.595131,0.595072,0.640071,0.61828,0.642657,0.660353,0.638837,0.655689,0.642863,0.621761,0.611663,0.611499,0.620978,0.647066,0.660379,0.665778,0.623561,0.626577,0.626063,0.671548,0.671614,0.769602,0.742341,0.772472,0.743591,0.781036,0.77009,0.773552,0.757951,0.780806,0.825901,0.824856,0.82376,0.82948,0.834903,0.833316,0.840168,0.889139,0.872598,0.915579,0.915812,0.910073,0.958376,0.917207,0.935416,0.96897,0.956472,1.00211,1.01592,1.03711,1.02329,1.03112,1.02498,1.02533,1.01163,1.03766,1.00823,1.00474,1.04356,1.02321,1.04658,1.03172,1.01151,1.0456,1.04259,1.14045,0.964628,0.967361,0.987509,0.960162,0.966026,0.954359,0.968171,0.95301,0.929473,0.904184,0.914835,0.911975,0.955446,0.935694,0.935312,0.939034,0.893968,0.901848,0.892953,0.909547,0.869675,0.876865,0.860391,0.874434,0.87633,0.884362,0.88895,0.884206,0.8871,0.850495,0.850602,0.873969,0.863631,0.863523,0.862033,0.864,0.852293,0.85366,0.870054,0.877746,0.884731,0.921518,0.925441,0.88364,0.885462,0.897701,0.885796,0.876846,0.879729,0.88025,0.887219,0.890852,0.891885,0.902235,0.903626,0.902628,0.90474,0.897634,0.897004,0.900609,0.89773,0.899766,0.900021,0.00323983,0.0034857,0.917654,0.00329365,0.921887,0.923173,0.928742,0.929987,0.929274,0.930772,0.932288,0.932448,0.933037,0.932328,0.935782,0.00329204,0.953118,0.953065,0.956956,0.963725,0.963744,0.00345229,0.973238,0.973614,0.97935,0.979926,0.982613,0.982268,0.987363,0.986628,0.977013,0.978502,0.975597,0.974778,0.974925,0.980959,0.984802,0.985044,0.988458,0.988591,0.9902,0.994451,0.997165,0.00336537,1.00907,1.01358,1.01585,1.01794,1.01495,1.01611,1.02311,1.0295,1.03045,1.03453,1.0367,1.04327,1.10889,1.10897,1.06499,1.06935,1.12555,1.13704,1.14772,1.14773,1.20068,1.20346,1.1088,1.21811,1.23427,1.12326,1.22456,1.22386,1.14213,1.14512
0.00338306,0.301122,0.301454,0.317044,0.318137,0.317919,0.320452,0.322277,0.322646,0.323432,0.322458,0.331198,0.328343,0.328809,0.32859,0.336275,0.338185,0.344372,0.0032817,0.00356276,0.365738,0.00339509,0.372496,0.373863,0.376045,0.375896,0.376191,0.386428,0.00336053,0.388949,0.390379,0.391695,0.392199,0.391832,0.392684,0.392608,0.389922,0.393076,0.393485,0.395082,0.00324437,0.410247,0.411718,0.41189,0.41319,0.413345,0.417008,0.417502,0.425683,0.427574,0.430921,0.430429,0.431777,0.0036192,0.00333182,0.464019,0.00337604,0.470901,0.471849,0.472341,0.475295,0.474578,0.473888,0.473979,0.00331765,0.00355116,0.00330534,0.510216,0.510895,0.511386,0.513794,0.513759,0.511784,0.517174,0.516819,0.00363838,0.00316286,0.0036948,0.003439,0.00349691,0.00329022,0.00342595,0.567079,0.572798,0.580068,0.580952,0.582804,0.582998,0.00330163,0.602227,0.603256,0.601933,0.603391,0.604843,0.605506,0.611496,0.61764,0.617465,0.602279,0.629574,0.649447,0.624903,0.679374,0.633744,0.632715,0.641209,0.606548,0.60836,0.615955,0.622745,0.615333,0.614796,0.591,0.592132,0.583293,0.603959,0.604242,0.604625,0.638042,0.638159,0.639651,0.75149,0.748495,0.746676,0.774183,0.762631,0.777521,0.796258,0.808364,0.799543,0.797802,0.800243,0.804015,0.833259,0.83378,0.860132,0.847122,0.860559,0.859555,0.861757,0.870033,0.924613,0.953413,0.981369,0.939846,0.941483,0.939107,0.970077,0.96966,1.04545,1.00574,0.997407,0.997966,1.00434,0.992955,0.995891,1.00412,0.986668,0.987583,0.964398,0.950938,0.954683,0.967019,0.960242,0.954464,0.953708,0.955964,0.952404,0.926507,0.928096,0.927349,0.927277,0.927636,0.969042,0.921054,0.92635,0.8621,0.880422,0.876639,0.878114,0.895196,0.871424,0.897036,0.896228,0.887453,0.842905,0.867434,0.856555,0.838883,0.851974,0.852894,0.863678,0.844278,0.852842,0.853139,0.864002,0.848677,0.870975,0.875514,0.880958,0.894836,0.866972,0.928984,0.926756,0.928438,0.902591,0.903183,0.886353,0.881918,0.875297,0.884823,0.884321,0.879761,0.880534,0.00330695,0.894904,0.898554,0.900085,0.901269,0.902645,0.900787,0.894344,0.893187,0.897272,0.897654,0.898989,0.905154,0.908848,0.911653,0.901643,0.908396,2.04824,0.00320103,0.925207,0.928496,0.929188,0.931482,0.931629,0.932425,0.934556,0.936051,0.938854,0.940401,0.953682,0.95531,0.956521,0.963096,0.966015,0.00326383,0.975738,0.980497,0.982774,0.987399,0.988858,0.991242,0.993505,0.973685,0.975676,0.977009,0.976452,0.976152,0.978979,0.981709,0.985413,0.987724,0.993765,0.995998,0.99771,1.00026,1.00184,1.00607,1.0106,1.01136,1.01198,1.01638,1.01833,1.02297,1.02494,1.02896,1.03236,1.03651,1.04294,1.04792,1.07574,1.06092,1.06968,1.07138,1.0777,1.15055,1.09044,1.0931,1.09925,1.20604,1.11207,1.11236,1.20081,1.1477,1.13039,1.13968,1.14256
0.285811,0.466114,0.465517,0.316046,0.317986,0.318293,0.320164,0.320199,0.320053,0.323496,0.325417,0.328431,0.329024,0.327884,0.330236,0.329222,0.340067,0.00343194,0.00317779,0.00348556,0.676491,0.354483,0.00314778,0.369828,0.373976,0.00342178,0.370282,0.37372,0.372431,0.370676,0.373174,0.00353096,0.390488,0.390311,0.391858,0.391312,0.389632,0.39384,0.395966,0.39618,0.396251,0.00324331,0.00341983,0.411265,0.412605,0.417905,0.419738,0.419748,0.419274,0.418777,0.431214,0.432397,0.432602,0.434572,0.0033579,0.00349046,0.468353,0.00335404,0.473304,0.474241,0.474414,0.474394,0.474225,0.474699,0.00364668,0.00310598,0.00361504,0.506523,0.506909,0.509975,0.510959,0.512782,0.513808,0.515654,0.00344315,0.0034545,0.531748,0.00352072,0.00341985,0.00329082,0.556154,0.557661,0.558989,0.567227,0.567848,0.567951,0.00367529,0.581103,0.58133,0.725207,0.601691,0.604496,0.604932,0.60725,0.609866,0.609236,0.611836,0.613692,0.614042,0.622863,0.625357,0.624828,0.629862,0.632007,0.631884,0.624746,0.650064,0.64766,0.650008,0.650568,0.607412,0.577239,0.566692,0.57703,0.53532,0.60123,0.544954,0.558291,0.597339,0.615656,0.620815,0.664286,0.668838,0.6704,0.686883,0.744834,0.779207,0.777174,0.745758,0.756513,0.763157,0.75542,0.780134,0.794026,0.83903,0.852088,0.841287,0.794195,0.830745,0.846864,0.850425,0.868229,0.890723,0.89777,0.911743,0.877478,0.924873,0.87571,0.914072,0.916226,0.960208,0.950093,0.987149,0.938993,0.926497,0.928797,0.962186,0.962481,0.921826,0.91451,0.918429,0.88105,0.921548,0.884701,0.884326,0.886676,0.911448,0.894136,0.895192,0.867272,0.873558,0.87668,0.00349005,0.933356,0.866051,0.860612,0.887782,0.862833,0.870489,0.89527,0.911558,0.838261,0.839296,0.818106,0.822089,0.84014,0.892222,0.822472,0.857265,0.856617,0.898741,0.930546,0.862298,0.835669,0.839624,0.836466,0.83655,0.850965,0.877021,0.866793,0.868399,0.869822,0.89906,0.870412,0.872813,0.875407,0.879453,0.881307,0.872346,0.872755,0.876254,0.877774,0.877327,0.878439,0.887692,0.889632,0.894693,0.898202,0.898659,0.899619,0.899656,0.889189,0.892049,0.893844,0.0033138,0.00332763,0.904716,0.899931,0.901143,0.899422,0.900445,0.901732,0.00351957,0.919526,0.920997,0.923851,0.927298,0.92994,0.932017,0.932153,0.935861,0.937735,0.942583,0.00326444,0.953176,0.955794,0.957237,0.959595,0.00359067,0.00331468,0.00356201,0.986982,0.991606,0.993053,0.994568,0.99421,0.985609,0.975629,0.977007,0.976832,0.979478,0.979749,0.981341,0.983435,0.986838,0.986678,0.986764,0.989376,0.990503,0.00337191,0.99931,1.00439,1.00652,1.0088,0.00359505,1.01889,1.02257,1.02466,1.02607,1.03232,1.03599,1.03913,0.00341216,1.10603,0.00357567,1.11524,1.07249,1.07672,1.08057,1.08588,1.15059,1.09448,1.10158,1.10574,1.11486,1.11654,1.21572,1.12671,1.13848,1.14082
0.00371937,0.00312656,0.00318506,0.467561,0.546295,0.318304,0.318189,0.31963,0.320189,0.320612,0.321156,0.319216,0.327059,0.328099,0.327384,0.32881,0.329389,0.328906,0.344467,0.346432,0.347675,0.356624,0.00325468,0.00349105,0.36839,0.370041,0.372674,0.370868,0.374242,0.374384,0.374728,0.374307,0.380995,0.385775,0.385924,0.386946,0.384761,0.390614,0.393637,0.389506,0.389718,0.00358689,0.404131,0.40462,0.404561,0.416821,0.416278,0.419012,0.419285,0.428258,0.428884,0.00348285,0.435681,0.437628,0.00331434,0.00351909,0.00332801,0.00344771,0.472842,0.475614,0.476014,0.476765,0.478076,0.478061,0.479417,0.49185,0.494388,0.495916,0.497816,0.508989,0.509499,0.513169,0.515356,0.516146,0.516249,0.522756,0.534599,0.534714,0.536278,0.537599,0.557857,0.559311,0.561742,0.564613,0.567069,0.567916,0.567321,0.00370402,0.00361548,0.585005,0.586562,0.586991,0.607625,0.606547,0.609974,0.609444,0.612444,0.614292,0.624952,0.624557,0.625487,0.647946,0.648861,0.64619,0.646183,0.648007,0.631164,0.632076,0.647104,0.602707,0.604822,0.590741,0.593321,0.525073,0.525077,0.506472,0.50915,0.532985,0.546335,0.5263,0.537276,0.652345,0.634848,0.665611,0.713911,0.689724,0.695547,0.702,0.693942,0.72989,0.730462,0.732127,0.768016,0.768554,0.802656,0.80075,0.800421,0.773827,0.790781,0.791675,0.804509,0.805179,0.813984,0.825301,0.869932,0.897801,0.879192,0.881069,0.878901,0.86099,0.898479,0.863556,0.898303,0.869218,0.897523,0.881622,0.92737,0.921601,0.908367,0.89084,0.895186,0.873894,0.870636,0.870779,0.857738,0.851427,0.873936,0.842718,0.884497,0.84319,0.822424,0.824051,0.882377,0.865321,0.8642,0.839328,0.857421,0.863172,0.86311,0.844531,0.808012,0.809137,0.805272,0.797774,0.798959,0.823078,0.811029,0.839621,0.836597,0.831711,0.83285,0.832262,0.833598,0.833556,0.810842,0.811386,0.814291,0.85406,0.855398,0.852355,0.929346,0.924807,1.15977,0.874873,0.887657,0.886445,0.871233,0.871121,0.872217,0.875475,0.874693,0.87666,0.87957,0.881196,0.881714,0.887718,0.886177,0.886572,0.00308451,0.891941,0.893706,0.894321,0.893771,0.894425,0.895999,0.900185,0.903085,0.904055,0.895333,0.898542,0.895326,0.895561,0.896316,2.07578,0.00330977,0.922522,0.932815,0.923236,0.928535,0.930071,0.932655,0.935166,0.938928,0.941743,0.949395,0.950671,0.954956,0.954414,0.955401,0.00323265,0.00348574,0.990341,0.993247,0.996131,0.997898,0.992368,0.989313,0.98499,0.97415,0.97671,0.978545,0.978236,0.981048,0.982638,0.983383,0.985109,0.985649,0.986066,0.991265,0.995651,0.999566,1.00127,1.005,0.00343506,0.00349385,1.01572,1.01946,1.0236,1.02923,1.03154,1.03526,1.03612,1.04273,1.04768,0.00336923,0.003446,1.06803,1.15197,1.08471,1.10796,1.08771,1.09207,1.09931,1.10202,1.10641,1.11041,1.1199,1.12448,1.12928,1.24052
0.506085,0.00334405,0.516708,0.00348325,0.548272,0.00320018,0.311566,0.31229,0.312362,0.313468,0.315439,0.32107,0.322607,0.322444,0.322083,0.329111,0.330287,0.334707,0.345021,0.348578,0.350512,0.351279,0.352617,0.352222,0.353499,0.00320042,0.36923,0.371665,0.374071,0.373233,0.375046,0.375204,0.375384,0.377254,0.378443,0.383913,0.387029,0.388488,0.389617,0.388338,0.387546,0.00325978,0.406557,0.406688,0.407863,0.407861,0.410655,0.591702,0.426188,0.428388,0.428804,0.0035165,0.00331718,0.00345949,0.00329008,0.00313376,0.00372547,0.00310742,0.471228,0.474791,0.476769,0.476164,0.474644,0.474957,0.475727,0.475351,0.492178,0.499926,0.501673,0.501435,0.505394,0.510357,0.511037,0.510633,0.00346222,0.00320435,0.534646,0.535257,0.536714,0.540647,0.542341,0.00357155,0.564386,0.567293,0.568693,0.568915,0.568658,0.00338459,0.583999,0.58492,0.587631,0.589303,0.590645,0.592217,0.593324,0.00319622,0.623173,0.626367,0.625159,0.626427,0.62829,0.629274,0.639768,0.642184,0.646888,0.671212,0.629401,0.639812,0.631191,0.629105,0.617561,0.618796,0.574315,0.575868,0.576646,0.507718,0.515379,0.502408,0.528431,0.531017,0.558107,0.556412,0.576355,0.570777,0.630046,0.649607,0.666412,0.708145,0.683284,0.690184,0.691574,0.700836,0.7377,0.77716,0.725533,0.777011,0.778083,0.768561,0.768425,0.771172,0.795212,0.802848,0.804616,0.80488,0.823021,0.805903,0.789013,0.789299,0.791329,0.818898,0.82557,0.818154,0.817888,0.863265,0.856732,0.874743,0.849776,0.866995,0.867384,0.871461,0.874387,0.864614,0.835126,0.839458,0.908298,0.908488,0.851183,0.849321,0.845425,0.847156,0.84883,0.824631,0.840229,0.856803,0.840286,0.81709,0.849383,0.821998,0.823328,0.812102,0.803874,0.815701,0.790418,0.789402,0.799467,0.798091,0.805295,0.781558,0.804961,0.802385,0.8074,0.805405,0.806612,0.791257,0.796917,0.818662,0.807256,0.808145,0.809593,0.850722,0.851304,0.00341624,0.874422,0.877043,0.877397,0.872268,0.874361,0.876781,0.87689,0.875748,0.877129,0.878282,0.878793,0.875562,0.880428,0.88251,0.874643,0.874297,0.876883,0.878178,0.88737,0.883954,0.00333353,0.889869,0.889555,0.892755,0.905317,0.89357,0.897122,0.897682,0.897993,0.899996,0.901984,0.911534,0.914442,0.915919,0.91785,0.00346535,0.922672,0.928552,0.930735,0.932513,0.935985,0.940354,0.942489,0.94437,0.9471,0.950212,0.95423,0.00338035,0.00360062,0.00347143,0.994567,0.995539,0.996997,0.998179,0.987391,0.986484,0.974606,0.974889,0.979327,0.979709,0.976135,0.980724,0.981255,0.981486,0.981103,0.98559,0.986192,0.990465,0.997794,0.00335284,1.00136,0.00342429,0.00368889,1.01522,1.01697,0.0034224,1.03046,1.03347,1.03381,1.03706,1.09456,1.05183,0.00337591,1.06394,1.06937,0.0033619,1.07947,1.08179,1.08885,1.09332,1.09501,1.09975,1.10554,1.1103,1.1141,1.12513,1.133,1.13558
0.27158,0.544011,0.00317755,0.474938,0.00341554,0.00360428,0.31171,0.313372,0.313806,0.313336,0.312965,0.314204,0.315414,0.317607,0.320518,0.320621,0.00360322,0.343101,0.34491,0.345174,0.345695,0.352225,0.35314,0.354491,0.354942,0.35477,0.354717,0.368452,0.367595,0.368106,0.370007,0.375407,0.375264,0.375272,0.378973,0.372083,0.380045,0.386522,0.387498,0.386043,0.387086,0.387837,0.405305,0.406498,0.406941,0.409166,0.00349605,0.00350192,0.00346123,0.00367712,0.00332459,0.00364104,0.00312582,0.00327293,0.0031197,0.003514,0.00334117,0.467628,0.469742,0.470296,0.475794,0.477264,0.481225,0.480175,0.00331192,0.494348,0.00327236,0.504715,0.505046,0.506948,0.506861,0.511704,0.514267,0.515647,0.00340639,0.532777,0.534898,0.535516,0.53713,0.538499,0.539577,0.00349073,0.00325393,0.00327064,0.00342649,0.00343373,0.0035169,0.00355762,0.00346433,0.585032,0.589138,0.591588,0.59169,0.593778,0.594516,0.594397,0.592368,0.592186,0.592451,0.594644,0.595144,0.599025,0.643805,0.652826,0.650826,0.639,0.639896,0.636243,0.612368,0.628365,0.592492,0.608764,0.59253,0.576614,0.577633,0.595073,0.487475,0.487945,0.497196,0.542117,0.518729,0.537895,0.547032,0.564099,0.58663,0.593791,0.604837,0.619044,0.621061,0.621555,0.657323,0.658221,0.685017,0.660724,0.704289,0.72916,0.715448,0.749773,0.710775,0.724978,0.728398,0.730975,0.780495,0.78174,0.763551,0.748553,0.777545,0.783113,0.804571,0.798217,0.781998,0.785213,0.790456,0.816575,0.870054,0.869796,0.862891,0.863388,0.825797,0.822408,0.82963,0.833177,0.840727,0.873584,0.838459,0.839181,0.802027,0.823231,0.796953,0.795506,0.784508,0.852158,0.809497,0.810153,0.843492,0.804825,0.806574,0.81974,0.765889,0.767248,0.760433,0.761456,0.763518,0.781369,0.790641,0.784546,0.79024,0.786115,0.789471,0.816972,0.813272,0.790201,0.785374,0.786897,0.788892,0.787303,0.812517,0.812941,0.00340573,0.00342455,0.912388,0.891639,0.879082,0.880693,0.8787,0.878006,0.873734,0.87335,0.865908,0.869496,0.864048,0.867557,0.874168,0.875963,0.875966,0.87478,0.87623,0.873603,0.874684,0.867693,0.873986,0.875086,0.00330515,0.00353704,0.00323884,0.883524,0.886748,0.887775,0.888225,0.886206,0.00321591,0.89703,0.898117,0.00335278,0.00350429,0.0035247,0.914726,0.916725,0.920912,0.92225,0.924835,0.929598,0.00330578,0.934618,0.0033701,0.00344906,0.00343982,0.950258,0.953044,0.00355421,0.00359935,0.988637,0.991159,0.992183,0.994866,0.992343,0.991214,0.990737,1.44323,0.975177,0.977642,0.97793,0.97946,0.980424,0.974095,0.976781,0.981602,0.981025,0.984741,0.985825,0.98823,0.990709,0.995232,0.997273,0.99856,1.01199,1.01559,1.0222,1.0266,1.03165,1.03627,1.03715,1.32018,0.00325313,0.00337124,1.06403,1.06879,1.07269,1.07531,1.15344,1.08904,1.09168,1.09742,1.0981,1.10609,1.11065,1.11421,1.11718,1.12595,1.13461
0.483414,0.00341018,0.524167,0.523803,0.00339129,0.00328291,0.00326332,0.00318969,0.542761,0.313366,0.314007,0.315847,0.315724,0.320662,0.320681,0.321752,0.327639,0.329712,0.341849,0.344478,0.343787,0.350327,0.350351,0.349838,0.353768,0.355565,0.355266,0.356223,0.363475,0.364853,0.363355,0.362528,0.370734,0.375348,0.374931,0.374598,0.374568,0.376422,0.384842,0.387082,0.38639,0.384733,0.38616,0.386858,0.397406,0.397611,0.397294,0.0033135,0.421698,0.423163,0.424083,0.424106,0.00347575,0.00366689,0.00391033,0.00337168,0.00326073,0.469294,0.471178,0.472635,0.473113,0.480782,0.481603,0.489286,0.492132,0.493613,0.495283,0.50336,0.506685,0.507623,0.509064,0.509432,0.511135,0.522041,0.520902,0.521953,0.524016,0.524421,0.536764,0.538095,0.538798,0.540821,0.542713,0.544746,0.545008,0.00354502,0.567153,0.568568,0.569113,0.577561,0.578401,0.587232,0.591497,0.593153,0.592419,0.595452,0.596927,0.597168,0.59554,0.596574,0.594589,0.592282,0.591354,0.592505,0.590142,0.595115,0.596684,0.597738,0.598189,0.588121,0.587704,0.595723,0.594081,0.625686,0.62503,0.635392,0.577123,0.579329,0.570713,0.500009,0.491823,0.476433,0.517404,0.519778,0.530173,0.578958,0.606144,0.604462,0.631898,0.580381,0.580341,0.621561,0.662866,0.648625,0.657819,0.650026,0.699774,0.661305,0.669481,0.666542,0.684756,0.685477,0.642858,0.644003,0.733178,0.7361,0.704468,0.739337,0.755046,0.722964,0.722383,0.786905,0.782375,0.811968,0.830374,0.832398,0.790105,0.785545,0.782574,0.805963,0.798131,0.777873,0.798845,0.795297,0.806763,0.788028,0.794565,0.788241,0.777746,0.7772,0.767908,0.773332,0.788096,0.76805,0.763797,0.772992,0.774846,0.774359,0.809044,0.776762,0.791688,0.787365,0.78763,0.78087,0.797502,0.770148,0.793356,0.802611,0.798744,0.7991,0.727526,0.749705,0.756216,0.767156,0.815997,0.81773,0.8111,0.943737,0.957402,0.00337977,0.873886,0.875479,0.878101,0.876368,0.877725,0.878137,0.880774,0.864981,0.867264,0.866149,0.8695,0.868654,0.868294,0.869966,0.86315,0.865148,0.860881,0.862847,0.862997,0.862753,0.863306,0.00367558,0.00348876,0.00315076,0.0032325,0.00330864,0.887226,0.887359,0.88237,0.883937,0.883644,0.892571,0.895393,0.897175,0.00358133,0.00325039,0.910012,0.912045,0.917101,0.916762,0.920536,0.92651,0.929217,0.931732,0.933838,0.935639,0.945541,0.947015,1.45845,0.00345613,0.003345,0.00348062,0.990319,0.99387,0.994863,0.993818,0.993521,0.988612,0.9738,0.972052,0.977271,0.971531,0.973573,0.976373,0.976541,0.975677,0.977553,0.978388,0.980728,0.981895,0.984798,0.991527,0.00329449,0.00336617,1.00319,0.00348067,0.00334536,0.00339325,1.022,1.02766,1.03227,1.0349,1.03947,1.04305,0.00375471,1.06413,1.06787,1.07102,1.07538,1.08081,1.08359,1.08935,1.18843,1.19798,1.20229,1.20612,1.11964,1.12047,1.19948,1.1348
0.476926,0.480945,0.481049,0.00328809,0.282787,0.467759,0.00329189,0.00323666,0.296901,0.301429,0.00329946,0.314691,0.315532,0.317823,0.325141,0.327345,0.330949,0.331896,0.335056,0.335245,0.341212,0.344355,0.34272,0.34328,0.354321,0.355717,0.353756,0.352762,0.36339,0.362249,0.364057,0.364766,0.365072,0.365987,0.369067,0.368939,0.369216,0.369812,0.370233,0.386459,0.386445,0.386285,0.385761,0.386777,0.387412,0.396515,0.396685,0.00354208,0.420761,0.421001,0.423592,0.424062,0.424091,0.424035,0.439498,0.440019,0.00343288,0.00369866,0.00329555,0.00338308,0.00318401,0.00337317,0.00329298,0.00384624,0.00335192,0.491792,0.00339657,0.00346268,0.505165,0.506761,0.507054,0.510241,0.512413,0.521767,0.52239,0.522166,0.527569,0.525464,0.52864,0.528892,0.540017,0.53983,0.542619,0.544109,0.545057,0.00345552,0.00354074,0.569647,0.572134,0.572938,0.577046,0.579222,0.579411,0.579389,0.591408,0.592786,0.594598,0.59428,0.595442,0.596371,0.587726,0.588433,0.589414,0.58991,0.590297,0.592331,0.593457,0.594756,0.593645,0.589429,0.590565,0.611933,0.610011,0.611567,0.610609,0.623719,0.617529,0.545897,0.546482,0.499212,0.500674,0.501398,0.49984,0.498553,0.538845,0.567743,0.558272,0.579458,0.622257,0.579514,0.579193,0.646332,0.648016,0.628862,0.62607,0.642343,0.6422,0.669752,0.641685,0.650037,0.688634,0.687844,0.680035,0.680637,0.693913,0.694257,0.690581,0.658307,0.658933,0.705077,0.696553,0.71464,0.693883,0.690819,0.729049,0.71255,0.717557,0.73528,0.732621,0.736413,0.737011,0.738535,0.775886,0.724853,0.721896,0.714659,0.719037,0.747248,0.746697,0.767767,0.719389,0.735073,0.770273,0.776787,0.754098,0.777061,0.779028,0.770837,0.721993,0.726852,0.747614,0.749839,0.763295,0.752939,0.753179,0.747624,0.731725,0.71607,0.70518,0.705533,0.705824,0.711809,0.76161,0.745297,0.74643,0.866046,0.897708,0.895017,0.897592,0.887809,0.876587,0.876538,0.878969,0.875281,0.874696,0.876427,0.871899,0.870966,0.859751,0.860982,0.863755,0.864428,0.864557,0.861736,0.861387,0.850546,0.853457,0.85481,0.859551,0.859521,0.852214,0.85547,0.0033703,1.12598,0.00329838,0.0032847,0.0034057,0.00349963,0.874641,0.875593,0.877995,0.87927,0.00335069,0.895225,0.897367,0.900009,0.910307,0.912511,0.915468,0.917081,0.918137,0.920348,0.923322,0.929815,0.93232,0.00342568,0.944632,0.945857,0.948912,0.952714,0.00326633,0.00364031,0.00366925,0.992733,0.992607,0.993268,0.988201,0.989423,0.0034428,0.973206,0.00346218,0.968182,0.969697,0.967436,0.969111,0.970029,0.971918,0.976525,0.97795,0.981376,0.984209,0.986561,0.00341269,0.99565,1.67083,1.31255,0.0032511,1.01305,0.00337591,0.00372937,0.00354003,1.0328,1.0366,1.03909,0.00329745,1.07711,0.00347844,1.1226,0.00326881,1.07926,1.08115,1.18678,1.08765,0.00357411,1.19973,1.19868,1.1718,1.12104,1.26928,1.26983
0.47804,0.477013,0.476913,0.473989,0.544754,0.280318,0.282996,0.470076,0.533373,0.29434,0.499942,0.00319666,0.00336808,0.00332607,0.323685,0.325791,0.326668,0.325562,0.335796,0.337552,0.33911,0.340608,0.340024,0.342745,0.343086,0.34362,0.343497,0.351601,0.358539,0.358926,0.359712,0.360587,0.363164,0.365734,0.367447,0.368922,0.370972,0.372137,0.371907,0.371253,0.383297,0.384485,0.383317,0.38623,0.385827,0.386016,0.00365665,0.00336309,0.418643,0.00310138,0.424359,0.423919,0.424653,0.437461,0.43742,0.437535,0.437813,0.439057,0.00347086,0.00337507,0.00334332,0.00331063,0.848511,0.860873,0.493784,0.494741,0.495995,0.496094,0.501069,0.503783,0.510941,0.513708,0.51347,0.00332703,0.528409,0.529566,0.53034,0.529857,0.530726,0.537618,0.538758,0.541468,0.54244,0.5404,0.542825,0.00318537,0.00333921,0.00339074,0.573295,0.575526,0.576836,0.578285,0.579243,0.00352716,0.00364239,0.584913,0.588109,0.588234,0.592607,0.582489,0.584581,0.585437,0.585502,0.585383,0.58756,0.591597,0.592589,0.591549,0.582955,0.583655,0.622544,0.619104,0.617792,0.620768,0.621387,0.621868,0.628684,0.621932,0.623348,0.624657,0.62871,0.52651,0.486966,0.486461,0.48683,0.531885,0.53151,0.531897,0.584912,0.620525,0.574024,0.621662,0.614044,0.65769,0.661282,0.635651,0.631899,0.587443,0.556962,0.617733,0.615627,0.610585,0.594527,0.611135,0.669471,0.654315,0.676216,0.601172,0.624439,0.677242,0.678683,0.68129,0.670493,0.667373,0.691471,0.695616,0.675986,0.678171,0.653681,0.691151,0.701007,0.723553,0.710938,0.720786,0.694545,0.707948,0.695071,0.686515,0.690171,0.732601,0.690926,0.704009,0.715636,0.723255,0.716148,0.694448,0.725306,0.725405,0.70678,0.718041,0.71831,0.714304,0.737979,0.674734,0.671331,0.671697,0.687671,0.694414,0.680529,0.680478,0.7155,0.766828,0.749,0.751336,0.750832,0.00334712,0.912934,0.892805,0.892544,0.874492,0.877087,0.878338,0.879296,0.877431,0.878208,0.873624,0.871392,0.866074,0.860891,0.8621,0.863091,0.862361,0.00304996,0.853697,0.853138,0.853278,0.850879,0.853656,0.850818,0.854646,0.855483,0.852409,0.00344443,0.853338,0.856298,0.859941,0.863305,0.866552,0.866798,0.867982,0.873428,0.874042,0.874545,0.00330271,0.00368493,0.00316587,0.906811,0.90909,0.911832,0.91454,0.915713,0.917084,0.920574,0.922161,0.931905,0.00305557,0.943619,0.945819,0.949105,0.00343588,0.0038094,0.00357858,0.984825,0.988418,0.990089,0.990453,0.986332,0.985784,0.966137,0.966015,0.965846,0.966947,0.967547,0.969597,0.969067,0.968928,0.969996,0.972173,0.977496,0.977933,0.983678,0.986201,0.00358948,0.995984,1.00083,0.00352317,1.01056,1.01144,1.01325,1.28707,0.00380883,0.00328472,0.00373233,1.03732,1.04311,0.00351785,0.00339464,0.00321946,1.06892,1.07446,1.18345,1.08529,1.15104,1.09713,1.10083,1.10846,1.11697,1.1217,1.12689,1.12971
0.249252,0.248619,0.256023,0.263257,0.466964,0.277248,0.275872,0.276367,0.289392,0.287934,0.536977,0.00337922,0.0037588,0.321776,0.323162,0.323547,0.324644,0.324775,0.327376,0.327591,0.330025,0.34029,0.340336,0.341267,0.341716,0.339786,0.338219,0.00338975,0.348756,0.351868,0.352939,0.352699,0.36238,0.360294,0.364402,0.364623,0.365355,0.368788,0.370751,0.371994,0.380803,0.382364,0.383356,0.385038,0.385649,0.387973,0.388025,0.00345089,0.003341,0.00340239,0.425307,0.426891,0.426577,0.435871,0.437676,0.437797,0.439227,0.439127,0.441398,0.00352889,0.0031738,0.0034309,0.00356404,0.00360984,0.49264,0.496793,0.49915,0.499871,0.499159,0.499931,0.00337784,0.00377856,0.00325424,0.00376924,0.527955,0.529235,0.531632,0.532235,0.533661,0.534431,0.539588,0.538459,0.541893,0.541214,0.545131,0.546739,0.546856,0.556409,0.560929,0.532752,0.532183,0.528569,0.549707,0.578237,0.579373,0.580136,0.585962,0.586834,0.58465,0.585803,0.583311,0.583404,0.58501,0.586304,0.586372,0.588553,0.589664,0.59065,0.584528,0.607661,0.615949,0.615187,0.617497,0.617952,0.625177,0.624638,0.610666,0.611622,0.615332,0.621921,0.624011,0.624633,0.549108,0.548134,0.530169,0.536322,0.541782,0.541995,0.555003,0.557124,0.534325,0.618942,0.579321,0.549152,0.558003,0.552853,0.529581,0.559801,0.557525,0.557649,0.58119,0.618286,0.578036,0.642826,0.62298,0.607992,0.635151,0.582981,0.626429,0.591152,0.681619,0.679921,0.632139,0.632637,0.649814,0.662164,0.663624,0.68688,0.656762,0.655919,0.664687,0.662793,0.67749,0.676674,0.676861,0.71581,0.704177,0.698567,0.680776,0.681109,0.693131,0.675292,0.688439,0.705531,0.718638,0.701232,0.708874,0.700321,0.691723,0.690295,0.703874,0.687685,0.679447,0.701604,0.702372,0.693568,0.670684,0.7095,0.699153,0.732226,0.732039,0.721874,0.757312,0.756399,0.758642,0.930348,0.942446,0.864377,0.864706,0.868841,0.875657,0.877983,0.878212,0.876174,0.870531,0.872078,0.872555,0.867869,0.869052,0.00354335,0.841395,0.843003,0.846479,0.847227,0.846151,0.845747,0.845999,0.843955,0.846702,0.84825,0.848811,0.849626,0.849972,0.851653,0.853439,0.857703,0.859503,0.862209,0.864821,0.868115,0.86865,0.867511,0.871474,0.872007,0.00330189,0.00336134,0.00329451,0.904719,0.907075,0.909572,0.911164,0.914571,0.915132,0.00322864,0.00317666,0.00340254,0.00333489,1.63901,0.945841,1.64125,0.00347091,0.00332309,0.00344613,0.985136,0.987724,0.988272,0.985976,0.964826,0.967475,0.964125,0.966504,0.967133,0.964636,0.961039,0.964956,0.962106,0.966112,0.967387,0.976909,0.978059,0.00319397,0.983992,0.989414,0.991874,0.00346124,0.00317533,0.00324468,1.00536,0.00330283,1.01339,1.0171,1.02164,1.02751,1.02969,1.03296,0.00352987,0.00318833,0.00331694,0.0034326,1.07335,1.07789,1.18503,1.1861,1.16256,1.10528,1.11064,1.11671,1.12003,1.12652,1.12946
0.00355965,0.247853,0.475065,0.00330213,0.468912,0.274932,0.274878,0.274915,0.285115,0.521572,0.522274,0.00331926,0.294682,0.00333536,0.31194,0.317145,0.324499,0.323649,0.324536,0.324365,0.334037,0.335985,0.336454,0.336991,0.337401,0.337609,0.331034,0.00324546,0.336348,0.335624,0.351831,0.355342,0.357307,0.358096,0.360116,0.361529,0.363899,0.365685,0.367368,0.36684,0.371738,0.384365,0.385297,0.386645,0.387631,0.388908,0.38884,0.00348642,0.00329856,0.00327573,0.54528,0.426564,0.428317,0.428637,0.435856,0.438034,0.439373,0.440043,0.43955,0.00347082,0.0034822,0.00358045,0.847687,0.00320065,0.861432,0.497237,0.498995,0.500362,0.50047,0.501073,0.00368552,0.00343393,0.515382,0.516187,0.51411,0.00337893,0.530603,0.532349,0.533591,0.533478,0.537822,0.537234,0.536229,0.54016,0.540964,0.541565,0.546761,0.547168,0.53898,0.528657,0.537448,0.541952,0.53258,0.535307,0.577587,0.00314976,0.5758,0.577081,0.577614,0.581158,0.58146,0.582802,0.583069,0.58667,0.587751,0.588883,0.589196,0.587853,0.588818,0.590877,0.600032,0.6016,0.602676,0.60698,0.609951,0.608287,0.613819,0.613244,0.621732,0.601584,0.6196,0.621848,0.55997,0.55914,0.538482,0.540415,0.539754,0.542737,0.542444,0.533727,0.549144,0.539515,0.539735,0.54751,0.5484,0.550868,0.54152,0.535925,0.53611,0.528207,0.54698,0.545047,0.545292,0.507488,0.521191,0.547087,0.542042,0.549729,0.572463,0.577582,0.579111,0.557807,0.556578,0.622783,0.589846,0.597484,0.638977,0.674245,0.563879,0.591433,0.595923,0.628606,0.616901,0.662809,0.674433,0.666027,0.64312,0.678783,0.657241,0.664292,0.648965,0.64361,0.654977,0.645114,0.684249,0.685302,0.681421,0.687661,0.683555,0.679802,0.676128,0.677577,0.657819,0.656692,0.656691,0.666557,0.656123,0.67458,0.699829,0.711157,0.716174,0.0033454,0.00335367,0.00351393,0.00303205,0.00353876,0.916521,0.870238,0.876156,0.874927,0.877127,0.860834,0.862582,0.867214,0.870453,0.87294,0.873756,0.853687,0.856175,0.856415,0.855836,0.849044,0.845306,0.839179,0.833132,0.835088,0.835395,0.835793,0.836429,0.00331308,0.00349251,0.846208,0.848752,0.846647,0.849604,0.851327,0.856355,0.857257,0.860888,0.860283,0.863123,0.863838,0.867097,0.864006,0.00356018,0.00330878,1.23806,0.00326389,0.00347912,0.906558,0.908304,0.909945,0.914341,0.921395,0.925007,0.00343845,0.00325096,0.00333702,1.56925,1.2996,0.00332202,0.00346881,0.00387077,0.98534,0.986286,0.988333,0.991395,0.975923,0.973665,0.971895,0.961897,0.962557,0.959883,0.960641,0.96142,0.961439,0.964335,0.96701,0.970819,0.00336819,0.00312755,0.98713,0.989031,0.991906,0.991884,0.992193,0.994518,1.00081,1.00069,0.00351214,0.00321753,0.00333964,1.0256,1.02739,1.0306,1.03288,0.00368977,0.00356593,0.00359572,0.00341243,1.17481,0.00339764,1.18178,1.17388,1.17175,1.10997,1.11355,1.12083,1.12351,1.12565
0.242609,0.242227,0.244021,0.245627,0.00345063,0.511535,0.270472,0.270781,0.271438,0.523274,0.00353215,0.00344312,0.00332373,0.00334976,0.00335847,0.00347879,0.32016,0.320553,0.3231,0.321065,0.324685,0.327727,0.327441,0.327798,0.333167,0.333972,0.332726,0.331928,0.330435,0.337668,0.338362,0.337898,0.337667,0.358485,0.360179,0.360233,0.36496,0.36458,0.364548,0.365957,0.368964,0.372419,0.384842,0.386606,0.38793,0.394719,0.396258,0.00339966,0.0033894,0.00328746,0.00328733,0.425503,0.427948,0.428875,0.430394,0.431111,0.00348733,0.00338439,0.00349738,0.00342621,0.00318772,0.00359211,0.00349244,0.00352159,0.00334509,0.00324677,0.00336363,0.00358535,0.00325091,0.00367548,0.00352574,0.507305,0.507991,0.50902,0.510403,0.510252,0.00330435,0.00321149,0.532456,0.53301,0.535552,0.536367,0.537172,0.541102,0.542053,0.54354,0.541858,0.548161,0.548526,0.548934,0.549296,0.549181,0.549822,0.560017,0.568841,0.570623,0.572236,0.571997,0.00334759,0.579852,0.579983,0.00342549,0.581686,0.584785,0.586534,0.587436,0.588674,0.59286,0.594634,0.595807,0.601054,0.601712,0.606917,0.605917,0.608174,0.609676,0.611278,0.609842,0.605029,0.599442,0.603352,0.602205,0.612989,0.632779,0.628747,0.626801,0.569523,0.571564,0.571922,0.553376,0.553573,0.553978,0.549094,0.51474,0.527535,0.502087,0.51125,0.504374,0.507716,0.51095,0.49994,0.500363,0.512268,0.503908,0.522518,0.530199,0.529756,0.535469,0.556919,0.547796,0.548623,0.553495,0.559661,0.572173,0.555427,0.54423,0.570159,0.556562,0.528871,0.54454,0.552666,0.56853,0.578081,0.559023,0.549471,0.569854,0.577916,0.637558,0.61496,0.641224,0.64595,0.642092,0.641958,0.657025,0.658431,0.666476,0.657772,0.687072,0.667282,0.684033,0.668076,0.658573,0.670676,0.663723,0.679525,0.743641,0.745061,0.74197,0.743317,0.74478,0.745523,0.735809,0.0033935,0.00325679,0.00375757,0.00327406,0.00339865,0.863707,0.864718,0.867327,0.864766,0.866371,0.865224,0.86795,0.868032,0.865845,0.862022,1.34956,1.35021,1.30216,0.837777,0.840287,0.843456,0.843231,0.842515,0.839089,0.839589,0.832064,0.834652,0.836035,0.838577,0.841273,0.845303,0.847191,0.850219,0.852742,0.853274,0.856946,0.859699,0.00321585,0.00335273,0.863786,0.00347022,0.00347145,0.00337392,1.24937,0.00334008,0.00335575,0.00320289,0.901705,0.905104,0.908976,0.911118,0.913484,0.9151,0.00321456,0.00321799,0.935922,0.00347317,0.00341434,0.00339889,0.00331101,0.97805,0.988595,0.991932,0.982288,0.987262,0.00334841,0.00335076,0.959277,0.96288,0.964763,0.96426,0.964713,0.966264,0.960663,0.96264,0.963951,0.967855,1.36137,0.00335857,0.984135,0.985094,0.989933,0.990442,0.98831,0.997137,0.997281,0.999891,1.00374,1.00812,1.37052,1.02361,1.02557,0.00325284,0.00354899,0.0033432,1.09137,0.00334207,1.1771,1.17444,1.08393,1.08975,1.09832,1.10212,1.1066,1.11112,0.00335593,1.12283,1.12439
0.236779,0.242653,0.239551,0.24411,0.24962,0.251386,0.253714,0.26996,0.269162,0.271299,0.275544,0.00325977,0.286503,0.00348188,0.00356648,0.00336124,0.317729,0.320119,0.320865,0.320934,0.322094,0.323043,0.325255,0.330167,0.325914,0.326173,0.328781,0.330799,0.33543,0.337843,0.337892,0.339608,0.339188,0.352404,0.352936,0.353621,0.362443,0.366334,0.365638,0.367281,0.366587,0.370383,0.374049,0.00344604,0.394207,0.395357,0.397272,0.397354,0.00336959,0.00343716,0.00346929,0.00334604,0.413384,0.00338086,0.00350736,0.00335182,0.00345515,0.00348291,0.00355959,0.00327241,0.00378034,0.00337929,0.00326668,0.00354484,0.00329094,0.00344255,0.493359,0.495948,0.496765,0.498828,0.500288,0.501525,0.50886,0.509304,0.510216,0.512002,0.00344283,0.00330664,0.00333382,0.529751,0.530785,0.532403,0.532687,0.537658,0.540392,0.540407,0.541623,0.547067,0.549145,0.549655,0.550354,0.550479,0.550623,0.556946,0.00343386,0.564064,0.566425,0.567746,0.574944,0.575807,0.577003,0.57923,0.579519,0.587589,0.588239,0.589888,0.589604,0.587604,0.595819,0.596835,0.59819,0.598553,0.603499,0.604125,0.613103,0.614409,0.615678,0.616253,0.598402,0.598768,0.600517,0.601296,0.618957,0.588811,0.614349,0.611057,0.570735,0.631852,0.558243,0.548424,0.549599,0.543873,0.563072,0.572439,0.593863,0.637181,0.638039,0.638428,0.563601,0.555285,0.557157,0.558454,0.512225,0.518497,0.559689,0.531435,0.555788,0.534164,0.526583,0.55123,0.544963,0.553412,0.549705,0.522616,0.522276,0.525367,0.539678,0.505306,0.51067,0.507562,0.504671,0.505193,0.507209,0.515521,0.505325,0.566718,0.561998,0.58915,0.617581,0.59714,0.586531,0.615378,0.615225,0.625406,0.62516,0.629207,0.659215,0.636257,0.647478,0.649294,0.662995,0.662314,0.723375,0.723064,0.692793,0.748888,0.666878,0.748143,0.745643,0.745278,0.744933,0.00348722,0.00360751,0.00343066,0.00398888,0.851052,0.854271,0.85615,0.862195,0.86496,0.866724,0.867728,0.866849,0.858969,0.859994,0.854054,0.843516,0.846201,0.846233,0.838982,0.839574,0.83984,0.837055,0.838567,0.83854,0.832225,0.83516,0.838545,0.838453,0.838506,0.839328,0.841492,0.84269,0.843516,0.845341,0.848458,0.850043,0.853403,0.854078,0.853546,0.856645,0.857738,0.859938,0.863339,0.00356725,0.00343318,0.00388965,0.00320969,0.901842,0.90287,0.902626,0.906717,0.910809,0.913229,0.914599,0.00326773,1.28851,0.93804,0.93941,0.942371,0.94549,0.00346469,0.00348178,0.979396,0.981745,0.984025,0.984392,0.00354694,0.962433,0.957416,0.95992,0.95926,0.96003,0.962276,0.960902,0.962407,0.960288,0.962651,0.96314,1.02161,0.97018,0.977347,0.977965,0.982766,0.987186,0.991297,0.992716,0.995455,0.998456,1.00248,1.00779,1.00865,0.00349392,0.00346065,0.00348678,0.00345666,0.00319982,0.00337781,0.00340714,0.00346058,0.00345106,1.08788,1.09229,1.09562,1.10013,1.10853,1.11026,1.11484,1.11904,1.1208
0.239111,0.24106,0.00318409,0.241329,0.242782,0.24993,0.254256,0.255107,0.00334349,0.268932,0.00312417,0.521849,0.00330747,0.00364331,0.00323316,0.31478,0.316166,0.318931,0.317676,0.320962,0.321344,0.324021,0.322659,0.320546,0.325806,0.32746,0.327395,0.327511,0.326126,0.328839,0.334935,0.336136,0.33633,0.346118,0.348114,0.350676,0.352579,0.365442,0.369343,0.371068,0.371619,0.371718,0.372003,0.00327355,0.394467,0.396527,0.397521,0.398636,0.398308,0.40918,0.410031,0.410352,0.410902,0.413697,0.00345288,0.00337573,0.00306467,0.00333581,0.00329868,0.00364665,0.00335532,0.00322125,0.00352605,0.00359931,0.00355146,0.00328118,0.00359307,0.495262,0.49687,0.499331,0.501911,0.503113,0.502606,0.509441,0.511838,0.511751,0.514705,0.515635,0.00336254,0.52185,0.524649,0.525785,0.525996,0.523239,0.523607,0.525081,0.00325256,0.535334,0.536042,0.536778,0.00349282,0.00338637,0.00336066,0.55353,0.555777,0.558271,0.00328891,0.569293,0.00330546,0.574246,0.579281,0.579503,0.579873,0.580376,0.587246,0.588841,0.589434,0.587461,0.590032,0.597269,0.597897,0.600734,0.601225,0.603854,0.605754,0.609193,0.608839,0.612389,0.604585,0.604679,0.603831,0.603167,0.592731,0.592845,0.580681,0.608116,0.583376,0.620603,0.603871,0.570099,0.594584,0.581835,0.593069,0.566994,0.568061,0.56736,0.575305,0.59832,0.59708,0.552994,0.554984,0.556825,0.553184,0.55404,0.559308,0.555815,0.552125,0.538383,0.537877,0.539463,0.539814,0.548081,0.577729,0.580051,0.581119,0.581648,0.537676,0.521719,0.542891,0.507712,0.514003,0.503551,0.504534,0.536273,0.507949,0.546395,0.544821,0.555313,0.601535,0.57881,0.584214,0.586427,0.597097,0.629694,0.632594,0.627658,0.629812,0.642107,0.64281,0.704446,0.651282,0.693269,0.694264,0.71461,0.722118,0.755421,0.757792,0.746673,0.00357945,0.0035658,0.00338898,0.00331641,0.00350003,0.00345156,0.00314271,0.00350166,0.00343065,0.850675,0.00336042,1.28132,0.00310797,0.86474,0.00334426,0.00344056,0.848101,0.832459,0.834838,0.836004,0.836167,0.839882,0.84117,0.82982,0.828376,0.828973,0.831565,0.832513,0.832374,0.83502,0.835677,0.837082,0.839501,0.839053,0.841925,0.842237,0.846761,0.847237,0.849266,0.85279,0.852029,0.852941,0.854244,0.856297,0.859751,0.860411,0.00353573,0.00366586,0.00339632,0.896933,0.900622,0.901787,0.904473,0.907007,0.912932,0.916129,0.00318411,0.00342917,0.00308693,0.00360424,0.00329556,0.00356528,0.00328851,0.00304491,0.00339109,0.980542,0.983483,0.985889,0.986097,0.971041,0.962351,0.962182,0.962816,0.959025,0.957259,0.960633,0.960226,0.958801,0.960571,0.959826,0.959291,0.961519,0.96432,0.967309,0.972618,0.978379,0.9809,0.983867,0.00321714,0.00361556,0.00336103,0.0033444,0.00336906,0.00334105,0.00348934,1.02113,0.00329624,0.00343382,0.00340645,1.04957,1.05181,0.00382609,0.00344643,0.00361379,1.09332,1.09444,1.09677,1.10065,1.1028,1.1122,1.114,1.11621
0.238754,0.238102,0.237315,0.238718,0.24691,0.251594,0.253971,0.252634,0.257571,0.00314297,0.0036328,0.269921,0.00333777,0.00321917,0.442355,0.00339258,0.00345399,0.00338103,0.318185,0.315862,0.314007,0.320606,0.321275,0.31875,0.320771,0.315732,0.327469,0.328008,0.327605,0.327762,0.33395,0.335119,0.348197,0.34977,0.350152,0.350737,0.350476,0.00339962,0.368825,0.371667,0.373156,0.373424,0.373388,0.377137,0.00336104,0.397479,0.398751,0.399736,0.405446,0.408532,0.409832,0.409944,0.410319,0.411083,0.00335145,0.0033894,0.00353472,0.00326615,0.00379195,0.00324881,0.442052,0.443212,0.783445,0.00317152,0.00324933,0.480273,0.482891,0.483623,0.483908,0.500096,0.498588,0.498223,0.498863,0.500814,0.502368,0.503897,0.504966,0.00324433,0.51945,0.518638,0.519634,0.52395,0.523868,0.526049,0.526625,0.52731,0.526988,0.533519,0.53813,0.540576,0.543353,0.544518,0.544896,0.545716,0.553188,0.559065,0.557657,0.00326861,0.0032992,0.00334817,0.577374,0.577989,0.579612,0.574112,0.574989,0.582674,0.584594,0.585007,0.588229,0.590449,0.591868,0.592401,0.593299,0.593288,0.606936,0.608562,0.609935,0.602265,0.60426,0.609345,0.607185,0.604217,0.603955,0.58479,0.586421,0.585901,0.601019,0.602494,0.603916,0.605398,0.608543,0.608095,0.569005,0.575225,0.568015,0.59809,0.573235,0.564618,0.557716,0.558809,0.559608,0.560556,0.570443,0.587798,0.555422,0.559776,0.573988,0.555117,0.555612,0.587785,0.593509,0.610697,0.628413,0.598136,0.56964,0.569504,0.569643,0.536229,0.563267,0.538617,0.559252,0.563063,0.566617,0.564023,0.549837,0.60746,0.572177,0.59848,0.585216,0.584862,0.598962,0.630187,0.608356,0.650756,0.652691,0.659316,0.717017,0.726061,0.691056,0.694292,0.721779,0.00314362,0.00352055,0.0036088,0.747392,0.749541,0.751563,0.762691,0.76374,0.00340468,0.00337735,0.7914,0.00350959,0.00319114,0.00341168,0.00324459,0.00346874,0.844895,0.845694,0.00304588,0.856386,0.860227,0.861147,1.16071,0.83581,0.837343,0.839851,0.839128,0.838907,0.838969,0.838846,0.828753,0.830658,0.830667,0.831641,0.829247,0.830428,0.830754,0.831452,0.835532,0.834085,0.837921,0.840077,0.842981,0.843126,0.847232,0.848743,0.850047,0.849949,0.851254,0.852638,0.856836,0.857472,0.859112,0.86055,0.00342314,0.00353589,0.00346248,0.900831,0.903318,0.905249,0.908495,0.911579,0.00343146,0.0036562,0.00329037,0.932162,0.934336,0.0032329,0.00325979,1.63459,0.00340366,0.00362027,0.980995,0.98393,0.985963,0.98457,0.00349607,0.956975,0.00331506,0.952577,0.947964,0.950973,0.953125,0.956106,0.956506,0.958281,0.959401,0.954853,0.957762,0.959659,0.96782,0.969611,0.972408,0.00344231,0.00338584,0.00337873,0.00332197,0.00339708,0.00356311,1.00221,0.00354906,0.00352979,1.02274,1.0247,0.00341902,0.0033182,0.00340719,1.06704,1.06966,1.07269,1.07852,1.08043,1.08947,1.09435,1.09822,1.10555,1.10851,1.11051,1.11476
0.456954,0.237175,0.228532,0.236635,0.236526,0.250767,0.252297,0.483522,0.253062,0.259948,0.265142,0.26897,0.00315221,0.277808,0.497478,0.289259,0.289793,0.304282,0.00352501,0.312257,0.312495,0.314459,0.317008,0.317342,0.316588,0.319994,0.319275,0.324764,0.322753,0.3257,0.324426,0.332499,0.333663,0.34837,0.349486,0.00344581,0.00339856,0.00334989,0.36855,0.371596,0.371641,0.373011,0.376287,0.00352777,0.396043,0.397933,0.397931,0.399705,0.400697,0.408703,0.410432,0.413649,0.41137,0.407935,0.408595,0.00321104,0.003314,0.00334391,0.00345024,0.00374101,0.00338382,0.00335117,0.00332084,0.00329393,0.00321915,0.482982,0.483537,0.485139,0.485828,0.494723,0.494362,0.495457,0.497074,0.497909,0.50409,0.505623,0.50673,0.507333,0.507507,0.519983,0.520545,0.521695,0.523239,0.525575,0.527739,0.531885,0.534177,0.534247,0.535648,0.535433,0.536212,0.536606,0.00314523,0.551887,0.555966,0.558739,0.559862,0.561608,0.563601,0.567062,0.570077,0.572228,0.572829,0.573693,0.56932,0.00348872,0.580576,0.583711,0.00334709,0.591078,0.592041,0.593424,0.593058,0.59314,0.593353,0.00309971,0.601886,0.604182,0.606052,0.607152,0.607104,0.594167,0.591609,0.588877,0.589649,0.588773,0.582013,0.583487,0.585351,0.586523,0.587146,0.587842,0.587089,0.585213,0.586367,0.576195,0.574612,0.575677,0.578144,0.582884,0.580128,0.563668,0.565551,0.567239,0.566342,0.569219,0.585351,0.584055,0.584106,0.607551,0.59934,0.642313,0.615606,0.635329,0.602705,0.571086,0.54666,0.547517,0.549548,0.54881,0.548434,0.570808,0.55964,0.00324307,0.00344338,0.611156,0.676544,0.610799,0.666358,0.646442,0.673176,0.6635,0.660449,0.675536,0.667529,0.680663,0.719071,0.684911,0.724761,0.72832,0.701846,0.725496,0.00326813,0.747018,0.748866,0.75157,0.752495,0.755652,0.0032729,0.782474,0.785492,0.785555,0.00341106,0.00359285,0.00351763,0.0034512,0.831572,0.841953,0.840232,0.847901,0.0031303,0.00356808,0.00348238,0.831721,0.835501,0.836052,0.839273,0.840511,0.831119,0.835281,0.835547,0.826533,0.830282,0.83096,0.832284,0.830904,0.831105,0.827124,0.831129,0.831768,0.83093,0.835277,0.838379,0.838722,0.841148,0.845653,0.847987,0.844967,0.847181,0.849297,0.850675,0.855801,0.858739,0.861079,0.00350704,0.00344903,1.24337,0.00342497,0.901176,0.903719,0.905991,0.90976,0.912811,0.91383,0.918435,0.00355839,0.932113,0.932578,0.00348459,0.00346984,0.00323397,0.00348294,0.00320259,0.980324,0.98292,0.985655,0.987446,0.00340481,0.00333857,0.00322129,0.953479,0.956793,0.957171,0.945025,0.947995,0.952681,0.954815,0.957363,0.957634,0.959595,0.960685,0.96466,0.965182,0.968178,0.975315,0.00319799,0.0032491,0.00354422,0.00355339,0.00336846,0.00335388,0.00343233,0.00357031,1.01478,0.00334477,1.02145,0.00348591,0.00323213,0.00321085,0.00360916,0.00327831,1.07859,0.00328274,0.00327862,1.14611,1.08901,0.00355985,0.00356861,1.10682,1.11233
0.214415,0.00326819,0.456284,0.455398,0.23268,0.0033395,0.00369608,0.255651,0.255058,0.257187,0.264247,0.264764,0.506835,0.276988,0.434853,0.00331423,0.289746,0.303635,0.309171,0.310632,0.30858,0.313892,0.314629,0.315201,0.320543,0.320005,0.320299,0.327793,0.328956,0.329787,0.329235,0.337508,0.338428,0.338536,0.338663,0.356296,0.00327201,0.368476,0.369731,0.370303,0.372324,0.374129,0.377004,0.376766,0.00336015,0.398302,0.398127,0.3983,0.398935,0.399582,0.410038,0.409715,0.408713,0.408297,0.409004,0.417327,0.417174,0.418846,0.419924,0.00338848,0.00331095,0.00340233,0.00348949,0.00320118,0.00339041,0.479422,0.480373,0.48125,0.00330882,0.491714,0.496564,0.497737,0.497088,0.497473,0.499845,0.500764,0.50606,0.507084,0.515351,0.518178,0.519657,0.521673,0.523762,0.523368,0.523462,0.522427,0.532539,0.534639,0.535618,0.535892,0.537185,0.538978,0.541245,0.541364,0.552376,0.553824,0.554851,0.554978,0.565216,0.567179,0.569738,0.572634,0.57395,0.572783,0.570719,0.567722,0.569364,0.569701,0.570522,0.00354083,0.0034158,0.00341633,0.589938,0.591374,0.589875,0.00331978,0.00335013,0.00342553,0.604521,0.598381,0.597549,0.595927,0.596616,0.59741,0.597357,0.589855,0.590307,0.586141,0.586307,0.587593,0.587447,0.587464,0.590475,0.59102,0.586779,0.588341,0.58857,0.578084,0.579469,0.579846,0.581761,0.59121,0.591511,0.592002,0.594259,0.601005,0.602286,0.604291,0.603393,0.612856,0.614431,0.615105,0.616327,0.617246,0.618796,0.613869,0.608185,0.590372,0.592745,0.551798,0.549456,0.59642,0.672726,0.00321164,0.00358582,0.00331939,0.659412,0.662467,0.664064,0.665127,0.664464,0.653862,0.640854,0.639467,0.686407,0.690288,0.684346,0.667336,0.689601,0.714055,0.714568,0.726039,0.728912,0.732932,0.734527,0.748416,0.750705,0.753743,0.759254,0.00320758,0.00346363,0.779978,0.994209,0.00327562,0.00325425,0.00332485,0.00345893,0.0033432,0.00359435,0.00341719,0.00339449,0.00349674,0.00365469,0.83401,0.834782,0.835608,0.836167,0.825372,0.826044,0.82725,0.822626,0.825172,0.82687,0.826699,0.830707,0.828883,0.829302,0.830293,0.831514,0.834752,0.835619,0.00323698,0.839489,0.841009,0.842655,0.844121,0.847049,0.848626,0.853267,0.850771,0.850816,0.00343025,1.3067,0.00329,0.00342266,0.00345238,0.00365073,0.00342654,0.00360475,0.00325482,0.906892,0.909484,0.913334,0.913771,0.917732,0.919479,0.00360723,0.934182,0.936149,0.949889,0.953319,0.954367,0.961004,0.00332095,0.97795,0.980539,0.983033,0.981901,0.00371889,0.00325883,0.961278,0.951826,0.956697,0.956301,0.954998,0.953578,0.955109,0.955371,0.958838,0.958426,0.959623,0.959883,0.962751,0.964168,0.968361,0.971861,0.973972,0.980555,0.982348,0.990046,0.991681,0.00318398,0.00372487,0.00348159,0.00345698,0.00325367,0.00333058,0.00310878,1.03739,0.00331026,0.0037099,1.06521,1.06778,0.00343643,1.07904,0.00331152,1.0909,1.09221,1.10033,0.00314658
0.00351749,0.220734,0.0032113,0.225286,0.00341987,0.235329,0.00324517,0.00352596,0.00332558,0.250823,0.00329831,0.263902,0.00321628,0.2718,0.276266,0.00345224,0.00341929,0.306685,0.306099,0.310032,0.312929,0.316656,0.314373,0.317446,0.313289,0.32058,0.322013,0.323144,0.327555,0.327751,0.328492,0.337551,0.339627,0.340099,0.340263,0.00363891,0.00336291,0.00330841,0.00315414,0.00334867,0.00332686,0.370993,0.373013,0.00351235,0.00343517,0.00341597,0.00331279,0.400691,0.40025,0.397503,0.401683,0.399832,0.410904,0.409969,0.409418,0.40872,0.417957,0.418964,0.422911,0.423116,0.424596,0.00333163,0.00338712,0.00338954,0.00336477,0.00359636,0.00331119,0.00340886,0.00326292,0.49315,0.494046,0.495301,0.495474,0.499235,0.497665,0.500343,0.506989,0.507605,0.00354884,0.515383,0.518215,0.521089,0.522175,0.523245,0.524063,0.526056,0.526976,0.528569,0.530789,0.534961,0.537798,0.540285,0.541285,0.541758,0.542041,0.554545,0.555806,0.557191,0.557679,0.557894,0.558322,0.571075,0.57186,0.566493,0.567269,0.571806,0.571092,0.571844,0.572773,0.571936,0.575752,0.576867,0.578067,0.581038,0.583877,0.585199,0.587329,0.588298,0.596861,0.598031,0.588167,0.588664,0.593848,0.59673,0.594382,0.59672,0.5957,0.594346,0.594005,0.593056,0.593011,0.593074,0.593433,0.59516,0.588527,0.590047,0.59079,0.591286,0.589937,0.593354,0.592949,0.595677,0.598549,0.598618,0.599861,0.59828,0.599796,0.603808,0.608733,0.61502,0.616958,0.619967,0.622752,0.61865,0.623416,0.624318,0.615172,0.61141,0.611765,0.594396,0.00322076,0.00348524,0.00338258,0.651059,0.666175,0.662656,0.666915,0.665696,0.667446,0.68128,0.68286,0.684769,0.686529,0.690915,0.696242,0.694752,0.693987,0.69408,0.710357,0.712819,0.71402,0.727058,0.730263,0.732864,0.735698,0.745116,0.00346623,1.0701,1.09942,0.766403,0.00340658,0.00333208,0.00341653,0.00322128,0.00353075,0.00358256,0.00362586,0.00364012,0.0033722,0.00324957,0.828134,0.8297,0.828619,0.823677,0.825497,0.82523,0.82738,0.821123,0.822056,0.821265,0.821267,0.823028,0.821761,0.825114,0.823408,0.826371,0.824916,0.827272,0.829461,0.834712,0.835365,0.834791,0.835612,0.836652,0.842835,0.842888,0.847146,0.850102,0.851405,0.852722,0.00339788,1.31393,0.00317727,0.00349901,0.00358209,0.00335985,0.00325637,0.891392,1.244,0.900965,0.903756,0.906235,0.00343851,0.91672,0.919741,0.92175,0.00337563,0.0034554,0.00328709,0.00328708,0.952165,0.956393,0.958387,1.55112,0.00344809,0.979278,0.984352,0.98654,0.00311266,0.00343361,0.956527,0.954327,0.95388,0.954642,0.94808,0.953062,0.953117,0.951946,0.955431,0.957479,0.959388,0.959465,0.962581,0.962789,0.966345,0.969122,0.972088,0.974946,0.980953,0.00370083,0.991966,0.00334413,1.0013,0.00326949,0.00345569,0.00325812,0.00321337,0.00357565,0.00348399,0.00333429,0.00356182,1.05942,1.06341,1.06808,0.00324959,0.00333847,0.00341674,1.08639,0.00323045,1.09865
0.00341416,0.216782,0.218617,0.223659,0.225413,0.226894,0.231964,0.22132,0.242611,0.00350661,0.252746,0.254123,0.00341289,0.00345999,0.277082,0.275444,0.00335628,0.2939,0.295112,0.296037,0.296134,0.533758,0.314956,0.31398,0.31508,0.315198,0.324951,0.325513,0.32545,0.330075,0.329792,0.331987,0.338761,0.339587,0.00340312,0.00325911,0.347355,0.348054,0.349689,0.3514,0.352941,0.684447,0.68508,0.684981,0.00322291,0.0032035,0.00347268,0.00329716,0.398231,0.398198,0.399415,0.400409,0.40555,0.405843,0.407995,0.40841,0.410202,0.00329016,0.0033039,0.00325161,0.42833,0.00339732,0.00339956,0.00347439,0.0034927,0.00339428,0.00317763,0.00342686,0.00350187,0.0033637,0.484393,0.483649,0.493839,0.495298,0.497681,0.497355,0.499251,0.503343,0.510826,0.511117,0.512639,0.00320216,0.516509,0.520604,0.521704,0.523278,0.528306,0.530633,0.532904,0.533667,0.533784,0.539618,0.542639,0.544656,0.544991,0.558652,0.559177,0.561819,0.559627,0.558739,0.558761,0.567099,0.566996,0.56818,0.568795,0.569446,0.57037,0.573387,0.574238,0.573234,0.576021,0.577327,0.577567,0.0033054,0.0034931,0.00322713,0.583528,0.593569,0.595049,0.596969,0.587411,0.590473,0.591635,0.591441,0.594102,0.595938,0.595247,0.595387,0.594026,0.596424,0.594713,0.592448,0.593462,0.592628,0.593447,0.592747,0.592422,0.594051,0.593972,0.597042,0.59929,0.599861,0.600343,0.603924,0.602811,0.604022,0.604131,0.60465,0.607143,0.607281,0.00330265,0.623478,0.625052,0.62653,0.626576,0.632084,0.634571,0.636261,0.636769,0.638549,0.645119,0.646495,0.659289,0.661377,0.663872,0.669924,0.670201,0.670467,0.673029,0.676874,0.685242,0.686433,0.689365,0.693136,0.695594,0.69768,0.702519,0.702743,0.71026,0.711871,0.715793,0.729958,0.732291,0.73371,0.736017,0.00339304,1.06865,0.00334987,0.00355405,0.00335214,0.00353254,0.00337139,0.0033365,0.00328499,0.00361075,0.0033395,0.0035888,0.00342581,0.826085,0.828695,0.829857,0.831526,0.83233,0.835628,0.821291,0.821784,0.822953,0.823097,0.822452,0.817656,0.819341,0.816551,0.817242,0.81859,0.822738,0.823972,0.828526,0.828442,0.829464,0.832874,0.833922,0.834294,0.835764,0.838932,0.842341,0.843702,0.846005,0.850577,1.86115,0.859059,0.861326,0.863879,0.867096,0.869841,0.870906,0.00359358,0.887935,0.00330739,0.0033756,0.900988,0.902304,0.909341,0.910418,0.00307131,0.921211,0.00324072,0.932626,0.936126,0.938821,0.943511,0.00362196,0.95503,0.959019,0.00359282,0.00372706,0.982421,0.984684,0.986799,0.987798,0.00334136,0.00341037,0.00353577,0.94733,0.951783,0.950571,0.951826,0.951095,0.951346,0.955328,0.956648,0.959179,0.959732,0.959879,0.963495,0.967822,0.97039,0.973721,0.975379,0.981356,0.98384,0.989134,0.991692,0.00327689,1.0016,1.00596,1.01073,0.00349039,0.00353004,0.00339751,0.00346289,1.04504,1.04896,1.0518,0.0033299,0.0034372,1.1799,1.07703,0.00340916,1.08914,1.09223
0.0035111,0.00332442,0.00336437,0.00360772,0.223724,0.227687,0.234505,0.228135,0.217228,0.248765,0.246004,0.435263,0.00328852,0.430422,0.00330613,0.269392,0.00347632,0.284344,0.295985,0.296945,0.297261,0.00333461,0.311817,0.312384,0.313655,0.315346,0.314925,0.319254,0.328121,0.325861,0.327854,0.328693,0.324476,0.00337106,0.003331,0.346301,0.348532,0.348824,0.351324,0.350365,0.348641,0.348589,0.352775,0.355226,0.363452,0.366015,0.00324392,0.00356512,0.371649,0.372179,0.00344308,0.00339441,0.00322178,0.0035023,0.406984,0.408361,0.410179,0.412778,0.414518,0.417826,0.00335858,0.424062,0.00324069,0.00352772,0.00329518,0.00348372,0.0034096,0.477469,0.479404,0.481273,0.481781,0.486476,0.485725,0.485162,0.495123,0.49633,0.498507,0.497344,0.00330132,0.50366,0.0031774,0.00343226,0.00324283,0.522496,0.523796,0.524238,0.525302,0.527449,0.528819,0.531873,0.534223,0.534471,0.00347061,0.0033786,0.00339389,0.00337101,0.543545,0.561585,0.54883,0.55092,0.551908,0.550932,0.00312111,0.565821,0.562882,0.557302,0.563049,0.569786,0.559633,0.565552,0.56682,0.569289,0.571781,0.573223,0.574548,0.575892,0.581143,0.589985,0.592396,0.594332,0.593848,0.591957,0.592225,0.592955,0.586753,0.588485,0.59011,0.590617,0.588596,0.58736,0.58937,0.590087,0.59048,0.593804,0.591937,0.593601,0.595594,0.595659,0.596655,0.597683,0.5981,0.600176,0.601381,0.607169,0.604327,0.605653,0.605846,0.607598,0.610007,0.611592,0.610639,0.624349,0.625594,0.626369,0.632797,0.635086,0.635864,0.634936,0.636469,0.641742,0.649137,0.653465,0.655885,0.657004,0.658061,0.666677,0.669654,0.673363,0.676154,0.676223,0.683768,0.684808,0.69034,0.693337,0.696716,0.698397,0.698921,0.69934,0.705997,0.709364,0.714428,0.721286,0.00333385,1.20541,0.00328579,0.738297,0.0034307,1.08097,0.00335698,0.00331845,0.00330263,0.762922,0.764379,1.03397,0.00350832,0.00339878,0.0033024,0.00338189,0.00317572,0.00323858,0.830256,0.833922,0.836193,0.837749,0.821982,0.824709,0.823952,0.824754,0.82301,0.822801,0.813222,0.816469,0.817901,0.817508,0.8161,0.825369,0.825511,0.827881,0.828027,0.831548,0.832364,0.835277,0.837443,0.8395,0.842088,0.844357,0.846635,0.852458,0.854367,0.857966,0.86385,0.865745,0.865924,0.86525,0.00324044,0.879653,0.00341044,0.00338126,0.00336758,0.901645,0.90395,0.905719,0.00333529,0.00308206,0.00327486,0.00354893,0.00316355,0.938169,0.945741,0.947844,0.950412,0.00347446,0.00324782,0.00345454,0.00344753,0.00348473,0.978554,0.982466,0.982544,0.982169,0.00339417,0.950982,0.953716,0.946893,0.94988,0.950989,0.948511,0.950227,0.953166,0.951533,0.954243,0.958957,0.96153,0.963608,0.963373,0.964972,0.970921,0.9729,0.974045,0.984122,0.00334767,0.00356988,0.993399,0.999095,1.00594,1.00889,1.01156,1.01526,1.01729,1.02227,0.00330482,0.0035403,0.00316737,0.00345775,1.158,0.00332422,0.00325526,1.07593,1.0816,1.08566
0.00325626,0.406732,0.200706,0.00328653,0.207948,0.00338318,0.230633,0.00316767,0.234735,0.00308888,0.00318888,0.0031461,0.00330936,0.49073,0.258888,0.00315796,0.500625,0.276119,0.497253,0.286674,0.00368036,0.00342401,0.299036,0.313748,0.313633,0.312719,0.320808,0.32456,0.326487,0.327725,0.327605,0.326953,0.32685,0.324177,0.00315626,0.00335002,0.00325779,0.34808,0.349844,0.349471,0.348497,0.350501,0.355765,0.357017,0.356911,0.361179,0.362556,0.363266,0.372457,0.373423,0.374162,0.00334108,0.380253,0.382874,0.384613,0.00339498,0.00356282,0.00333495,0.417934,0.00337682,0.421165,0.421739,0.424896,0.00342543,0.00351693,0.00344027,0.00312261,0.477684,0.479214,0.480746,0.481314,0.480905,0.483301,0.485745,0.487268,0.487206,0.490269,0.489755,0.494992,0.00333976,1.19225,0.00314248,0.00369793,0.521913,0.522081,0.519969,0.525105,0.527021,0.529329,0.529744,0.531167,0.531169,0.533356,0.533762,0.00334755,0.54443,0.545713,0.545789,0.547136,0.54659,0.55165,0.552367,0.553717,0.560424,0.559883,0.55953,0.562457,0.566457,0.56762,0.566578,0.563592,0.566672,0.57401,0.576503,0.577747,0.00349822,0.00350064,0.00315812,0.592819,0.593999,0.595175,0.594425,0.587844,0.587744,0.587662,0.587475,0.584948,0.585261,0.585546,0.586289,0.582671,0.584191,0.585452,0.590002,0.588553,0.591835,0.592446,0.595731,0.596671,0.594887,0.591236,0.591772,0.598744,0.00315556,0.604567,0.60665,0.608526,0.608433,0.608383,0.615015,0.616014,0.0033405,0.00325893,0.631094,0.630366,0.631558,0.631168,0.635312,0.637175,0.00330713,0.650696,0.653237,0.654433,0.65612,0.662267,0.663191,0.663409,0.665501,0.667333,1.38621,0.682695,0.684683,0.00328476,0.687418,0.690527,0.694293,0.696983,0.697606,0.00345691,0.707891,1.11554,1.24922,1.25033,0.00327967,0.00319298,1.14837,0.00341422,0.00339959,0.00341204,0.00338811,0.758451,0.759826,0.00360297,1.0125,0.0033171,0.00339923,0.00340512,0.822526,0.825244,0.829985,0.833005,0.835341,0.836696,0.837009,0.811308,0.815208,0.816061,0.818287,0.811123,0.816943,0.814315,0.813323,0.816337,0.816353,0.817907,0.819983,0.825331,0.826529,0.831181,0.832121,0.833104,0.834186,0.839258,0.838949,0.840065,0.844885,0.847176,0.848266,0.854877,0.859373,0.859635,0.86178,0.864247,0.868098,0.869772,0.87033,0.00341195,0.887327,0.891879,0.00357862,0.907776,0.00361002,1.79659,1.79918,1.79958,0.927146,0.929849,0.943636,0.946056,0.948192,0.949725,0.95074,0.953734,0.00329022,0.00350281,0.975943,0.980038,0.982667,0.983775,0.984389,0.00361513,0.00323364,0.958854,0.947635,0.94991,0.947499,0.947003,0.949259,0.950579,0.951355,0.950417,0.956318,0.955317,0.962366,0.964546,0.966632,0.970129,0.971115,0.974119,0.977455,0.981285,0.983833,0.994249,0.996038,0.00339463,0.00330867,0.00349708,1.01396,1.01736,1.02127,1.0233,0.00335101,0.00335626,0.00318561,1.05596,1.05772,0.00350684,1.14086,1.13037,0.0036027
0.00342219,0.20032,0.200665,0.199883,0.00358485,0.211181,0.00352659,0.456301,0.220173,0.459205,0.00342907,0.0034694,0.00333454,0.246633,0.00323293,0.0034594,0.00343967,0.00334904,0.273645,0.00321339,0.00341972,0.00368258,0.00312539,0.296779,0.310113,0.301968,0.00363588,0.30758,0.311879,0.313042,0.315989,0.317103,0.318637,0.32147,0.00359374,0.0035235,0.338073,0.34057,0.340319,0.341245,0.342574,0.00329641,0.352532,0.00361366,0.358632,0.361465,0.363563,0.3637,0.36389,0.36434,0.003299,0.377452,0.381098,0.383279,0.386332,0.386344,0.00338071,0.00341381,0.00339778,0.00334813,0.419668,0.00337219,0.00340469,0.00333459,0.00320532,0.00351326,0.00312254,0.47585,0.476761,0.48005,0.48129,0.484341,0.485424,0.486353,0.488149,0.488536,0.489768,0.49059,0.492295,0.493369,0.496943,0.500359,0.500612,0.50034,0.517528,0.518368,0.518893,0.516098,0.518023,0.519002,0.523925,0.525387,0.533082,0.533813,0.535107,0.536373,0.00322483,0.545706,0.545704,0.545668,0.545857,0.00349456,0.00345099,0.00350993,0.557333,0.557769,0.556144,0.557415,0.560634,0.564423,0.5654,0.565602,0.57352,0.574647,0.574963,0.575878,0.572982,0.571663,0.00320264,0.587241,0.593505,0.593156,0.590453,0.584882,0.58416,0.584464,0.585158,0.583187,0.579707,0.580985,0.582189,0.582351,0.582278,0.582543,0.584783,0.586896,0.590013,0.591383,0.593721,0.588505,0.593891,0.592842,0.594473,0.596542,0.598723,0.00359726,0.00336309,0.00365906,0.003374,0.612818,0.00325888,0.61832,0.00320866,0.627044,0.629299,0.627359,0.629491,0.630952,0.631372,0.63721,0.638713,0.00331208,0.00336627,1.08105,0.656581,0.658925,0.660774,0.663846,0.666543,0.66806,0.671086,0.00330529,0.00323537,0.00351805,0.00326359,1.27298,1.27362,0.00334505,0.0034254,0.00333546,0.00339598,0.707649,0.00312975,1.29881,1.14821,1.14939,1.15295,1.15043,1.11123,1.11179,0.00344255,0.00353169,0.00333386,0.00355064,0.00343145,0.00349059,0.00332831,0.823417,0.825525,0.828617,0.835926,0.837424,0.838876,0.00355274,0.820202,0.819507,0.81667,0.81703,0.817772,0.816116,0.816317,0.817616,0.815875,0.818295,0.818371,0.820984,0.821511,0.831783,0.831287,0.834934,0.836399,0.840333,0.842289,0.842899,0.845802,0.848426,0.850383,0.850013,0.855687,0.857838,0.863353,0.864255,0.00348235,0.00325089,0.873773,0.877652,0.00336386,0.00354189,0.00348939,0.90111,0.904517,0.908836,0.00326671,0.00340529,0.926456,0.928085,0.00341426,0.00348388,0.946312,0.948504,0.950818,1.63338,0.959611,0.961297,0.00348032,0.976077,0.980152,0.983594,0.98358,0.98299,0.963145,0.964664,0.942682,0.949268,0.944657,0.94522,0.94718,0.946053,0.947992,0.950527,0.95369,0.959753,0.95963,0.962204,0.963641,0.966544,0.969794,0.971519,0.975325,0.978091,0.981674,0.98702,0.987945,0.991,0.994078,0.0034108,1.00466,0.00329476,0.00352342,0.00341173,0.00325178,0.00339329,0.00334725,1.04957,1.05165,0.0034807,1.05863,1.06136,0.00358101,1.07418
0.179842,0.193735,0.00354129,0.00336582,0.200032,0.00349747,0.00348112,0.455934,0.455831,0.00329844,0.00359524,0.00330506,0.00328929,0.0031021,0.246785,0.425373,0.424178,0.418853,0.418126,0.272701,0.00364278,0.00312267,0.293421,0.294956,0.563179,0.303059,0.30304,0.303205,0.304059,0.309509,0.310425,0.311019,0.316206,0.317669,0.317154,0.003221,0.00348341,0.0031827,0.339584,0.34021,0.343247,0.34707,0.347865,0.34831,0.348496,0.361673,0.362541,0.364862,0.365514,0.365807,0.376341,0.376882,0.379395,0.379507,0.382792,0.383105,0.00366765,0.00326368,0.00339448,0.00337031,0.00338916,0.00337258,0.00339706,0.0033384,0.00346863,0.00325227,0.00349211,0.00325875,0.477746,0.478965,0.481377,0.48223,0.484488,0.486539,0.486307,0.488748,0.488296,0.489578,0.492224,0.495584,0.500175,0.501894,0.502742,0.503236,0.0034465,0.0031719,0.514186,0.515369,0.518083,0.520459,0.527897,0.530951,0.533188,0.534494,0.524836,0.525424,0.52678,0.527364,0.528372,0.530091,0.00325849,0.00346447,0.543623,0.546931,0.549026,0.550087,0.551965,0.551728,0.553999,0.557049,0.557329,0.557147,0.558714,0.560263,0.564096,0.566286,0.567984,0.572728,0.00369688,0.00331197,0.587914,0.587596,0.587794,0.582254,0.582937,0.583289,0.578432,0.577983,0.581068,0.580956,0.581916,0.582466,0.581459,0.582034,0.584353,0.587855,0.589358,0.588535,0.590989,0.590361,0.592412,0.592964,0.593684,0.595715,0.595136,0.595248,0.603058,0.604328,0.0034857,0.00355009,0.61372,0.615833,0.617223,0.00336199,0.628804,0.629567,0.631139,0.631277,0.633441,0.634659,0.635929,0.637799,0.639205,0.965064,1.0958,0.00313877,0.00352732,0.00319069,0.666314,0.666214,0.667139,0.00323103,0.66812,0.67297,0.672957,0.675381,0.6804,0.683669,0.684657,0.00332755,0.00341059,0.00341197,0.003689,0.716492,0.719461,1.14301,0.0034192,0.00326625,0.00326161,1.06346,0.00357226,1.00914,0.762695,0.763233,0.76414,1.04313,1.02371,0.00296225,0.821686,0.833609,0.836089,0.839038,0.840279,0.840701,0.816169,0.820829,0.821264,0.821387,0.81584,0.818477,0.819503,0.81808,0.821507,0.821915,0.81773,0.819655,0.821737,0.827248,0.832503,0.833896,0.837235,0.839355,0.840661,0.844486,0.847579,0.848935,0.853269,0.855187,0.857059,0.862246,0.862321,0.86673,0.867259,0.868962,0.871304,1.40261,0.0034369,0.00334177,0.00357228,0.00336422,0.0036505,0.0033201,0.913846,0.00329456,0.00356457,0.00323695,0.939229,0.940339,0.942423,0.944681,0.00357674,0.00329183,0.958409,0.00321972,1.78772,0.00307446,0.982162,0.984873,0.986887,0.985885,0.00348188,0.00324323,0.00360301,0.950396,0.949306,0.947236,0.950658,0.949433,0.946539,0.947083,0.956058,0.957849,0.95735,0.959431,0.963564,0.967109,0.967907,0.97124,0.972931,0.978167,0.978365,0.00326663,0.984533,0.986073,0.986142,0.997199,1.00201,1.01199,1.01287,1.01618,1.01852,0.00339864,1.04238,1.04937,1.04809,1.05387,1.05542,1.06066,1.06327,0.00314818
0.182992,0.18298,0.182778,0.200318,0.00331875,0.200931,0.201192,0.428706,0.00343691,0.215636,0.00337967,0.230821,0.431542,0.00324825,0.432896,0.433149,0.00341661,0.257059,0.0032684,0.268986,0.00334912,0.280516,0.00334329,0.482068,0.297027,0.29683,0.301343,0.297704,0.301493,0.309957,0.310585,0.311061,0.311155,0.311486,0.31236,0.313366,0.00324894,0.00344887,0.337785,0.00335974,0.00348677,0.345586,0.347636,0.348391,0.0031748,0.00337861,0.358166,0.358289,0.369614,0.372768,0.376806,0.376191,0.381821,0.382347,0.382967,0.382877,0.383627,0.393678,0.394157,0.00337338,0.00313026,0.00351419,0.00322492,0.00341367,0.00339475,0.00323519,0.00336961,0.00317655,0.00312665,0.482105,0.481298,0.48085,0.481699,0.484399,0.483756,0.484027,0.489869,0.489965,0.489953,0.492006,0.493961,0.49503,0.499193,0.503181,0.50714,0.504687,0.505952,0.510066,0.511632,0.51457,0.00313925,0.527792,0.522921,0.527088,0.527622,0.528914,0.52896,0.528159,0.531228,0.53118,0.534076,0.538713,0.539242,0.539747,0.00350939,0.552175,0.552115,0.550371,0.54864,0.549962,0.550358,0.558752,0.557869,0.558361,0.563566,0.565302,0.568919,0.569245,0.569671,0.573842,0.572885,0.00352167,0.574722,0.57583,0.579338,0.578818,0.00322018,0.57105,0.573822,0.577063,0.573824,0.575615,0.576074,0.580924,0.582284,0.583152,0.586424,0.587025,0.58871,0.590104,0.589914,0.59355,0.5944,0.596635,0.596582,0.597751,0.598799,0.601819,0.603801,0.605293,0.915079,0.0035268,0.00346267,0.00333257,0.00317907,0.624716,0.628068,0.624582,0.00327513,0.630728,0.631599,0.638039,0.640103,0.641742,0.644866,0.646179,0.653862,0.656913,0.660002,0.662754,0.664036,0.666888,0.669697,0.672796,0.675157,0.675698,0.682582,0.684382,0.686846,0.687931,0.695491,0.697014,0.698386,0.00346542,0.00310829,1.20923,0.00326974,0.00337277,0.00323845,0.00334843,0.00344753,1.00641,0.00335366,0.00339243,0.0031493,0.00348023,0.00335054,0.00333761,0.00340162,0.00320488,0.00329749,0.842427,0.841728,0.00354637,0.00322291,0.813688,0.814066,0.816016,0.820896,0.819746,0.818412,0.819264,0.817797,0.817881,0.818715,0.820608,0.821714,0.82926,0.831733,0.834718,0.835747,0.839901,0.841217,0.842775,0.843691,0.850479,0.852865,0.855446,0.858617,0.861283,0.86175,0.864289,0.866624,0.867845,0.869186,0.870043,1.12918,1.02132,0.00326722,0.0033134,0.00325751,0.909765,0.00308488,0.00356659,0.00318227,0.9356,0.938878,0.940602,0.945372,0.947306,0.949787,1.53965,0.954025,0.958245,0.00344196,0.00333715,0.00341908,0.982069,0.986874,0.00351307,0.00328311,1.42435,0.963334,0.944915,0.944983,0.948178,0.945925,0.947688,0.948427,0.945968,0.948119,0.951661,0.952619,0.954657,0.955203,0.958726,0.96463,0.966724,0.970034,0.973626,0.975281,0.97692,0.977893,0.00354716,0.992443,0.995497,0.998345,1.00072,1.01039,1.01587,1.01659,1.0194,1.03353,1.03931,1.04341,1.04916,1.05112,0.00325457,1.06014,1.16489
0.182007,0.182144,0.00332847,0.00334747,0.192664,0.193141,0.00345095,0.00340918,0.00328548,0.00336941,0.00330888,0.434711,0.225943,0.436722,0.431897,0.43457,0.00319914,0.259656,0.258861,0.259287,0.265658,0.00310776,0.279805,0.293199,0.290266,0.293861,0.295616,0.299524,0.306336,0.307404,0.30914,0.311451,0.310938,0.312867,0.311412,0.308509,0.313934,0.00340382,0.00345318,0.00330182,0.00352965,0.00308671,0.00320274,0.34141,0.0033585,0.00341617,0.00345011,0.00315655,0.359504,0.00327552,0.376626,0.377957,0.378868,0.379676,0.383412,0.388923,0.393209,0.00317602,0.0031601,0.00311667,0.00347539,0.00337494,0.00352836,0.00318176,0.00331142,0.00316775,0.00341763,0.00310965,0.00340532,0.479874,0.480365,0.482484,0.481891,0.482455,0.482439,0.482872,0.482398,0.482772,0.481304,0.00337962,0.00312794,0.00340685,0.4985,0.500487,0.500919,0.50211,0.507148,0.508395,0.509289,0.518514,0.520506,0.521106,0.522067,0.525557,0.527185,0.52764,0.527777,0.519591,0.520489,0.527644,0.535281,0.537854,0.536157,0.00323465,0.00357787,0.549526,0.545655,0.549377,0.548838,0.549768,0.550662,0.556774,0.559427,0.560736,0.562685,0.565932,0.567696,0.56896,0.568644,0.568077,0.566291,0.56934,0.565639,0.56796,0.567028,0.567499,0.570091,0.569846,0.569709,0.574076,0.575104,0.575391,0.575505,0.576204,0.577757,0.578568,0.581141,0.581436,0.586283,0.586417,0.588495,0.59191,0.592842,0.592929,0.594012,0.595404,0.598295,0.599544,0.603072,0.603033,0.602366,0.607765,0.610776,0.612791,0.614431,0.615475,0.623985,0.00321058,0.627782,0.628532,0.00338103,0.636593,0.640078,0.643353,0.64477,0.64633,0.646835,0.00314991,0.659272,0.661779,0.662235,0.662151,0.662588,0.00341143,0.671695,0.673592,0.676655,0.678745,0.684417,0.685525,0.688507,0.00315807,1.13956,1.14018,1.13823,1.12895,1.23202,0.00323306,0.00336793,0.00334917,1.02939,1.02992,1.03069,0.00323399,0.00333278,0.00316333,0.00363516,0.00311918,0.00365337,0.843517,0.843509,0.845151,0.833973,0.834551,0.815901,0.815096,0.815324,0.818586,0.82012,0.821328,0.822544,0.814667,0.816612,0.816273,0.81799,0.817581,0.818673,0.820695,0.822092,0.833836,0.834656,0.842963,0.843942,0.842665,0.843896,0.845497,0.855175,0.857857,0.859632,0.86277,0.86294,0.862496,0.866751,0.865907,0.8671,0.870661,1.12639,1.12613,0.893918,0.901693,0.904505,0.905977,0.907254,0.00324554,0.0032991,0.00331782,0.00346365,0.00350768,0.00347646,0.947951,0.952617,0.956559,0.95364,0.955028,0.957722,0.959445,0.00328176,0.00327492,0.978472,0.978833,0.00321964,0.958261,0.9599,0.961701,0.954057,0.946497,0.943771,0.946696,0.945727,0.946924,0.948374,0.949709,0.952159,0.953533,0.955965,0.957829,0.959538,0.96692,0.970144,0.971533,0.974351,0.978389,0.979226,0.984931,0.994364,0.996843,0.999205,0.00334062,1.00911,1.0104,1.02198,1.02423,1.02659,1.02908,1.03217,1.04682,1.04995,1.05408,0.00350036,0.00323651
0.00346619,0.176896,0.00330299,0.00336217,0.186076,0.19589,0.197274,0.00331064,0.200398,0.213475,0.00325789,0.00322564,0.434634,0.233898,0.446249,0.44669,0.446594,0.444638,0.00329675,0.442247,0.0031555,0.427561,0.00358271,0.00339875,0.00305497,0.284482,0.289218,0.285975,0.297753,0.299064,0.300583,0.304191,0.306598,0.305281,0.309405,0.309022,0.309506,0.00337252,0.321437,0.32511,0.323877,0.327598,0.328948,0.00353622,0.00317476,0.00361334,0.00345754,0.00364635,0.00319098,0.00361103,0.00326046,0.375286,0.377352,0.377763,0.00318914,0.00361795,0.00309056,0.393125,0.00336073,0.00332305,0.00335527,0.00362401,0.0031259,0.00346762,0.00334754,0.00335147,0.00330321,0.0034748,0.00316937,0.00360875,0.00307131,0.479244,0.480421,0.466851,0.468101,0.469101,0.469681,0.47141,0.00335405,0.00330231,0.0032624,0.481065,0.498477,0.500126,0.500477,0.00342881,0.500709,0.507657,0.504238,0.00343657,0.00320483,0.00313096,0.0032814,0.524325,0.524494,0.524761,0.525309,0.52462,0.521804,0.521229,0.520904,0.524111,0.0031893,0.00347684,0.0032521,0.545449,0.547406,0.548662,0.547866,0.548064,0.547916,0.547141,0.548909,0.561574,0.56179,0.56267,0.562485,0.560887,0.561228,0.561745,0.561148,0.5615,0.567532,0.566984,0.569141,0.559815,0.569354,0.569331,0.570464,0.570273,0.569253,0.573756,0.571291,0.575946,0.576104,0.577362,0.578608,0.580131,0.582491,0.584518,0.587524,0.588454,0.58773,0.591788,0.593681,0.595407,0.597631,0.60022,0.603374,0.604366,0.604698,0.606175,0.608648,0.613604,0.614653,0.616047,0.619555,0.624085,0.00324537,0.00369407,0.00336804,0.00313876,0.639708,0.642394,0.643681,0.645141,0.646103,0.644445,0.00324828,0.656179,0.656778,0.657928,0.00329556,0.664157,0.00318934,0.680169,0.681181,0.681476,0.684268,0.685998,0.686478,0.00345283,0.00345397,1.1556,0.00338018,1.24989,1.17266,0.00360311,0.00317779,0.00348921,0.00305045,0.00353711,0.00310339,0.00341704,0.00333113,0.00336033,0.00313084,0.00368583,0.841394,0.842396,0.843193,0.845188,0.84617,0.00327625,0.812535,0.814782,0.815488,0.817918,0.82079,0.821917,0.821813,0.810712,0.814736,0.815309,0.815677,0.817389,0.821331,0.829176,0.831101,0.833693,0.835659,0.840221,0.842743,0.843567,0.845952,0.847953,0.856705,0.859013,0.860479,0.864871,0.864598,0.865669,0.867638,0.868427,0.86894,0.874088,0.874954,0.00355068,0.00329985,0.003375,0.903313,0.0034659,0.00335372,0.00333698,0.928643,0.930605,0.933762,0.935978,0.00333969,0.946268,0.950325,0.952654,0.95344,0.955812,0.953418,0.95956,0.958462,0.967234,0.972266,0.975685,0.979153,0.980007,0.95611,0.95852,0.95956,0.946186,0.942722,0.944087,0.946066,0.947865,0.947773,0.950036,0.952104,0.954049,0.955897,0.957901,0.960806,0.961125,0.964419,0.966408,0.971685,0.973987,0.981876,0.982873,0.986733,0.98885,0.99933,1.00314,1.01274,1.01419,1.01697,1.01973,1.024,1.02539,1.03235,1.04476,1.04785,1.05402,1.05806,1.06002
0.166583,0.168033,0.00347887,0.180311,0.00347388,0.003274,0.192309,0.00357869,0.199616,0.00349703,0.204366,0.00331335,0.00368451,0.00343274,0.00338632,0.00331615,0.427783,0.00333728,0.442767,0.0032228,0.00350486,0.00339695,0.26333,0.00331161,0.0033962,0.287296,0.285263,0.00338819,0.297659,0.292351,0.300171,0.302608,0.303804,0.305984,0.305167,0.305587,0.307241,0.307127,0.00342272,0.00312708,0.324517,0.325362,0.325136,0.00337207,0.00345506,0.00335041,0.00360729,0.00338538,0.00362142,0.00331588,0.00372495,0.00320585,0.00342439,0.00331152,0.00344077,0.00338128,0.00333636,0.00309047,0.00354525,0.00332863,0.00353281,0.00332451,0.00330472,0.00336317,0.00334913,0.00315183,0.003505,0.00336165,0.00350888,0.00342731,0.461886,0.00332963,0.467125,0.468377,0.469336,0.470304,0.470176,0.469484,0.469537,0.473373,0.479661,0.482199,0.481998,0.00352844,0.492972,0.491053,0.491344,0.503478,0.503399,0.496788,0.495232,0.0032125,0.00333542,0.00321109,0.522157,0.523843,0.518249,0.520783,0.521884,0.521471,0.518287,0.517159,0.516593,0.00328786,0.528521,0.00324053,0.00361611,0.543149,0.54376,0.543856,0.543934,0.543837,0.549299,0.549562,0.556441,0.559761,0.562541,0.561685,0.562236,0.562639,0.561844,0.561117,0.562902,0.561114,0.56001,0.560598,0.561165,0.560903,0.563059,0.565002,0.566078,0.564632,0.572541,0.56775,0.570229,0.574237,0.575006,0.576328,0.577959,0.580348,0.58221,0.586273,0.587319,0.588778,0.589794,0.590167,0.594606,0.00326123,0.599138,0.0034247,0.603469,0.60457,0.606295,0.610892,0.611658,0.614191,0.613251,0.614808,0.616418,0.617347,0.00316048,0.627379,0.628467,0.629954,0.633245,0.632726,0.639917,0.639614,0.639701,0.00348236,0.655939,0.658304,0.660583,0.661037,0.66375,0.00317815,0.00334138,0.00326428,0.679886,0.00327904,0.00331061,1.15996,0.691531,0.00339679,0.0033799,1.09841,1.10029,1.10053,1.10078,0.0032662,0.00330683,0.00327898,0.00344877,0.00335496,0.0035043,0.00319541,0.00318416,0.00319655,0.00367935,0.840991,0.843153,0.842974,0.843776,0.844183,0.0035483,0.815851,0.817891,0.819893,0.818785,0.820124,0.820064,0.811556,0.813885,0.815582,0.81829,0.816905,0.818242,0.825555,0.828189,0.83006,0.00342347,0.00333299,0.844518,0.846513,0.8492,0.850432,0.85351,0.855545,0.861877,0.861184,0.866488,0.867342,0.866398,0.871063,0.871091,0.873191,0.874839,0.880168,0.00342533,0.00345669,0.00339907,0.00325478,0.00346215,0.00356438,0.00355522,0.00333444,0.00349939,0.00304392,0.0034754,0.948325,0.949836,0.951271,0.954181,0.95526,0.956455,0.957977,0.959725,0.962215,0.967433,0.972363,0.975586,0.977439,0.00316822,0.00320985,0.00353648,0.94365,0.937372,0.940844,0.941988,0.945769,0.947488,0.947058,0.95293,0.953238,0.955022,0.954375,0.958661,0.959493,0.962582,0.003229,0.968984,0.978353,0.980742,0.985377,0.993165,0.995224,0.998062,0.999522,1.01012,1.01299,1.01475,1.01576,1.02059,0.00323327,1.03252,1.0463,1.04926,1.05215,1.05653,1.05854
0.0033861,0.00321634,0.175938,0.172754,0.173424,0.00347448,0.00339713,0.190993,0.00316823,0.197635,0.00328838,0.00344861,0.00328291,0.00370039,0.0031774,0.0033937,0.444889,0.445476,0.00338562,0.00349207,0.248484,0.254709,0.00317462,0.00328752,0.267252,0.00330585,0.00327163,0.285843,0.292694,0.287849,0.289847,0.300922,0.302734,0.30229,0.2996,0.305638,0.303378,0.303937,0.00326803,0.00337232,0.315254,0.316184,0.31677,0.318402,0.00312005,0.709217,0.00320183,0.00351225,0.00325307,0.003374,0.00330288,0.00317392,0.00326935,0.00329657,0.00351694,0.386489,0.387814,0.389016,0.389287,0.38951,0.400004,0.401522,0.403909,0.00351662,0.00350889,0.00336445,0.00341043,0.00337741,0.00337243,0.459831,0.460693,0.462356,0.463224,0.463845,0.466096,0.468584,0.468704,0.469326,0.470439,0.473738,0.471373,0.477261,0.477377,0.483922,0.485064,0.485884,0.486794,0.485753,0.488777,0.4897,0.495766,0.488583,0.00340246,0.00316041,0.00334012,0.00342741,0.00336025,0.514959,0.518083,0.519303,0.520704,0.525721,0.527065,0.528053,0.52946,0.531533,0.53179,0.533055,0.542079,0.539651,0.540586,0.543142,0.548123,0.548507,0.551976,0.553132,0.558916,0.548531,0.550779,0.546424,0.5467,0.548708,0.549164,0.550885,0.558921,0.559415,0.561868,0.562504,0.563634,0.564421,0.563737,0.563887,0.56572,0.566694,0.569812,0.571277,0.573134,0.575615,0.577147,0.580788,0.580354,0.582806,0.583036,0.586815,0.586813,0.589155,0.589742,0.590555,0.594205,0.598305,0.598744,0.597429,0.598904,0.600612,0.600402,0.60262,0.60255,0.603917,0.00321876,0.61794,0.00333282,0.62589,0.628026,0.630211,0.631552,0.633636,0.633109,0.634086,0.635578,0.00357276,0.00341125,0.658102,0.659234,0.659958,0.660599,0.663756,0.00326573,0.671558,0.673813,0.674764,1.33143,0.691997,0.692406,0.00322883,0.00334252,1.23687,0.711444,0.0034214,0.00356882,0.73187,0.735196,0.736444,0.0034533,0.00331166,0.00337156,0.0032928,0.00329651,0.00342069,0.00327466,0.840533,0.842662,0.845763,0.841615,0.842029,0.842717,0.814435,0.81785,0.819819,0.8206,0.815016,0.810406,0.81122,0.81363,0.816125,0.817215,0.817235,0.0033673,0.832241,1.04738,0.832086,0.832546,0.843195,0.845841,0.848779,0.857315,0.859939,0.861137,0.86047,0.863767,0.864949,0.866577,0.869468,0.872549,0.87113,0.870179,0.871008,0.00334035,0.873505,0.00343417,0.00358455,0.00322453,0.00325643,0.003437,0.00347436,0.00336311,0.926743,0.00331485,0.00345435,0.00319271,0.0033384,0.94487,0.946141,0.950346,0.951171,0.95674,0.95604,0.00307935,0.963949,0.967429,0.970633,0.975108,0.977536,0.979213,0.00354735,0.00331125,0.00331197,0.952934,0.944924,0.947017,0.948929,0.947185,0.949032,0.949855,0.953025,0.953614,0.955137,0.958565,0.959699,0.961793,0.964526,0.972189,0.974966,0.979641,0.987367,0.990767,0.997817,0.997086,1.00509,1.00522,1.00853,1.01535,1.01643,0.00341918,1.02733,1.03087,1.03464,1.05125,1.05165,1.05397,1.05728
0.341008,0.341974,0.172155,0.00332705,0.176687,0.00309197,0.176466,0.181121,0.189527,0.189557,0.196422,0.003438,0.00352734,0.00321518,0.00357765,0.003267,0.445485,0.44595,0.237537,0.238459,0.003503,0.00340524,0.00354982,0.00321027,0.266241,0.00323861,0.00350049,0.00353071,0.287226,0.288893,0.288012,0.289806,0.290274,0.293716,0.294198,0.30055,0.299267,0.299434,0.30379,0.304588,0.305497,0.316097,0.317446,0.318264,0.319299,0.318184,0.324896,0.00334568,0.00346464,0.00348789,0.00354891,0.00321193,0.00349373,0.00331591,0.00333215,0.00332285,0.387169,0.389648,0.389172,0.400695,0.402263,0.403015,0.404907,0.00327262,0.00353921,0.00286774,0.00348589,0.00326132,0.00347462,0.00323216,0.461143,0.462407,0.464189,0.461018,0.465388,0.463829,0.462737,0.462,0.462287,0.469372,0.468149,0.469911,0.470501,0.470397,0.484844,0.485747,0.486841,0.486118,0.48222,0.487068,0.490039,0.489254,0.489455,0.49188,0.492361,0.00341021,0.00344962,0.00335928,0.51679,0.519145,0.52039,0.520923,0.523925,0.524236,0.529521,0.529985,0.531352,0.530192,0.536739,0.536779,0.53781,0.537651,0.53719,0.00314304,0.542454,0.54244,0.542573,0.543067,0.545426,0.54941,0.548971,0.549917,0.551754,0.551237,0.553069,0.552062,0.555329,0.558069,0.555051,0.558944,0.559538,0.558441,0.557594,0.560629,0.563924,0.565296,0.565446,0.561625,0.56263,0.00325626,0.575828,0.574448,0.57123,0.573389,0.574558,0.586243,0.584446,0.58596,0.587796,0.589609,0.593284,0.593878,0.594103,0.595881,0.599902,0.602953,0.604384,0.60574,0.608152,0.608662,0.00352341,0.00348679,0.626407,0.630868,0.631879,0.633915,0.633369,0.632452,0.634913,0.637217,0.00339486,0.649581,0.656004,0.656031,0.657392,0.658493,0.659314,0.00329654,0.673191,0.675316,0.676974,0.691551,0.693033,0.694115,0.69565,0.696662,0.708326,0.715316,0.717686,0.0032457,0.0034429,0.00313195,0.00361362,0.745194,0.0035735,0.00301369,0.00361051,0.00310861,0.00358411,0.839784,0.843178,0.845498,0.847078,0.00319531,0.814983,0.815477,0.817044,0.820186,0.821257,0.81818,0.804109,0.806359,0.80784,0.810444,0.81566,0.809669,0.812298,0.814159,1.04988,0.00339007,0.0034682,0.00334273,0.844627,0.00340168,0.00365671,0.00306005,0.00334672,0.866114,0.867908,0.866859,0.866607,0.870845,0.872508,0.873385,0.866296,0.869723,0.870941,0.873319,0.874232,0.00329803,0.00345033,0.00345626,0.0032712,0.00340637,0.00324178,0.0032412,0.926766,0.929444,0.00355043,0.940317,0.942279,0.94677,0.947554,0.953083,0.952913,0.954794,0.957908,0.961386,0.963791,0.965627,0.972375,0.976879,0.979231,0.00326755,0.00340984,0.959849,0.950006,0.95605,0.952797,0.949669,0.94998,0.950187,0.948869,0.952367,0.952619,0.955487,0.957842,0.961543,0.962698,0.964991,0.970922,0.97818,0.980259,0.981638,0.98562,0.991125,0.996952,0.996844,0.998413,1.00348,1.01296,1.0152,1.02066,1.02381,1.02838,1.02968,1.04689,1.04997,1.05132,1.05487
0.149558,0.158339,0.160013,0.159243,0.166505,0.175814,0.174877,0.00356992,0.192082,0.19191,0.193928,0.00350093,0.197489,0.00334223,0.207146,0.215928,0.216705,0.224336,0.00337734,0.00363299,0.00316149,0.00351164,0.406781,0.00351057,0.00333071,0.00341753,0.00351742,0.00345681,0.00318851,0.488455,0.285676,0.291741,0.292832,0.294026,0.298627,0.298202,0.299177,0.298898,0.297819,0.306817,0.307,0.306973,0.316539,0.317991,0.318737,0.318834,0.325558,0.327195,0.327185,0.325982,0.00319308,0.00341377,0.00339104,0.00340043,0.00327427,0.00363466,0.00295026,0.00342449,0.00339434,0.00353259,0.00342965,0.00319435,0.0032995,0.00362978,0.00325837,0.00320961,0.00352954,0.0035971,0.00338751,0.00357604,0.00323125,0.453258,0.00328718,0.458768,0.455656,0.456657,0.459038,0.462015,0.461938,0.461677,0.469505,0.469703,0.47082,0.470782,0.00317121,0.480714,0.482424,0.483098,0.483341,0.483028,0.486394,0.48765,0.488774,0.491353,0.493045,0.494356,0.495828,0.496396,0.497519,0.00332167,0.00329136,0.521262,0.52156,0.524728,0.523217,0.522942,0.527513,0.527691,0.52754,0.528945,0.530902,0.530791,0.53027,0.531238,0.539344,0.539464,0.540754,0.541899,0.54347,0.54313,0.545369,0.547697,0.550108,0.551573,0.553459,0.553354,0.551084,0.553566,0.555411,0.556552,0.55671,0.558198,0.559313,0.556361,0.558184,0.565657,0.56348,0.562832,0.563507,0.56381,0.570696,0.572292,0.575818,0.576091,0.576424,0.576498,0.576563,0.577836,0.586874,0.588392,0.588477,0.589387,0.591592,0.591434,0.597067,0.595818,0.597282,0.597372,0.60645,0.00335493,0.00318609,0.00353056,0.615203,0.617161,0.618436,0.619913,0.630517,0.630639,0.632802,0.632664,0.638237,0.645556,0.646629,0.649403,0.650976,0.658368,0.00340238,0.663119,0.00329406,0.677112,0.679366,0.681461,0.683321,0.696369,0.697217,0.706131,0.709357,0.71071,0.712893,0.720834,0.722997,0.731386,0.73232,0.732864,0.00330863,0.00350783,0.00332987,0.00345145,0.00338437,0.842111,0.843766,0.845292,0.845616,0.00340553,0.00314713,0.815617,0.818668,0.821061,0.821993,0.819071,0.808553,0.808465,0.810622,0.811844,0.813174,0.815635,0.818462,0.00355853,0.00338372,0.00354761,0.00316488,0.842726,0.846067,0.847711,0.00335271,0.868785,0.871174,0.873218,0.871074,0.87329,0.873928,0.871795,0.872786,0.87289,0.867875,0.869786,0.00309416,0.875869,0.00333886,0.00350351,0.00339713,0.00338361,0.00331935,0.00339644,0.00318387,0.0034047,0.00334714,0.00332862,0.00331452,0.00369162,0.00329547,0.948259,0.94937,0.952429,0.952438,0.955612,0.956044,0.958452,0.962942,0.965122,0.966655,0.981276,0.982149,0.983829,0.984595,0.965853,0.967634,0.966283,0.949808,0.952477,0.950032,0.950647,0.952295,0.953428,0.954115,0.956003,0.957018,0.959847,0.963678,0.968232,0.969919,0.973271,0.975555,0.980983,0.98734,0.990947,0.994652,0.996197,0.998501,0.999677,1.0089,1.01307,1.01688,1.02335,1.02532,1.02863,0.00340207,1.05063,1.0558,1.05537
0.00333819,0.00344643,0.00334501,0.161795,0.15849,0.00332971,0.171954,0.180836,0.172943,0.184129,0.187839,0.193257,0.193484,0.204572,0.204663,0.204905,0.00347166,0.224942,0.226045,0.224564,0.231568,0.234223,0.240098,0.00331065,0.00313973,0.0032683,0.393613,0.00328361,0.00316821,0.283347,0.283488,0.283948,0.285983,0.287787,0.28981,0.294016,0.00325629,0.297042,0.296646,0.00330869,0.296735,0.296348,0.305773,0.306885,0.308402,0.317749,0.325722,0.327168,0.32699,0.324939,0.329346,0.00348432,0.00349637,0.00343008,0.00338799,0.00328211,0.00338663,0.00354197,0.00369149,0.00338245,0.00336778,0.00323206,0.00346171,0.00325679,0.00349719,0.00325761,0.0033875,0.00325453,0.00345744,0.00310125,0.00332208,0.00330231,0.454404,0.458126,0.458108,0.45848,0.459064,0.459947,0.459405,0.457188,0.45633,0.468651,0.469352,0.459161,0.460015,0.460765,0.461183,0.00328903,0.480889,0.482145,0.474399,0.475576,0.00331634,0.00331535,0.00346321,0.00350039,0.49792,0.499176,0.499738,0.499849,0.00331341,0.00331287,0.517541,0.517226,0.517587,0.517678,0.521373,0.523684,0.524463,0.527945,0.530244,0.530541,0.530002,0.53033,0.531767,0.533098,0.538947,0.540263,0.54217,0.544128,0.548983,0.548795,0.552055,0.552307,0.553811,0.555068,0.555364,0.550519,0.551164,0.551853,0.553969,0.555252,0.556757,0.558405,0.558649,0.560097,0.559537,0.560002,0.561437,0.562304,0.563753,0.568182,0.568953,0.568377,0.568797,0.575117,0.578543,0.57926,0.582353,0.585844,0.585178,0.587083,0.589748,0.589648,0.588279,0.596651,0.597173,0.598827,0.59868,0.598936,0.601749,0.00314869,0.00318791,0.616593,0.619266,0.620044,0.622039,0.623461,0.630131,0.632989,0.63427,0.638652,0.00334056,0.648938,0.00337297,0.654066,0.65769,0.65968,0.661343,0.00322771,0.0034362,0.682859,0.683845,0.69146,0.697126,0.698706,0.00319102,0.7113,0.714385,0.717809,0.728539,0.729803,0.732991,0.734601,0.734976,0.00308385,0.00359741,0.00323043,0.00324231,0.00331876,0.846745,0.84968,0.850942,0.00338752,0.00329803,0.00341101,0.00336929,0.00353653,0.00332688,1.19032,0.811197,0.814146,0.811095,0.812334,0.8157,0.819191,0.82541,0.825583,0.00346857,0.833662,0.836485,0.839429,0.00332285,0.00344544,0.00316313,0.869893,0.869552,0.87615,0.875512,0.877148,0.876365,0.875412,0.871056,0.871478,0.871815,0.873337,0.875052,0.879018,0.879314,0.884416,0.88423,0.891143,0.894056,0.00327491,0.00358318,0.00326058,0.0033639,0.00348336,0.00341297,0.00321753,0.939499,0.942221,0.00344743,0.00317763,0.957022,0.958588,0.958925,0.95911,0.961543,0.966304,0.00356528,0.97738,0.978975,0.983577,0.984057,0.96583,0.965456,0.969455,0.966511,0.949511,0.953305,0.952392,0.952335,0.955395,0.954955,0.957323,0.961678,0.963114,0.965951,0.967354,0.963818,0.971213,0.971466,0.977416,0.980912,0.003097,0.989237,0.995989,0.999125,1.00121,1.00449,1.0087,0.00336429,1.02232,1.02751,1.03152,1.03318,0.00329105,1.04818,1.05271
0.00329664,0.00338437,0.00327016,0.159652,0.325045,0.161251,0.0031066,0.17556,0.00339441,0.00354974,0.00318007,0.184223,0.192866,0.207394,0.205759,0.206256,0.00319309,0.219011,0.228775,0.407208,0.233378,0.232171,0.234661,0.241689,0.242927,0.248938,0.00331049,0.393574,0.272797,0.271616,0.00325636,0.0032491,0.281123,0.289294,0.29006,0.285806,0.285637,0.286832,0.288153,0.287253,0.293707,0.295965,0.29998,0.309762,0.310153,0.0032941,0.00341152,0.324447,0.327026,0.327289,0.327839,0.00357105,0.00332491,0.00354473,0.35964,0.00343565,0.00330497,0.00353297,0.00329812,0.369951,0.371018,0.393658,0.00325946,0.0034036,0.0032509,0.00318333,0.00322971,0.00328676,0.00322561,0.00352678,0.00339646,0.448287,0.448424,0.449562,0.454713,0.457124,0.458113,0.459419,0.45263,0.452224,0.450153,0.450813,0.457516,0.458433,0.458364,0.458641,0.45649,0.458693,0.458702,0.475348,0.467254,0.475308,0.467898,0.47085,0.474283,0.474933,0.475546,0.00350498,0.00301558,0.00339293,0.00357666,0.00348789,0.00319772,0.00374743,0.00310604,0.5188,0.519665,0.523958,0.524726,0.531641,0.531548,0.53117,0.531473,0.53252,0.53259,0.533316,0.538242,0.539023,0.538933,0.545767,0.548763,0.55014,0.552114,0.553404,0.554695,0.553409,0.546222,0.546984,0.551113,0.550223,0.550232,0.550103,0.54888,0.551989,0.55396,0.561894,0.561895,0.563059,0.563312,0.564771,0.566024,0.565576,0.560728,0.563476,0.570274,0.565915,0.573493,0.0035794,0.00334873,0.977181,0.584624,0.586895,0.587199,0.587939,0.589126,0.59028,0.589633,0.588839,0.59853,0.60003,0.602323,0.604476,0.607313,0.607737,0.607644,0.00336625,0.619608,0.00340319,0.00325728,0.633244,0.632411,0.632969,0.636574,0.637015,0.636743,0.0032327,0.659648,0.662519,0.665981,0.666405,0.00300421,1.27631,1.27727,0.693895,0.696857,0.703628,0.70297,0.704147,0.704206,0.00342048,0.00314802,0.731772,0.734166,0.740238,0.741696,0.00341351,0.00328335,0.00341413,0.00344594,0.00345116,0.849593,0.852386,0.854248,0.00341032,0.00324748,0.83505,0.835054,0.826936,0.00324406,0.82163,0.819254,0.820621,0.820004,0.819507,0.821218,0.822371,0.827614,0.829784,0.831834,0.834269,0.837559,0.837991,0.00312304,0.00316881,0.00326377,0.00340219,0.873045,0.87569,0.87742,0.878221,0.879096,0.864764,0.867536,0.86936,0.871191,0.873822,0.875281,0.879062,0.881015,0.884006,0.884959,0.887365,0.00344399,0.895861,0.903788,0.903724,0.00310515,0.00343504,0.00301336,0.00346144,0.00320041,0.00340462,0.00288937,0.00342586,0.952888,0.953477,0.95488,0.959108,0.962583,0.962727,0.00344773,0.980438,0.981876,0.985703,0.987752,0.984676,0.00329241,0.0033618,0.00320437,0.945928,0.949217,0.951075,0.953951,0.955515,0.954144,0.957385,0.958399,0.00344072,0.0033149,0.970732,0.970288,0.971066,0.971513,0.973511,0.977378,0.980477,0.983104,0.990686,0.990421,1.00053,1.00334,1.00534,0.0033159,0.00338618,1.02537,1.02625,1.02883,1.03402,1.03926,1.04104
0.00318018,0.00334102,0.00324959,0.00320563,0.162202,0.149681,0.161432,0.16533,0.17535,0.176512,0.177803,0.00319615,0.00350371,0.19572,0.00355287,0.206944,0.206769,0.206728,0.214006,0.00303909,0.228805,0.228421,0.446415,0.00333682,0.243058,0.248312,0.00355358,0.00329743,0.00353397,0.00341295,0.268943,0.273371,0.275845,0.282369,0.284157,0.285839,0.286349,0.286838,0.28746,0.286956,0.287745,0.00318859,0.297672,0.00347802,0.00345118,0.309139,0.313635,0.311735,0.320303,0.320571,0.321376,0.320919,0.00348647,0.00321029,0.00348378,0.358803,0.360196,0.00353695,0.372297,0.00327123,0.376668,0.374685,0.374386,0.00343284,0.00354764,0.00311437,0.00329049,0.00316091,0.0033711,0.00330691,0.00345563,0.447694,0.44855,0.00341768,0.00331838,0.00348305,0.00338824,0.443227,0.445391,0.448893,0.447719,0.452998,0.456824,0.453506,0.452667,0.455249,0.456621,0.459594,0.460173,0.462269,0.467225,0.469557,0.470132,0.470714,0.474157,0.475612,0.475918,0.00352961,0.00321282,0.00331255,0.482243,0.48179,0.00349463,0.00332423,0.00336522,0.0033145,0.511296,0.00344199,0.00337721,0.519045,0.00324325,0.521465,0.521721,0.00309949,0.00344603,0.00330249,0.00323846,0.538319,0.0034105,0.545155,0.547448,0.54906,0.549974,0.550095,0.549189,0.549259,0.548652,0.548867,0.548124,0.546316,0.546278,0.547531,0.547964,0.551387,0.552536,0.551413,0.552742,0.556219,0.55706,0.557347,0.00354777,0.560442,0.562422,0.56339,0.562468,0.562692,0.56484,0.570231,0.563836,0.562583,0.00349465,0.00330605,0.00346426,0.586134,0.585369,0.589803,0.588767,0.590681,0.590234,0.00343951,0.603205,0.60721,0.607356,0.609004,0.609578,0.611942,0.612265,0.621796,0.625561,0.628155,0.634184,0.636703,0.638347,0.639149,0.649731,0.65151,0.654902,0.656999,0.66591,0.668394,0.669367,1.27859,0.00345553,0.00366546,0.699424,0.701007,0.704194,0.00330838,0.0035723,0.0033458,0.00330148,0.731594,0.733545,0.739578,0.981851,0.00334534,0.00334757,0.00325058,0.00323174,0.00351028,0.00341796,0.851493,0.852406,0.852473,0.852825,0.00319261,0.833192,0.830534,0.818452,0.822043,0.82248,0.825473,0.825221,0.826444,0.819209,0.821096,0.822096,0.00321091,0.834955,0.836583,0.838217,0.840642,0.842568,0.846186,0.00335452,0.00317912,0.00342907,0.873603,0.875714,0.878499,0.879882,0.866947,0.868302,0.869839,0.869877,0.8738,0.871324,0.87339,0.880481,0.883266,0.885995,0.00332384,0.895229,0.898593,0.00327697,0.00338098,0.00319537,0.00334881,0.00337356,0.00329617,0.00322306,0.00329781,0.942763,0.944617,0.946226,0.00340104,0.960574,0.96198,0.960867,0.961784,0.963709,0.00334772,0.98441,0.986053,0.987812,0.989926,0.00344665,0.00330138,0.957134,0.959846,0.961534,0.948988,0.95393,0.952294,0.953341,0.953966,0.956135,0.95868,0.957462,0.96054,0.967753,0.969324,0.964954,0.970335,0.970692,0.974145,0.977597,0.984372,0.00338904,1.00126,1.0011,1.00364,1.00826,1.01606,1.0207,1.02537,1.02779,1.02978,1.03627,1.0357
