0.217519, 0.205907, 0.188794, 0.190293, 0.162021, 0.167258, 0.131755, 0.161661, 0.0830807, 0.142661, 0.141788, 0.0866014, 0.103106, 0.119202, 0.106295, 0.0809958, 0.0790044, 0.0522444, 0.0355358, 0.0307668, 0.0107385, 0.035839, 0.0367429, 0.0105196, 0.00493702, 0.00456829, 0.0137388, 0.0270708, 0.0405777, 0.0309746, 0.0344088, 0.0356242, 0.0725265, 0.0633395, 0.0719017, 0.0753293, 0.0893865, 0.0894501, 0.0948059, 0.111054, 0.110297, 0.146206, 0.135189, 0.145509, 0.167962, 0.152251, 0.189435, 0.176653, 0.205836, 0.193482, 0.20329, 0.223264, 0.248577, 0.238544, 0.236115, 0.259091, 0.267347, 0.267251, 0.296922, 0.293031, 0.296228, 0.297109, 0.317956, 0.343206, 0.47426, 0.487309, 0.168369, 0.179308, 0.163508, 0.164285, 0.201033, 0.241584, 0.237963, 0.250202, 0.37791, 0.379618, 0.586962, 1.086, 1.08121, 1.08062, 1.11828, 1.11275, 1.10603, 1.10672, 1.14333, 1.14626, 1.1459, 1.15417, 1.21049, 1.33044, 1.35548, 1.39192, 1.46364, 1.47762, 1.48111, 1.51016, 1.51623, 1.55072, 1.5652, 1.59307, 1.62048, 1.60936, 1.63134, 1.62954, 1.66885, 1.65653, 1.70308, 1.68903, 1.70826, 1.70383, 1.73472, 1.72918, 1.72631, 1.78254, 1.76342, 1.7993, 1.79591, 1.8183, 1.80818, 1.81461, 1.81382, 1.83601, 1.85137, 1.84117, 1.83298, 1.83387, 1.83399, 1.85338, 1.85805, 1.8945, 1.86476, 1.87564, 1.892, 1.91392, 1.88041, 1.87094, 1.90916, 1.91764, 1.95533, 1.94254, 2.01092, 1.92767, 1.91565, 1.93871, 1.91096, 1.94138, 1.91047, 1.90986, 1.9053, 1.97291, 1.91175, 1.91475, 1.91399, 1.91791, 1.89773, 1.88745, 1.88353, 1.91695, 1.89921, 1.89401, 1.90811, 1.86295, 1.88308, 1.862, 1.86812, 1.83557, 1.83351, 1.82904, 1.82814, 1.83752, 1.83719, 1.8375, 1.83455, 1.81047, 1.82135, 1.83488, 1.83885, 1.86677, 1.88094, 1.8913, 1.87653, 1.86584, 1.8776, 1.87612, 1.86277, 1.88758, 1.85385, 1.84999, 1.86282, 1.86239, 1.8489, 1.84613, 1.86947, 1.87687, 1.8666, 1.84472, 1.81623, 1.81562, 1.81452, 1.83684, 1.82556, 1.82374, 1.82115, 1.8457, 1.84332, 1.84215, 1.84116, 1.83812, 1.83558, 1.83815, 1.80786, 1.80769, 1.80719, 1.97703, 1.94042, 1.95258, 1.96673, 1.88521, 1.88079, 1.88004, 1.90093, 1.92174, 1.94205, 1.93914, 1.93668, 1.93184, 1.90669, 1.87205, 1.87299, 1.90072, 1.86652, 1.87686, 1.94886, 1.93538, 1.93376, 1.92129, 1.91697, 1.51255, 1.51324, 1.49577, 1.39863, 1.32428, 1.32268, 1.33011, 1.34468, 1.33934, 1.33119, 1.85979, 1.85951, 1.8173, 1.84505, 1.85791, 1.85651, 1.85529, 1.85774, 1.9145, 1.87762, 1.89423, 1.89355, 1.90787, 1.90876, 1.90777, 1.91003, 1.92777, 1.92703, 1.98958, 1.95162, 1.95873, 1.95911, 1.98595, 1.98736, 2.01666, 1.99758, 2.00531, 2.02833, 2.01147, 2.04558, 2.02847, 2.05305, 2.07212, 2.06889, 2.05917, 2.08144, 2.08657, 2.11663, 2.1065, 2.13999, 2.1286, 2.13915, 2.1501, 2.14737, 2.14425, 2.16055, 2.15601, 2.18439, 2.20842, 2.19702, 2.24876, 2.19992, 2.2054
0.176955, 0.191199, 0.190206, 0.193616, 0.138977, 0.1725, 0.158736, 0.118023, 0.125072, 0.152187, 0.12344, 0.0988159, 0.0733171, 0.0991581, 0.100801, 0.0831281, 0.0282429, 0.0447509, 0.0623766, 0.00402897, 0.0396212, 0.014799, 0.0225089, 0.0171654, 0.00510512, 0.00470835, 0.0171245, 0.0168904, 0.0252316, 0.0246351, 0.0459063, 0.054479, 0.0356666, 0.0586676, 0.0693083, 0.0638271, 0.0693045, 0.0703561, 0.113406, 0.121102, 0.117786, 0.107091, 0.139463, 0.157611, 0.135368, 0.172671, 0.158935, 0.184248, 0.186524, 0.198101, 0.187129, 0.205989, 0.231371, 0.252407, 0.24393, 0.246701, 0.248707, 0.248952, 0.259689, 0.28358, 0.291114, 0.289046, 0.300137, 0.325046, 0.321805, 0.291919, 0.293055, 0.172543, 0.171613, 0.163246, 0.187765, 0.176689, 0.197765, 0.217836, 0.215382, 0.353625, 0.35965, 1.10757, 1.11223, 1.12098, 1.14848, 1.14418, 1.16098, 1.15004, 1.17501, 1.17753, 1.17791, 1.21066, 1.25003, 1.30301, 1.33684, 1.34785, 1.41813, 1.46366, 1.46769, 1.52684, 1.5267, 1.53297, 1.58561, 1.58272, 1.61768, 1.62111, 1.64147, 1.64525, 1.65495, 1.65012, 1.68234, 1.69524, 1.70227, 1.72652, 1.71102, 1.71495, 1.72918, 1.75554, 1.77988, 1.78188, 1.78018, 1.77757, 1.8125, 1.80116, 1.81266, 1.82159, 1.82417, 1.85528, 1.83285, 1.83168, 1.84201, 1.86208, 1.84403, 1.85076, 1.8544, 1.8825, 1.86139, 1.86193, 1.861, 1.86861, 1.86457, 1.89897, 1.89363, 1.92122, 1.92835, 1.91024, 1.93773, 1.92217, 1.90138, 1.91019, 1.90195, 1.90229, 1.90043, 1.90131, 1.93158, 1.91763, 1.87352, 1.87355, 1.87338, 1.88758, 1.87075, 1.86093, 1.87516, 1.87878, 1.85639, 1.85608, 1.85725, 1.88003, 1.84074, 1.83619, 1.8328, 1.82926, 1.82945, 1.82884, 1.8431, 1.83264, 1.83258, 1.84475, 1.82487, 1.89048, 1.8798, 1.86155, 1.84627, 1.84551, 1.85318, 1.85201, 1.82157, 1.83755, 1.83085, 1.85108, 1.8482, 1.85191, 1.83968, 1.83841, 1.82984, 1.83794, 1.85656, 1.84183, 1.84493, 1.81669, 1.82858, 1.82038, 1.8109, 1.8166, 1.81331, 1.82025, 1.83831, 1.85445, 1.85478, 1.85585, 1.84025, 1.87333, 1.84504, 1.8597, 1.86171, 1.96095, 1.92417, 1.92156, 1.91686, 1.92169, 1.91498, 1.94971, 1.90874, 1.93801, 1.90886, 1.93139, 1.92054, 1.92104, 1.9134, 1.91418, 1.87227, 1.86679, 1.85832, 1.88946, 1.85372, 1.89351, 1.89778, 1.90305, 1.9035, 1.68266, 1.65439, 1.52735, 1.53606, 1.50367, 1.49399, 1.49889, 1.47541, 1.49891, 1.84993, 1.8623, 1.85551, 1.82877, 1.81985, 1.81476, 1.84156, 1.85659, 1.85177, 1.86377, 1.8545, 1.86925, 1.8648, 1.87652, 1.88915, 1.89394, 1.90963, 1.92673, 1.93623, 1.9204, 1.94221, 1.93273, 1.95819, 1.94592, 1.97156, 1.9681, 1.97242, 1.98929, 1.99855, 1.99757, 1.99641, 2.01641, 2.02288, 2.06611, 2.05786, 2.05911, 2.09005, 2.06522, 2.11518, 2.08256, 2.10622, 2.08626, 2.11096, 2.11757, 2.09713, 2.12935, 2.13973, 2.14108, 2.16687, 2.15523, 2.18795, 2.19452, 2.19224, 2.1891, 2.20916, 2.24128
0.20768, 0.186143, 0.165418, 0.166926, 0.183397, 0.159379, 0.158669, 0.173149, 0.15931, 0.152583, 0.155584, 0.0831124, 0.0679785, 0.111559, 0.0948433, 0.00414804, 0.0693726, 0.0153468, 0.0679157, 0.044201, 0.0186319, 0.0544953, 0.0467621, 0.0411201, 0.018254, 0.013943, 0.0106836, 0.0109622, 0.0251116, 0.00733867, 0.0354917, 0.0247164, 0.0638095, 0.0562725, 0.0538026, 0.0710427, 0.0698223, 0.0714878, 0.0725652, 0.118834, 0.131772, 0.139377, 0.134967, 0.158685, 0.158899, 0.142695, 0.152089, 0.165223, 0.179575, 0.174242, 0.1866, 0.189113, 0.211643, 0.206461, 0.249457, 0.239583, 0.237658, 0.251407, 0.26232, 0.263321, 0.297625, 0.281558, 0.315118, 0.314898, 0.3061, 0.302089, 0.281685, 0.277602, 0.161518, 0.189857, 0.169705, 0.181296, 0.206358, 0.248892, 0.209855, 0.354942, 0.338061, 1.12985, 1.13628, 1.14262, 1.15066, 1.15161, 1.15756, 1.17163, 1.17519, 1.17626, 1.18552, 1.22446, 1.26651, 1.27706, 1.34093, 1.42938, 1.44747, 1.47837, 1.49582, 1.49582, 1.55366, 1.56024, 1.55736, 1.58468, 1.58011, 1.58914, 1.63186, 1.64728, 1.67775, 1.65811, 1.6568, 1.67259, 1.69709, 1.70244, 1.69497, 1.75084, 1.7503, 1.72925, 1.73059, 1.74451, 1.85898, 1.79394, 1.7654, 1.81763, 1.80471, 1.81483, 1.82567, 1.83081, 1.82823, 1.84458, 1.8334, 1.8356, 1.8622, 1.84556, 1.85011, 1.86011, 1.85458, 1.85593, 1.85855, 1.86007, 1.87935, 1.88436, 1.88557, 1.90122, 1.88736, 1.89093, 1.91516, 1.91172, 1.90807, 1.90995, 1.89356, 1.89841, 1.90867, 1.90404, 1.89392, 1.87443, 1.88712, 1.90908, 1.90068, 1.84598, 1.84522, 1.84381, 1.84412, 1.84356, 1.86178, 1.84993, 1.84551, 1.8349, 1.83482, 1.8307, 1.82834, 1.83018, 1.82819, 1.82621, 1.82289, 1.83491, 1.83308, 1.84256, 1.83747, 1.848, 1.84161, 1.84115, 1.85867, 1.83682, 1.83508, 1.84888, 1.8525, 1.83702, 1.82315, 1.81741, 1.80461, 1.79591, 1.79711, 1.79656, 1.77182, 1.79344, 1.80812, 1.82238, 1.79977, 1.81237, 1.81336, 1.83074, 1.79566, 1.79751, 1.79947, 1.83237, 1.82691, 1.84908, 1.84788, 1.84948, 1.86612, 1.89658, 1.86012, 1.88925, 1.88775, 1.92184, 1.92236, 1.92105, 1.91686, 1.88232, 1.87835, 1.87313, 1.92471, 1.85179, 1.90423, 1.893, 1.84924, 1.87907, 1.8337, 1.82062, 1.82392, 1.84064, 1.83992, 1.87726, 1.87349, 1.88809, 1.87258, 1.90367, 1.88826, 1.70074, 1.67862, 1.67784, 1.6723, 1.61403, 1.61445, 1.50549, 1.48435, 1.85034, 1.85352, 1.8565, 1.83005, 1.81408, 1.8208, 1.81945, 1.82077, 1.83138, 1.84251, 1.84006, 1.85785, 1.85265, 1.8827, 1.87572, 1.88282, 1.90356, 1.89612, 1.90629, 1.93051, 1.91172, 1.93139, 1.93185, 1.94222, 1.96166, 1.9535, 1.96537, 1.96446, 2.00381, 1.98694, 1.99189, 2.00198, 2.00999, 2.07668, 2.01978, 2.05127, 2.03774, 2.05571, 2.06127, 2.10354, 2.09768, 2.09292, 2.09712, 2.10064, 2.1137, 2.15914, 2.12801, 2.14301, 2.15263, 2.15281, 2.15316, 2.15025, 2.19436, 2.17229, 2.187, 2.2153, 2.23205
0.235023, 0.187109, 0.170048, 0.173316, 0.16563, 0.183521, 0.186487, 0.151727, 0.171928, 0.152, 0.143991, 0.14494, 0.102823, 0.103436, 0.130117, 0.0765723, 0.0764126, 0.0857015, 0.0695498, 0.089733, 0.0576857, 0.0638435, 0.0307791, 0.0354233, 0.00443773, 0.0240933, 0.0111116, 0.0203042, 0.00432629, 0.00444063, 0.0423342, 0.0508828, 0.0342259, 0.0516168, 0.0719859, 0.0630796, 0.0721869, 0.0902703, 0.11137, 0.0867808, 0.0989968, 0.142564, 0.141115, 0.130897, 0.131595, 0.155919, 0.162638, 0.193699, 0.167195, 0.19323, 0.185662, 0.208356, 0.231246, 0.210991, 0.239358, 0.248175, 0.255411, 0.249428, 0.242066, 0.251985, 0.284401, 0.285335, 0.289246, 0.337579, 0.32711, 0.308473, 0.327375, 0.335422, 0.165464, 0.16694, 0.225317, 0.180257, 0.172383, 0.222625, 0.235942, 0.331127, 0.330135, 0.328121, 1.13282, 1.14759, 1.19969, 1.15831, 1.17073, 1.16737, 1.16838, 1.16093, 1.17825, 1.22553, 1.19841, 1.25161, 1.23795, 1.2434, 1.42488, 1.46531, 1.48285, 1.4998, 1.52346, 1.52142, 1.55465, 1.56312, 1.57575, 1.58212, 1.60284, 1.6237, 1.63148, 1.64045, 1.65205, 1.65795, 1.68807, 1.67955, 1.72847, 1.70595, 1.70996, 1.74583, 1.74026, 1.76081, 1.76096, 1.78493, 1.77685, 1.77684, 1.79826, 1.81744, 1.82408, 1.82593, 1.83118, 1.83093, 1.83444, 1.82885, 1.84998, 1.84377, 1.85463, 1.85437, 1.85176, 1.85132, 1.86526, 1.86503, 1.86231, 1.89094, 1.88784, 1.89399, 1.88671, 1.88018, 1.8858, 1.90624, 1.87777, 1.87769, 1.87842, 1.87872, 1.87616, 1.87599, 1.90366, 1.90056, 1.85308, 1.8515, 1.85143, 1.84654, 1.84344, 1.84112, 1.84178, 1.84103, 1.85371, 1.83732, 1.83719, 1.83525, 1.83507, 1.83528, 1.83523, 1.85053, 1.87359, 1.86109, 1.86961, 1.84149, 1.84074, 1.84062, 1.85286, 1.83912, 1.84206, 1.84476, 1.83451, 1.84464, 1.83764, 1.80403, 1.80331, 1.80627, 1.7956, 1.7836, 1.78602, 1.806, 1.78932, 1.78232, 1.76328, 1.76245, 1.76121, 1.78406, 1.77271, 1.7781, 1.77915, 1.7874, 1.78905, 1.82645, 1.81408, 1.80142, 1.83753, 1.81125, 1.85492, 1.87281, 1.87129, 1.8713, 1.88283, 1.89028, 1.91141, 1.9164, 1.91292, 1.90323, 1.88736, 1.89657, 1.88394, 1.86205, 1.85096, 1.86866, 1.83462, 1.86205, 1.82365, 1.85088, 1.84746, 1.81079, 1.81002, 1.87053, 1.87885, 1.86456, 1.86953, 1.87365, 1.68378, 1.67916, 1.65321, 1.65174, 1.64998, 1.59617, 1.60067, 1.59514, 1.61352, 1.6147, 1.8541, 1.83784, 1.82464, 1.84105, 1.82633, 1.81805, 1.80665, 1.80598, 1.84204, 1.82897, 1.85437, 1.8584, 1.84585, 1.86893, 1.87589, 1.87273, 1.87143, 1.88276, 1.90029, 1.89367, 1.90797, 1.91703, 1.9451, 1.9425, 1.95605, 1.94533, 1.95231, 1.97935, 1.96181, 1.96674, 1.98431, 1.99124, 2.01261, 2.0103, 2.03291, 2.01792, 2.03515, 2.04537, 2.05976, 2.07566, 2.08253, 2.0867, 2.07687, 2.09801, 2.09612, 2.12138, 2.11908, 2.12858, 2.12907, 2.14163, 2.14548, 2.15627, 2.15533, 2.17079, 2.16501, 2.16519, 2.19292, 2.231
0.227448, 0.206892, 0.2107, 0.209809, 0.187535, 0.200437, 0.17624, 0.170783, 0.175206, 0.161694, 0.134725, 0.146093, 0.109806, 0.121731, 0.110261, 0.0697819, 0.096241, 0.0870148, 0.0872627, 0.0908234, 0.0897659, 0.0585172, 0.0524597, 0.0234808, 0.0353645, 0.0341848, 0.00649753, 0.0146841, 0.023706, 0.0244906, 0.0174021, 0.0377461, 0.027355, 0.0648196, 0.0457467, 0.0407866, 0.0974191, 0.0786818, 0.0956456, 0.0989171, 0.0871885, 0.0855977, 0.104584, 0.104598, 0.142123, 0.176676, 0.159539, 0.154252, 0.162577, 0.198681, 0.191915, 0.20642, 0.195622, 0.193294, 0.237892, 0.238526, 0.24493, 0.24178, 0.242319, 0.242805, 0.275916, 0.279877, 0.293499, 0.288372, 0.350013, 0.316048, 0.31531, 0.172588, 0.196529, 0.182072, 0.182794, 0.198872, 0.176451, 0.217343, 0.542198, 0.253562, 0.726704, 0.735778, 0.756736, 0.75855, 0.114612, 0.169258, 0.182914, 0.240912, 1.09094, 1.14686, 1.16281, 1.17272, 1.19613, 1.22983, 1.228, 1.27537, 1.44306, 1.46162, 1.47897, 1.52131, 1.51696, 1.54369, 1.54516, 1.55942, 1.56148, 1.5625, 1.607, 1.57993, 1.62848, 1.61931, 1.64104, 1.63805, 1.65454, 1.68316, 1.68046, 1.69119, 1.7274, 1.72412, 1.72699, 1.72707, 1.74493, 1.75556, 1.77892, 1.76939, 1.77107, 1.80669, 1.80343, 1.81774, 1.8169, 1.82153, 1.83834, 1.84977, 1.8342, 1.83722, 1.82823, 1.84115, 1.87589, 1.86649, 1.86845, 1.87038, 1.85809, 1.85803, 1.85804, 1.87033, 1.86792, 1.86403, 1.88658, 1.9106, 1.89317, 1.87065, 1.87341, 1.87596, 1.87978, 1.87641, 1.85537, 1.85415, 1.8575, 1.84878, 1.86281, 1.85472, 1.84126, 1.86334, 1.84569, 1.84522, 1.84023, 1.83865, 1.83793, 1.8388, 1.83757, 1.83337, 1.83411, 1.85158, 1.89261, 1.84713, 1.83657, 1.83671, 1.83732, 1.83522, 1.84953, 1.83536, 1.83585, 1.84443, 1.86675, 1.80655, 1.80571, 1.8043, 1.80429, 1.79807, 1.77519, 1.79845, 1.79896, 1.78084, 1.77205, 1.76454, 1.77565, 1.77784, 1.7621, 1.76052, 1.77791, 1.77675, 1.77858, 1.80884, 1.79728, 1.83539, 1.83187, 1.83066, 1.81852, 1.82383, 1.86865, 1.8685, 1.86734, 1.87159, 1.89982, 1.89446, 1.9122, 1.90998, 1.88517, 1.88438, 1.91622, 1.91773, 1.88968, 1.93116, 1.83555, 1.86533, 1.85102, 1.82172, 1.83499, 1.86171, 1.84467, 1.84515, 1.84563, 1.84569, 1.84499, 1.85829, 1.69295, 1.6918, 1.69329, 1.68564, 1.69069, 1.64944, 1.64013, 1.59986, 1.59766, 1.61036, 1.63524, 1.84637, 1.82744, 1.81931, 1.82078, 1.79014, 1.77694, 1.82657, 1.81323, 1.81329, 1.8482, 1.82378, 1.82179, 1.84345, 1.84852, 1.8646, 1.85931, 1.86243, 1.87241, 1.87142, 1.8822, 1.89646, 1.89581, 1.90081, 1.90809, 1.94851, 1.94489, 1.94154, 1.95275, 1.9592, 1.97645, 1.97864, 1.97277, 1.97315, 1.9861, 2.01156, 1.99966, 2.0188, 2.03934, 2.0316, 2.04126, 2.07135, 2.04667, 2.06462, 2.08386, 2.08366, 2.11109, 2.0998, 2.09842, 2.11213, 2.14102, 2.1403, 2.1594, 2.13452, 2.16303, 2.15596, 2.2145, 2.16713, 2.16769, 2.19013
0.245893, 0.204502, 0.193748, 0.17166, 0.198848, 0.188749, 0.200597, 0.168936, 0.171264, 0.170489, 0.12884, 0.151718, 0.109863, 0.117864, 0.124831, 0.120372, 0.109536, 0.0725186, 0.0718025, 0.0823432, 0.0800779, 0.0630211, 0.0664987, 0.039115, 0.0231986, 0.0194505, 0.00426459, 0.00683015, 0.0108007, 0.0135046, 0.012347, 0.0326387, 0.0319815, 0.0424252, 0.0326583, 0.0446733, 0.0591424, 0.0749982, 0.0730882, 0.0706667, 0.110227, 0.110064, 0.125359, 0.116245, 0.12438, 0.124603, 0.161225, 0.147078, 0.145907, 0.161736, 0.22857, 0.195643, 0.181227, 0.203159, 0.198403, 0.21188, 0.265787, 0.2526, 0.227493, 0.248271, 0.2604, 0.264921, 0.288422, 0.300029, 0.292014, 0.317398, 0.32956, 0.321105, 0.315213, 0.177076, 0.185458, 0.469737, 0.47284, 0.583104, 0.51126, 0.506134, 0.72868, 0.739786, 0.729193, 0.720316, 0.185571, 0.179978, 0.21114, 0.166275, 0.186203, 0.199035, 0.20706, 1.08083, 1.11992, 1.119, 1.18707, 1.21285, 1.21234, 1.46829, 1.46887, 1.496, 1.51238, 1.52296, 1.53267, 1.56203, 1.56229, 1.57132, 1.58715, 1.57363, 1.58325, 1.58973, 1.60616, 1.64366, 1.64532, 1.65546, 1.68565, 1.71045, 1.69943, 1.70933, 1.7233, 1.75813, 1.73075, 1.74784, 1.74797, 1.7485, 1.77896, 1.78936, 1.79363, 1.77919, 1.80687, 1.80074, 1.8023, 1.81725, 1.82661, 1.82455, 1.83931, 1.84938, 1.82719, 1.83517, 1.84947, 1.84941, 1.87641, 1.89232, 1.86983, 1.8785, 1.87603, 1.87644, 1.85675, 1.89999, 1.87323, 1.88536, 1.87529, 1.8614, 1.87664, 1.86999, 1.87591, 1.86566, 1.84521, 1.86522, 1.84324, 1.83663, 1.83794, 1.8554, 1.85522, 1.83349, 1.81636, 1.81559, 1.83875, 1.83654, 1.83516, 1.83552, 1.84544, 1.83668, 1.8364, 1.83562, 1.83003, 1.82947, 1.85161, 1.87201, 1.84372, 1.82851, 1.82904, 1.85439, 1.77224, 1.77076, 1.79322, 1.79638, 1.79612, 1.7722, 1.76362, 1.76367, 1.75941, 1.78366, 1.75763, 1.75165, 1.75702, 1.75317, 1.75366, 1.75394, 1.75202, 1.7503, 1.76921, 1.75962, 1.80681, 1.77489, 1.804, 1.81404, 1.81774, 1.81868, 1.81835, 1.85941, 1.85984, 1.85526, 1.88971, 1.8692, 1.88679, 1.87861, 1.86708, 1.87016, 1.88829, 1.87635, 1.87545, 1.86885, 1.8298, 1.81779, 1.81555, 1.85567, 1.80689, 1.79169, 1.84101, 1.83846, 1.79952, 1.80898, 1.78167, 1.80411, 1.76981, 1.84719, 1.68717, 1.68753, 1.69531, 1.67407, 1.63834, 1.62146, 1.61673, 1.60804, 1.61827, 1.82681, 1.8172, 1.81921, 1.80433, 1.79667, 1.7851, 1.81695, 1.83433, 1.8209, 1.82231, 1.82509, 1.84919, 1.83647, 1.85238, 1.85242, 1.86962, 1.86305, 1.86843, 1.8918, 1.87676, 1.87582, 1.8943, 1.9115, 1.91445, 1.93959, 1.956, 1.92992, 1.92974, 1.94762, 1.97502, 1.96469, 2.00366, 1.973, 1.98586, 1.98618, 2.02633, 2.0131, 2.04651, 2.02941, 2.02234, 2.03209, 2.05529, 2.05512, 2.05464, 2.07424, 2.09947, 2.09994, 2.12389, 2.12127, 2.11036, 2.12154, 2.13484, 2.13048, 2.15231, 2.15758, 2.18383, 2.16589, 2.16378, 2.20827
0.214291, 0.245621, 0.240449, 0.242953, 0.204407, 0.201427, 0.154491, 0.176189, 0.202848, 0.135105, 0.165542, 0.138622, 0.148194, 0.152928, 0.133825, 0.109995, 0.0735063, 0.0817857, 0.0944453, 0.082202, 0.0824789, 0.0632218, 0.0721538, 0.0515892, 0.0138543, 0.0117082, 0.0340741, 0.0167997, 0.0323594, 0.0224487, 0.010948, 0.0378623, 0.0275518, 0.0311159, 0.0344244, 0.035249, 0.0611166, 0.0721123, 0.071913, 0.0725647, 0.0715393, 0.0853417, 0.0996261, 0.107562, 0.117493, 0.127657, 0.15344, 0.122835, 0.15884, 0.150581, 0.150611, 0.180085, 0.196897, 0.198727, 0.193944, 0.204244, 0.210668, 0.218678, 0.226921, 0.245107, 0.247863, 0.2454, 0.266431, 0.290105, 0.283755, 0.331765, 0.307188, 0.315103, 0.349029, 0.320364, 0.315317, 0.316165, 0.348552, 0.515102, 0.524481, 0.534583, 0.595498, 0.691477, 0.718338, 0.689422, 0.179799, 0.172856, 0.174662, 0.254408, 0.16484, 0.164567, 0.190402, 0.200055, 0.20749, 0.208321, 0.205944, 0.205512, 0.28042, 0.277193, 1.34305, 1.47528, 1.48999, 1.49048, 1.50785, 1.50778, 1.53379, 1.53654, 1.565, 1.54929, 1.55932, 1.56478, 1.57067, 1.60172, 1.63192, 1.64525, 1.64958, 1.66212, 1.69785, 1.68308, 1.70874, 1.72062, 1.72142, 1.73696, 1.75507, 1.76198, 1.74925, 1.81073, 1.77234, 1.8041, 1.7756, 1.77559, 1.7759, 1.77726, 1.82325, 1.81718, 1.83639, 1.78923, 1.79871, 1.79868, 1.83786, 1.83809, 1.81847, 1.86689, 1.83121, 1.83876, 1.8493, 1.85449, 1.86232, 1.87324, 1.87231, 1.85114, 1.84989, 1.87499, 1.84134, 1.83674, 1.85874, 1.84091, 1.8227, 1.83836, 1.84064, 1.831, 1.81335, 1.81346, 1.8142, 1.82759, 1.81843, 1.8184, 1.83782, 1.86941, 1.84108, 1.82958, 1.84648, 1.85112, 1.8313, 1.82842, 1.838, 1.82863, 1.81872, 1.81154, 1.81068, 1.81616, 1.80617, 1.80905, 1.82203, 1.75936, 1.75657, 1.80691, 1.77592, 1.77604, 1.75511, 1.76648, 1.75053, 1.74867, 1.75202, 1.77181, 1.75809, 1.74246, 1.76826, 1.76505, 1.76764, 1.73362, 1.74635, 1.75392, 1.75865, 1.75684, 1.76337, 1.77411, 1.80575, 1.83101, 1.82594, 1.83065, 1.8462, 1.85205, 1.85086, 1.86268, 1.86705, 1.87992, 1.86474, 1.85323, 1.86495, 1.82853, 1.87943, 1.82521, 1.46292, 1.49592, 1.44841, 1.44415, 1.44153, 1.44078, 1.46889, 1.45631, 1.79379, 1.81368, 1.74033, 1.7399, 1.74124, 1.7756, 1.68865, 1.64939, 1.64724, 1.6627, 1.66172, 1.62935, 1.60965, 1.59277, 1.61451, 1.64493, 1.81696, 1.79054, 1.7742, 1.77941, 1.77952, 1.79778, 1.77856, 1.79411, 1.79773, 1.81343, 1.80989, 1.82731, 1.82519, 1.83045, 1.83979, 1.85257, 1.84859, 1.86122, 1.87421, 1.87259, 1.88637, 1.91494, 1.90921, 1.94855, 1.91314, 1.92007, 1.91983, 1.95701, 1.94334, 1.95631, 1.97735, 1.98685, 1.9813, 2.00226, 2.02005, 2.00893, 2.00855, 2.02151, 2.03453, 2.0484, 2.03354, 2.04268, 2.04441, 2.06552, 2.07876, 2.11187, 2.11099, 2.11325, 2.13504, 2.11231, 2.13244, 2.11675, 2.12402, 2.14298, 2.14101, 2.15332, 2.15211, 2.19141
0.26159, 0.261726, 0.214931, 0.190184, 0.224612, 0.200123, 0.156085, 0.194639, 0.190066, 0.179909, 0.182086, 0.178501, 0.114688, 0.142187, 0.138287, 0.0977037, 0.113818, 0.11584, 0.0990434, 0.0924077, 0.0875543, 0.0409881, 0.0545592, 0.0356229, 0.0274288, 0.0345899, 0.0350378, 0.0370662, 0.0219112, 0.0247203, 0.0050173, 0.0174292, 0.00512049, 0.00983205, 0.0455501, 0.0434528, 0.0432261, 0.0427132, 0.0651744, 0.0742649, 0.0827107, 0.0800872, 0.0933691, 0.085043, 0.149284, 0.151006, 0.113445, 0.123623, 0.162718, 0.160234, 0.156709, 0.172966, 0.176366, 0.186655, 0.180125, 0.207449, 0.193281, 0.21516, 0.259439, 0.224749, 0.235854, 0.268097, 0.287627, 0.280225, 0.296301, 0.293188, 0.306447, 0.31117, 0.356271, 0.339661, 0.330965, 0.372445, 0.327519, 0.426079, 0.413426, 0.428386, 0.59413, 0.604711, 0.771219, 0.744584, 0.754746, 0.719829, 0.158284, 0.182438, 0.165284, 0.164258, 0.16181, 0.186927, 0.204692, 0.214281, 0.197201, 0.197516, 0.217388, 0.22636, 0.334128, 1.41605, 1.4607, 1.46082, 1.50245, 1.49681, 1.53524, 1.54832, 1.53036, 1.54905, 1.56456, 1.54794, 1.55636, 1.59271, 1.59677, 1.60748, 1.63721, 1.68581, 1.65081, 1.69696, 1.6777, 1.68379, 1.71702, 1.72305, 1.75459, 1.72711, 1.74864, 1.75537, 1.75398, 1.76062, 1.75964, 1.76987, 1.79147, 1.7751, 1.7736, 1.78501, 1.78099, 1.78789, 1.81715, 1.81022, 1.80199, 1.81478, 1.85147, 1.84996, 1.85199, 1.8253, 1.8621, 1.82643, 1.84033, 1.83545, 1.85479, 1.83099, 1.83101, 1.83289, 1.83233, 1.82678, 1.82567, 1.82398, 1.8374, 1.83012, 1.80915, 1.83185, 1.83932, 1.8356, 1.79701, 1.83068, 1.81548, 1.83535, 1.8724, 1.83098, 1.81211, 1.8309, 1.82156, 1.80161, 1.81441, 1.81532, 1.80482, 1.78146, 1.79297, 1.79743, 1.77119, 1.81834, 1.80322, 1.76836, 1.76845, 1.77879, 1.7753, 1.74858, 1.73864, 1.7381, 1.74955, 1.74837, 1.75501, 1.719, 1.71865, 1.71697, 1.73171, 1.74408, 1.74784, 1.7173, 1.72259, 1.73648, 1.73777, 1.75195, 1.76515, 1.70415, 1.70527, 1.60126, 1.617, 1.6215, 1.60217, 1.58653, 1.83336, 1.84106, 1.84898, 1.8473, 1.86405, 1.85031, 1.86585, 1.87978, 1.8409, 1.8283, 1.87551, 1.4449, 1.41662, 1.43687, 1.40515, 1.39451, 1.39949, 1.39517, 1.38982, 1.41424, 1.42697, 1.42268, 1.40811, 1.42428, 1.42256, 1.66783, 1.65183, 1.64641, 1.64471, 1.63835, 1.63734, 1.68985, 1.61713, 1.61158, 1.59353, 1.59493, 1.63344, 1.78653, 1.78754, 1.74899, 1.73836, 1.73781, 1.81048, 1.79386, 1.80111, 1.80274, 1.80419, 1.80326, 1.83695, 1.83813, 1.83028, 1.85201, 1.85192, 1.85142, 1.87221, 1.87646, 1.88102, 1.89418, 1.90003, 1.89875, 1.90717, 1.93369, 1.9135, 1.92159, 1.94693, 1.93772, 1.97038, 1.98019, 1.96078, 1.97254, 1.97792, 1.99688, 2.01846, 2.0108, 2.01224, 2.02719, 2.02562, 2.05839, 2.05761, 2.05868, 2.08919, 2.10026, 2.08474, 2.08861, 2.1175, 2.11531, 2.10854, 2.12776, 2.12658, 2.15115, 2.16863, 2.14927, 2.17455, 2.21468
0.249016, 0.259491, 0.23115, 0.250328, 0.20635, 0.188694, 0.145383, 0.14811, 0.174083, 0.169097, 0.138726, 0.140503, 0.128672, 0.117973, 0.118935, 0.0927275, 0.127573, 0.114198, 0.0967809, 0.0769924, 0.104688, 0.0884289, 0.0776802, 0.0555923, 0.0513823, 0.0502877, 0.0335412, 0.0348834, 0.0420481, 0.0111235, 0.00728763, 0.0100308, 0.00792179, 0.0125029, 0.0211238, 0.0248697, 0.0227079, 0.0357013, 0.0349408, 0.0591146, 0.0561503, 0.092998, 0.11474, 0.0931566, 0.128846, 0.11814, 0.124584, 0.148585, 0.149007, 0.147887, 0.169418, 0.2009, 0.196872, 0.166146, 0.177312, 0.179035, 0.221389, 0.221317, 0.244921, 0.244134, 0.231423, 0.241375, 0.254027, 0.25271, 0.279606, 0.280591, 0.294025, 0.287213, 0.311582, 0.329643, 0.347585, 0.329354, 0.355934, 0.386069, 0.418554, 0.432999, 0.601646, 0.636826, 0.950515, 0.812553, 0.811872, 0.764289, 0.757783, 0.722411, 0.688561, 0.201342, 0.258578, 0.156013, 0.170071, 0.199718, 0.240435, 0.28925, 0.211933, 0.233495, 0.281408, 0.272024, 1.41112, 1.42951, 1.42376, 1.4868, 1.48566, 1.54326, 1.51006, 1.51977, 1.52946, 1.53642, 1.55547, 1.55885, 1.60661, 1.60625, 1.62947, 1.61944, 1.64505, 1.64568, 1.6895, 1.68868, 1.71282, 1.70792, 1.72797, 1.72823, 1.73692, 1.73672, 1.79434, 1.7633, 1.77597, 1.76521, 1.79609, 1.79705, 1.80734, 1.78751, 1.80347, 1.80916, 1.79574, 1.82363, 1.8172, 1.812, 1.81381, 1.82285, 1.82277, 1.82291, 1.82362, 1.82566, 1.82711, 1.84839, 1.86399, 1.81598, 1.81406, 1.83546, 1.82294, 1.82233, 1.8239, 1.81705, 1.80445, 1.81909, 1.79915, 1.79048, 1.78826, 1.78342, 1.78391, 1.78784, 1.78525, 1.78383, 1.80122, 1.80061, 1.79486, 1.79106, 1.81726, 1.79277, 1.79905, 1.77476, 1.78171, 1.79743, 1.76948, 1.78601, 1.75162, 1.74348, 1.74709, 1.74504, 1.73455, 1.75561, 1.72418, 1.74597, 1.71564, 1.71761, 1.73909, 1.71976, 1.72032, 1.70909, 1.71567, 1.71513, 1.70755, 1.7042, 1.70066, 1.69683, 1.67418, 1.67182, 1.69647, 1.64884, 1.63128, 1.59236, 1.58851, 1.5823, 1.55613, 1.56377, 1.55162, 1.53798, 1.5378, 1.51386, 1.51219, 1.50233, 1.48952, 1.86614, 1.47877, 1.47954, 1.40578, 1.45492, 1.38964, 1.39652, 1.37223, 1.37923, 1.36733, 1.36888, 1.37628, 1.36341, 1.38498, 1.3784, 1.37907, 1.37918, 1.37566, 1.38452, 1.37996, 1.38273, 1.67585, 1.64339, 1.64252, 1.66503, 1.64321, 1.6483, 1.61057, 1.61885, 1.6181, 1.61631, 1.79752, 1.79401, 1.73293, 1.76219, 1.73223, 1.75237, 1.8215, 1.78861, 1.79682, 1.79614, 1.78812, 1.80316, 1.80684, 1.8265, 1.82662, 1.84166, 1.85444, 1.84346, 1.85866, 1.90685, 1.86854, 1.88965, 1.89539, 1.90393, 1.89579, 1.93015, 1.9216, 1.92629, 1.9471, 1.94549, 1.94738, 1.95935, 1.97344, 1.96449, 1.98052, 1.99805, 2.01659, 2.00625, 2.02503, 2.02689, 2.03101, 2.05908, 2.04605, 2.05509, 2.10255, 2.08913, 2.08235, 2.10021, 2.08089, 2.11755, 2.13378, 2.11533, 2.12808, 2.1449, 2.12059, 2.14856, 2.17509, 2.17441
0.261559, 0.221907, 0.210925, 0.23848, 0.249141, 0.20705, 0.201012, 0.19696, 0.204803, 0.182957, 0.128545, 0.138474, 0.166518, 0.141333, 0.130776, 0.114154, 0.138758, 0.133175, 0.107103, 0.113578, 0.0729214, 0.0319214, 0.0825769, 0.0789871, 0.0248495, 0.0624436, 0.00443496, 0.0353751, 0.0323267, 0.00449808, 0.00350592, 0.00968419, 0.00901941, 0.00504335, 0.00472602, 0.0274463, 0.0268731, 0.0397905, 0.0704223, 0.0782875, 0.0798974, 0.078379, 0.0678962, 0.0887228, 0.0836954, 0.136694, 0.155199, 0.110641, 0.121319, 0.135173, 0.166429, 0.154224, 0.171876, 0.173392, 0.184478, 0.196107, 0.186251, 0.211373, 0.230182, 0.219599, 0.22279, 0.260307, 0.239237, 0.261881, 0.270384, 0.275461, 0.285059, 0.303303, 0.308511, 0.324472, 0.357011, 0.32937, 0.350693, 0.387555, 0.350168, 0.381459, 0.40481, 0.636757, 0.606129, 0.890216, 0.892528, 0.9057, 0.766179, 0.744434, 0.684718, 0.681895, 0.176942, 0.165211, 0.204993, 0.176135, 0.242762, 0.253145, 0.286766, 0.286641, 0.303072, 0.272591, 1.35168, 1.3491, 1.38726, 1.38066, 1.44846, 1.471, 1.48379, 1.50259, 1.51709, 1.53678, 1.53742, 1.54597, 1.59101, 1.59227, 1.59351, 1.62567, 1.63863, 1.63673, 1.64175, 1.67081, 1.69685, 1.68361, 1.69118, 1.69728, 1.70386, 1.76869, 1.74894, 1.7501, 1.75438, 1.7812, 1.77484, 1.7684, 1.77932, 1.78039, 1.81161, 1.7993, 1.80041, 1.78203, 1.80635, 1.80693, 1.81476, 1.80801, 1.82117, 1.81795, 1.8111, 1.81812, 1.8075, 1.80519, 1.80599, 1.81046, 1.81919, 1.82112, 1.823, 1.82501, 1.84106, 1.82291, 1.79724, 1.78669, 1.78705, 1.80135, 1.7826, 1.78191, 1.78129, 1.78021, 1.79553, 1.80348, 1.80148, 1.80222, 1.78625, 1.78646, 1.79632, 1.79265, 1.77239, 1.76648, 1.77602, 1.74786, 1.7339, 1.73142, 1.72206, 1.70073, 1.70256, 1.72057, 1.7063, 1.69207, 1.70293, 1.67473, 1.67005, 1.68618, 1.69978, 1.70736, 1.74757, 1.68044, 1.67963, 1.67968, 1.68992, 1.6751, 1.72878, 1.65907, 1.65855, 1.64193, 1.64395, 1.60396, 1.60705, 1.58753, 1.56411, 1.55375, 1.5342, 1.52968, 1.50896, 1.50327, 1.49903, 1.47942, 1.46773, 1.47564, 1.43732, 1.42988, 1.41049, 1.41495, 1.3714, 1.37515, 1.36117, 1.35571, 1.35055, 1.3565, 1.36756, 1.34699, 1.34262, 1.33999, 1.34082, 1.34049, 1.3416, 1.34116, 1.3358, 1.36075, 1.34154, 1.35522, 1.35621, 1.67615, 1.67542, 1.66842, 1.65846, 1.63325, 1.62928, 1.6084, 1.59286, 1.61885, 1.7654, 1.76638, 1.76435, 1.7134, 1.75862, 1.76853, 1.75698, 1.79275, 1.79282, 1.79671, 1.79659, 1.8022, 1.81003, 1.82153, 1.8144, 1.84278, 1.84207, 1.86546, 1.84961, 1.88813, 1.89137, 1.88775, 1.87153, 1.88637, 1.89603, 1.90352, 1.90533, 1.92113, 1.9392, 1.96542, 1.93396, 1.94845, 1.97329, 1.97892, 1.98905, 1.99291, 2.00294, 1.99296, 1.99219, 2.02318, 2.01946, 2.04876, 2.03887, 2.03849, 2.08687, 2.06944, 2.07825, 2.07937, 2.08679, 2.0863, 2.09635, 2.14732, 2.13877, 2.12375, 2.12176, 2.12093, 2.14994, 2.16256
0.267678, 0.239031, 0.23238, 0.234364, 0.213728, 0.204301, 0.222205, 0.206231, 0.187709, 0.187513, 0.193648, 0.16077, 0.14814, 0.16673, 0.175558, 0.114191, 0.0867525, 0.130971, 0.132626, 0.132029, 0.103476, 0.0818454, 0.0799452, 0.0969741, 0.086502, 0.0700397, 0.0593001, 0.0343262, 0.0408642, 0.034743, 0.0224449, 0.00675229, 0.00765958, 0.00682594, 0.0125358, 0.00701284, 0.0172669, 0.0365066, 0.0479194, 0.0449093, 0.0917877, 0.0492846, 0.0652147, 0.0671846, 0.0796235, 0.109608, 0.114307, 0.121122, 0.128686, 0.135927, 0.135784, 0.156521, 0.155516, 0.162341, 0.192873, 0.193239, 0.20458, 0.192624, 0.200399, 0.198546, 0.221758, 0.249559, 0.248332, 0.234807, 0.26036, 0.274905, 0.263462, 0.279723, 0.346741, 0.303047, 0.358592, 0.331904, 0.362016, 0.347399, 0.365062, 0.36441, 0.386663, 0.391553, 0.396438, 0.791768, 0.858049, 0.857554, 0.766172, 0.757061, 0.708446, 0.707131, 0.684664, 0.616418, 0.183867, 0.298785, 0.263645, 0.28884, 0.298287, 0.276627, 0.278773, 0.27516, 0.843659, 1.34491, 1.36825, 1.35872, 1.37972, 1.37729, 1.41658, 1.45894, 1.46228, 1.49575, 1.50865, 1.49823, 1.53852, 1.54705, 1.56596, 1.59721, 1.59816, 1.62099, 1.63501, 1.64524, 1.65429, 1.68307, 1.71373, 1.66926, 1.70969, 1.71031, 1.70945, 1.77179, 1.75006, 1.77749, 1.75157, 1.75467, 1.73932, 1.77204, 1.76788, 1.76586, 1.76742, 1.76901, 1.78184, 1.78913, 1.76334, 1.79644, 1.79028, 1.7848, 1.80014, 1.79295, 1.77176, 1.77009, 1.79259, 1.77452, 1.78017, 1.81408, 1.80368, 1.79025, 1.78987, 1.77917, 1.78932, 1.76233, 1.76221, 1.79243, 1.79193, 1.78721, 1.80306, 1.79455, 1.80625, 1.79788, 1.79227, 1.7932, 1.82031, 1.78683, 1.76968, 1.74689, 1.7655, 1.7564, 1.7615, 1.71402, 1.69575, 1.68624, 1.7161, 1.67334, 1.66103, 1.66954, 1.67815, 1.66877, 1.70836, 1.65727, 1.67038, 1.68622, 1.68439, 1.68168, 1.66852, 1.67182, 1.66085, 1.69019, 1.69705, 1.67442, 1.67595, 1.67708, 1.65325, 1.5989, 1.60241, 1.57922, 1.55516, 1.5463, 1.53491, 1.54382, 1.51872, 1.51544, 1.4958, 1.49266, 1.48025, 1.46478, 1.45085, 1.4241, 1.41093, 1.424, 1.36602, 1.37913, 1.36162, 1.35354, 1.36726, 1.34344, 1.34024, 1.3383, 1.34254, 1.33687, 1.33061, 1.32656, 1.3316, 1.32428, 1.33844, 1.34324, 1.31642, 1.31534, 1.31872, 1.36744, 1.36718, 1.64599, 1.61351, 1.61168, 1.6208, 1.62069, 1.59708, 1.59641, 1.78318, 1.73828, 1.73734, 1.72335, 1.6875, 1.73384, 1.75196, 1.74114, 1.76257, 1.7699, 1.76291, 1.76862, 1.79222, 1.7862, 1.80052, 1.82103, 1.82066, 1.82824, 1.82871, 1.85177, 1.85892, 1.856, 1.86465, 1.86299, 1.88267, 1.86585, 1.89378, 1.91015, 1.91806, 1.91068, 1.9241, 1.93475, 1.92609, 1.95503, 1.94814, 1.95258, 1.96764, 1.98154, 1.9958, 2.00714, 1.98582, 2.01079, 2.01297, 2.02851, 2.03842, 2.03753, 2.04743, 2.06937, 2.06945, 2.07011, 2.10302, 2.08646, 2.09695, 2.11794, 2.12125, 2.09837, 2.15173, 2.14789, 2.13999, 2.18741
0.266925, 0.292258, 0.262871, 0.230207, 0.218054, 0.198063, 0.218474, 0.216829, 0.218021, 0.204432, 0.18335, 0.189413, 0.123566, 0.194429, 0.139279, 0.15225, 0.0935944, 0.127946, 0.117106, 0.131, 0.0620271, 0.109904, 0.0802523, 0.0924792, 0.0975118, 0.0676337, 0.0524654, 0.0339661, 0.0502074, 0.0175998, 0.0243582, 0.0242707, 0.0191965, 0.00585324, 0.00427403, 0.00400727, 0.0407407, 0.0236201, 0.0247154, 0.0789957, 0.0620103, 0.0693794, 0.0839099, 0.0854523, 0.0767325, 0.0969361, 0.101398, 0.100968, 0.115039, 0.141556, 0.165516, 0.138263, 0.151809, 0.151921, 0.166818, 0.174377, 0.180474, 0.213863, 0.223252, 0.187324, 0.224578, 0.219209, 0.217804, 0.24605, 0.270033, 0.258796, 0.278405, 0.270486, 0.300866, 0.299783, 0.297586, 0.33598, 0.336384, 0.328191, 0.337405, 0.422028, 0.406292, 0.405143, 0.532991, 0.615547, 0.655446, 0.730495, 0.895675, 0.881887, 0.762745, 0.722347, 0.642898, 0.640324, 0.32196, 0.326227, 0.349134, 0.320712, 0.325022, 0.324058, 0.327879, 0.796552, 0.768457, 0.780556, 0.866062, 0.865851, 0.865836, 1.32944, 1.33618, 1.35775, 1.3768, 1.38209, 1.42847, 1.44188, 1.45787, 1.47542, 1.49854, 1.53617, 1.54772, 1.59829, 1.58213, 1.59024, 1.62399, 1.66875, 1.68928, 1.66768, 1.6699, 1.69116, 1.68783, 1.7357, 1.72598, 1.72733, 1.75886, 1.75497, 1.73062, 1.73508, 1.75518, 1.75822, 1.77047, 1.772, 1.7696, 1.75975, 1.7719, 1.75851, 1.75582, 1.75382, 1.74944, 1.74434, 1.74077, 1.77788, 1.75803, 1.7582, 1.76159, 1.76222, 1.76689, 1.75522, 1.76162, 1.77476, 1.76058, 1.79308, 1.81082, 1.76773, 1.76188, 1.78485, 1.76663, 1.78171, 1.76511, 1.76672, 1.7562, 1.75996, 1.74769, 1.78035, 1.73496, 1.77584, 1.71227, 1.69568, 1.69423, 1.70561, 1.68, 1.68028, 1.66449, 1.67583, 1.64937, 1.65086, 1.64491, 1.65489, 1.64899, 1.64088, 1.64361, 1.62597, 1.62655, 1.65422, 1.63958, 1.64045, 1.68151, 1.65473, 1.65532, 1.65679, 1.65585, 1.654, 1.6506, 1.62072, 1.60305, 1.56258, 1.56545, 1.55642, 1.55915, 1.52474, 1.5291, 1.50601, 1.49989, 1.49508, 1.49135, 1.50342, 1.49671, 1.42369, 1.38992, 1.39218, 1.37536, 1.35942, 1.35571, 1.35046, 1.34772, 1.345, 1.34641, 1.33616, 1.35062, 1.32862, 1.31776, 1.35445, 1.30986, 1.3074, 1.30702, 1.30867, 1.31609, 1.33654, 1.34401, 1.37273, 1.61984, 1.63105, 1.60335, 1.60477, 1.62079, 1.62071, 1.62117, 1.63231, 1.64125, 1.72079, 1.72151, 1.71299, 1.72385, 1.73297, 1.7345, 1.74109, 1.74554, 1.75399, 1.77121, 1.76258, 1.77311, 1.79484, 1.8132, 1.81801, 1.80726, 1.82047, 1.82592, 1.84012, 1.83741, 1.84938, 1.85048, 1.85535, 1.85854, 1.87544, 1.88447, 1.88101, 1.89289, 1.89959, 1.9259, 1.93337, 1.9311, 1.9306, 1.93037, 1.96011, 1.96182, 1.97392, 1.97071, 1.97513, 1.99487, 2.0207, 2.00594, 2.00577, 2.02839, 2.02994, 2.05936, 2.0515, 2.09198, 2.08256, 2.09406, 2.10348, 2.08907, 2.09097, 2.12844, 2.10218, 2.12165, 2.13041, 2.16267, 2.1399
0.256219, 0.255916, 0.255408, 0.256365, 0.266319, 0.236196, 0.207042, 0.216435, 0.208552, 0.190909, 0.169316, 0.196237, 0.152782, 0.182355, 0.173322, 0.173315, 0.130573, 0.124452, 0.127687, 0.110596, 0.124872, 0.10919, 0.0755131, 0.0652388, 0.0935447, 0.0938612, 0.0554743, 0.0551524, 0.00491075, 0.0588071, 0.0399189, 0.0260899, 0.0260021, 0.0101595, 0.0204231, 0.0131762, 0.0263059, 0.00773538, 0.0163206, 0.0148907, 0.0406589, 0.0653716, 0.0941925, 0.0770204, 0.0861485, 0.104187, 0.0883754, 0.100548, 0.106585, 0.137425, 0.131851, 0.153228, 0.159434, 0.146313, 0.176379, 0.154871, 0.186431, 0.206623, 0.207175, 0.193377, 0.194734, 0.243119, 0.24834, 0.256077, 0.233322, 0.254502, 0.255606, 0.254574, 0.269746, 0.299714, 0.325223, 0.325459, 0.326121, 0.3632, 0.365744, 0.365598, 0.377407, 0.348815, 0.413249, 0.612164, 0.535167, 0.714914, 0.712882, 0.860527, 0.881505, 0.771596, 0.654653, 0.653136, 0.624424, 0.355291, 0.345365, 0.317789, 0.355451, 0.370275, 0.352764, 0.752849, 0.755216, 0.7422, 0.737343, 0.767462, 0.768188, 1.27558, 1.28218, 1.28953, 1.29374, 1.31073, 1.31373, 1.3314, 1.37602, 1.38479, 1.43006, 1.40625, 1.46466, 1.50338, 1.5535, 1.55188, 1.53916, 1.6079, 1.60496, 1.63496, 1.63537, 1.68047, 1.6733, 1.70504, 1.70654, 1.69821, 1.70627, 1.70492, 1.6998, 1.73527, 1.73428, 1.75813, 1.73919, 1.73547, 1.76356, 1.75992, 1.74234, 1.74216, 1.74497, 1.74794, 1.74779, 1.74764, 1.73858, 1.69865, 1.72577, 1.71843, 1.72135, 1.72141, 1.7236, 1.73594, 1.71541, 1.7414, 1.71703, 1.71673, 1.761, 1.7167, 1.7186, 1.71919, 1.74889, 1.74039, 1.73099, 1.73022, 1.7581, 1.73137, 1.70748, 1.74122, 1.74809, 1.72622, 1.67833, 1.67853, 1.67926, 1.70459, 1.66894, 1.6572, 1.66583, 1.63817, 1.65474, 1.6252, 1.61003, 1.63449, 1.64586, 1.62841, 1.63356, 1.62377, 1.64661, 1.6481, 1.64126, 1.64039, 1.65783, 1.65234, 1.65096, 1.6801, 1.67808, 1.69316, 1.70337, 1.72157, 1.61275, 1.57177, 1.55989, 1.55533, 1.56156, 1.54584, 1.52703, 1.52074, 1.52274, 1.49567, 1.47969, 1.47354, 1.47891, 1.4675, 1.42703, 1.3772, 1.39856, 1.37581, 1.375, 1.36299, 1.35388, 1.35014, 1.3497, 1.34773, 1.33646, 1.31627, 1.31285, 1.32181, 1.31571, 1.3223, 1.32722, 1.34365, 1.34392, 1.35057, 1.64885, 1.5997, 1.59905, 1.61219, 1.5783, 1.57998, 1.59664, 1.59674, 1.62089, 1.63252, 1.7111, 1.71739, 1.71469, 1.72011, 1.73144, 1.74014, 1.75292, 1.7329, 1.75849, 1.75315, 1.76335, 1.7576, 1.77087, 1.77267, 1.78221, 1.80245, 1.79963, 1.79929, 1.81955, 1.82994, 1.83029, 1.82831, 1.83498, 1.84226, 1.87333, 1.88047, 1.87998, 1.90258, 1.89034, 1.89014, 1.92118, 1.91032, 1.92406, 1.92336, 1.9546, 1.94216, 1.94543, 1.98919, 1.99808, 1.97332, 2.01049, 2.00729, 2.01395, 2.00389, 2.02805, 2.02241, 2.05922, 2.02717, 2.05956, 2.0377, 2.06492, 2.09291, 2.08633, 2.09308, 2.12337, 2.11427, 2.12125, 2.11726, 2.13208, 2.15185
0.280641, 0.290183, 0.284304, 0.250865, 0.208608, 0.226971, 0.197253, 0.238861, 0.226974, 0.217544, 0.186656, 0.180499, 0.191328, 0.172919, 0.186098, 0.114485, 0.145194, 0.144946, 0.139187, 0.116682, 0.0974779, 0.0804133, 0.0625742, 0.0964464, 0.0556506, 0.0561267, 0.0837921, 0.0475691, 0.038011, 0.0248885, 0.00752712, 0.0486062, 0.048231, 0.0308176, 0.0135407, 0.0104176, 0.012933, 0.00408244, 0.0157566, 0.0307446, 0.0438505, 0.027757, 0.078165, 0.0660985, 0.103947, 0.0977143, 0.100148, 0.0995771, 0.103871, 0.0977019, 0.11262, 0.134727, 0.135535, 0.143887, 0.161506, 0.152152, 0.157268, 0.190016, 0.174672, 0.187504, 0.184786, 0.235429, 0.241989, 0.227091, 0.229485, 0.241976, 0.274236, 0.271974, 0.262767, 0.289877, 0.283727, 0.297015, 0.328953, 0.354961, 0.407453, 0.362659, 0.361599, 0.404256, 0.413984, 0.501686, 0.527623, 0.501384, 0.475146, 0.860141, 0.862651, 0.804244, 0.784544, 0.549786, 0.356091, 0.325346, 0.31988, 0.356383, 0.347852, 0.499122, 0.483541, 0.733699, 0.736025, 0.770247, 0.698625, 0.718041, 0.752465, 0.785718, 1.20944, 1.20648, 1.1827, 1.2028, 1.23605, 1.25113, 1.30617, 1.30619, 1.33088, 1.34923, 1.36228, 1.37019, 1.39945, 1.44584, 1.46866, 1.52177, 1.54511, 1.56058, 1.60524, 1.60235, 1.60766, 1.63096, 1.62908, 1.62881, 1.65439, 1.66451, 1.66931, 1.6994, 1.70909, 1.7079, 1.70112, 1.69568, 1.69493, 1.74237, 1.74218, 1.75873, 1.72865, 1.71043, 1.73187, 1.68274, 1.68235, 1.70648, 1.68993, 1.68577, 1.66247, 1.67966, 1.68007, 1.65628, 1.70469, 1.67969, 1.69853, 1.67607, 1.68843, 1.68818, 1.67883, 1.63207, 1.64068, 1.71052, 1.67516, 1.68969, 1.68017, 1.68855, 1.70707, 1.69905, 1.67558, 1.71667, 1.68948, 1.69281, 1.68826, 1.66457, 1.63558, 1.63357, 1.60289, 1.6058, 1.61849, 1.62384, 1.58902, 1.59462, 1.59638, 1.59347, 1.59619, 1.61413, 1.58715, 1.6335, 1.65143, 1.68649, 1.68871, 1.70748, 1.71945, 1.68259, 1.68799, 1.6882, 1.69925, 1.75214, 1.74448, 1.7236, 1.57914, 1.57825, 1.59677, 1.54746, 1.53832, 1.52333, 1.5105, 1.51163, 1.49206, 1.47755, 1.47981, 1.47017, 1.42645, 1.43155, 1.40336, 1.38093, 1.41423, 1.38861, 1.36576, 1.36545, 1.36057, 1.35749, 1.34998, 1.3502, 1.36665, 1.35586, 1.36245, 1.33935, 1.65776, 1.66488, 1.68646, 1.65538, 1.65036, 1.66322, 1.57827, 1.58684, 1.60657, 1.57167, 1.60664, 1.59105, 1.686, 1.70289, 1.67104, 1.69612, 1.70363, 1.71072, 1.73237, 1.71447, 1.73833, 1.73671, 1.73671, 1.75213, 1.76895, 1.7547, 1.78008, 1.7885, 1.77933, 1.79778, 1.7976, 1.82093, 1.80905, 1.84339, 1.81707, 1.86573, 1.85676, 1.83611, 1.8872, 1.88651, 1.8623, 1.88701, 1.89076, 1.89606, 1.90727, 1.92005, 1.92409, 1.92129, 1.94629, 1.94026, 1.96878, 1.94601, 1.95929, 1.97471, 1.99995, 2.00642, 1.99228, 1.99721, 2.01057, 2.03038, 2.02875, 2.04542, 2.06009, 2.0439, 2.06016, 2.08562, 2.10838, 2.10977, 2.09043, 2.08877, 2.1056, 2.13994, 2.14714, 2.13502
0.255941, 0.25616, 0.255043, 0.214287, 0.259454, 0.250916, 0.228656, 0.238441, 0.190879, 0.206173, 0.227343, 0.18923, 0.196653, 0.197359, 0.197827, 0.168203, 0.134749, 0.152548, 0.141148, 0.138032, 0.138104, 0.0968373, 0.085753, 0.0956087, 0.0630998, 0.0780241, 0.0779335, 0.0766557, 0.0626568, 0.0351996, 0.0483258, 0.011194, 0.038124, 0.0231823, 0.00505866, 0.00362627, 0.0168805, 0.0142407, 0.0211415, 0.0375269, 0.0480002, 0.0453075, 0.0394926, 0.0389363, 0.0586477, 0.0720581, 0.103536, 0.0870811, 0.100567, 0.148059, 0.109298, 0.107967, 0.113343, 0.149169, 0.144895, 0.148655, 0.161365, 0.179235, 0.202604, 0.18427, 0.184762, 0.231234, 0.201344, 0.220949, 0.233467, 0.22853, 0.237153, 0.276444, 0.287419, 0.295152, 0.272769, 0.27401, 0.32159, 0.337391, 0.334791, 0.337997, 0.362796, 0.344328, 0.370263, 0.357984, 0.45147, 0.496377, 0.48308, 0.472866, 0.770011, 0.795332, 0.649307, 0.66603, 0.318705, 0.324651, 0.311184, 0.345069, 0.369049, 0.478803, 0.487891, 0.498647, 0.708015, 0.706883, 0.690128, 0.679666, 0.710975, 0.679949, 0.680215, 0.733587, 1.17618, 1.17733, 1.2061, 1.20851, 1.25744, 1.27511, 1.29395, 1.3062, 1.30677, 1.34068, 1.38487, 1.43055, 1.42822, 1.43261, 1.47519, 1.47596, 1.48206, 1.53793, 1.54151, 1.54018, 1.53993, 1.60641, 1.61032, 1.63435, 1.60404, 1.66552, 1.6147, 1.61548, 1.61637, 1.6522, 1.645, 1.66834, 1.6589, 1.65753, 1.68157, 1.68726, 1.66204, 1.66068, 1.64766, 1.65588, 1.65478, 1.67115, 1.65628, 1.65523, 1.67177, 1.62149, 1.62181, 1.6345, 1.64791, 1.63332, 1.64482, 1.64408, 1.60276, 1.61031, 1.62102, 1.61082, 1.64446, 1.6438, 1.64732, 1.70309, 1.66798, 1.67505, 1.66396, 1.67575, 1.65965, 1.65928, 1.63734, 1.64501, 1.62066, 1.63259, 1.60634, 1.58647, 1.56319, 1.58181, 1.56468, 1.58924, 1.55388, 1.54248, 1.58793, 1.54515, 1.52331, 1.49333, 1.72876, 1.73459, 1.70964, 1.74522, 1.77957, 1.71823, 1.70974, 1.68579, 1.68721, 1.69629, 1.693, 1.7013, 1.74165, 1.71797, 1.59563, 1.55841, 1.55411, 1.54664, 1.52219, 1.53148, 1.53373, 1.49031, 1.53103, 1.48681, 1.47341, 1.45567, 1.46153, 1.44766, 1.42091, 1.4055, 1.40614, 1.40039, 1.42956, 1.71962, 1.67389, 1.67574, 1.70709, 1.65755, 1.69924, 1.67162, 1.64401, 1.64384, 1.67234, 1.67397, 1.66563, 1.65497, 1.6906, 1.68766, 1.73097, 1.70634, 1.7274, 1.60319, 1.60044, 1.68868, 1.69969, 1.68727, 1.6918, 1.70728, 1.71624, 1.72747, 1.71769, 1.72462, 1.72976, 1.73205, 1.76809, 1.75268, 1.74744, 1.79253, 1.77933, 1.7856, 1.78677, 1.80014, 1.80687, 1.83064, 1.81725, 1.86253, 1.83225, 1.86315, 1.84894, 1.84752, 1.8751, 1.92091, 1.92066, 1.88666, 1.88608, 1.9116, 1.9202, 1.93051, 1.93138, 1.93177, 1.93207, 1.97243, 1.97081, 1.9672, 1.96927, 2.00097, 2.01705, 1.99226, 1.99592, 2.03256, 2.02639, 2.02345, 2.03497, 2.04531, 2.04827, 2.0799, 2.07958, 2.07554, 2.09701, 2.11311, 2.13977, 2.1392, 2.12467, 2.14692
0.283758, 0.294301, 0.266585, 0.266327, 0.273981, 0.262164, 0.262008, 0.252521, 0.217887, 0.230938, 0.232053, 0.204242, 0.19513, 0.19811, 0.168821, 0.151561, 0.138665, 0.133075, 0.149426, 0.130032, 0.126797, 0.127884, 0.12465, 0.0907757, 0.0902929, 0.0819892, 0.0583581, 0.0892056, 0.04825, 0.0613433, 0.0306832, 0.045452, 0.0490192, 0.0167838, 0.0294504, 0.021798, 0.0152418, 0.0264581, 0.00569095, 0.0446779, 0.0434492, 0.0307784, 0.0443456, 0.0560931, 0.0687129, 0.0860643, 0.064878, 0.0889743, 0.107775, 0.0947252, 0.100235, 0.0988302, 0.138222, 0.121478, 0.148678, 0.151577, 0.177056, 0.155067, 0.184109, 0.168136, 0.187861, 0.197806, 0.202594, 0.204009, 0.24942, 0.240921, 0.231421, 0.249036, 0.248778, 0.271626, 0.26956, 0.268869, 0.291042, 0.333609, 0.366684, 0.322098, 0.353847, 0.345439, 0.353798, 0.353544, 0.363385, 0.476693, 0.474688, 0.49387, 0.498679, 0.752365, 0.649039, 0.641967, 0.619491, 0.327471, 0.369682, 0.358925, 0.347769, 0.403682, 0.442878, 0.441116, 0.722054, 0.701537, 0.685279, 0.673215, 0.673083, 0.670762, 0.670575, 0.697246, 0.657327, 0.656152, 0.655611, 1.23042, 1.25089, 1.27551, 1.27996, 1.28839, 1.29422, 1.31527, 1.3191, 1.34717, 1.36179, 1.37171, 1.40418, 1.4032, 1.41003, 1.45509, 1.48533, 1.47308, 1.47665, 1.47694, 1.53212, 1.59254, 1.58884, 1.57232, 1.57235, 1.58318, 1.59068, 1.67857, 1.6561, 1.62326, 1.62016, 1.61731, 1.6028, 1.63453, 1.60066, 1.64001, 1.62033, 1.60676, 1.62946, 1.57936, 1.60757, 1.61293, 1.61381, 1.59504, 1.59494, 1.5678, 1.54797, 1.5616, 1.58002, 1.58256, 1.58022, 1.58909, 1.576, 1.57222, 1.58356, 1.59582, 1.61027, 1.60344, 1.60275, 1.65089, 1.64186, 1.64358, 1.63923, 1.67631, 1.64694, 1.62278, 1.60989, 1.60539, 1.60096, 1.58307, 1.56471, 1.58147, 1.52351, 1.49699, 1.52005, 1.47272, 1.47438, 1.41622, 1.43022, 1.4119, 1.38196, 1.36156, 1.35688, 1.35754, 1.70947, 1.69507, 1.70397, 1.7062, 1.6541, 1.68152, 1.6909, 1.72403, 1.72282, 1.71691, 1.71843, 1.58604, 1.59627, 1.58791, 1.57092, 1.53365, 1.57255, 1.50915, 1.52618, 1.53715, 1.47703, 1.47088, 1.51754, 1.4947, 1.44417, 1.46889, 1.73377, 1.47413, 1.68199, 1.69678, 1.70763, 1.65409, 1.68551, 1.65593, 1.64983, 1.71061, 1.65887, 1.65347, 1.6514, 1.6525, 1.59903, 1.61827, 1.70381, 1.66986, 1.59403, 1.59222, 1.57497, 1.57372, 1.64025, 1.63681, 1.69175, 1.67916, 1.71069, 1.7144, 1.71212, 1.70858, 1.70765, 1.70998, 1.7273, 1.72625, 1.74068, 1.7433, 1.74093, 1.77019, 1.7614, 1.78665, 1.79072, 1.81269, 1.79407, 1.79506, 1.80962, 1.80967, 1.83758, 1.84043, 1.8387, 1.85188, 1.85999, 1.86525, 1.87075, 1.88721, 1.88289, 1.90032, 1.90397, 1.91553, 1.9176, 1.92752, 1.93583, 1.9426, 1.95539, 1.97333, 1.97664, 2.01802, 1.97771, 1.98755, 1.99051, 2.01032, 2.01067, 2.0451, 2.05559, 2.04509, 2.04466, 2.05459, 2.08682, 2.06614, 2.11774, 2.10652, 2.09929, 2.1247, 2.15006, 2.13281
0.296909, 0.290355, 0.261625, 0.253, 0.258252, 0.26992, 0.246269, 0.242301, 0.257972, 0.248781, 0.229741, 0.232223, 0.145004, 0.182998, 0.20776, 0.181883, 0.175473, 0.140461, 0.175775, 0.127386, 0.127033, 0.130551, 0.131815, 0.122047, 0.106342, 0.0972356, 0.111562, 0.0619866, 0.0558295, 0.0747087, 0.0757281, 0.0489058, 0.0106509, 0.0422113, 0.00439069, 0.0092376, 0.00400937, 0.00353371, 0.006911, 0.0150809, 0.0268686, 0.0475036, 0.0538956, 0.0514418, 0.0513552, 0.10702, 0.0790186, 0.0655139, 0.0783008, 0.0794907, 0.135067, 0.119925, 0.115798, 0.111019, 0.14127, 0.145247, 0.161792, 0.155704, 0.154606, 0.16641, 0.217553, 0.188414, 0.220499, 0.198097, 0.225037, 0.22737, 0.224094, 0.269283, 0.2489, 0.249098, 0.255317, 0.262798, 0.296461, 0.304507, 0.334347, 0.332561, 0.329509, 0.343885, 0.376314, 0.370774, 0.363242, 0.384599, 0.462286, 0.50462, 0.513125, 0.347925, 0.338171, 0.342041, 0.343685, 0.315593, 0.314975, 0.319319, 0.328094, 0.337376, 0.363348, 0.435811, 0.788882, 0.76307, 0.722295, 0.697644, 0.675184, 0.666934, 0.694141, 0.652301, 0.652279, 0.648334, 0.642032, 0.668698, 0.657659, 0.64783, 0.641777, 1.28087, 1.28871, 1.30778, 1.32285, 1.34305, 1.33777, 1.37145, 1.37119, 1.3663, 1.37799, 1.36928, 1.36885, 1.40214, 1.44687, 1.4416, 1.46439, 1.47142, 1.50316, 1.48321, 1.53977, 1.53842, 1.53151, 1.55099, 1.55419, 1.59842, 1.64514, 1.57889, 1.6009, 1.58615, 1.58863, 1.59271, 1.59078, 1.57749, 1.58556, 1.56723, 1.5614, 1.56435, 1.54552, 1.54472, 1.57259, 1.52606, 1.52459, 1.5482, 1.51368, 1.54114, 1.5487, 1.5033, 1.52944, 1.52705, 1.50651, 1.52516, 1.50859, 1.55016, 1.56622, 1.53377, 1.56826, 1.57914, 1.568, 1.61447, 1.66378, 1.61714, 1.60898, 1.61919, 1.57518, 1.58124, 1.53392, 1.53103, 1.51602, 1.50267, 1.49464, 1.47601, 1.41238, 1.441, 1.36459, 1.36082, 1.33107, 1.32006, 1.34031, 1.32672, 1.33632, 1.3429, 1.6754, 1.67932, 1.68998, 1.72074, 1.67192, 1.66928, 1.71185, 1.72172, 1.72152, 1.69332, 1.69253, 1.69024, 1.57878, 1.59746, 1.57539, 1.5479, 1.5579, 1.54471, 1.55901, 1.51914, 1.55772, 1.77819, 1.68563, 1.68995, 1.71303, 1.70318, 1.65259, 1.66434, 1.66431, 1.64403, 1.64489, 1.64915, 1.65312, 1.60839, 1.5988, 1.68436, 1.63182, 1.63092, 1.56575, 1.55847, 1.55814, 1.59028, 1.58891, 1.58335, 1.61711, 1.63107, 1.64226, 1.6411, 1.65775, 1.66105, 1.69005, 1.69158, 1.694, 1.69942, 1.70629, 1.70888, 1.72491, 1.73137, 1.73185, 1.74514, 1.75728, 1.75509, 1.75087, 1.75882, 1.7749, 1.78071, 1.7974, 1.79952, 1.8075, 1.8176, 1.8288, 1.84379, 1.8284, 1.84544, 1.84336, 1.86721, 1.90758, 1.88001, 1.9042, 1.90083, 1.89923, 1.91765, 1.93265, 1.9347, 1.94447, 1.94566, 1.94212, 1.98672, 1.99575, 1.95968, 1.96742, 2.00025, 2.02085, 1.99611, 2.0204, 2.02127, 2.04137, 2.03227, 2.04131, 2.04113, 2.05729, 2.05824, 2.07371, 2.09487, 2.10291, 2.10165, 2.12461, 2.14486
0.327106, 0.306972, 0.24003, 0.288693, 0.269966, 0.270748, 0.253985, 0.22324, 0.25476, 0.256851, 0.229821, 0.231181, 0.2053, 0.180206, 0.19806, 0.200983, 0.172368, 0.160687, 0.159924, 0.175105, 0.145066, 0.148534, 0.140153, 0.0968544, 0.102738, 0.0760656, 0.0694746, 0.0708654, 0.0693079, 0.0476182, 0.0598625, 0.065804, 0.0448184, 0.0374344, 0.0317838, 0.0379404, 0.0385194, 0.00474432, 0.0161821, 0.00368027, 0.00457131, 0.01737, 0.0496223, 0.0316737, 0.0374207, 0.0725475, 0.0653578, 0.091031, 0.0886253, 0.0936774, 0.0976817, 0.1445, 0.119236, 0.120551, 0.128879, 0.118994, 0.161032, 0.173559, 0.165357, 0.164718, 0.167921, 0.183473, 0.220241, 0.206795, 0.225227, 0.252236, 0.234182, 0.234351, 0.276366, 0.272943, 0.251417, 0.286295, 0.283518, 0.297744, 0.297286, 0.30553, 0.335146, 0.324285, 0.331371, 0.35229, 0.380866, 0.369321, 0.427344, 0.441958, 0.441039, 0.52166, 0.529434, 0.35198, 0.369429, 0.404382, 0.401843, 0.348701, 0.342155, 0.34661, 0.400015, 0.421938, 0.462194, 0.486098, 0.797834, 0.777559, 0.807911, 0.814146, 0.812998, 0.648385, 0.658135, 0.626479, 0.645826, 0.642994, 0.629237, 0.655811, 0.659765, 0.70066, 0.658837, 1.2637, 1.26789, 1.28494, 1.30248, 1.30211, 1.33854, 1.3545, 1.34737, 1.34255, 1.3508, 1.35094, 1.34865, 1.37882, 1.43643, 1.41924, 1.47462, 1.45405, 1.47875, 1.48572, 1.51037, 1.5055, 1.4998, 1.50697, 1.55144, 1.56791, 1.54865, 1.60017, 1.57125, 1.572, 1.55704, 1.58293, 1.58465, 1.55657, 1.55999, 1.53418, 1.54447, 1.54524, 1.51574, 1.49491, 1.49954, 1.48325, 1.47856, 1.45359, 1.47101, 1.46059, 1.45786, 1.43662, 1.45871, 1.46542, 1.47656, 1.47404, 1.4932, 1.49488, 1.50175, 1.48556, 1.52082, 1.52758, 1.5455, 1.61458, 1.61245, 1.66796, 1.64873, 1.59576, 1.54558, 1.53038, 1.51638, 1.506, 1.47206, 1.45701, 1.44468, 1.41238, 1.39286, 1.34676, 1.34313, 1.3253, 1.2983, 1.30541, 1.29869, 1.29789, 1.31904, 1.28955, 1.67116, 1.71968, 1.72862, 1.72742, 1.71437, 1.71049, 1.7005, 1.64146, 1.63889, 1.61281, 1.63036, 1.58895, 1.61299, 1.60127, 1.62035, 1.64778, 1.69548, 1.6955, 1.68357, 1.70438, 1.71711, 1.70707, 1.65781, 1.62332, 1.6166, 1.61147, 1.65017, 1.6463, 1.64878, 1.61969, 1.60886, 1.58748, 1.58959, 1.58869, 1.55573, 1.5354, 1.54212, 1.57826, 1.53741, 1.5585, 1.56039, 1.56216, 1.68664, 1.63804, 1.67878, 1.6615, 1.66044, 1.64576, 1.65477, 1.66335, 1.69706, 1.69896, 1.69034, 1.69051, 1.71679, 1.71688, 1.72197, 1.73299, 1.74106, 1.74226, 1.74151, 1.75849, 1.76925, 1.78272, 1.77852, 1.80223, 1.79958, 1.83452, 1.83322, 1.82975, 1.82859, 1.84309, 1.83732, 1.86709, 1.89403, 1.89961, 1.88559, 1.88232, 1.88058, 1.92039, 1.90835, 1.92426, 1.93019, 1.93033, 1.92801, 1.96271, 1.9707, 1.97327, 1.97295, 1.97929, 1.9891, 1.99646, 2.01753, 2.03448, 2.02394, 2.02279, 2.02334, 2.06204, 2.05915, 2.05855, 2.05806, 2.08929, 2.08036, 2.12823, 2.13454, 2.13442
0.330895, 0.277951, 0.304207, 0.283413, 0.276958, 0.283762, 0.238499, 0.244744, 0.248882, 0.226898, 0.237885, 0.233854, 0.21721, 0.190422, 0.200485, 0.213297, 0.183962, 0.173102, 0.164329, 0.117169, 0.168613, 0.123869, 0.0898236, 0.0795608, 0.115848, 0.104017, 0.109856, 0.079141, 0.0756435, 0.0377632, 0.00911194, 0.0705579, 0.0342895, 0.0166185, 0.0182268, 0.0217742, 0.0111687, 0.0288369, 0.00434208, 0.00357759, 0.0102263, 0.0302867, 0.0492351, 0.0355071, 0.0391105, 0.0383345, 0.0398938, 0.0592527, 0.0761758, 0.107768, 0.102083, 0.0997669, 0.114119, 0.110025, 0.141102, 0.110257, 0.148959, 0.149164, 0.150162, 0.148821, 0.202518, 0.180002, 0.196839, 0.192423, 0.211294, 0.214724, 0.211664, 0.228607, 0.251468, 0.252239, 0.252725, 0.252785, 0.27756, 0.277036, 0.276993, 0.304762, 0.325272, 0.326456, 0.32382, 0.334619, 0.372295, 0.371746, 0.363241, 0.389245, 0.388046, 0.401616, 0.422679, 0.496145, 0.414924, 0.515621, 0.525107, 0.335541, 0.304024, 0.37712, 0.341585, 0.384153, 0.431362, 0.487715, 0.815994, 0.81438, 0.793466, 0.786143, 0.777395, 0.77195, 0.777643, 0.632206, 0.627961, 0.621233, 0.683471, 0.619397, 0.619352, 0.597219, 0.655624, 0.627706, 1.23533, 1.26053, 1.23538, 1.21393, 1.20908, 1.24956, 1.25446, 1.26745, 1.27038, 1.24866, 1.23362, 1.25457, 1.2816, 1.28115, 1.28034, 1.22987, 1.43344, 1.43522, 1.44102, 1.48235, 1.47905, 1.49155, 1.50049, 1.53123, 1.51219, 1.5508, 1.55777, 1.54283, 1.53737, 1.53667, 1.54406, 1.52456, 1.54086, 1.52842, 1.51561, 1.4986, 1.49184, 1.49124, 1.49704, 1.47294, 1.48171, 1.44521, 1.44017, 1.43989, 1.43209, 1.4417, 1.42399, 1.44736, 1.46236, 1.42255, 1.43666, 1.44152, 1.44357, 1.44864, 1.44729, 1.43713, 1.43039, 1.44484, 1.47112, 1.62756, 1.61427, 1.58514, 1.56164, 1.51033, 1.51949, 1.51286, 1.4614, 1.46245, 1.43175, 1.42721, 1.39623, 1.38436, 1.34985, 1.29953, 1.29322, 1.29877, 1.28162, 1.27162, 1.26634, 1.29551, 1.65735, 1.65831, 1.66148, 1.69733, 1.6978, 1.68195, 1.64559, 1.61129, 1.60356, 1.59915, 1.59231, 1.60911, 1.58932, 1.59082, 1.62147, 1.62797, 1.65444, 1.67856, 1.652, 1.66377, 1.66811, 1.68175, 1.60308, 1.61165, 1.59952, 1.58588, 1.61963, 1.61122, 1.61966, 1.59293, 1.61026, 1.55618, 1.55207, 1.53786, 1.51954, 1.5091, 1.50997, 1.55453, 1.53819, 1.61697, 1.64405, 1.61698, 1.63, 1.62291, 1.63673, 1.63744, 1.65859, 1.65396, 1.6659, 1.67198, 1.67216, 1.69566, 1.69686, 1.69642, 1.69351, 1.70297, 1.72398, 1.7212, 1.74335, 1.73958, 1.7485, 1.75444, 1.75703, 1.78238, 1.77391, 1.78526, 1.80061, 1.80216, 1.79406, 1.80901, 1.85719, 1.82848, 1.836, 1.8386, 1.84942, 1.87796, 1.88975, 1.8701, 1.89008, 1.91078, 1.9117, 1.91465, 1.94142, 1.9319, 1.94582, 1.96175, 1.95381, 1.96552, 1.95487, 1.97206, 1.9795, 1.99979, 1.99461, 1.99491, 2.04039, 2.02961, 2.04191, 2.06671, 2.06863, 2.07359, 2.06224, 2.07081, 2.07659, 2.07613, 2.08855, 2.10966
0.304947, 0.296987, 0.293541, 0.269808, 0.26885, 0.267025, 0.283544, 0.249209, 0.213548, 0.220314, 0.202679, 0.24679, 0.234584, 0.214648, 0.209841, 0.225653, 0.200909, 0.166321, 0.166486, 0.169732, 0.1489, 0.161488, 0.148277, 0.106698, 0.1496, 0.106896, 0.108974, 0.0970245, 0.109404, 0.0917105, 0.0921265, 0.0701145, 0.0682169, 0.0511586, 0.020263, 0.0437053, 0.0446179, 0.0451168, 0.0280023, 0.0116606, 0.0108156, 0.0265885, 0.02566, 0.0174349, 0.0278744, 0.051799, 0.0325728, 0.0649942, 0.0724364, 0.0679809, 0.0973592, 0.100871, 0.0991566, 0.10664, 0.106396, 0.130438, 0.13816, 0.117779, 0.133865, 0.144507, 0.155928, 0.16925, 0.169631, 0.192837, 0.192477, 0.197297, 0.234202, 0.21763, 0.231685, 0.231462, 0.257714, 0.263434, 0.28309, 0.286295, 0.267087, 0.327965, 0.314626, 0.308383, 0.318948, 0.321346, 0.326098, 0.346184, 0.348881, 0.369611, 0.390327, 0.386634, 0.387465, 0.428066, 0.437796, 0.463631, 0.503922, 0.482419, 0.314689, 0.314344, 0.363101, 0.364999, 0.398301, 0.431321, 1.0153, 0.92262, 0.918614, 0.906285, 0.919951, 0.934578, 0.95071, 0.921561, 0.794817, 0.645771, 0.631574, 0.59878, 0.629802, 0.60681, 0.605393, 0.631025, 0.638896, 1.17883, 1.16485, 1.15249, 1.18878, 1.18248, 1.15854, 1.16757, 1.18537, 1.1917, 1.18593, 1.18161, 1.20824, 1.20646, 1.17048, 1.17057, 1.18236, 1.18755, 1.22283, 1.43338, 1.43584, 1.43916, 1.4474, 1.49699, 1.49759, 1.50145, 1.50264, 1.52035, 1.51144, 1.50937, 1.49192, 1.49281, 1.49275, 1.49089, 1.49088, 1.48322, 1.48901, 1.4787, 1.47878, 1.46522, 1.44719, 1.4519, 1.44991, 1.45788, 1.45055, 1.41462, 1.41321, 1.41297, 1.40931, 1.4127, 1.39275, 1.39224, 1.40987, 1.43106, 1.41597, 1.40025, 1.39897, 1.39196, 1.41725, 1.41987, 1.59345, 1.54741, 1.58179, 1.52458, 1.50553, 1.48322, 1.45032, 1.41649, 1.41422, 1.41551, 1.38095, 1.36515, 1.33312, 1.3268, 1.29305, 1.27854, 1.24781, 1.24545, 1.26374, 1.27238, 1.29215, 1.64727, 1.65889, 1.67975, 1.62766, 1.65745, 1.63078, 1.64427, 1.63765, 1.58564, 1.58297, 1.58221, 1.58616, 1.58008, 1.60277, 1.58849, 1.63807, 1.63832, 1.62486, 1.59857, 1.62387, 1.62419, 1.59637, 1.60712, 1.5897, 1.599, 1.59987, 1.58701, 1.58486, 1.54853, 1.56427, 1.54341, 1.55041, 1.54801, 1.53351, 1.5262, 1.51704, 1.48565, 1.50874, 1.59013, 1.59139, 1.61378, 1.59468, 1.64684, 1.62128, 1.64316, 1.64751, 1.63802, 1.6468, 1.66882, 1.6651, 1.66574, 1.66885, 1.68666, 1.71404, 1.71098, 1.71798, 1.7227, 1.73475, 1.75197, 1.72884, 1.7511, 1.75138, 1.76903, 1.77703, 1.76617, 1.80791, 1.78751, 1.78934, 1.78793, 1.83025, 1.82126, 1.85479, 1.84807, 1.84916, 1.86107, 1.85831, 1.89006, 1.8925, 1.9076, 1.89399, 1.8935, 1.92172, 1.91721, 1.9172, 1.93538, 1.9353, 1.93403, 1.95485, 1.96924, 1.98346, 1.98437, 1.98076, 2.00034, 2.00063, 2.00133, 2.02409, 2.04138, 2.04104, 2.0396, 2.07081, 2.06943, 2.08435, 2.08424, 2.0834, 2.11712
0.329416, 0.293303, 0.278483, 0.320706, 0.313579, 0.272633, 0.290539, 0.253697, 0.265695, 0.268354, 0.240538, 0.161511, 0.226325, 0.22186, 0.186804, 0.189513, 0.186611, 0.191071, 0.193608, 0.180732, 0.172879, 0.162533, 0.142519, 0.104254, 0.141373, 0.110168, 0.123842, 0.124521, 0.0992337, 0.100557, 0.106394, 0.117183, 0.0567883, 0.0411646, 0.0412074, 0.0419326, 0.0444268, 0.0281745, 0.00761753, 0.00678809, 0.00998462, 0.00774001, 0.0122406, 0.0196734, 0.024659, 0.0240248, 0.0477086, 0.0463281, 0.0563681, 0.0563284, 0.0737692, 0.0793976, 0.115246, 0.0801643, 0.106617, 0.113469, 0.121328, 0.113851, 0.158463, 0.148863, 0.147382, 0.160967, 0.179282, 0.166346, 0.203601, 0.190504, 0.218129, 0.242346, 0.252346, 0.247983, 0.242722, 0.24065, 0.252507, 0.264071, 0.262447, 0.293969, 0.297572, 0.308056, 0.308549, 0.321005, 0.32021, 0.34563, 0.34642, 0.355682, 0.371374, 0.394465, 0.387165, 0.424453, 0.445667, 0.458056, 0.466531, 0.342488, 0.31878, 0.372875, 0.373563, 0.372609, 0.367612, 0.790002, 0.966191, 1.01138, 1.01433, 0.93677, 0.937056, 0.950166, 1.1603, 0.89702, 0.795149, 0.800461, 0.799798, 0.588558, 0.588049, 0.619848, 0.584359, 0.598354, 0.644229, 0.63866, 1.10569, 1.09615, 1.07382, 1.08114, 1.08774, 1.09523, 1.09429, 1.12891, 1.09158, 1.10493, 1.13421, 1.13372, 1.12988, 1.1338, 1.14422, 1.11871, 1.11592, 1.12618, 1.10776, 1.19321, 1.41557, 1.40725, 1.47549, 1.46937, 1.47177, 1.48816, 1.49639, 1.47253, 1.48751, 1.47443, 1.50736, 1.47857, 1.48201, 1.48338, 1.46886, 1.45672, 1.45308, 1.44954, 1.46318, 1.44104, 1.43019, 1.4221, 1.41993, 1.4184, 1.40645, 1.40457, 1.40645, 1.39165, 1.39175, 1.39884, 1.39181, 1.37653, 1.35958, 1.36833, 1.35214, 1.35259, 1.34239, 1.33634, 1.31934, 1.30959, 1.26226, 1.27162, 1.262, 1.24257, 1.33706, 1.31303, 1.30145, 1.30846, 1.31845, 1.30063, 1.30511, 1.29266, 1.28561, 1.27184, 1.24196, 1.23006, 1.22898, 1.22953, 1.25616, 1.27282, 1.64469, 1.64431, 1.66865, 1.66798, 1.59872, 1.6273, 1.61051, 1.63554, 1.57519, 1.52174, 1.52342, 1.53791, 1.54318, 1.55898, 1.58071, 1.58239, 1.58367, 1.55928, 1.59879, 1.58022, 1.56935, 1.55566, 1.57045, 1.5759, 1.58342, 1.57549, 1.5439, 1.53773, 1.58158, 1.55861, 1.5216, 1.54726, 1.52558, 1.52707, 1.60642, 1.58653, 1.56984, 1.57896, 1.59338, 1.59038, 1.60341, 1.59208, 1.60461, 1.63528, 1.62415, 1.64047, 1.64391, 1.65842, 1.65912, 1.66189, 1.67652, 1.69033, 1.68831, 1.69716, 1.69004, 1.70596, 1.71476, 1.70894, 1.74328, 1.74204, 1.76439, 1.77497, 1.75771, 1.78353, 1.78947, 1.78621, 1.78899, 1.81125, 1.80985, 1.8146, 1.83406, 1.83343, 1.84937, 1.8545, 1.87995, 1.88183, 1.88885, 1.88326, 1.88335, 1.89096, 1.90979, 1.93297, 1.92705, 1.92237, 1.93788, 1.96845, 1.97642, 1.94525, 1.98019, 1.97028, 1.97614, 2.00958, 2.00562, 2.01348, 2.0147, 2.04655, 2.05159, 2.04484, 2.05895, 2.0606, 2.06333, 2.07549, 2.07183, 2.12739
0.331335, 0.333893, 0.319443, 0.321159, 0.237829, 0.279192, 0.275773, 0.276658, 0.24885, 0.284107, 0.239202, 0.250918, 0.234683, 0.214505, 0.237657, 0.236202, 0.211801, 0.179724, 0.166008, 0.193106, 0.149808, 0.132555, 0.152876, 0.117354, 0.143098, 0.0924313, 0.141204, 0.126482, 0.0655702, 0.0880414, 0.069017, 0.0604034, 0.0721232, 0.0698148, 0.0351209, 0.0648327, 0.0196823, 0.0208268, 0.00871281, 0.0341179, 0.0343178, 0.020736, 0.0365461, 0.0145289, 0.0176584, 0.0433171, 0.0341305, 0.0567021, 0.0480399, 0.0483777, 0.0917225, 0.0762056, 0.0710817, 0.108479, 0.0971742, 0.118303, 0.164118, 0.123373, 0.142364, 0.158155, 0.178765, 0.157169, 0.177795, 0.165443, 0.196716, 0.187032, 0.20056, 0.216503, 0.233703, 0.236034, 0.228393, 0.23244, 0.277277, 0.28394, 0.27115, 0.270361, 0.270176, 0.304386, 0.293031, 0.32118, 0.321077, 0.31493, 0.365028, 0.333563, 0.359405, 0.372581, 0.403639, 0.390082, 0.404552, 0.393903, 0.40495, 0.413819, 0.454834, 0.352158, 0.364462, 0.372683, 0.359007, 0.800632, 0.821204, 0.783107, 0.798468, 0.92037, 0.879939, 0.898304, 0.890089, 1.05306, 0.873301, 0.801015, 0.796822, 0.795951, 0.629194, 0.577346, 0.576352, 0.595054, 0.589458, 0.613348, 1.04403, 1.03624, 1.05615, 1.04718, 1.06032, 1.03634, 1.03637, 1.04306, 1.02648, 1.05576, 1.05619, 1.07822, 1.08084, 1.09359, 1.08287, 1.07135, 1.05285, 1.0287, 1.02577, 0.98907, 0.99753, 1.36028, 1.4014, 1.44664, 1.44214, 1.44178, 1.45772, 1.46471, 1.46144, 1.47087, 1.44577, 1.4636, 1.42482, 1.4514, 1.44754, 1.43265, 1.43195, 1.43212, 1.44709, 1.42811, 1.42618, 1.42749, 1.41623, 1.43004, 1.40748, 1.41086, 1.40175, 1.39165, 1.38993, 1.38984, 1.38691, 1.3859, 1.35676, 1.34669, 1.34425, 1.35005, 1.32586, 1.31659, 1.30365, 1.24358, 1.24118, 1.24312, 1.21903, 1.21927, 1.23296, 1.22441, 1.19684, 1.20881, 1.19619, 1.19312, 1.22346, 1.20827, 1.18906, 1.20508, 1.2053, 1.21236, 1.21123, 1.20762, 1.22313, 1.26422, 1.27037, 1.68244, 1.6245, 1.58634, 1.60242, 1.52386, 1.49552, 1.44192, 1.48152, 1.44553, 1.45004, 1.4769, 1.47736, 1.55213, 1.53095, 1.56145, 1.54514, 1.54774, 1.52346, 1.57288, 1.55728, 1.55506, 1.51526, 1.53748, 1.50028, 1.49003, 1.51411, 1.50652, 1.50741, 1.48433, 1.50564, 1.48147, 1.5382, 1.5411, 1.59546, 1.57163, 1.57232, 1.56185, 1.61934, 1.59304, 1.60508, 1.6074, 1.60181, 1.62277, 1.62588, 1.63307, 1.64799, 1.64545, 1.64456, 1.64708, 1.67068, 1.66715, 1.67551, 1.6921, 1.69307, 1.6996, 1.70195, 1.73777, 1.74154, 1.73244, 1.7307, 1.75733, 1.76895, 1.77968, 1.77292, 1.78426, 1.78344, 1.80117, 1.80092, 1.81772, 1.80995, 1.83821, 1.82176, 1.84545, 1.84764, 1.84735, 1.88016, 1.87716, 1.88077, 1.8801, 1.88962, 1.90305, 1.91168, 1.91072, 1.92339, 1.9359, 1.95701, 1.95774, 1.96552, 1.96261, 2.01207, 2.01811, 1.99253, 1.9929, 2.02441, 2.02372, 2.03318, 2.03391, 2.04469, 2.04353, 2.07363, 2.08249, 2.07161, 2.10748
0.332577, 0.333076, 0.324641, 0.261503, 0.315081, 0.29321, 0.294738, 0.310037, 0.228118, 0.282619, 0.275323, 0.235149, 0.242469, 0.262516, 0.224607, 0.224395, 0.226954, 0.200392, 0.193438, 0.196491, 0.192638, 0.12773, 0.184426, 0.154337, 0.117242, 0.163981, 0.131391, 0.10746, 0.114099, 0.0898771, 0.114572, 0.0142664, 0.0101127, 0.0612217, 0.07797, 0.0630227, 0.0506142, 0.0176898, 0.0193179, 0.0147852, 0.0113097, 0.0102541, 0.00682031, 0.0149338, 0.00528204, 0.0188007, 0.0767201, 0.0282237, 0.0555626, 0.0543767, 0.0559534, 0.0612404, 0.123723, 0.0892098, 0.131616, 0.116893, 0.103003, 0.104331, 0.138179, 0.145288, 0.151528, 0.154891, 0.149276, 0.164297, 0.2005, 0.209583, 0.18081, 0.196608, 0.218363, 0.217821, 0.239007, 0.267952, 0.24157, 0.251376, 0.273181, 0.278475, 0.289938, 0.316652, 0.287291, 0.311164, 0.301497, 0.318328, 0.321245, 0.344331, 0.339585, 0.397913, 0.39158, 0.373172, 0.408454, 0.417087, 0.411483, 0.411164, 0.435662, 0.448824, 0.448309, 0.513088, 0.522225, 0.529245, 0.785352, 0.785486, 0.767388, 0.756151, 0.76097, 0.873452, 0.881757, 1.06108, 0.217087, 0.800731, 0.252785, 0.562093, 0.5633, 0.562367, 0.577366, 0.545983, 0.54814, 0.594662, 0.991345, 0.985155, 0.99572, 0.969724, 0.966535, 0.987029, 0.966887, 0.978434, 0.983811, 1.01095, 1.02416, 1.0647, 1.05923, 1.06013, 1.07022, 1.01216, 1.01181, 0.901677, 0.900537, 0.875714, 0.888136, 0.873362, 0.854284, 0.838118, 0.833683, 0.852253, 0.853095, 1.42679, 1.43297, 1.42311, 1.43074, 1.40526, 1.40598, 1.37559, 1.35297, 1.41076, 1.41846, 1.4247, 1.43115, 1.44154, 1.44172, 1.42222, 1.4124, 1.40967, 1.40326, 1.40103, 1.39753, 1.39916, 1.39714, 1.40102, 1.39526, 1.39209, 1.36881, 1.35165, 1.32917, 1.32562, 1.32375, 1.29375, 1.2654, 1.27561, 1.24846, 1.24943, 1.22741, 1.19848, 1.19823, 1.21054, 1.19765, 1.17365, 1.17393, 1.19305, 1.19765, 1.1842, 1.18054, 1.1709, 1.163, 1.176, 1.18464, 1.18485, 1.19825, 1.19829, 1.1859, 1.48208, 1.43966, 1.43706, 1.44833, 1.41655, 1.41504, 1.4081, 1.40239, 1.4129, 1.41016, 1.41626, 1.42218, 1.45504, 1.45211, 1.50386, 1.4692, 1.46963, 1.5079, 1.53873, 1.51882, 1.51808, 1.5377, 1.50697, 1.49216, 1.48217, 1.47302, 1.45368, 1.44665, 1.45006, 1.43318, 1.44869, 1.46124, 1.459, 1.50008, 1.4777, 1.5618, 1.56259, 1.57431, 1.57302, 1.59679, 1.58856, 1.59386, 1.60507, 1.60463, 1.61442, 1.63516, 1.63504, 1.64651, 1.64876, 1.65387, 1.66823, 1.66837, 1.69506, 1.69405, 1.71051, 1.69338, 1.70425, 1.73481, 1.71412, 1.75839, 1.75396, 1.75061, 1.7612, 1.7657, 1.76499, 1.7853, 1.78995, 1.79275, 1.82714, 1.80676, 1.81044, 1.82234, 1.83893, 1.84415, 1.84393, 1.86338, 1.87004, 1.88946, 1.87449, 1.92727, 1.89557, 1.89379, 1.90944, 1.92359, 1.93569, 1.93767, 1.94199, 1.98095, 1.97924, 1.96693, 1.9893, 1.98795, 2.01462, 2.03097, 2.01681, 2.03284, 2.0167, 2.01599, 2.07264, 2.06749, 2.07934, 2.07663, 2.07587
0.369956, 0.311153, 0.32149, 0.311157, 0.324178, 0.303991, 0.242351, 0.289123, 0.29815, 0.28456, 0.282884, 0.266724, 0.228551, 0.233735, 0.221511, 0.234163, 0.225303, 0.199455, 0.187032, 0.19942, 0.199382, 0.167225, 0.18627, 0.175379, 0.129917, 0.14795, 0.139202, 0.104855, 0.0941002, 0.116951, 0.0413936, 0.114185, 0.0788714, 0.080322, 0.0792961, 0.0489328, 0.0212202, 0.00603807, 0.035145, 0.0133255, 0.0144606, 0.010246, 0.017141, 0.0175798, 0.0102962, 0.0249124, 0.0339758, 0.0337599, 0.0332364, 0.0493321, 0.0860919, 0.104828, 0.079872, 0.0891269, 0.0867138, 0.0958157, 0.0908391, 0.149676, 0.158898, 0.151934, 0.142342, 0.173334, 0.150848, 0.178649, 0.217359, 0.18274, 0.183401, 0.210071, 0.21149, 0.211701, 0.219916, 0.218772, 0.247683, 0.258381, 0.266716, 0.270319, 0.266771, 0.300554, 0.2897, 0.300233, 0.31032, 0.320341, 0.327461, 0.327472, 0.328449, 0.366742, 0.367547, 0.373052, 0.38606, 0.392524, 0.398814, 0.408066, 0.416674, 0.430836, 0.421121, 0.442663, 0.483721, 0.507844, 0.519493, 0.521266, 0.598363, 0.611485, 0.733211, 0.734747, 0.742222, 0.231894, 0.183007, 0.183246, 0.307673, 0.210262, 0.536572, 0.469662, 0.539505, 0.546268, 0.52925, 0.535146, 0.963517, 0.953353, 0.953696, 0.954647, 0.927134, 0.923571, 0.926045, 0.92202, 0.946495, 0.968459, 0.998731, 1.01107, 1.05261, 1.10923, 1.1073, 0.935341, 0.918648, 0.873902, 0.854848, 0.83932, 0.821543, 0.836823, 0.798537, 0.802351, 0.818404, 0.798589, 0.801543, 0.813325, 0.840125, 1.35434, 1.34358, 1.36026, 1.35191, 1.33949, 1.33784, 1.32566, 1.3258, 1.3408, 1.43552, 1.44426, 1.44703, 1.46, 1.4282, 1.4246, 1.41643, 1.41598, 1.43087, 1.42914, 1.42004, 1.42379, 1.42427, 1.3906, 1.37416, 1.36593, 1.35716, 1.37369, 1.37213, 1.40312, 1.40505, 1.40723, 1.24744, 1.2514, 1.24207, 1.2433, 1.23433, 1.22748, 1.19065, 1.16629, 1.18124, 1.18065, 1.17131, 1.14064, 1.1425, 1.14219, 1.15271, 1.15801, 1.16409, 1.1448, 1.16027, 1.14531, 1.14481, 1.16448, 1.43804, 1.44259, 1.42527, 1.42242, 1.40831, 1.44065, 1.48148, 1.46768, 1.41765, 1.38618, 1.38704, 1.41075, 1.42274, 1.43003, 1.47574, 1.47533, 1.47335, 1.47193, 1.50975, 1.47127, 1.48839, 1.45176, 1.44441, 1.46216, 1.45382, 1.4564, 1.45529, 1.43487, 1.45378, 1.44813, 1.42907, 1.44391, 1.4585, 1.53483, 1.57094, 1.56336, 1.5677, 1.57906, 1.57687, 1.59846, 1.59662, 1.59262, 1.61713, 1.60761, 1.62442, 1.63753, 1.63589, 1.65481, 1.65786, 1.65809, 1.658, 1.67183, 1.67545, 1.68925, 1.6882, 1.67507, 1.72328, 1.7226, 1.72729, 1.74254, 1.73561, 1.74101, 1.76295, 1.77507, 1.76524, 1.76365, 1.78105, 1.79546, 1.81276, 1.81836, 1.82139, 1.84798, 1.86109, 1.85771, 1.86805, 1.87254, 1.87593, 1.89274, 1.88871, 1.90545, 1.89873, 1.91538, 1.93001, 1.93594, 1.95325, 1.95463, 1.96209, 1.95703, 1.95795, 1.97453, 1.97277, 1.99418, 1.99384, 2.01007, 2.01485, 2.03849, 2.04653, 2.0413, 2.04102, 2.05668, 2.07683, 2.08952
0.339163, 0.365827, 0.338578, 0.300119, 0.300142, 0.311467, 0.298957, 0.307144, 0.252556, 0.27681, 0.257227, 0.269578, 0.269987, 0.207313, 0.204579, 0.22409, 0.208525, 0.20676, 0.20688, 0.222876, 0.181853, 0.182219, 0.15316, 0.155404, 0.154243, 0.155291, 0.133697, 0.11446, 0.0976192, 0.121195, 0.121774, 0.0968697, 0.0588083, 0.0525689, 0.0559811, 0.0477711, 0.0660243, 0.0685884, 0.0383983, 0.0452138, 0.00927962, 0.017942, 0.017115, 0.0148791, 0.0159887, 0.0051862, 0.00640648, 0.0478469, 0.0412875, 0.0532533, 0.0515564, 0.0660154, 0.0570448, 0.111693, 0.0819817, 0.088626, 0.114308, 0.127057, 0.144619, 0.114177, 0.152114, 0.14215, 0.144236, 0.149202, 0.148677, 0.169688, 0.193132, 0.180128, 0.179762, 0.2013, 0.229318, 0.211742, 0.240691, 0.230944, 0.22767, 0.260423, 0.272969, 0.272529, 0.273703, 0.280547, 0.294538, 0.332381, 0.318605, 0.334831, 0.331959, 0.345601, 0.358294, 0.37339, 0.38532, 0.392394, 0.392775, 0.401659, 0.420681, 0.425104, 0.441603, 0.441688, 0.424708, 0.494089, 0.51479, 0.495698, 0.549465, 0.524172, 0.551821, 0.741959, 0.214258, 0.216366, 0.200541, 0.186332, 0.194312, 0.251604, 0.228134, 0.312054, 0.459582, 0.429159, 0.449283, 0.491247, 0.970827, 0.948247, 0.916335, 0.904399, 0.932046, 0.893155, 0.888247, 0.884174, 0.909699, 0.908814, 0.923982, 0.981915, 1.06638, 1.06708, 1.13323, 1.15988, 0.8729, 0.860284, 0.854647, 0.826638, 0.802993, 0.79797, 0.791449, 0.774981, 0.772031, 0.775207, 0.776088, 0.792169, 0.784263, 0.77316, 0.786931, 0.792427, 1.28427, 1.29197, 1.27143, 1.25407, 1.20711, 1.20622, 1.20867, 1.22702, 1.19023, 1.19062, 1.44808, 1.44982, 1.45151, 1.45367, 1.44115, 1.43017, 1.43697, 1.44, 1.43038, 1.40054, 1.38842, 1.3799, 1.37148, 1.37805, 1.3692, 1.3686, 1.36401, 1.35969, 1.38502, 1.38318, 1.24389, 1.2452, 1.25439, 1.19728, 1.19746, 1.16191, 1.15793, 1.16479, 1.13728, 1.13626, 1.13373, 1.1341, 1.12996, 1.12332, 1.11476, 1.13115, 1.13288, 1.13708, 1.13299, 1.16064, 1.17831, 1.53102, 1.54746, 1.51447, 1.55287, 1.56264, 1.54392, 1.54054, 1.54189, 1.53813, 1.5319, 1.52768, 1.53147, 1.41593, 1.53369, 1.52981, 1.50708, 1.52171, 1.51055, 1.52031, 1.51044, 1.41973, 1.3899, 1.39126, 1.3848, 1.41625, 1.42215, 1.44032, 1.41825, 1.41202, 1.41762, 1.43089, 1.44414, 1.44449, 1.54083, 1.55804, 1.55797, 1.5834, 1.56469, 1.58039, 1.59941, 1.6024, 1.60941, 1.60403, 1.61604, 1.61771, 1.63442, 1.65158, 1.65096, 1.66991, 1.67378, 1.66669, 1.6696, 1.68956, 1.68897, 1.70653, 1.69899, 1.71477, 1.71656, 1.71348, 1.75876, 1.74267, 1.7626, 1.78838, 1.78322, 1.79599, 1.79657, 1.80297, 1.80912, 1.80415, 1.82406, 1.8586, 1.83531, 1.83939, 1.84808, 1.84867, 1.8767, 1.87466, 1.87503, 1.92845, 1.89601, 1.91692, 1.91623, 1.949, 1.94107, 1.93821, 1.95562, 1.94947, 1.97412, 1.96286, 1.97811, 1.97637, 2.00394, 2.00269, 2.00274, 2.06203, 2.02425, 2.0328, 2.06254, 2.06733, 2.06591, 2.07215
0.376548, 0.347837, 0.334992, 0.360633, 0.339672, 0.293666, 0.321171, 0.321237, 0.225719, 0.266062, 0.241159, 0.279523, 0.217029, 0.231423, 0.207854, 0.230917, 0.207275, 0.216503, 0.217999, 0.220324, 0.199255, 0.164821, 0.172552, 0.17252, 0.176344, 0.176945, 0.148672, 0.145426, 0.130223, 0.109511, 0.108341, 0.0895776, 0.111254, 0.109463, 0.0767411, 0.0489454, 0.0209615, 0.0240453, 0.0140383, 0.0164746, 0.00957631, 0.018289, 0.0314666, 0.0122098, 0.00656655, 0.0101734, 0.00461397, 0.0238902, 0.0238473, 0.0230288, 0.034313, 0.0760691, 0.0518524, 0.0476604, 0.0896369, 0.11097, 0.108072, 0.109711, 0.128761, 0.124797, 0.128489, 0.151488, 0.145506, 0.155264, 0.139147, 0.154606, 0.183414, 0.166604, 0.17729, 0.198386, 0.222584, 0.254983, 0.222649, 0.240562, 0.23781, 0.266609, 0.26709, 0.266047, 0.286585, 0.280336, 0.296142, 0.295989, 0.316127, 0.317276, 0.32006, 0.335806, 0.341801, 0.359044, 0.363185, 0.386845, 0.416943, 0.420084, 0.424629, 0.401514, 0.42441, 0.432381, 0.4322, 0.431163, 0.46977, 0.467196, 0.480201, 0.477126, 0.501897, 0.527262, 0.721775, 0.721355, 0.197625, 0.220157, 0.243667, 0.21587, 0.22701, 0.328296, 0.307732, 0.370505, 0.39117, 0.39313, 0.915043, 0.914777, 0.896516, 0.892478, 0.880527, 0.872819, 0.880616, 0.562296, 0.879813, 0.907917, 0.90994, 0.891267, 1.08302, 1.11133, 1.12547, 1.14665, 1.15716, 0.890846, 0.846031, 0.818631, 0.780619, 0.769435, 0.763302, 0.766172, 0.742324, 0.752004, 0.765795, 0.769603, 0.772429, 0.75964, 0.755345, 0.774122, 0.773966, 0.842818, 1.24294, 1.19646, 1.19174, 1.18618, 1.19485, 1.18067, 1.18298, 1.19666, 1.19744, 1.2171, 1.24067, 1.18128, 1.21007, 1.42791, 1.41997, 1.43413, 1.42752, 1.39503, 1.38111, 1.3757, 1.36347, 1.38651, 1.37733, 1.36064, 1.36492, 1.36425, 1.36943, 1.35745, 1.27364, 1.26189, 1.25139, 1.22804, 1.20252, 1.18908, 1.17749, 1.16382, 1.15943, 1.1599, 1.14872, 1.14248, 1.13105, 1.1424, 1.12147, 1.12181, 1.12178, 1.12142, 1.12001, 1.13764, 1.17067, 1.53344, 1.53532, 1.51657, 1.51613, 1.50737, 1.47153, 1.5091, 1.5263, 1.48217, 1.53305, 1.54191, 1.52016, 1.50468, 1.49881, 1.50386, 1.4896, 1.49948, 1.5223, 1.50394, 1.49607, 1.35369, 1.36128, 1.35423, 1.36574, 1.38159, 1.36484, 1.37561, 1.39985, 1.40906, 1.42741, 1.50835, 1.52156, 1.54096, 1.52758, 1.53799, 1.55922, 1.55778, 1.56951, 1.57136, 1.5877, 1.57867, 1.59148, 1.61654, 1.59834, 1.60984, 1.6346, 1.6228, 1.63481, 1.66884, 1.65174, 1.65929, 1.6677, 1.66934, 1.68719, 1.69807, 1.69589, 1.72109, 1.72401, 1.73506, 1.72745, 1.73517, 1.75375, 1.77565, 1.76446, 1.77569, 1.79607, 1.79061, 1.79325, 1.79338, 1.82428, 1.82471, 1.82554, 1.84237, 1.84319, 1.86679, 1.86458, 1.8868, 1.86933, 1.89334, 1.89565, 1.8934, 1.91203, 1.94517, 1.91607, 1.92876, 1.95238, 1.95866, 1.95308, 1.96346, 1.98035, 1.98633, 2.02048, 2.0018, 2.01563, 2.01743, 2.01101, 2.04511, 2.04597, 2.06855, 2.07322, 2.0895
0.32164, 0.358602, 0.341281, 0.335977, 0.300557, 0.30029, 0.283822, 0.303557, 0.289896, 0.226871, 0.23533, 0.274106, 0.245285, 0.241172, 0.258013, 0.223543, 0.192757, 0.200961, 0.188255, 0.219017, 0.159972, 0.155052, 0.14217, 0.173636, 0.144781, 0.14749, 0.165979, 0.13907, 0.0890732, 0.0658555, 0.0809697, 0.107355, 0.0973412, 0.0861805, 0.0904588, 0.0550051, 0.0325541, 0.073918, 0.0673028, 0.0453657, 0.0484474, 0.0517121, 0.0205655, 0.0213722, 0.0220886, 0.0106599, 0.0139419, 0.00435909, 0.0383563, 0.0398341, 0.0431053, 0.0666691, 0.0479794, 0.0760362, 0.0761471, 0.096534, 0.107151, 0.13027, 0.130256, 0.105934, 0.146485, 0.127462, 0.155116, 0.160097, 0.142727, 0.179303, 0.167679, 0.166309, 0.237666, 0.211358, 0.193257, 0.216753, 0.208305, 0.248139, 0.248295, 0.251726, 0.245832, 0.255802, 0.254723, 0.286643, 0.303788, 0.299932, 0.311625, 0.317846, 0.332131, 0.320551, 0.332583, 0.366002, 0.346007, 0.369657, 0.360777, 0.377325, 0.392777, 0.407489, 0.42499, 0.443526, 0.434862, 0.449039, 0.455653, 0.471238, 0.468828, 0.47977, 0.484647, 0.519257, 0.487889, 0.517543, 0.20176, 0.19349, 0.216612, 0.22545, 0.277519, 0.332482, 0.285696, 0.326135, 0.371777, 0.408104, 0.407216, 0.376414, 0.410377, 0.400758, 0.358851, 0.380494, 0.372805, 0.477452, 0.876487, 0.880449, 0.873416, 0.879815, 0.882698, 0.941544, 0.79127, 1.09612, 1.07655, 1.01647, 1.05669, 0.822237, 0.808261, 0.763921, 0.763124, 0.736578, 0.761499, 0.758818, 0.757639, 0.732824, 0.733913, 0.753529, 0.745464, 0.746019, 0.750295, 0.769522, 0.818183, 0.813638, 1.17879, 1.16673, 1.1651, 1.16658, 1.16697, 1.17835, 1.18338, 1.17955, 1.17719, 1.18494, 1.17882, 1.16688, 1.15924, 1.15796, 1.39874, 1.38804, 1.38122, 1.36596, 1.37303, 1.36541, 1.35126, 1.33088, 1.33274, 1.34483, 1.36144, 1.36015, 1.31138, 1.3103, 1.28589, 1.28453, 1.25731, 1.2375, 1.22614, 1.22029, 1.2078, 1.16689, 1.15801, 1.15751, 1.16788, 1.16519, 1.13304, 1.12914, 1.13217, 1.13131, 1.1307, 1.16436, 1.17492, 1.49639, 1.50595, 1.51184, 1.51231, 1.49054, 1.48706, 1.53722, 1.53401, 1.49705, 1.50848, 1.4936, 1.48189, 1.4757, 1.4958, 1.46954, 1.47797, 1.34036, 1.31534, 1.30583, 1.30193, 1.30575, 1.30522, 1.31838, 1.4979, 1.49422, 1.3777, 1.36102, 1.40013, 1.4036, 1.49439, 1.51057, 1.52967, 1.51207, 1.53346, 1.5331, 1.53279, 1.55844, 1.56612, 1.56468, 1.56252, 1.57876, 1.59343, 1.59029, 1.59065, 1.60248, 1.61682, 1.62805, 1.63367, 1.64794, 1.67914, 1.6569, 1.66672, 1.66565, 1.67997, 1.68785, 1.70018, 1.70672, 1.72816, 1.74182, 1.73894, 1.7404, 1.73633, 1.73906, 1.76478, 1.77913, 1.76921, 1.7821, 1.80017, 1.79612, 1.80292, 1.80791, 1.8336, 1.8381, 1.84721, 1.84539, 1.8424, 1.85664, 1.88103, 1.88577, 1.88574, 1.89036, 1.93272, 1.91162, 1.91042, 1.91485, 1.93277, 1.95791, 1.97188, 1.97291, 1.99531, 1.98319, 1.97976, 1.98363, 1.98989, 2.00665, 2.00695, 2.03277, 2.05683, 2.09115, 2.07983, 2.07967
0.324353, 0.371886, 0.340259, 0.345144, 0.286913, 0.337769, 0.275644, 0.292581, 0.279928, 0.265972, 0.287293, 0.286665, 0.266783, 0.27842, 0.244764, 0.248591, 0.2379, 0.151223, 0.248334, 0.238947, 0.193423, 0.181466, 0.188757, 0.166215, 0.162065, 0.16592, 0.162878, 0.150456, 0.116893, 0.0831994, 0.118692, 0.109988, 0.0927095, 0.0784072, 0.0573913, 0.0487547, 0.0680396, 0.063426, 0.0645783, 0.0274529, 0.026922, 0.0208497, 0.0284504, 0.00481783, 0.0046567, 0.0173449, 0.00938012, 0.0145578, 0.0106324, 0.0304312, 0.0403814, 0.0423407, 0.0727913, 0.0579785, 0.0703225, 0.0544093, 0.0685551, 0.0841929, 0.106849, 0.110539, 0.103413, 0.130234, 0.121946, 0.149982, 0.133386, 0.142562, 0.15131, 0.165726, 0.172905, 0.199997, 0.196851, 0.228387, 0.224817, 0.218546, 0.217509, 0.255907, 0.248173, 0.262423, 0.264343, 0.283278, 0.289235, 0.310724, 0.304935, 0.310485, 0.369239, 0.334673, 0.337227, 0.325552, 0.361725, 0.365015, 0.351475, 0.388061, 0.376383, 0.416744, 0.415749, 0.415066, 0.403263, 0.449474, 0.441284, 0.454792, 0.461937, 0.461052, 0.493778, 0.487239, 0.487366, 0.489466, 0.529674, 0.52101, 0.675964, 0.679382, 0.253731, 0.257215, 0.695294, 0.633553, 0.309426, 0.313108, 0.293829, 0.321454, 0.324859, 0.32422, 0.341845, 0.366989, 0.35578, 0.362927, 0.3947, 0.400312, 0.384834, 0.871195, 0.819604, 0.830142, 0.840947, 0.822434, 0.718977, 0.707629, 0.684062, 0.685225, 0.966604, 0.979128, 0.772917, 0.75322, 0.728427, 0.730505, 0.729298, 0.727129, 0.725062, 0.734746, 0.719336, 0.735479, 0.737327, 0.729693, 0.742409, 0.774278, 1.17638, 1.16142, 1.17529, 1.17728, 1.17932, 1.1926, 1.1817, 1.18144, 1.16631, 1.1607, 1.15364, 1.133, 1.13624, 1.09763, 1.11687, 1.13223, 1.13513, 1.36056, 1.35894, 1.34335, 1.30732, 1.30262, 1.30539, 1.29049, 1.28502, 1.28167, 1.28176, 1.30815, 1.27217, 1.27261, 1.24376, 1.26313, 1.23497, 1.23411, 1.23785, 1.21574, 1.20592, 1.19575, 1.18119, 1.16694, 1.17965, 1.15246, 1.15646, 1.12174, 1.12225, 1.13185, 1.11584, 1.10164, 1.11213, 1.13399, 1.1396, 1.48723, 1.47646, 1.49336, 1.49216, 1.4956, 1.49473, 1.4794, 1.44085, 1.43459, 1.46977, 1.44563, 1.44389, 1.30878, 1.31363, 1.31597, 1.29978, 1.30603, 1.35747, 1.43252, 1.44737, 1.45361, 1.4612, 1.45748, 1.47716, 1.47198, 1.49216, 1.49821, 1.50009, 1.51232, 1.5199, 1.52016, 1.54222, 1.56195, 1.55431, 1.5624, 1.56973, 1.57509, 1.58849, 1.5967, 1.58698, 1.5938, 1.61594, 1.62189, 1.6298, 1.65173, 1.64872, 1.64823, 1.64728, 1.66262, 1.66234, 1.67097, 1.68637, 1.69632, 1.69671, 1.7246, 1.72706, 1.74256, 1.76079, 1.74502, 1.74994, 1.76663, 1.77826, 1.77344, 1.80063, 1.80371, 1.79705, 1.82469, 1.81071, 1.81051, 1.84141, 1.85261, 1.86939, 1.85929, 1.85805, 1.85695, 1.8809, 1.89292, 1.92448, 1.92389, 1.90622, 1.94742, 1.96923, 1.9528, 1.96923, 1.96928, 1.96804, 1.96731, 1.96664, 1.99318, 2.02469, 1.99378, 2.00721, 2.00104, 2.02056, 2.02029, 2.06555, 2.08764
0.349981, 0.369684, 0.357826, 0.335142, 0.33342, 0.351604, 0.325706, 0.329344, 0.329404, 0.329294, 0.279419, 0.269868, 0.266613, 0.255661, 0.252039, 0.262416, 0.197889, 0.242257, 0.231056, 0.223965, 0.224413, 0.225652, 0.196131, 0.121649, 0.190353, 0.163271, 0.138096, 0.157681, 0.165595, 0.139333, 0.0525744, 0.110702, 0.123609, 0.10158, 0.0658868, 0.0763822, 0.068118, 0.0895992, 0.0654062, 0.0113085, 0.0115101, 0.0143348, 0.0246511, 0.00441717, 0.00440936, 0.00593784, 0.0153691, 0.00448293, 0.00691579, 0.00996359, 0.0344787, 0.0272358, 0.0588272, 0.0367325, 0.0567784, 0.0467043, 0.0820461, 0.0926449, 0.0969404, 0.0889603, 0.114268, 0.0933143, 0.106738, 0.124572, 0.130536, 0.170719, 0.165217, 0.1572, 0.189533, 0.207194, 0.197409, 0.200616, 0.209482, 0.208559, 0.249844, 0.237791, 0.241702, 0.248386, 0.269399, 0.249104, 0.289533, 0.269593, 0.273068, 0.272367, 0.314038, 0.300873, 0.332838, 0.338708, 0.330033, 0.335263, 0.373755, 0.361821, 0.380343, 0.393815, 0.404078, 0.404386, 0.39546, 0.420587, 0.419842, 0.441094, 0.432915, 0.487296, 0.466373, 0.480037, 0.477782, 0.500575, 0.491021, 0.502817, 0.597221, 0.600254, 0.577749, 0.593262, 0.591433, 0.297905, 0.298453, 0.311499, 0.291349, 0.283168, 0.314345, 0.272983, 0.289994, 0.321073, 0.332134, 0.3176, 0.343198, 0.328763, 0.377799, 0.375384, 0.380344, 0.463296, 0.853121, 0.627908, 0.632769, 0.644087, 0.656294, 0.691599, 0.682985, 1.00945, 1.08204, 1.06403, 1.05342, 1.07104, 1.05098, 0.76332, 0.725002, 0.72346, 0.745573, 0.730711, 0.729008, 0.739655, 0.774562, 0.780371, 1.16214, 1.15282, 1.15177, 1.15092, 1.15099, 1.1497, 1.14947, 1.16476, 1.16477, 1.13473, 1.14016, 1.11797, 1.0896, 1.08944, 1.10737, 1.11556, 1.12391, 1.34702, 1.34111, 1.31065, 1.30631, 1.30732, 1.28533, 1.27249, 1.26726, 1.26699, 1.28566, 1.25327, 1.26742, 1.26076, 1.2426, 1.2408, 1.23998, 1.02897, 1.0679, 1.05456, 1.04738, 1.05363, 1.07098, 1.10045, 1.11233, 1.10909, 1.10127, 1.07129, 1.09727, 1.09148, 1.09128, 1.09144, 1.07381, 1.07099, 1.10877, 1.10887, 1.10651, 1.16351, 1.10529, 1.13298, 1.41714, 1.40781, 1.4209, 1.41852, 1.41066, 1.43382, 1.44681, 1.27187, 1.28373, 1.29498, 1.31133, 1.33052, 1.42558, 1.44227, 1.42532, 1.47237, 1.45088, 1.47909, 1.47544, 1.47023, 1.48576, 1.48891, 1.50281, 1.50047, 1.51021, 1.51518, 1.52898, 1.54734, 1.53883, 1.54564, 1.55751, 1.55897, 1.57907, 1.58997, 1.59313, 1.59379, 1.59322, 1.60279, 1.61205, 1.64218, 1.63377, 1.64737, 1.65951, 1.64378, 1.66424, 1.66583, 1.67881, 1.67482, 1.70871, 1.71337, 1.70481, 1.72979, 1.75543, 1.73889, 1.73904, 1.73945, 1.75871, 1.7731, 1.77361, 1.77961, 1.79616, 1.79239, 1.80632, 1.82069, 1.82477, 1.86661, 1.84545, 1.84384, 1.87344, 1.87362, 1.86526, 1.87947, 1.88058, 1.92195, 1.93643, 1.9166, 1.93554, 1.93734, 1.94837, 1.95063, 1.94796, 1.99083, 1.97248, 1.96958, 2.00861, 1.99546, 2.0094, 2.04409, 2.00924, 2.03184, 2.04943, 2.05354
0.379316, 0.327283, 0.36341, 0.366142, 0.356546, 0.327699, 0.301435, 0.305495, 0.321794, 0.31049, 0.300711, 0.286193, 0.307075, 0.249136, 0.261862, 0.249773, 0.248509, 0.251528, 0.218213, 0.201229, 0.224127, 0.223, 0.223823, 0.217413, 0.183066, 0.176148, 0.187583, 0.167178, 0.144504, 0.134525, 0.121368, 0.125992, 0.081145, 0.0857547, 0.0980805, 0.102558, 0.0746988, 0.0967266, 0.0961635, 0.0662279, 0.0343462, 0.0560092, 0.0183702, 0.0202711, 0.0167133, 0.0074778, 0.0170841, 0.00892626, 0.00475896, 0.0162667, 0.0245522, 0.0238739, 0.0794066, 0.044358, 0.0590558, 0.0431461, 0.0670436, 0.0655382, 0.0967878, 0.0754337, 0.103885, 0.0871427, 0.103222, 0.120826, 0.172763, 0.131264, 0.173628, 0.149519, 0.171924, 0.171416, 0.197123, 0.183736, 0.203754, 0.188117, 0.216661, 0.226598, 0.237581, 0.23527, 0.248786, 0.246729, 0.264453, 0.259568, 0.303761, 0.305628, 0.307467, 0.317428, 0.312136, 0.335371, 0.334945, 0.341704, 0.345389, 0.35618, 0.372494, 0.37455, 0.395562, 0.382222, 0.392042, 0.451028, 0.411985, 0.435888, 0.425529, 0.438418, 0.439855, 0.491118, 0.471432, 0.499983, 0.479354, 0.496286, 0.551889, 0.552892, 0.604935, 0.566045, 0.559191, 0.280367, 0.279429, 0.252563, 0.250617, 0.252083, 0.292892, 0.291179, 0.280486, 0.331669, 0.276112, 0.287592, 0.299949, 0.30341, 0.303767, 0.359321, 0.330139, 0.378887, 0.38, 0.389809, 0.416575, 0.427328, 0.651729, 0.693282, 0.691261, 0.691528, 1.05734, 1.06306, 1.0707, 1.04669, 1.0703, 1.08356, 1.14341, 0.873803, 0.843638, 0.762584, 0.754138, 0.757279, 0.747911, 0.773878, 1.1506, 1.15536, 1.15325, 1.14074, 1.16975, 1.14287, 1.11528, 1.1312, 1.1378, 1.09941, 1.11216, 1.10837, 1.10705, 1.12253, 1.11037, 1.1228, 1.13695, 1.31255, 1.34335, 1.28986, 1.27385, 1.3027, 1.26379, 1.24506, 1.2571, 1.25575, 1.2713, 1.27433, 1.29129, 1.14901, 1.09679, 1.0236, 1.00775, 1.00806, 1.00787, 1.0083, 1.00842, 1.02105, 1.03671, 1.03387, 1.04267, 1.0573, 1.0635, 1.06355, 1.06316, 1.08465, 1.09472, 1.05559, 1.04322, 1.04946, 1.03936, 1.05426, 1.09859, 1.11743, 1.11851, 1.10445, 1.13594, 1.39244, 1.414, 1.421, 1.40944, 1.39271, 1.39973, 1.40046, 1.41356, 1.38888, 1.28803, 1.4132, 1.42107, 1.41443, 1.42197, 1.42365, 1.43846, 1.44884, 1.46941, 1.46766, 1.46426, 1.47823, 1.47712, 1.49508, 1.50141, 1.52633, 1.51103, 1.52366, 1.54887, 1.53751, 1.55842, 1.55863, 1.55942, 1.55872, 1.56812, 1.59585, 1.608, 1.59782, 1.61152, 1.64168, 1.64192, 1.63072, 1.64593, 1.64622, 1.65375, 1.66586, 1.68168, 1.70124, 1.73112, 1.72765, 1.71664, 1.71107, 1.71829, 1.72956, 1.72996, 1.728, 1.75226, 1.75196, 1.76297, 1.77211, 1.7842, 1.78562, 1.81419, 1.81408, 1.82153, 1.82424, 1.84175, 1.84435, 1.84596, 1.87657, 1.89683, 1.88033, 1.88733, 1.90797, 1.89341, 1.89658, 1.91053, 1.91129, 1.92594, 1.96756, 1.93721, 1.9461, 1.97808, 1.96357, 1.98722, 2.04244, 2.02045, 2.0288, 2.03117, 2.03329, 2.04546, 2.04423
0.351936, 0.398763, 0.342717, 0.341492, 0.331626, 0.348541, 0.311297, 0.331262, 0.324086, 0.331946, 0.302355, 0.289043, 0.291594, 0.280955, 0.263474, 0.202644, 0.268578, 0.237431, 0.210227, 0.242021, 0.22829, 0.20823, 0.231573, 0.158468, 0.142488, 0.193708, 0.174872, 0.182043, 0.152934, 0.155699, 0.135632, 0.137799, 0.102943, 0.103533, 0.124306, 0.127229, 0.114092, 0.103857, 0.062512, 0.0530219, 0.0738611, 0.0414245, 0.0382227, 0.0461319, 0.0311895, 0.0418566, 0.0122856, 0.0138392, 0.00991001, 0.00993856, 0.0318216, 0.0228223, 0.0336024, 0.0421869, 0.0544332, 0.0589412, 0.044307, 0.0619912, 0.0854522, 0.0771569, 0.114554, 0.104637, 0.107621, 0.106189, 0.135269, 0.16811, 0.162903, 0.133237, 0.161057, 0.166522, 0.161443, 0.183039, 0.199277, 0.195653, 0.189401, 0.198636, 0.2105, 0.228535, 0.228462, 0.256258, 0.252145, 0.272831, 0.293844, 0.270631, 0.288686, 0.304535, 0.321208, 0.308034, 0.315693, 0.341465, 0.338876, 0.358729, 0.356527, 0.358058, 0.380014, 0.393918, 0.388766, 0.391289, 0.418826, 0.422367, 0.439733, 0.428812, 0.448641, 0.446881, 0.479523, 0.462582, 0.460307, 0.500872, 0.490576, 0.497491, 0.528783, 0.556732, 0.554261, 0.280908, 0.26621, 0.271295, 0.282919, 0.259617, 0.250426, 0.261711, 0.321113, 0.283704, 0.28551, 0.281207, 0.314589, 0.283151, 0.289772, 0.30362, 0.284792, 0.286157, 0.310635, 0.3313, 0.421374, 0.390725, 0.414496, 0.491018, 0.679892, 0.753037, 1.07214, 1.06307, 1.08053, 1.0829, 1.08414, 1.07521, 0.892677, 0.86394, 0.853311, 0.81872, 0.780179, 0.759552, 0.743328, 0.739322, 0.738909, 0.757429, 1.13113, 1.13121, 1.12922, 1.10919, 1.16141, 1.12434, 1.08724, 1.08731, 1.11669, 1.12146, 1.13754, 1.1227, 1.11917, 1.14078, 1.16539, 1.25129, 1.24899, 1.25948, 1.27805, 1.2439, 1.25679, 1.27516, 1.23951, 1.22264, 1.23577, 1.16282, 1.15378, 1.14075, 1.13295, 1.12966, 1.17882, 1.21361, 1.02885, 1.03592, 1.00608, 1.01708, 1.01737, 1.04589, 1.15678, 1.10761, 1.09457, 1.12946, 1.14074, 1.11967, 1.12649, 1.38156, 1.07699, 1.0773, 1.05845, 1.39011, 1.41085, 1.39159, 1.13063, 1.13318, 1.10784, 1.10563, 1.37869, 1.33616, 1.3374, 1.34437, 1.35554, 1.39137, 1.37527, 1.37749, 1.38148, 1.39186, 1.41185, 1.4262, 1.42328, 1.42066, 1.43713, 1.46458, 1.44234, 1.45511, 1.46614, 1.48423, 1.47781, 1.47907, 1.48405, 1.51603, 1.51593, 1.52122, 1.521, 1.5257, 1.53273, 1.5478, 1.55869, 1.55938, 1.5696, 1.57105, 1.58483, 1.58642, 1.62292, 1.61564, 1.6166, 1.63435, 1.62938, 1.64805, 1.65553, 1.64706, 1.68189, 1.68121, 1.67045, 1.71193, 1.70772, 1.70594, 1.70536, 1.72417, 1.73734, 1.73766, 1.73608, 1.74805, 1.75183, 1.76475, 1.76303, 1.78217, 1.80022, 1.79105, 1.827, 1.81389, 1.81338, 1.84504, 1.83821, 1.85161, 1.87647, 1.87012, 1.87813, 1.88021, 1.93261, 1.88671, 1.90912, 1.89961, 1.93418, 1.93069, 1.93329, 1.94276, 1.9575, 1.95454, 1.96746, 1.97409, 1.9759, 1.98899, 1.98846, 2.03176, 2.00023, 2.02183
0.376428, 0.405387, 0.378125, 0.380254, 0.345946, 0.346664, 0.344521, 0.335433, 0.327658, 0.237897, 0.296074, 0.300103, 0.32545, 0.297527, 0.282711, 0.277228, 0.265528, 0.263335, 0.258392, 0.25944, 0.223902, 0.251146, 0.233778, 0.196699, 0.213096, 0.182283, 0.182528, 0.158457, 0.118413, 0.131149, 0.125175, 0.156301, 0.129934, 0.103189, 0.12396, 0.103604, 0.104048, 0.0934736, 0.0875204, 0.0828346, 0.0175677, 0.0830532, 0.0616439, 0.0384917, 0.0374826, 0.0233219, 0.0140689, 0.0277379, 0.0249037, 0.0135024, 0.0102853, 0.00459069, 0.00800023, 0.00569226, 0.0273223, 0.0275503, 0.0519112, 0.0932681, 0.0647796, 0.0642458, 0.0724615, 0.0854282, 0.0895135, 0.0906103, 0.124603, 0.138062, 0.118239, 0.164735, 0.166752, 0.166843, 0.175009, 0.163278, 0.207623, 0.188918, 0.200001, 0.222096, 0.217785, 0.244229, 0.256944, 0.26145, 0.252565, 0.251408, 0.279904, 0.270591, 0.26644, 0.301464, 0.287529, 0.306617, 0.350342, 0.369176, 0.328363, 0.34444, 0.339497, 0.370213, 0.361806, 0.379709, 0.390295, 0.390829, 0.382148, 0.413763, 0.412183, 0.417964, 0.42195, 0.47928, 0.442667, 0.448858, 0.487998, 0.500458, 0.483132, 0.512917, 0.51072, 0.509072, 0.527979, 0.290134, 0.298531, 0.266769, 0.294489, 0.275142, 0.270612, 0.294489, 0.281422, 0.285372, 0.280284, 0.300367, 0.699439, 0.283377, 0.732251, 0.745819, 0.2992, 0.308088, 0.300153, 0.283554, 0.362198, 0.34648, 0.355222, 0.352708, 0.373543, 0.461245, 0.767318, 1.0203, 1.04011, 1.01991, 1.01859, 0.890517, 0.888162, 0.881079, 0.868433, 0.82038, 0.803562, 0.774922, 0.755611, 0.752424, 0.723003, 0.756582, 0.730858, 0.691886, 0.691921, 0.711178, 0.694908, 1.1089, 1.0984, 1.08431, 1.08605, 1.1073, 1.10645, 1.12466, 1.15029, 1.12725, 1.15949, 1.25032, 1.24451, 1.22388, 1.2169, 1.25333, 1.25006, 1.20859, 1.19625, 1.18847, 1.16852, 1.17365, 1.20218, 1.31216, 1.30328, 1.30691, 1.3145, 1.29674, 1.29953, 1.32447, 1.34071, 1.34726, 1.35444, 1.33374, 1.33594, 1.37396, 1.35711, 1.34766, 1.35604, 1.37852, 1.34746, 1.36656, 1.3504, 1.3481, 1.36167, 1.34122, 1.3509, 1.35154, 1.33335, 1.33049, 1.3085, 1.31584, 1.31635, 1.31685, 1.34482, 1.35402, 1.35476, 1.37457, 1.37896, 1.37202, 1.38863, 1.38153, 1.3922, 1.39344, 1.40693, 1.41489, 1.42981, 1.43868, 1.45168, 1.45443, 1.45591, 1.45828, 1.4788, 1.4742, 1.48239, 1.48238, 1.49812, 1.51385, 1.52335, 1.51659, 1.53735, 1.53066, 1.55007, 1.55364, 1.55928, 1.57162, 1.56907, 1.58063, 1.59265, 1.59359, 1.61836, 1.63078, 1.62742, 1.65412, 1.65309, 1.64566, 1.64829, 1.67025, 1.67292, 1.68104, 1.6797, 1.69485, 1.72101, 1.72527, 1.72814, 1.7375, 1.75084, 1.73896, 1.75866, 1.75838, 1.76244, 1.77317, 1.79013, 1.80663, 1.82113, 1.80606, 1.83094, 1.82802, 1.82729, 1.85681, 1.8703, 1.88483, 1.86804, 1.89125, 1.89287, 1.90073, 1.8956, 1.9074, 1.91247, 1.93951, 1.94547, 1.92647, 1.98403, 1.96376, 1.98479, 1.96585, 1.99982, 1.98716, 2.00738, 1.99546, 2.01791, 2.02186
0.409296, 0.357053, 0.406364, 0.378701, 0.33513, 0.378916, 0.379167, 0.345911, 0.345258, 0.333631, 0.296798, 0.332692, 0.331345, 0.303443, 0.279488, 0.273917, 0.263551, 0.275293, 0.255371, 0.231975, 0.2275, 0.245264, 0.213325, 0.237898, 0.189093, 0.175495, 0.185926, 0.173415, 0.170301, 0.167924, 0.177553, 0.145881, 0.139423, 0.130548, 0.109426, 0.0838582, 0.0936078, 0.10326, 0.101186, 0.104128, 0.0711731, 0.0787912, 0.0782432, 0.0322798, 0.0389701, 0.0568267, 0.00349866, 0.0308478, 0.0209957, 0.0038158, 0.0206409, 0.00352316, 0.00413414, 0.0334102, 0.0422282, 0.0278852, 0.0276946, 0.0547674, 0.0421881, 0.0716859, 0.0903351, 0.0766587, 0.115221, 0.0946295, 0.106381, 0.135482, 0.129241, 0.11979, 0.147795, 0.15891, 0.165259, 0.175225, 0.169766, 0.17441, 0.178042, 0.193048, 0.225901, 0.225414, 0.213499, 0.243496, 0.225665, 0.268765, 0.258943, 0.249047, 0.262774, 0.272614, 0.272382, 0.314254, 0.332265, 0.314484, 0.311706, 0.342807, 0.338389, 0.341539, 0.35222, 0.349111, 0.37317, 0.417461, 0.38804, 0.411048, 0.397123, 0.409604, 0.418613, 0.446258, 0.451986, 0.452587, 0.460194, 0.485724, 0.476018, 0.477601, 0.491402, 0.585213, 0.584757, 0.30491, 0.296339, 0.323477, 0.322101, 0.276102, 0.549851, 0.56185, 0.29105, 0.596449, 0.631352, 0.635996, 0.629319, 0.685418, 0.686045, 0.741438, 0.727933, 0.279176, 0.294611, 0.275605, 0.281184, 0.287489, 0.327496, 0.300149, 0.320142, 0.755766, 0.757477, 0.770127, 0.759493, 0.76256, 0.747978, 0.89472, 0.881463, 0.870956, 0.8382, 0.814357, 0.808122, 0.781807, 0.750647, 0.759159, 0.727558, 0.714406, 0.692165, 0.708721, 0.684975, 0.662974, 0.696742, 0.687622, 0.693754, 1.06728, 1.04984, 1.08251, 1.04061, 1.08881, 1.08869, 1.0927, 1.09293, 1.13079, 1.16746, 1.18744, 1.19509, 1.19277, 1.2208, 1.19878, 1.15993, 1.15909, 1.15493, 1.19277, 1.2978, 1.29121, 1.31565, 1.30913, 1.30643, 0.624718, 1.31033, 1.29887, 1.31652, 1.33931, 1.33049, 1.30086, 1.30172, 1.27465, 1.24972, 1.306, 1.33947, 1.36788, 1.36666, 1.356, 1.33771, 1.31381, 1.30597, 1.31562, 1.31909, 1.31345, 1.3033, 1.30509, 1.31677, 1.29496, 1.30578, 1.33739, 1.33972, 1.34062, 1.33113, 1.35755, 1.3483, 1.36394, 1.38512, 1.3789, 1.39106, 1.39937, 1.39723, 1.43147, 1.41834, 1.4139, 1.43089, 1.44428, 1.4473, 1.45237, 1.4611, 1.48764, 1.48276, 1.49435, 1.48715, 1.51242, 1.51295, 1.52796, 1.52043, 1.52819, 1.53749, 1.5393, 1.56453, 1.55083, 1.56862, 1.60289, 1.59315, 1.59378, 1.60423, 1.60364, 1.61122, 1.62484, 1.65097, 1.65695, 1.65471, 1.67227, 1.66316, 1.67836, 1.70323, 1.69448, 1.7111, 1.71011, 1.71864, 1.72012, 1.71785, 1.74115, 1.75798, 1.74321, 1.77083, 1.76628, 1.78242, 1.77654, 1.79233, 1.80422, 1.82749, 1.81744, 1.83377, 1.83985, 1.8381, 1.8792, 1.87621, 1.87584, 1.87626, 1.8802, 1.88204, 1.91087, 1.91477, 1.92001, 1.91822, 1.93489, 1.93467, 1.94903, 1.94263, 1.9656, 1.96442, 1.98678, 1.99297, 1.99321, 2.01124, 2.00438
0.408028, 0.407188, 0.397861, 0.413206, 0.364833, 0.386841, 0.379399, 0.342314, 0.337288, 0.333202, 0.32673, 0.253582, 0.236224, 0.301424, 0.312482, 0.292402, 0.280051, 0.248405, 0.26939, 0.27189, 0.211041, 0.255225, 0.217818, 0.156739, 0.202578, 0.166372, 0.151517, 0.209954, 0.175139, 0.177106, 0.168572, 0.154603, 0.157688, 0.131076, 0.0822259, 0.0940994, 0.13746, 0.120727, 0.120421, 0.075293, 0.0764382, 0.0645209, 0.0493553, 0.0507927, 0.0312839, 0.0163118, 0.0437446, 0.0249287, 0.0334692, 0.0171636, 0.0187417, 0.0193708, 0.0236694, 0.00466002, 0.0175512, 0.0165723, 0.0272276, 0.0449987, 0.055921, 0.0721375, 0.0835456, 0.119963, 0.118096, 0.117782, 0.122621, 0.124006, 0.14558, 0.120328, 0.173304, 0.163113, 0.15101, 0.148949, 0.148351, 0.194636, 0.204324, 0.180941, 0.185639, 0.201512, 0.228666, 0.219617, 0.224181, 0.231487, 0.245685, 0.272711, 0.272273, 0.266102, 0.274191, 0.27979, 0.293383, 0.329662, 0.323784, 0.318298, 0.348546, 0.342953, 0.340403, 0.356691, 0.367585, 0.404885, 0.413836, 0.413849, 0.405686, 0.428756, 0.417818, 0.425496, 0.425663, 0.43808, 0.462623, 0.470371, 0.469906, 0.4772, 0.492717, 0.507543, 0.50599, 0.505379, 0.510747, 0.53562, 0.542599, 0.567267, 0.558739, 0.569182, 0.580162, 0.591364, 0.608868, 0.625128, 0.623641, 0.622294, 0.613289, 0.610865, 0.659302, 0.645086, 0.278433, 0.279049, 0.300404, 0.317681, 0.297301, 0.272572, 0.338938, 0.279292, 0.316458, 0.713577, 0.749371, 0.741981, 0.747053, 0.741796, 0.947458, 0.961418, 0.821756, 0.789851, 0.787891, 0.768102, 0.754729, 0.770962, 0.755744, 0.749496, 0.719051, 0.69988, 0.651082, 0.624345, 0.648358, 0.644905, 0.642286, 0.653282, 0.637687, 1.03087, 1.01219, 1.05183, 1.00608, 1.01211, 1.00997, 1.04312, 1.03897, 1.07216, 1.18625, 1.2091, 1.21911, 1.14968, 1.15213, 1.12496, 1.15683, 1.15324, 1.28488, 0.570462, 0.552396, 0.590147, 0.590269, 0.66619, 0.658727, 0.658773, 1.29673, 1.28711, 1.29759, 1.28099, 1.27806, 1.26823, 1.26863, 1.25708, 1.24774, 1.26145, 1.25921, 1.25321, 1.26535, 1.30171, 1.29973, 1.27031, 1.28435, 1.29223, 1.28844, 1.29581, 1.28474, 1.29908, 1.30471, 1.3093, 1.32387, 1.33715, 1.34011, 1.33445, 1.34485, 1.35103, 1.3616, 1.37558, 1.38495, 1.38479, 1.38779, 1.40754, 1.4014, 1.42179, 1.45081, 1.43108, 1.44465, 1.44126, 1.4481, 1.45697, 1.47727, 1.47583, 1.49145, 1.5025, 1.50139, 1.52609, 1.52352, 1.51656, 1.52722, 1.53631, 1.54142, 1.55884, 1.56222, 1.59209, 1.59384, 1.60467, 1.58948, 1.60719, 1.61517, 1.62073, 1.63223, 1.63094, 1.64412, 1.65121, 1.65454, 1.67198, 1.66917, 1.69348, 1.6939, 1.69427, 1.73095, 1.71226, 1.72248, 1.72297, 1.73948, 1.73643, 1.74943, 1.75537, 1.7775, 1.79619, 1.78328, 1.79204, 1.84084, 1.83484, 1.8118, 1.84764, 1.84829, 1.84771, 1.9206, 1.89779, 1.88906, 1.88771, 1.89267, 1.9005, 1.89982, 1.9241, 1.95838, 1.9313, 1.93762, 1.98395, 1.94716, 1.98569, 1.96482, 1.99744, 2.00096, 2.02083, 1.98496, 2.00316
