0.634444481970046,0.602270406237116,0.529732653206251,0.579285157965415,0.649190015567332,0.648958422203416,0.642057260468205,0.605944540252916,0.628698080478794,0.628725267861381,0.610382166833724,0.601238938391927,0.622932790124073,0.691482999461794,0.747223004763592,0.713375475672973,0.690705002041193,0.665709245834619,0.674018980592973,0.64247279443707,0.668479049081647,0.715913233536511,0.815524964587763,0.794690218855919,0.721584764641649,0.72060479558351,0.691882740168886,0.722354004481161,0.797369839915237,0.932158004031824,0.882106094546128,0.928833675679823,0.978009000000335,1.06575000467674,0.704491469089104,0.714109786976089,0.666094490708931,0.687916478945537,0.765432250768757,0.865527506721928,0.873853854813954,0.893817912732883,0.789363252310936,0.804012693092449,0.779966556776733,0.784066629269438,0.926457007574359,0.885134301399022,1.23853000000033,0.888937332399414,0.938799646333537,0.882528883104219,0.912114139842412,0.898491782262527,0.895406411339027,0.927270141329859,0.946416970702162,1.02640538796819,1.07166000156687,1.51788999997736,1.43154964588254,1.44798524184915,1.38084999692783,1.26371999829265,1.16666997448426,1.13656018619223,1.13686103513288,1.10273074258646,1.17803000328956,1.29994432877612,1.29799671565339,1.31204465062155,1.26939935456811,1.1047916666665,1.05315089952548,1.05529143538882,1.05763312408051,1.05939576391906,1.18664000000086,1.41247999923221,1.38154328457644,1.3746535719003,1.16233038971984,1.13678827931812,1.19224443186836,1.19896705385599,1.27405999702961,1.30792571618588,1.41580493075565,1.38616398383914,1.24703961324453,1.13580258367797,1.15105523756565,1.16977995578179,1.28461999814219,1.29517891192378,1.31589995552744,1.40379999742365,1.35465000016821,1.31450991813,1.33020718166994,1.39185000145799,1.46176999901566,1.64029849392187,1.63998153698394,1.63955576766355,1.65861510350144,1.65674171444586,1.62261999803999,1.58693518905885,1.58616338919895,1.49951331283693,1.72825992992607,1.698570067145,1.78078286147533,1.75048022940126,1.72391902688494,1.62814034479273,1.63412965449294,1.48987280847308,1.48145897825216,1.47631646966357,1.37134309163246,1.20025999999967,1.02300723088699,1.01524009753596,0.970169982958476,1.05357000628264,1.28504488083903,1.28614737380323,1.28058706632631,1.26811154624313,1.25776710883802,0.83860200007968,0.788427612571864,0.802770685928251,0.841919054637794,0.840314927277244,0.88541885909281,0.794433361640249,0.802367788401763,0.79890298298075,0.86651100308764,0.972087954145195,1.0812600000009,1.11314991028533,1.2324879403449,0.964691993194269,0.899377998198598,0.802764033354552,0.785681452453352,0.769869997585171,0.719555651284962,0.741137874701079,0.711013546245656,0.735622985694245,0.710618994128809,1.0094624021302,1.0979400010438,1.17041999999909,1.31404673172082,1.41659000750023,1.3828102462792,1.38106410023516,1.3569899999127,0.97755375073874,0.978673662264751,0.954674440097433,1.00219000755974,1.03869323945883,1.08834200882838,1.26503645035723
0.61965671980548,0.595040233364677,0.605545481362182,0.589537638883165,0.681925130769354,0.673724597558926,0.665130886228619,0.607849883265399,0.636614412819135,0.638503219752189,0.613736313127669,0.617793999471417,0.616951662945305,0.661460293303146,0.659438926726266,0.697101319309352,0.657329974794317,0.638318417511588,0.6503900248573,0.640491798850362,0.657972161583503,0.717962237334263,0.71758382401652,0.818905922852704,0.721340822854226,0.720651928259456,0.69095575906519,0.692118843160744,0.697847695791467,0.807861029682812,0.799701683289894,0.77459369642866,0.746631084858351,0.772099552911059,0.72213255978303,0.717981253571924,0.701612828296474,0.707624267949977,0.784952944010736,0.837867437136893,0.859861891089998,0.899053629567791,0.904583317897926,0.767456646913749,0.772696542396923,0.781963670768765,0.783316256579094,0.854787903069887,1.36124000000067,1.25353669736331,0.969453865663154,0.861858112317475,1.31498000000067,0.901209010796419,0.896435253548561,0.903479656312055,0.896787801195663,1.02890706944318,1.02823738805177,1.46611000336836,1.4252101616342,1.41934791680428,1.41296840915779,1.26203999830879,1.13355475731035,1.13600162505119,1.14467907398486,1.13427951272319,1.14237498574535,1.25632998588974,1.29630214609249,1.32202510664557,1.29023970894974,1.10447833333317,0.997587370212977,1.04966424804044,1.08785992443709,1.10857166601961,1.10725833267963,1.36104491895303,1.37608883042212,1.40784495439549,1.18918986568318,1.1506080680231,1.18229537282031,1.18831520242249,1.30516571598038,1.30650857347259,1.41690493467776,1.39864292654064,1.23827067554988,1.16127434884351,1.14633906569984,1.14537386734162,1.24736734093454,1.27286298618945,1.27460433968107,1.36168991110009,1.32498975306276,1.29709613506821,1.32601636652038,1.31412743480894,1.46072999900635,1.63570413854051,1.69146000313365,1.63766821050071,1.6264112808849,1.5856799998694,1.54688999399519,1.59098829621742,1.58700655625563,1.58879928970087,1.74319747773911,1.75181251914771,1.7818302848576,1.77970623091659,1.7830318960863,1.6521800029471,1.52431999999967,1.49726561185747,1.48333531556275,1.40794999956295,1.36137690836754,1.30441000000033,1.06345997800437,1.0524783100945,0.978280110731115,0.977601767469215,1.03596999998512,1.28873344030113,1.28245170960093,1.28416140276088,1.26425304641128,0.768723121436582,0.793823545361971,0.799328015221364,0.825199633530884,0.885227843960532,0.866441637026255,0.795551738314986,0.805673229724929,0.808619978031257,0.842555807878003,0.949818051580901,1.22711000235212,1.17149920249727,1.23076807161004,1.2199939880464,0.939679001801737,0.770255953467286,0.749165812431369,0.736546561843907,0.739025306577361,0.708958419821,1.32595000013814,1.24100922911673,1.231170162394,0.999584493414019,1.163874705434,1.33347969124813,1.31015350542597,1.29774696705615,1.39571563882136,1.42235000948676,0.960973740899571,0.958475353237061,0.956123992657937,0.958390007055051,0.959250543607862,1.05157917634013,1.11304220554198,1.25420539874311
0.605832236723606,0.517618312006041,0.516751078001032,0.587825356471633,0.798311000324675,0.736139655838121,0.785246295368502,0.734541998545785,0.652384923339713,0.565769969510559,0.567810512058762,0.563614562321729,0.593550465013082,0.646849139778659,0.803759000000669,0.730807782514073,0.79540200000067,0.688980406251122,0.652400007346379,0.635374928846985,0.649240103922723,0.736514330200011,0.721501089184394,0.832615889258092,0.736149706005712,0.728665803334661,0.674738228047555,0.690471218484335,0.752868628028685,0.785719008393409,0.793556604270691,0.758224019741323,0.74940975687866,0.748207887433948,0.729615649368457,0.723330805336382,0.698831880583839,0.726350442668324,0.735617140530717,0.832543556464615,0.847515966955543,0.999914000000669,0.795593931535326,0.732995492639756,0.731961492643954,0.780506790376532,0.821409014400701,0.860327098477566,0.993785999999665,1.26880330063408,1.26477686461875,1.26722000000067,0.857320158802363,0.856320824855032,0.926156208174095,0.911430656398665,0.927977752403774,1.01246015473537,1.4201078158077,1.40240897573973,1.40487701344718,1.40717194805698,1.40729886395439,1.29908000730133,1.16288000611496,1.13713148052206,1.09255003723559,1.18748828773626,1.18673793956259,1.29275604243916,1.29448893650449,1.30499518164391,1.26112978885408,1.20191210881343,1.01950962659929,1.03865147633457,1.05195330936693,1.12994675663187,1.20302,1.35332547523831,1.36782280860291,1.4152050556668,1.13789,1.06769000000276,1.16623778731425,1.18151771818797,1.17863115595544,1.2061120293704,1.2055090149075,1.2079676747794,1.22712377963912,1.17096537094427,1.12297039040927,1.09198999297535,1.25970265289834,1.27070874947307,1.26850771085141,1.34047009171447,1.31229822522707,1.29861573297813,1.33279033744852,1.40612222148692,1.37491808349993,1.56495981547452,1.59101294236458,1.59301061156278,1.59451674597368,1.54850000326627,1.51057991514076,1.57960117073092,1.58182118391706,1.7902256088269,1.77932436239121,1.8238955489101,1.76154082605435,1.77692474436691,1.77334390878624,1.68566000002799,1.60636584779216,1.49790715256536,1.48839120024231,1.48594981081832,1.46448999820793,1.13777999999933,1.25316000000033,1.07157488234864,0.969976417846801,0.970292825471629,0.991663511445881,0.989027389979719,1.0415955035311,1.27030016554571,0.919070087423092,0.731804598312589,0.758058907136595,0.780479781981901,0.839614694479117,0.839475055376492,0.905740646397962,0.869795999989002,0.820045155817416,0.836862543245086,0.828649423239145,0.905149,1.14540342306658,1.14968728440164,1.15384118255583,0.723632000530202,0.725181029981681,0.714603221103693,0.73198415660259,0.72661102882876,0.688188989463883,1.31567000325753,1.25705220629196,1.24744307822637,1.29820000485666,1.00733834746885,1.15033529456634,1.30285219518653,1.30637197974493,1.31464256722694,1.36550325460669,1.35784667821965,0.943380777964793,0.93845003065596,0.932949369308207,0.946518119131086,0.945851502132255,1.10101389969379,1.13962090353704,1.24700796904352
0.590871127531175,0.56597447580865,0.518435908276497,0.627407005744745,0.676538,0.708671692059649,0.790707514399727,0.778518193209121,0.650872102275996,0.555144328954068,0.573266381906191,0.580707899928085,0.594880466814362,0.663679325348694,0.618356343617663,0.616446235619762,0.615870011973481,0.67928855857349,0.617792377253761,0.628302990851098,0.640630484869742,0.7360154784782,0.736815813778969,0.870660493505795,0.736259068655502,0.732389052825189,0.677594029409036,0.671912392826052,0.75022301923211,0.791160827797351,0.814421713032091,0.830976002523783,0.870944537311271,0.840293995636867,0.782194999941908,0.725774892554864,0.711540880539226,0.69983916178291,0.739002575330862,0.803590055000668,0.804949725844273,0.778547639478891,0.779994628356604,0.780985608382292,0.77101371739671,0.778616260833589,0.794573827866914,0.830614001941293,1.11036000000033,1.30562167424689,1.25793754056556,0.843614708964871,0.84525014283642,0.834771167995616,0.887426795317268,0.902227628488926,0.971171424290383,0.970122919904201,1.38629739613844,1.39914366636778,1.39853750181176,1.39177373315966,1.39240699673791,1.26863999717105,1.20188782925949,1.13641874823342,1.1192248700472,1.15128998846376,1.18214377931991,1.30019670723273,1.28992493346454,1.24767146192245,1.24740542532215,1.21111789118691,0.977165988430247,1.02897688893611,1.05240664122271,1.11520324866905,1.25309745260174,1.25850998442028,1.25804711139875,1.25758820372818,1.08901999999965,1.16297378961068,1.16406862404794,1.18403603224731,1.25978,1.31022,1.4166286484082,1.4063113751647,1.23413930247123,1.1894200011396,1.11639904662179,1.15769121456817,1.35646000497207,1.31664194466126,1.3301599987618,1.36630000468134,1.28822033435644,1.46541000000067,1.34157949771732,1.35459522451607,1.39829442615106,1.56172872706742,1.54911188502414,1.58843281041498,1.60626929890805,1.49712496061048,1.4922551115584,1.57278297450864,1.57893098327274,1.5881405960955,1.7577425831299,1.80975445141604,1.78962545970219,1.78100609074101,1.80499967251142,1.75935000000033,1.59536415220818,1.49786452960369,1.49200676320571,1.49818878759424,1.38740054912674,1.42746978548716,1.35875010930181,1.10044330844873,0.970420293295942,1.06794279516947,1.00687980610643,0.982789299366015,0.985944686694731,0.958563667413816,0.948272917194135,0.744733655082002,0.728200038096557,0.769670513347429,0.839814389762231,0.841771472184238,0.905929599341803,0.728874999617195,0.791002437699852,0.73039857483007,0.747505991010552,0.729575473759496,0.900372427978833,0.963145037155269,1.23316000000067,1.11582232275724,0.912320666666834,0.746435076126305,0.739944732504418,0.687558990332053,0.789019835369644,0.818364765455387,1.25742540196707,1.240321779576,1.22229009082913,1.02645967849458,1.04456999880975,1.27770268107821,1.27803358752678,1.2782226810258,1.34984452202339,0.934122430771753,0.927298786887299,0.92900360750876,0.922605923812827,0.985337029816847,0.984289043172593,1.10792610030749,1.16861227814635,1.23593101101614
0.576592244025128,0.553312369201838,0.538518860461328,0.580457075308025,0.632237623102119,0.681199858002058,0.758791999962278,0.757507999748074,0.652349572044975,0.597178482254061,0.585361106741627,0.611679657735493,0.611858324945935,0.641366713909943,0.732974000000488,0.614938410997113,0.615325063393393,0.663567043226885,0.572735500732062,0.587317545023181,0.62000943635812,0.638253940064755,0.699145000009709,0.859881508418095,0.797670014986559,0.744032245621178,0.710954005216374,0.678187742554253,0.746741427267455,0.755810917179699,0.845443339076161,0.981685000000335,0.872889356455825,0.872187107100149,0.867149006056119,0.749750820553511,0.745878015340316,0.698177327633971,0.723213292420818,0.797946068268856,0.806519214209629,1.12060000000067,0.765798262769865,0.735168147092293,0.749238623257014,0.775837162200297,0.77451882584633,0.805793126802391,0.833862997645754,1.31017832775705,1.24599155587348,1.22737525602521,0.808637162922839,0.795166832526915,0.884749197943483,0.892544120466944,0.975702681624605,0.971376100656752,1.39877753158077,1.3969826517864,1.39758738038947,1.38945270660748,1.37019166118147,1.23761000056255,1.19562217243663,1.13379087932319,1.11240396842614,1.18635942926949,1.21407124763033,1.27314859330762,1.28030222451297,1.31357435108761,1.25489168111543,0.983733105598036,1.02197340870821,1.02166788358415,1.02136540440905,1.03324001753411,1.29867035408203,1.0703385085435,1.08739145891823,1.09140064309573,1.06779981508541,1.04744175774238,1.13424999215604,1.18605601929392,1.3004756619758,1.42049007575555,1.43382624504337,1.42925106280928,1.23977277750892,1.22026000889499,1.10808769850151,1.1420687904801,1.28455010902581,1.30146120793761,1.35312999988501,1.38805000631884,1.31635540204047,1.31122219915751,1.30665545933062,1.29887143417387,1.4101852712025,1.43727000561991,1.53883702630597,1.5399541302423,1.54009771228184,1.54518420064811,1.5383616883368,1.53698458772482,1.57782355590032,1.73041000422972,1.75148744140674,1.8421822799775,1.62320708246336,1.68121861085233,1.69874000000033,1.62277,1.44134666350405,1.44021333020065,1.48964400145741,1.49539248016286,1.40870966423736,1.36473088085947,1.38061459716364,1.36702991104305,1.37120187281306,1.06999876093894,1.14448000260977,0.992024832620513,0.989125388330315,0.959462334087724,0.914803993481378,0.785315000638986,0.737020791305489,0.757486503191008,0.826928037406981,0.732949999999331,0.914945760734182,1.20887000000067,0.822592032174495,0.730067960398208,0.893793885112383,0.891041058557975,0.89064338427191,0.931570124736202,0.940170127764302,1.10949689000325,0.912863333333501,0.744358810388277,0.74306872271472,0.74207032658726,0.789075168683223,0.804965725762439,1.2390113475681,1.23171182443829,1.11468999999969,0.998028075814829,1.09427000386644,1.23602005835579,1.23526020783719,1.23450005835577,1.35860554291787,0.943170234162844,0.931235791432919,0.930448948289132,0.948144565734738,0.984005041887812,1.02516000764265,1.24711800445608,1.24376090537934,1.24126280142931
0.553993958154528,0.516343288329447,0.509550703087075,0.605549735846428,0.626155978698165,0.640810340133801,0.650704847034287,0.666543155345092,0.665118720690373,0.513421326109384,0.562647179233676,0.655761299297562,0.639851407834762,0.640685724251529,0.61011048471341,0.612715063462513,0.60809435713343,0.58142059898512,0.567801847096915,0.595587865749014,0.605616632290445,0.61804174324175,0.635903001335972,0.765847400398594,0.828707985013986,0.76320377627713,0.780273349100707,0.682781572346758,0.786849002988675,1.03237000000067,0.876655652417397,1.04598975869745,1.04422975897733,1.02983023529014,0.772991994512908,0.752819704034036,0.75567383021347,0.714417364422177,0.786285002560848,0.806961004646615,0.807453173667678,0.892071091891453,0.802196010457183,0.754429611940739,0.772694514180732,0.773819352270743,0.780692038224379,0.818393098139274,0.875418997147496,1.11523995585454,1.10005825876915,0.866163812618857,0.820371457637118,0.82469067255742,0.821140412016795,0.884127064406721,0.984809492612652,0.984462572765696,1.37345448475829,1.50673000000067,1.39797965110878,1.39664373032989,1.36819832780067,1.20841000343355,1.10610653909435,1.12998243181701,1.12659155718089,1.19901057169461,1.22052859364927,1.26693894848515,1.27490929456454,1.32225565406194,1.27009162983558,1.03382013161027,0.999450921082108,0.991261824255845,0.977709497573714,1.05844908807455,1.30252907875889,1.30241057329651,1.08391457105057,1.064759997742,1.01929999577226,1.0498884293491,1.18940924181112,1.18776488484888,1.30865433802454,1.34134049866123,1.44170265949761,1.3819699996471,1.25111548495283,1.185169993248,1.10817683192761,1.24209991751008,1.20494008382944,1.26245762156672,1.55223000000067,1.49915000000033,1.3158945911633,1.2582421597049,1.28205007020886,1.28562717268223,1.30993000117708,1.41209999437976,1.51747022401545,1.53284665941499,1.5856100057817,1.52857022836321,1.43038000327481,1.45381998782146,1.50589170523762,1.69972999577061,1.79156333463223,1.82722696060863,1.8412807643078,1.68167832276705,1.41955999703117,1.45755000197271,1.61947965000859,1.57859000000033,1.48199592607254,1.46751083425703,1.44110060150062,1.37981268585449,1.36570453716007,1.36322983531309,1.22664999964854,1.0564086775373,1.07125976374294,1.29077962862826,1.289583931946,1.29104835328899,0.977184,0.92583,0.675717329958049,0.710656987236965,0.711522149279611,0.811782359574655,0.879777999903347,1.14008184265387,1.13958078668883,1.13662162643514,0.927521500000166,0.868130119434617,0.867566121376849,0.926738051855149,0.930238061814071,1.12725078724052,0.760247499969384,0.757946724495492,0.753208391649205,0.752202433708358,0.760704385951852,0.802740747791596,1.21969659919565,1.21916820716392,1.21501369632455,1.13622961289564,1.00137432594352,1.00721248099482,1.00535392211091,1.00397929210853,0.982457998680489,0.963496738563058,0.90216437931554,0.931366062770465,0.933906359466643,1.01153279639251,0.980464029367912,1.22261041991877,1.25028667274968,1.25316151855006
0.52913931700811,0.496597530576388,0.504058473009401,0.607627764638115,0.61644718882123,0.628783938773323,0.681193171888742,0.666558420187658,0.527137995012033,0.515791735147634,0.531218031222966,0.547536749067397,0.546080077969546,0.5769584727836,0.67364000507816,0.682245749578867,0.812477200000361,0.561483277656252,0.571753660525335,0.580344962374668,0.593102702289282,0.616845071479457,0.708202000000335,0.768533000427989,0.765558600355444,0.753599619078994,0.743133441890286,0.689809224898501,0.688153707762794,0.766721,0.798347150856732,1.02607024433214,1.1037800053501,1.05325031380884,0.805796008077563,0.733237088246018,0.706119927789222,0.687263348446449,0.745806002418114,0.808623958772712,0.808344289978723,0.909017908100591,0.770397287276586,0.753940252794322,0.772878703474486,0.773175812702835,0.80603089684979,0.833236386893879,0.895564034059084,1.09028892333645,1.09189731010475,0.8474001897377,0.84567589526575,0.80860288714417,0.835170678204338,0.876385736054127,0.92587571449238,0.998278808521807,1.38348569668496,1.40145676709336,1.39975078427346,1.39864689690317,1.29164999999967,1.18200999185591,1.10825401832937,1.12917518009029,1.12865264684063,1.12857922910117,1.19856854238814,1.20709354944646,1.20659017480835,1.20600791772528,1.16529999273225,1.04623987203784,0.967506904474735,0.984496546875872,1.00811119391479,1.06993089993291,1.2223,1.27551033565881,1.07988876552669,0.991095785773258,1.00113694862512,1.0188099810846,1.14433119943479,1.14365571029586,1.14297919943386,1.34768950133843,1.46365751484663,1.31283003321362,1.26838456566374,1.29194995770392,1.1043260294368,1.175208199249,1.17486058939546,1.21874852505289,1.21905875230251,1.44696000171375,1.32536037316632,1.25356805143743,1.27874747710771,1.29309774112545,1.48509457829097,1.49442846478056,1.49128631115436,1.48800493469047,1.47939673066757,1.47919728726194,1.56154000000067,1.49566377704298,1.48573455400933,1.47503300385454,1.7922166679783,1.41490166610545,1.415268332774,1.68412666596692,1.8168000032921,1.77496649226536,1.59215532633185,1.44236001206527,1.47594624959828,1.46854599872381,1.45392939832036,1.40620983786388,1.35859700594279,1.35552127579716,1.27069000313506,1.24206333098858,1.24415666431784,1.28317647205193,1.28617078004757,1.27621645063302,1.27706158681118,1.21384999745136,0.673382663301114,0.710260298583789,0.710578007952492,0.80410964042568,0.853426000790069,1.14385964681948,1.14185237022895,1.16829833566251,0.927187500000166,0.830694659028354,0.912209151535201,0.920811833861852,0.932276245151731,1.00223796942665,0.977377000000335,0.756456369248962,0.754825453030401,0.754991133755779,0.771177307237789,0.809318762876845,1.22426097929871,1.21724950686923,1.21824388656669,1.11472038710436,1.02004971147438,0.980271187273319,0.977885559342206,0.975591187570387,0.957693039980661,0.93346900064898,0.909704496758485,0.931648708833304,0.932368616746036,0.981090232899476,1.00496982179987,1.318590000915,1.26057201503426,1.28396000781598
0.467877795036223,0.450352774903553,0.467064979052077,0.607803012999084,0.606124071038865,0.618670149329324,0.797127001723587,0.756514998277418,0.519805349962619,0.521312778839816,0.509080748448979,0.481080972781245,0.584227691930108,0.576092040300629,0.576348872871672,0.705307691263185,0.808926000000617,0.807862800000361,0.580630137911988,0.558670925419293,0.557018129349196,0.558913705498493,0.648664183266913,0.70436397732336,0.829106001474091,0.718304693967826,0.661374406373169,0.636096684143692,0.608658266586928,0.641914166842445,0.719493100442355,0.733048716292542,1.06036543688851,1.07151645147437,0.745656814713638,0.726652408439981,0.70213418961527,0.719485036914026,0.715755871629296,0.807924178031935,0.809066036165039,0.810714557704754,0.782204510330498,0.769897396044681,0.749172550681183,0.763490698004552,0.765329488127657,0.839685388373157,0.893282811147048,1.09385508736327,1.09341532141428,1.09440076290651,0.766470748512708,0.77243971478237,0.801051818921211,0.86386283354964,0.911732281621011,1.34286000000033,1.40507565012684,1.40467264897863,1.40036564523935,1.38839044167725,1.35668118436939,1.2220376144601,1.10661855273971,1.12991467684403,1.14425275114004,1.1984129888028,1.22922050287996,1.20650647527502,1.20672811337355,1.20391662776273,1.19113487846047,1.20053710266555,0.974965618538609,0.980331336298126,0.974744356370642,1.0268597117619,1.13329000093222,1.29821965884698,1.07546618855525,0.986025234674024,0.912442993212289,0.990979945387034,0.960062753980538,0.972686886581332,0.982165808957547,1.40524000000033,1.45055241883025,1.33692028840659,1.213190422402,1.11478999097275,1.17745809036342,1.17724456624426,1.17334153260426,1.21866244444806,1.26663997374154,1.42018000162739,1.37533033068946,1.27070673116775,1.27618916202896,1.31971966688385,1.39921620755463,1.44697000001111,1.4706676690464,1.48597769316577,1.48753255722934,1.47860821441006,1.42676378946635,1.43535343702431,1.43466052491098,1.42848898572781,1.415650713453,1.74496000000033,1.87557000000067,1.68438230275927,1.60730350663376,1.78605350444388,1.60226817390499,1.58224569480517,1.49051652956088,1.49023995630515,1.40363011924857,1.3853767649624,1.34106584572244,1.33969555826713,1.33856256110674,1.32676955651464,1.28564848063599,1.28382376521493,1.28588698683067,1.30589514510089,1.22539885388177,1.24880069181542,0.734481817759192,0.715189122969636,0.713694392781725,0.70966285522859,0.832242996995481,0.987996000000498,1.01976865018243,1.17129166901834,0.843574974978198,0.839526122820816,0.861106004079755,0.888212222436402,0.934759769557592,1.01699203057402,0.804412885012265,0.732766436983434,0.734032827148869,0.736025270122703,0.724615594971775,0.937030000000335,1.21545481315754,1.21496828555666,1.21317497308749,1.21093257835467,1.11929395019539,0.936131645435368,0.934279741231936,0.931318849397395,0.915117989080554,0.910618373118833,0.9111514486232,0.931160587261239,0.955399579911198,1.03049000598509,1.19734059119388,1.2099779819263,1.20938423359451,1.21111392815208
0.468389436523512,0.469144671637638,0.469644040172352,0.606076080497615,0.606096800295775,0.598769170531635,0.57254014051808,0.543771210017462,0.514794573746918,0.509837199107238,0.504272856364825,0.493743692055319,0.554858129962041,0.576601692872616,0.630887959026884,0.730397343023537,0.756152155366446,0.652035422284995,0.586066371273635,0.555810774321782,0.554650881088809,0.589058715144229,0.666987895308428,0.693930890709152,0.687681725325365,0.680211224137778,0.657133061873547,0.62275579629722,0.614190767464741,0.656308468052339,0.710198857264358,0.715256580455286,1.06214187766087,1.06656144059134,0.729004430661534,0.718017317649162,0.709023351086246,0.713746371105523,0.738632451791066,0.782736277340181,0.809120950919112,0.809762502341627,0.766027413460659,0.763963309934788,0.756705014649436,0.761559574548238,0.763474246453498,0.812547731823842,0.883073644537529,1.06101644863897,1.06224166235438,1.06354119065628,0.768615053718147,0.770626988372021,0.809084717444792,0.849544247223242,0.941224066728843,0.975426583355222,1.40400925900453,1.40243284733795,1.40052209797425,1.39406835130701,1.34850154930324,1.22015438087037,1.12314415481245,1.13341480675859,1.15303327947931,1.21010758549834,1.21374379326172,1.20994199584009,1.20728566892827,1.20582599883992,1.19051949354589,1.12747205576344,1.02948911622204,1.02777271063427,1.02735835489233,1.02589473140418,1.10354282384413,1.13602172755858,1.07125294884826,0.962889717093974,0.943813355724154,0.950313715842756,0.955080159884957,0.971023350786686,0.972572415017746,1.38181289793957,1.38511899900202,1.35113889037505,1.18384741930202,1.14871281319979,1.16744813256091,1.18859034426721,1.20435467012337,1.21879565384694,1.23854196619372,1.41044623121615,1.39711538068735,1.27247248899405,1.27428280641873,1.29447537267371,1.40278006240554,1.43354389244868,1.47367319084958,1.48424511035142,1.4846276248951,1.46746338602083,1.46186700274975,1.43498693103007,1.43442705510819,1.45279056433166,1.47587535309207,1.66053594150272,1.6695003847813,1.67436156548305,1.68667434059464,1.69353099356636,1.61683540012577,1.58491162439083,1.4914325797308,1.49009141421734,1.42730347722195,1.37698769631273,1.34028814235888,1.33963025692712,1.33900368010001,1.31090061680785,1.29766998591439,1.28572759317542,1.28683176833024,1.28847061362829,1.25235314604386,1.2507155202609,0.727009025533559,0.716034188530941,0.714723730148945,0.726573494197922,0.750147041556121,0.773259965402606,0.793743935641149,0.814198010073024,0.822259835843161,0.832313015249799,0.850446612448038,0.86129809621045,0.874505047265335,0.89466972308875,0.818837060827948,0.746430981139228,0.733977929727005,0.734502388369039,0.73338401388178,0.792574022867137,1.21164994148589,1.21313470039356,1.21380559953669,1.20550142941106,1.11911557622644,0.935140726949343,0.934079984633282,0.93280744538004,0.918927015012764,0.911508919615906,0.911673097042925,0.931266361595597,0.964765822810283,1.00104343751758,1.19574553653573,1.20012285994171,1.20732178959736,1.25008112108203
0.460887885746849,0.476756658208647,0.473009023109041,0.605325224562908,0.650556010502731,0.595866741491488,0.497559999996942,0.455850986910018,0.499033010341576,0.45503154610292,0.454737395210823,0.45478775985788,0.534873366534652,0.575885639171282,0.79985880916603,0.797381660088507,0.797981185245032,0.602362774564209,0.603075916483327,0.553562086439148,0.553337296166456,0.612259390187853,0.680044809275982,0.732551503547816,0.683740228453654,0.67262495700866,0.65315919255664,0.615761749949328,0.609125818528079,0.68007785849026,0.689786708179593,0.687817026457878,1.06171384583338,1.07741509313282,0.693729731381946,0.69189819623401,0.690646634471269,0.688594245276621,0.766641840232371,0.763501173007599,0.820431946822885,0.868173982854975,0.756033426868019,0.683971997889271,0.739865684890102,0.73957922585494,0.739103285938629,0.793898996071182,0.87332440562686,1.05945959005052,1.06230359601763,1.0649593005729,0.744228533729785,0.743032125661509,0.817063069928454,0.833558197648156,0.988433008747888,0.915382995138399,1.43122399881144,1.42423352449595,1.42027458198543,1.47211000000067,1.3404663645885,1.21829361457211,1.10868020736052,1.13541688341468,1.18251988429127,1.23367041463727,1.2184308206288,1.22267256395242,1.22234114506012,1.23395000010299,1.18933099634752,1.08843764580162,1.03204740692786,1.0272399592087,1.03026389341724,1.02242177212285,1.0709228090095,1.19853000000067,1.06782439301838,0.946681989813347,0.936455546344018,0.920357996891171,0.909612986360363,0.959171616690782,0.957936360204697,1.37031558914581,1.39205185874843,1.36261791922745,1.15423267290207,1.11163999725178,1.15727602155437,1.2017827648638,1.23826923843741,1.2191375326217,1.21980138020776,1.51723500119881,1.65223000000067,1.25776977427504,1.26571237211525,1.25798872759178,1.40627008268392,1.4047030060278,1.50008488777879,1.50439449653344,1.53985851367348,1.44415027422635,1.49260001382494,1.43584896959074,1.43468089722644,1.46142364309405,1.58352000000033,1.63229526760282,1.66386290969748,1.66576239607487,1.84458999958415,1.74803000000017,1.6232883276928,1.58602169475421,1.49488386399619,1.50028209855881,1.44565987985147,1.36691600310075,1.2576302840926,1.33065821377408,1.35369998097838,1.299393833342,1.37048666660466,1.28585160979208,1.2876211650986,1.29012570320362,1.25382398872265,1.3095400042523,0.720418248019353,0.718510722059726,0.66419127357037,0.731876989411091,0.69473446655451,0.696872406586693,0.768973960663547,0.808852678005994,0.786914107451164,0.794030750442494,0.792806280488714,0.835856401379707,0.865606145870802,0.920522875480106,0.832946037909068,0.767711564178174,0.718612420578188,0.695192997654708,0.732430574527237,0.732715274794694,1.21028457075056,1.21175116840895,1.28242000000067,1.20003315185485,1.11895795009251,0.922384701967336,0.92726407589086,1.00231000502232,0.92626212644477,0.912389218219954,0.912578579152887,0.931607343633006,0.980589491161014,0.978812147887515,1.19338381082613,1.18183226102874,1.2057962319661,1.2775754956189
0.456259264410383,0.458252757864721,0.436095053529478,0.707799000000669,0.439974999999331,0.593936814513672,0.669445000000669,0.507849005872885,0.456552524693818,0.449468759969927,0.441155400799071,0.435860545017779,0.537353852668067,0.5414486110019,0.791242562762387,0.794403719174851,0.81463570498599,0.612299341227406,0.580244493939193,0.557380250795237,0.55376680163779,0.605788061150974,0.704403521196639,0.734065503588526,0.684071355991448,0.660117816680308,0.605086007596765,0.640072364176389,0.656496080051587,0.664723282379608,0.691076299818856,0.713054960169829,1.06378418503639,1.06243991915176,0.67595656784179,0.682749292420172,0.689330738262498,0.686305905705115,0.724828828752973,0.724436162075844,0.82790442743218,0.836118138636614,0.756538765374839,0.665275437569613,0.703330724819233,0.70258286841402,0.702051256304634,0.739091548365036,0.852160995996027,1.06552915262186,1.06263019928808,1.01572998892213,0.742534792346665,0.740348533753434,0.801456189032958,0.820625419822255,0.860815999999665,1.00130666958862,1.33045,1.4441096378267,1.38092609904893,1.36196999465669,0.925202999999665,1.08149,1.18178000162597,1.13850398449316,1.12666008763814,1.20302862817535,1.20392321578848,1.20993156517901,1.22147642042525,1.27488000814865,1.18831179437319,1.09731235813972,1.04674816331959,1.02602505412272,1.02339222841,1.03969961953792,1.06397756050588,1.06194637360806,1.06533138129108,0.973345005046131,0.938624088249512,0.897432021605957,0.941175670181367,0.96132417770331,0.986595246980462,1.09855999999967,1.40900083778952,1.09973070327369,1.08774057807995,1.0556648092207,1.18849136814059,1.17778864245141,1.19835186916766,1.20590840766303,1.20943397369186,1.51769500100215,1.44165,1.31033365606384,1.31244138386063,1.31564679831384,1.30503015129735,1.49179946435741,1.49153118090264,1.50842852512191,1.54530584989085,1.54547599412122,1.41303469705551,1.41112211230271,1.43139103865237,1.46060371641912,1.46035814205357,1.49994995507629,1.65566955036093,1.65995068635003,1.89038000041685,1.74935000000017,1.68746000000033,1.53789,1.49323089478021,1.45919998257549,1.3408205309369,1.36844277984786,1.259591426826,1.32108974210051,1.37619994661629,1.2979953488825,1.37039333327118,1.30578991211257,1.27601888985042,1.27041009119153,1.24799995478616,1.15953000013932,0.742056827449441,0.734492310237725,0.686582515750891,0.707801231025027,0.700819035199022,0.700030076455692,0.744677221889733,0.699378648211588,0.700828640284307,0.746324001326998,0.801797165642491,0.814919132817791,0.850139545276308,0.841522450738493,0.833692773415862,0.71061344500953,0.700294002296379,0.674159053890662,0.742225490491318,0.778219743958472,1.20338206885361,1.19639204249861,1.18665852115008,1.20145910201897,1.0904299971769,0.822048999988173,0.870235199270122,0.949480997838177,1.22115000000033,0.959293999874153,0.913236453490003,0.931566068853187,0.950281003449162,0.958512602560948,1.04777999434728,1.18124932395048,1.20480752608637,1.33101000040887
0.446201673484059,0.440983377002722,0.438653884065446,0.578933034970287,0.583866135270442,0.590279248986991,0.449250191076311,0.449793771153328,0.466129349590418,0.397220991977685,0.437143202205443,0.459643094265085,0.501697999524526,0.526643904588215,0.760516616707834,0.759724802514246,0.758725416777402,0.611828350301955,0.598773060793109,0.540426844525403,0.552969969056054,0.601024810450916,0.710862402253628,0.752047271942408,0.964009000000669,0.645163011351584,0.641644307179014,0.640554922105254,0.649325816645518,0.667429251579725,0.691671086701056,0.760747004387126,1.09685000710649,1.00236999497885,0.679915630455462,0.675992757549404,0.652669099990399,0.704778857688918,0.764309618217858,0.943168000791426,0.893144503100133,0.911242004221606,0.701269855715393,0.663556218727283,0.657207993629632,0.686402952940564,0.700852749299048,0.753578448459635,0.774577057859482,1.06243136453093,1.06180345116041,1.06076486137722,0.77401411394748,0.769578735243011,0.760856080643128,0.795768806945916,0.983006000000335,1.00321333595792,1.19217999999967,1.34833271712971,1.34956298600509,1.35043670673455,0.890813999999665,0.9505,1.20902000783877,1.14443202337749,1.15498309520571,1.17717586990854,1.27101000451557,1.22313221983599,1.21968517331771,1.21735083936215,1.22744125804916,1.07028000219927,1.01618820569802,1.01946391662755,1.01534463397165,1.02925493782785,1.05695543290226,1.06980400602167,1.06738462329751,1.16720000000067,0.974036123960907,0.898356023106377,0.937474336893706,0.964359461545055,0.985267376669515,1.25788000000067,1.11675000210803,1.09816399043907,1.07880698540946,1.04752615625271,1.08933301461133,1.07739598283555,1.07795917233703,1.19015658031138,1.35611000000033,1.54253433831097,1.3857183333334,1.38599166666694,1.32313027681907,1.32888653309454,1.26772999862164,1.42759,1.52386849497144,1.51362665621696,1.53758661957009,1.53534302274603,1.40974303469318,1.36845999651277,1.39353692156522,1.40558013150539,1.42241181676782,1.47751003957704,1.50299817076676,1.50613099360947,1.51614917944026,1.51418623743869,1.49183594548926,1.49029151210713,1.49097109310618,1.50201447980991,1.43016420726189,1.27798000489949,1.25843828427246,1.31054407313699,1.29737900192651,1.29791185240172,1.29529921835875,1.34181001998433,1.26741353826993,1.25170315457347,1.25586839677527,1.20639000016371,0.770620005078389,0.750044172876197,0.668097201966509,0.732657275386436,0.748884131224443,0.795060222192276,0.808036565816084,0.868092660832302,0.721070711929302,0.690333984144811,0.723096840367979,0.759404176737274,0.77213011408852,0.864888869938176,0.820017672179587,0.819817598496903,0.691602754387293,0.67216347377006,0.744864772535767,0.769703261914492,0.781657986066555,0.932660746135363,1.18237062395,1.18289423056358,0.829712001503707,0.786493926342999,0.813558083442985,0.835045923982226,1.30646040442055,1.29226959558045,0.930013325679675,0.930955809594842,0.928233172950939,0.969690247192749,1.08135000281277,1.16719942677946,1.20460941288965,1.2013949767585
0.437828866993521,0.424569307470142,0.472347805565618,0.517467996266374,0.60416899787985,0.626991154888008,0.749099847948188,0.746082987383238,0.435278417083813,0.426846436476088,0.430291687124248,0.432220055720769,0.458097000073079,0.543307851931958,0.527253724306582,0.581868043385636,0.810781004049208,0.624819765423286,0.586617257588193,0.541870655929651,0.554997500486898,0.599664611999407,0.698195592799811,0.757390731285183,0.645410028045687,0.632478591514329,0.606554511354727,0.641634428642456,0.650197753958989,0.66787140827951,0.69210455718519,0.708748999901572,0.757433999999665,1.06154000502149,0.680155550602339,0.673052028357929,0.626054014685561,0.731201006521042,0.764328091885504,0.762922911535168,0.883885465827619,0.939678001810671,0.687653941958052,0.690085952910447,0.655448100377888,0.680513020076485,0.686908573135847,0.788145465551341,0.795279470390472,1.09979000572038,1.04770210864461,1.03557838417942,0.767397621652665,0.758693290714724,0.7355202251992,0.752349737951965,0.775026942929962,1.02925999445379,1.32243999667932,1.33899027809441,1.33767570168963,0.876971002231685,0.86369178424143,0.857204946222034,0.864226105908394,1.0048491621395,1.18802871892946,1.17638662792712,1.20676183922539,1.21594207160132,1.21676517565484,1.21482656368981,1.16695000158411,1.04413999450059,1.00831528958297,1.03619856090671,1.06442897100128,1.06652457090849,1.08259608507646,1.06741351302611,1.06777206649772,1.07132049776858,0.973346394217265,0.964998730758027,0.967294957585948,0.966852677607885,0.968438374728649,0.970401589465997,1.26481041744485,1.27521958255615,1.07035209886274,1.05654920368835,1.09962069507053,1.14779000835051,1.07818112965645,1.17633157276418,1.23211275710183,1.53435565948941,1.28861000049167,1.34289000243399,1.26896129323035,1.20926995456889,1.24729000311139,1.39286,1.48843862408403,1.4914877808029,1.49444663152126,1.48168974677496,1.39853023571924,1.33302018200455,1.3813748383779,1.45501001407912,1.40865684655075,1.56809000000033,1.4880905428695,1.5014958131629,1.74177000000067,1.47495904731798,1.49601885000777,1.44277049104176,1.44329866581446,1.44366425282143,1.43256772701417,1.32399999708416,1.37415048545984,1.37454364138029,1.37459774367397,1.29937921807625,1.37457726965201,1.30102536092564,1.25947394503688,1.23574422305485,1.23452642351882,1.24575598086553,1.09984000000033,0.787672940848162,0.803027280736968,0.748478422436297,0.739595097191702,0.814688845241267,0.822148097163133,0.877722341116311,0.766753868041353,0.728954135419736,0.702121757592073,0.737252850869557,0.780625889780463,0.832681279021574,0.82410530524089,0.666116360899543,0.689135925217215,0.684097472441398,0.731350233192731,0.799899004689095,0.808541005454467,0.902180668997067,1.17981888824867,1.19134562588392,0.769704866747058,0.769743522651264,0.804961167075283,0.817400791447412,0.870332002057076,0.977761885203286,0.974038121763687,0.932850298177748,0.935595270584242,0.922349237217399,1.08019000283993,1.29784999999938,1.20795388164968,1.21096060088499
0.427938195205941,0.399841081307804,0.451394236211789,0.562701008618129,0.626484000255112,0.649365915427398,0.735100167596935,0.810825365342119,0.434884882304527,0.427779167609706,0.428713046545508,0.466686252567453,0.529105919029078,0.523649124706267,0.530418962438319,0.535477013307713,0.473982999059804,0.81030600000067,0.572434768060525,0.542716607774602,0.558502438310646,0.598011860121048,0.692007486090132,0.859058000000669,0.605119289792175,0.620877126079327,0.607679110390984,0.656747316916254,0.621905816073953,0.694066524887328,0.69289111360127,0.790984000000335,1.03549000000067,0.783710999999665,0.694846772572942,0.67018671384569,0.626872729853736,0.652997997502299,0.727672990483735,0.76043338521469,0.878019284629495,1.00442000000067,0.650128244860898,0.663866466711896,0.68382680310955,0.678920362407959,0.648658071071853,0.818377503329194,0.819182827928596,0.908987999999665,1.00747382280015,1.02045166896568,0.67061416912654,0.725025556610753,0.731402131993754,0.736077193487726,0.744610358292524,0.845815001397573,1.12914,1.3350854581929,1.33623851980171,1.33622439318447,0.767804002273535,0.840595860236974,0.846338703415211,0.9760410101634,1.18709610923393,1.18870267487369,1.2376630331884,1.22235800446529,1.22966832989078,1.23925441334447,1.12571999844956,1.09774865110588,1.04992611379926,1.04051862041978,1.05605863458779,1.09220203047035,1.06954575637912,1.05756097157784,1.06243198157861,1.05395830406578,1.04470998203321,0.988435999165455,1.0986477694718,1.08317235588042,1.0870976024505,0.972155535718439,0.983628259918937,1.00506737265417,1.00348791785734,1.00273137265573,1.04674217957124,1.10773010071745,1.12865990332969,1.16314536449341,1.22513842451629,1.22407882332982,1.2890900004757,1.25060000226919,1.23363101926348,1.19623449091042,1.19713781024393,1.19823962627226,1.33529999999484,1.38489525679215,1.32782029842431,1.34460989958646,1.36408811509222,1.36167510760798,1.35165946840908,1.32526999943184,1.43357115789514,1.63812000000067,1.48576813875534,1.48772145213865,1.48576463632635,1.48287698424642,1.46450014730907,1.43468267866151,1.43534912301099,1.43653182185369,1.42782439057376,1.38223165211378,1.37561853726338,1.3804458076377,1.38646636291622,1.40554828268065,1.3812661066287,1.29896554274451,1.25358943594668,1.2301884437494,1.25518481448582,1.31563999954896,0.783060634556506,0.776825060051172,0.76718903509919,0.698870989619981,0.73540465682798,0.832446926396284,0.827312168358957,0.840260933075677,0.74980857123603,0.726270799910678,0.703437391929964,0.698644922800895,0.673990485854922,0.787382000000335,0.696051429389963,0.699426845296681,0.692296841740555,0.6961287336268,0.693675120204613,0.742687999104197,0.843358543981515,0.872194806863658,0.892458003398656,1.1855940606638,0.828766004918344,0.786858622952604,0.787189670899755,0.787242955238689,0.846982997878847,1.05682000000067,0.910003247483247,0.902417757389308,0.891598578730167,0.922818593638289,0.980463,1.20606571514162,1.20822722399709,1.19350324596976
0.417567695124984,0.397521424028536,0.441945961615426,0.528521428061892,0.684171427913945,0.672815162785375,0.701239697649414,0.804543634658885,0.440476244817214,0.405684305138654,0.427437285634983,0.483986758791905,0.523673510350434,0.641510998909387,0.47741399606213,0.540026727100019,0.544987796921776,0.480070565364725,0.594136647278564,0.55541852183312,0.561700506145901,0.562994985669964,0.64404213088071,0.600153989548738,0.642444026434648,0.641517096974099,0.642644976237697,0.658630885688463,0.60766624893976,0.676061776005276,0.674442591687369,0.625184996075892,0.883477002234122,0.955792000000669,0.657082394022243,0.660467777928083,0.618383591097063,0.700403006165042,0.761469334754155,0.867726326661502,0.867409274141773,0.866729579280812,0.639457549413348,0.618187993028907,0.664946365962522,0.674456760821715,0.683435812179077,0.652921408403997,0.836024678095918,0.984580298551628,0.998697835284036,1.01929833561322,0.692553891569862,0.701555181045557,0.714697975567132,0.724648579170361,0.733884673012303,0.811378714482154,0.85459504774734,1.32624211418904,0.822549196750028,0.767668817000916,0.742573537717914,0.844440597743267,0.942059003018013,0.950766689924477,1.22746000524236,1.31258000263936,1.25740000179417,1.31257974882713,1.29115678128286,1.29776204377627,1.19265991874568,1.1051643468236,1.07217982993758,1.03640781458705,1.03207480833751,1.02820091058535,1.09980672072719,1.11229158811175,1.07140003921073,1.0366858651793,1.00877037937635,1.08117029796142,1.06212915691425,1.07968853667139,1.15085656156293,1.15032322238223,1.21079000163564,1.05379000401317,0.983764962188199,0.972758737262766,1.06619180829739,1.03745698317328,1.10277778903828,1.15134521825245,1.20683999505172,1.41720914496861,1.22265999999967,1.16746999496267,1.2113682335737,1.19566695202214,1.19800115876014,1.22892000549017,1.53463224734799,1.55785142762112,1.5642193680591,1.58869496359544,1.36126343894536,1.38614954555653,1.34477212512355,1.29682998951335,1.40318996881726,1.56122000000033,1.48802308565304,1.49014784345598,1.48993856804772,1.59667000000067,1.49327997767319,1.39477101137683,1.42530056756928,1.45156388182206,1.42722135266647,1.38433443729192,1.40230188636999,1.38918858397392,1.42005988524044,1.38600588403409,1.38768553751516,1.30911909660626,1.246279463254,1.23130544005282,1.23471347839693,1.21294923500835,0.767059927753759,0.768330627832387,0.769126324500035,0.764085880741028,0.745394769035634,0.759618396309465,0.768084636413784,0.759480473478801,0.743462114174959,0.691219283336837,0.688799934619178,0.694419593326649,0.711701912265688,0.656350602988731,0.666246280941076,0.683105157101232,0.680561431957577,0.674486305029628,0.692453055616042,0.84499996537616,0.832696950558975,0.849420103422543,0.850746956613622,1.03338000000033,0.745604998926806,0.805553426921916,0.787364770769112,0.787257809938511,0.791930113086376,0.867766999999994,0.916593078306868,0.898340219794089,0.889784322117392,0.888328095115781,0.938872830141315,1.15911999821671,1.21024807050467,1.21201086244422
0.451843094879906,0.394591480981114,0.487309002790322,0.544913567053605,0.573874785221507,0.665795709333854,0.701442362359571,0.725330167244697,0.48464422506293,0.46685275098096,0.427440464257414,0.42171820821675,0.52214249723285,0.680695007045676,0.628155990695478,0.660600396847733,0.696977003350464,0.481008238813981,0.521336004519813,0.540032041488504,0.562832552949183,0.574879596501085,0.65650587401401,0.827338000000335,0.750720000000335,0.640330729056052,0.640638061039289,0.612374943167772,0.614807946675987,0.646304448278927,0.672528034739207,0.772733,0.864765075087924,0.886360922678288,0.687202703496061,0.663494667891063,0.617679639640073,0.65936881078888,0.762806668120378,0.779922001224251,0.810354860080311,0.858893657331312,0.647441588305166,0.57835251391785,0.596284892999446,0.646163998305843,0.684008459150032,0.722244727894858,0.655914800479507,0.653300728009824,0.74327068182685,0.985784999025875,0.984432999016668,0.67376749388764,0.688922533820102,0.71101409558239,0.770102006502115,0.815755282159085,0.867083951156534,0.77140873058426,0.756440158529267,0.750469081836742,0.753423629185491,0.777569004275453,0.810343165230868,0.914592470837151,1.19231500502761,1.22189597764074,1.2303038613764,1.29471256955612,1.2851054777887,1.27810122678976,1.17120008730403,1.10658822530307,1.02845219183771,1.0262863341209,1.02330860196558,1.05911000361976,1.09061043902034,1.11880102898952,1.07686170302836,1.05027463664884,1.02234963430885,1.12222000644789,1.07221454283221,1.07614764558821,1.13132021442021,1.26490000000067,1.00296999999965,0.95746696822159,0.969147321311814,0.973597264987697,1.06933178735412,1.05148365121377,1.09346503375081,1.13129716893766,1.12555095667206,1.42759086325672,1.28140136370719,1.30639948978335,1.22849094686814,1.14219999191457,1.16746008138019,1.2912500054065,1.56706904457281,1.56507145672128,1.57135470186863,1.57079607024232,1.3616268593145,1.33522054718879,1.33833622567593,1.34242266264556,1.38810000382784,1.46741986965188,1.49942718566241,1.49485585170864,1.50697892853883,1.48147190875641,1.50192260657083,1.40985905225232,1.38934716471082,1.34823832749357,1.39714481882727,1.40567406195233,1.31556999493357,1.38362352865397,1.36829902501437,1.40673419032902,1.37156100149108,1.23489043366979,1.23292418144726,1.23309970787047,1.2199407777869,1.22017965821331,0.749056876772349,0.732236012050336,0.721638080860553,0.677406190619979,0.706992994682753,0.791803490058205,0.778178431502449,0.811904859833348,0.755714447323865,0.679591037752003,0.642266863146859,0.641812466061866,0.62264643536423,0.668139712257263,0.667030891502682,0.709249480605765,0.677767833836238,0.675129517224696,0.69615375957668,0.853922498720049,0.846196121237185,0.8485477060802,0.850412701706635,0.83764042433077,0.699162547507961,0.736681964644265,0.760749209475956,0.781262694923264,0.801803815322736,0.814557331761134,0.862761318744098,0.848905699188771,0.837965793298849,0.85661063131731,0.933516169857574,1.31989000000067,1.24965209383331,1.33026986371886
0.475415472715099,0.448305003056458,0.404375993364132,0.474544125342211,0.555795211708523,0.660363801539513,0.731916463804372,0.724374312869978,0.469213786171799,0.431452675194746,0.428545143628654,0.459693719972034,0.57727443152637,0.554917566554914,0.741062278597442,0.734214958472103,0.730156391708841,0.482106561007932,0.498089173663051,0.562409803788573,0.563052436080196,0.605507283264967,0.736802000000335,0.949612837520175,0.603279349896198,0.608602907353959,0.600091618927249,0.589234533622198,0.592946318644231,0.659795036292114,0.670248171714441,0.88721000000067,0.642124912009132,0.62079808477656,0.67083666665616,0.665536581910836,0.645442888932932,0.643628531747107,0.641511692310131,0.748735998651741,0.775909976558867,0.818897001348594,0.636817195104787,0.597464788166881,0.599222687055363,0.625961001858884,0.628198447426752,0.702979973958235,0.656412931010779,0.667416116493905,0.711307739771478,0.66232960076991,0.671035954059246,0.687232028243123,0.638084840659561,0.673678816896649,0.680093949691331,0.857605971333119,0.908008224945114,0.756283614826815,0.750973307665941,0.741898878554917,0.757754750973039,0.743896330992503,0.809375831910767,0.883718926216464,1.1954150046982,1.20615195278637,1.20664695978675,1.2484576241638,1.25470676723804,1.26097165149517,1.14273999395029,1.0980851026474,1.10860367853444,1.02474860022782,1.02274403695623,1.0869998335136,1.20870000000067,1.08675572780498,1.08106126831577,1.06370478155295,0.992182988738216,1.03646009073122,1.05418981552919,1.04862068065378,1.04329574137998,1.16966000000024,1.05732707897409,1.0119900114204,0.965588899906822,0.963114417618464,0.961135954948268,1.05284358644298,1.09650980891692,1.13919773043099,1.15577000601878,1.45183999177601,1.29624194562037,1.30457720088977,1.24549465410062,1.28495000637978,1.18113992113768,1.2494199945935,1.4752309693147,1.56256136532416,1.56244897893665,1.56248353597719,1.36396165135332,1.28563782817373,1.32568807472523,1.34327849931978,1.36940883130575,1.45498012936985,1.48379970012342,1.485510164085,1.62999000000067,1.48158550955626,1.44280999997435,1.35987820499014,1.35453011405532,1.35167166107017,1.32255039661416,1.34146656994131,1.36109990413095,1.40158839586813,1.42536000362411,1.35773559754346,1.37350331554952,1.32596000000033,1.23095292782,1.21947905825046,1.22191882726579,1.15662000006231,0.725826905024279,0.720720884132467,0.67528340603716,0.677239443397713,0.739005244143328,0.800222468613702,0.772503088925051,0.761604759699955,0.695270999999665,0.626742086851219,0.643441845757957,0.642526878831365,0.643005244193138,0.666752428201865,0.662188327888819,0.663374582533718,0.671771712111463,0.662269405805288,0.670154797394423,0.770416000022867,0.80191696833464,0.82013539478072,0.835059226292647,0.848519367771285,0.70114670801776,0.742296553769013,0.741652497831782,0.741409064298741,0.742584342049625,0.812758665129054,0.840561058258701,0.841485472125324,0.841995549024413,0.841052125380873,0.893974999916596,1.18777999951767,1.21851571754932,1.31019013603115
0.496475903888276,0.491774831528944,0.448888581041065,0.495559028648219,0.594619986888378,0.655322960381019,0.691090409483544,0.701777286713694,0.433612368388009,0.415112428948695,0.427450453150307,0.480142078527745,0.51188544990058,0.601117378289743,0.769326991771595,0.756874403484802,0.766971884125345,0.499665861172207,0.517431729994582,0.532436254226195,0.542139126059936,0.606328898281735,0.634921999958159,0.930207162480829,0.837200000000335,0.612941657174247,0.59851241632523,0.570834324876966,0.610235368236076,0.665448525067574,0.667555301553819,0.664223127676474,1.03270988934504,1.00708717201894,0.674755035362143,0.666125507477542,0.669366659050522,0.635602542986534,0.693575577969067,0.649365926356754,0.654783658033057,0.645692996603124,0.638178784547549,0.57447444394117,0.623299036501619,0.623456006888603,0.622215670894414,0.705639314813837,0.661597890536333,0.669522519384618,0.740259854873431,1.05690000000067,0.671301776150141,0.648774749325081,0.619241331219214,0.667629799652697,0.679256449595238,0.843198030628069,0.925837776152016,0.776473508461424,0.744959298447878,0.712383630893736,0.706206329855035,0.690124763709265,0.85867536419523,0.851885178517346,0.845258548272017,1.2197033405381,1.22203930362029,1.22264778365769,1.21979465919061,1.216575921958,1.22893568308734,1.07851999352043,1.02276686291441,1.02377258138847,1.05320341358634,1.05962009770715,1.09890999890549,1.23488000026834,1.1129233928294,1.06114485459164,1.05786576965959,0.952762998235747,0.976346995299575,1.0225025941029,1.02758038159849,1.17278000000043,1.06938088428697,0.961850168783192,0.962111783958442,0.95571041882201,0.954664803295896,1.09126004170679,1.09493732563763,1.14834240506863,1.20048928318952,1.23759000209285,1.09580641272258,1.09539292212877,1.11761789522827,1.10917548338431,1.25371916309303,1.41321000000033,1.4687601087205,1.56142178831416,1.55834299653297,1.56122136664819,1.46418000000033,1.28802411899914,1.313929785644,1.32259252373587,1.36787476110866,1.43369999923066,1.48683570211626,1.48578031579905,1.48473140090612,1.46070895526649,1.36889818483102,1.38790822146068,1.35065539631337,1.30300999165597,1.43989000170803,1.34357323150115,1.38599999958578,1.40804981610732,1.47530000613443,1.42063008576558,1.33713992857828,1.22706146508228,1.22899397316895,1.19876007281567,1.14872066660824,0.804936260899498,0.804880968570332,0.702840552498213,0.674806866797384,0.667598523482243,0.745354417671745,0.761529737946102,0.761654185418054,0.752974931826694,0.768732731020361,0.615064063602441,0.601116738136112,0.609800323020886,0.60415003731319,0.714691991518683,0.701155575375785,0.700524894604047,0.685718541261802,0.661703822332548,0.690462399835525,0.713682813238666,0.802856516130273,0.804473461763382,0.806088399796103,0.712991823324998,0.711703182124765,0.681510659957775,0.70677484527245,0.718566583655485,0.760222610925818,0.898853000000669,0.808738837260349,0.803448847820686,0.798004308403011,0.850066590956473,0.850135988141811,0.860064925684111,0.983495720950196,1.21541380185398
0.50028063402872,0.470967850786431,0.460859460663525,0.510119554941404,0.595574426516684,0.649818555811607,0.694498709374667,0.69759642457336,0.430329883691438,0.427563987515462,0.427419355765274,0.481261543555027,0.510658685136331,0.608750520499137,0.682537077885956,0.683169939018331,0.545652403627812,0.505785537804965,0.511370077383255,0.526681573914088,0.534044279832292,0.605051811072075,0.682248372767714,0.713821723169153,0.67309381401516,0.615840007868421,0.609322626615068,0.609640390297825,0.609531173158627,0.667948334607281,0.669258210146305,0.672223035703222,1.01394368522861,1.00939471669953,0.67217549543363,0.662824186257856,0.660142987783475,0.656486560527513,0.678832124184899,0.667909915515094,0.658996360780622,0.65664819607743,0.614273863765685,0.598751454527357,0.622626979606701,0.622800231857426,0.63682163538163,0.663744688804668,0.682164397476466,0.723668986818935,0.7693752178203,0.799473750861155,0.681309431334986,0.657262377158287,0.640589829836886,0.659805087171483,0.688013971264874,0.743550363899979,0.756226808886127,0.755463590330712,0.739044896918801,0.71405026911069,0.706372086237317,0.705913258727182,0.803321160556497,0.830992497053324,0.847803125516752,1.20858097650294,1.22211856735942,1.22231189095405,1.21322893234494,1.21254852117547,1.17910670341005,1.0615868452152,1.02255719008633,1.0231872691056,1.05386680841392,1.0831492757082,1.14329774172479,1.17315373617205,1.13833057072354,1.1006893789693,1.05106720333689,1.02292743591906,1.01216487215242,1.01756028168817,1.0339328350184,1.07597324800789,1.07272477355726,0.983382887323348,0.960042053638899,0.957578771867282,0.963480367560874,1.0636307992792,1.11878679981146,1.15557069413526,1.19959483295547,1.21683265948093,1.0956576677165,1.09548903166606,1.12266047266896,1.17051344135679,1.25546694941985,1.30784681324012,1.47496355586789,1.56248540927736,1.56088885242192,1.5617860620618,1.3634336206811,1.30037679437291,1.30618650424139,1.31136342148884,1.37572387129656,1.41377577005308,1.48387268655177,1.4846757872761,1.47392035177255,1.47351517671586,1.36024711466987,1.35417046388067,1.34729995495475,1.34438006905866,1.38997466869579,1.39089041935424,1.40474714356104,1.42347937741888,1.44204567402332,1.40771040359314,1.31890720761271,1.27863838325493,1.26043046217271,1.23382987821804,1.13742366655736,0.853716126714406,0.802312368002289,0.688961482228558,0.672508628606213,0.669990596551923,0.732774026949595,0.761642502581624,0.762058358601168,0.763409371768141,0.765613103892637,0.632144005505776,0.621856985414993,0.622965587765572,0.624024051096344,0.686503194277422,0.689103843695011,0.700453424703399,0.700396001568926,0.698669993464275,0.696841218453845,0.719888122644862,0.750558913311825,0.769951680436033,0.785549133407666,0.759008109220562,0.698979731374489,0.691186075783061,0.701847856084484,0.706649421948457,0.748294439584207,0.770398473047713,0.780358130891561,0.783910519152576,0.789869731134022,0.821585844901655,0.835511897712377,0.858167693546055,0.955967270506953,1.19391918333455
0.502541390431783,0.463073121578357,0.414669003266204,0.528826847281471,0.596551987000241,0.646547028466431,0.726785871747499,0.708697126531338,0.429375077341645,0.427387563652069,0.427264044800926,0.482591678509694,0.509472649806817,0.616300542877688,0.682213127780851,0.684060190003509,0.467632622922677,0.469275959822463,0.467640370914345,0.520851750399464,0.528759399512237,0.603781951504931,0.749150000000335,0.938481000000669,0.619875365406948,0.61879334592516,0.609065599929605,0.61010052036844,0.608738632457831,0.693351964218253,0.672118392281521,0.674537417048156,1.01949067016376,1.01010688647653,0.670836759255488,0.659146947382271,0.651904263468128,0.649971879232791,0.765142834725922,0.844006000000669,0.735329204037527,0.841793205363206,0.599101382396069,0.56621361897067,0.621701057614935,0.622203316369331,0.660037555186064,0.622746969853946,0.709081986291851,0.891628626001644,0.891671143111986,1.03904000000033,0.69373911371375,0.662147720081379,0.608639208532972,0.651837662626463,0.698319709273987,0.732975469878572,0.756469370057981,0.75450952861939,0.734617934840815,0.715421490385061,0.707806601980367,0.705719116723505,0.776862998402077,0.809317587397616,0.8495211420461,1.19717458373488,1.24182527378779,1.22997839892213,1.20959040608434,1.20506553639854,1.16027999609497,1.01478439755008,1.02330995694517,1.02408167390656,1.05581114407118,1.10965992847104,1.20879030431362,1.24331499712575,1.16665542887024,1.24385000000067,1.04380338940006,1.03768662942561,0.994237498084584,1.01332516056118,1.0404230495707,1.07933144643828,1.07874852727039,1.01472994636233,0.959069050308228,0.957002770115728,0.969400641735615,1.04598980995865,1.16366892602822,1.15942328552425,1.19808928321519,1.23383000051662,1.09572408870602,1.06717999497929,1.13018050436269,1.23777999863373,1.257183162536,1.26001995721802,1.4846131818933,1.56383472921481,1.60642000538061,1.57321109268262,1.31620000011595,1.29443724810854,1.29532231552012,1.29653273253078,1.38428601404903,1.37985213907919,1.48283342712554,1.48428427681654,1.46799212953004,1.48127929743396,1.35323605597068,1.33342219875368,1.33601626194227,1.33882424178217,1.38883234807593,1.39156286475216,1.48549000433702,1.43832679973635,1.48784000494014,1.39354502740908,1.29981019923338,1.2993697210972,1.29268909029053,1.29691228335092,1.12640837346389,1.18123000435645,0.799738758204215,0.667672768857385,0.607806822135489,0.64953182467193,0.721538858571857,0.778037598400251,0.784082479056929,0.908360666667169,0.909139333333835,0.65357784034859,0.619635067177775,0.622345600972102,0.624127778523794,0.679939934933136,0.684412323858474,0.700838864368603,0.701324024747263,0.703693089191513,0.695225766241589,0.726020237193683,0.721883808689187,0.75162578943945,0.834565996784412,0.866842003938396,0.68337065680288,0.68004707596228,0.693957565965046,0.695397595874765,0.739986431435415,0.753542081955906,0.77879251633893,0.780271427144584,0.778461504786921,0.791458939496986,0.826119660015123,0.856623322431062,0.932401289234093,1.19154941724067
0.503714588763806,0.443255837231241,0.442023171519755,0.480998212099594,0.415095999713782,0.644040247489241,0.692539780803512,0.715410744758704,0.422899406551126,0.424260106128461,0.428507647320348,0.430403055291541,0.470129472297446,0.688966907259029,0.688576039522056,0.686510785241892,0.468734875438406,0.453372617483841,0.450631621132618,0.452048743573009,0.500068535215886,0.508184159195136,0.661249,0.790285412981627,0.781284175554158,0.625411518039778,0.574228106235718,0.572878826824658,0.608779564258097,0.626595994042756,0.670294328813288,0.770651000000335,1.00605628593373,1.03262965971465,0.649125072063096,0.655934424967535,0.625711221155307,0.652543202759878,0.753664165274641,0.617852833266037,0.70393155570178,0.860100794637798,0.600383958964445,0.566711714492727,0.565849937912836,0.566332059436619,0.565429628838689,0.619307225905467,0.669639758754744,0.891387988178243,0.89167748282983,1.1264523112832,1.11842544495956,0.643663879184428,0.632796779023217,0.645361058852097,0.680162118226964,0.757224772801741,0.786726982287736,0.733590538636766,0.729881497888698,0.68192235787808,0.690860338372975,0.710431842427876,0.710713407951128,0.788181342309114,0.856779512053706,1.25404057687854,1.23740925796085,1.22985951554722,1.20617837653059,1.20191239731969,1.04092079484005,1.03723889099696,1.00616336400172,1.0250651723129,1.06287967415452,1.08104036892038,1.22762075026284,1.22801394829914,1.07978006553565,1.04799000000056,0.972304206018263,0.976146728704223,0.930036996998483,1.00996698387243,1.01016794638394,1.05364000507986,0.981745999180469,0.944801727072083,0.945757845417855,0.937171899778739,0.988553639483108,1.04966981991997,1.01818036533064,1.10617031486407,1.11399242894849,1.26666000737661,1.09797633016736,1.14955383965317,1.13947769179689,1.14303146233473,1.17891000379223,1.32352,1.46825762060672,1.56205644912999,1.56069263982107,1.51804999037234,1.49247000000033,1.27159548903439,1.28714976655957,1.29927842890204,1.34668999840102,1.44348999615778,1.48427965945204,1.48613728299119,1.4880143556871,1.48832460461386,1.36178725524851,1.32506498927073,1.31362384409752,1.2777312526127,1.42161001314703,1.36726040530334,1.39080738639365,1.39088240486608,1.39200933908585,1.48497999992688,1.41225000000033,1.29611236095573,1.28890232876003,1.28439619954045,1.22945298532418,1.22342959490798,0.60670812507883,0.606810192941335,0.607908261081735,0.638340184281217,0.715113667170596,0.791069463973321,0.787854280429954,0.822194001541061,0.628157329457844,0.687446018601539,0.631179261499676,0.627600798483838,0.623654996438181,0.65925724755345,0.715934811759233,0.699181638872855,0.700104928885674,0.736665013610299,0.650529934885759,0.692390832987058,0.700908163858196,0.727025810226622,0.770358997877585,0.762421858047414,0.700802362127094,0.718946883834245,0.693700143022671,0.69372852558,0.719238952947923,0.807772065429154,0.760792469299842,0.783157029635486,0.782207029340785,0.793290366737603,0.821190389624429,0.825084940239958,0.912053264427888,1.12815225105812
0.506421185181185,0.414625988873242,0.468287901864014,0.487037788314445,0.630016687649745,0.641110489464851,0.695656350973576,0.411317094491356,0.454096424341033,0.427752802393926,0.427622380575349,0.459064524748429,0.456349737483792,0.629634476518105,0.628140475175667,0.692047020901206,0.739471808910336,0.447865096797282,0.451142438050327,0.432521747653393,0.488647393058771,0.524228036894305,0.590540002943839,0.788548407471148,0.832994003994071,0.62997008121319,0.638339478892866,0.580031105285373,0.580152479945537,0.670085908599684,0.669729398298321,0.699182000152586,0.860345,0.950350166666904,0.949586833333765,0.663621861607636,0.628727767463631,0.626523220319429,0.690866,0.617684166600044,0.67254375892005,0.621300981197887,0.611260716609846,0.605105966234924,0.566684708624391,0.567237071657071,0.594508266781729,0.610304854553396,0.680678232940985,0.852505201711609,0.877862716468621,1.11316224375858,0.65176400030263,0.635974255988364,0.634590655025899,0.640841210281308,0.649182467242984,0.732033996232508,0.729310802038086,0.728399357337975,0.723968507746669,0.683122663848569,0.630097836134787,0.628642211044044,0.698666133959938,0.767714085892582,0.877192004388174,1.18486999348971,1.25161860352384,0.936211274772389,0.927468139794354,0.919012635368933,0.959431993433419,1.09557000182364,1.00878996953162,1.02633001179764,1.05878219289954,1.09950028549518,1.14278945450578,1.13586055225058,1.04599596359695,0.974215419356534,0.98728792241997,1.01131934870929,1.00962637616042,1.0098487431178,0.991090826471361,1.02215089336304,1.03662910695453,0.946321911907977,0.946315338871585,0.946286289897641,0.928911669202353,0.999013396132621,1.09383999936955,1.10061995033946,1.17809979987313,1.23584999643973,1.08979999400783,0.990360235468442,1.09043234040045,1.10388333682039,1.16067999866064,1.43171333434507,1.58254000000067,1.55932225767957,1.55370444957561,1.5477572177788,1.37582,1.22215998960434,1.27140293248032,1.27358721771296,1.27414543770984,1.46215000048997,1.48584266347488,1.48830935072919,1.48994870740657,1.49227745698195,1.4587000027101,1.2880670316528,1.303620047984,1.28802467500609,1.34884038279303,1.44488000558796,1.38840829996361,1.38969472363961,1.38291687222537,1.34309999997493,1.27162965419487,1.26470903570372,1.27100800247537,1.27951503108827,1.22454082145325,1.13302999999967,0.692912,0.605589529143435,0.606775335294197,0.604772991680072,0.628977415890553,0.781255174588653,0.739821017119342,0.646957999513905,0.648162263608517,0.646420399614767,0.61191020515757,0.653681594687317,0.672511701834649,0.694638007787602,0.641042709178858,0.731928951016222,0.68376174373393,0.636814849838438,0.63811174465184,0.620115320610663,0.650120278880501,0.656720647787332,0.643783408069889,0.752856731191107,0.714929983753904,0.691275996730075,0.691535782349665,0.69561693106481,0.697202895934756,0.796037941483874,1.10113000000067,0.78628529299635,0.76555939428394,0.780511732808622,0.825265210810633,0.866316842024664,0.894239887223661,1.12822118674325
0.512965406105518,0.465475834694151,0.456640163862228,0.505738332617718,0.506471665883478,0.638127264468981,0.704465132850316,0.670616861990787,0.406902672817494,0.402172258166079,0.420983092420647,0.42408299753295,0.507529005001885,0.611119858537183,0.701767917750347,0.703722596030503,0.718830779668714,0.431481276634563,0.423073325540296,0.462804791737219,0.472567932241536,0.517556306981774,0.555485995952331,0.719270000000335,0.612540941633268,0.592730038627145,0.577126752746304,0.567604405597861,0.542304448678006,0.615185002323884,0.646939558716789,0.6563033279415,0.631850903566257,0.622250625380664,0.621534813332027,0.666787124328123,0.672671906994822,0.687151736079245,0.750297999984303,0.814437918821527,0.817139280076741,0.937274995800972,0.979866997477329,0.644987006138165,0.567002399175025,0.567724906666828,0.559064871710395,0.702988097607882,0.702010375287138,0.851141866155487,0.875095605233171,0.867050106991298,0.866420128607697,0.588942260218122,0.590807115927115,0.63253419719196,0.648413724899233,0.72597380674232,0.998810999185784,0.702169550158169,0.714586540877134,0.677411690698157,0.631557198821021,0.626460312365965,0.694005422019107,0.74801266216875,0.935026000000335,1.22222000653133,0.907930005877309,0.880310994206261,0.897340034641062,0.918443825015659,0.988072462156911,0.990183365648094,1.03147880640332,1.02851932744082,1.05421742934912,1.10109841580052,1.10906262872966,1.10972632391017,1.01497247803758,0.991629764886442,0.916916824244248,0.910548175763408,0.976244985827986,1.0098604841973,1.00964835596451,1.07694000449264,1.05454987394558,1.01664155750209,0.969397220596288,0.96084984911529,0.926381678823193,1.00146941500587,1.00563417910046,1.09380162934764,1.18246226549931,1.1882779346279,0.974278989806376,1.01756827740992,1.07049205015356,1.10181667013262,1.13517999916024,1.43120666766874,1.50208032413946,1.52854136342092,1.56425296139201,1.65724000000067,1.26547029079936,1.26701631933643,1.26928352267876,1.27544324505112,1.29687987336623,1.5210556779313,1.62099000000067,1.5036318857502,1.48944141214817,1.47386437029194,1.41201763999903,1.39828999381619,1.31406650571807,1.2931661530876,1.37072981176015,1.36620980140034,1.45156959631005,1.42912106871764,1.55547000000067,1.43036999893019,1.36130999826648,1.25748932150457,1.25631820200781,1.2549463003546,1.22518650028185,1.21647010197933,1.06816000000033,0.603985171180735,0.60078579001323,0.684300006377636,0.630922001876468,0.641773575909432,0.716129659892075,0.909722000000669,0.859815000000335,0.704216508911839,0.656675437180933,0.66828844842596,0.680612983164081,0.721526645023955,0.641456332819822,0.640290040463392,0.651180475767044,0.643410403048788,0.682058465130901,0.663827891197247,0.668690880101849,0.661245880451801,0.737075203517748,0.750222209566401,0.637132029961075,0.659855956597533,0.691207674386357,0.68855853149838,0.711106414596148,0.909381166667099,0.910521833333571,0.788231853394843,0.789130304052659,0.732346933261809,0.77286300270264,0.856545098150196,0.881895571056492,0.91054800504638
0.519630136910148,0.456355277833767,0.458528696661103,0.523761224483633,0.56667,0.634445516486055,0.65509959886127,0.653936113133108,0.446042013283543,0.404610252801135,0.417728753078284,0.411048441489286,0.467170805167009,0.612275193196543,0.760546000124749,0.705944186500777,0.708521719564908,0.419710426132532,0.427772160699201,0.431597340403683,0.459773347925965,0.504295185808252,0.615904497231765,0.615094497268417,0.566386524705791,0.57361184582425,0.579513142077093,0.5691322477614,0.56713940409298,0.583381991793664,0.637760032400543,0.682494973480281,0.623046647921792,0.923388383143385,0.913295124741619,0.721873348954465,0.715579851940327,0.685155446159034,0.685065093555171,0.784018336595523,0.818470823425909,0.9646453136284,1.0045350430232,0.612128444449401,0.613684750810359,0.593352406922057,0.583785726867755,0.595988863066483,0.708971534370668,0.883177269702615,0.878412961920014,1.02138000000033,0.640543995624054,0.591643268313501,0.59344649231817,0.625765311824567,0.632241247102307,0.681181996107266,1.0326480642771,1.04509194079854,0.746291756957983,0.679399279894102,0.669688984713958,0.626793364729963,0.684125591433404,0.729041302120026,0.757607793870672,1.27512000000067,0.879755381551291,0.865713607916252,0.888155498228238,0.917351443967909,1.02871986557891,1.000270335453,1.00015863174327,1.01906885267353,1.07535975385313,1.15074000784056,1.10147200880275,1.15316000918224,0.945723049460159,0.908865463664427,0.88676875756446,0.872359639373192,1.01249379275864,1.01580706935456,1.14650464636101,1.15730075334123,1.03005005794357,1.0162082300315,0.998323823522479,0.999667679217403,0.953447998057909,1.02762975038997,1.05165001062164,1.08604390750152,1.25021071403013,1.06290999999951,1.00641150708886,1.02755704392025,1.05105528714916,1.07353000115051,1.10832999835882,1.3994099979977,1.43704999757923,1.4653923732503,1.49961000615288,1.24039994156733,1.23279406789475,1.19181000150735,1.26265439529592,1.26427540921173,1.35247,1.54065509842139,1.51895482779562,1.50900958024679,1.50451902883153,1.54163000767936,1.40976414750501,1.43509823959342,1.33093236985524,1.28117416293999,1.30690998980622,1.41970134870182,1.39963877452301,1.4130078557319,1.39985547815334,1.47628999699378,1.40188000173385,1.28472999976313,1.24239759751057,1.1963549473346,1.19697494459509,1.17461999831406,0.600516657916287,0.601866323256925,0.601043986066749,0.588387728476337,0.674263008510264,0.718905846975288,0.689585187165335,0.656463474530096,0.725178731802032,0.708776153560141,0.710176809324544,0.675784308911491,0.687216737819,0.699147263971114,0.753760001963539,0.641709000025343,0.660667675468967,0.767004000000667,0.683897128180045,0.670674435286945,0.628889842651397,0.651519419943658,0.663877698339081,0.680552414549016,0.698601584954723,0.688036863735957,0.688557355696315,0.693454529331283,0.693401038512353,0.826834000000167,0.826234000000167,0.760176566044856,0.724828031430023,0.745946692882909,0.72248633645714,0.867383428842872,0.867994383688821,0.867901780045158
0.525639578629978,0.532112796900607,0.432252129684012,0.541689780705243,0.626581088745866,0.63055808257548,0.653134971218092,0.437671563801872,0.413419242738004,0.406927161911981,0.424381243605265,0.428245077997709,0.460479188734676,0.58618833739181,0.666827526633152,0.666570577099193,0.666195742809608,0.466780667267864,0.415551552512282,0.425089033343515,0.443043418317748,0.442880039440945,0.504900910890396,0.650298970201445,0.551752716800831,0.551287152539038,0.550050434378913,0.572655256943247,0.554605850191402,0.62142805260684,0.627758975659148,0.684334971770857,0.905004007930151,0.841675992051643,0.921920498145024,0.733130381528709,0.732601743586464,0.666846337926571,0.686296262701647,0.816152729772229,0.818004572221593,0.981866982994767,0.983693880296,0.601986484844088,0.603002116559624,0.599296727468666,0.607258966367172,0.607358933879214,0.676419998783374,0.765329316154209,0.852226114241154,1.06231392930251,0.670645004375396,0.578194582513738,0.586760738793247,0.604134260246409,0.605567010315679,0.719153002084889,0.799319173079214,1.01621000143689,0.778032004189847,0.694657844022675,0.637649167487529,0.628116845625108,0.661287002936178,0.710721668396701,0.740713532632799,0.824405742571137,0.809762334277051,0.818167950309264,0.826706576151601,0.846856843856166,0.869951886884239,0.905286666666499,1.00155715491563,1.01100313706031,0.908443999999331,1.08315010395138,0.921840933043754,0.90584216223595,0.903648999272149,0.901310245717287,0.822378027489623,0.880331794645743,0.980532497044342,1.02161415111703,1.15207459745852,1.20128000284058,1.03081006129478,0.996580656241488,0.997458289898694,0.939784991316169,1.07395999244746,0.998539953917127,0.999235294171484,1.07805261371165,1.2412594046681,1.26011949475555,0.995945406847437,1.02552833651644,1.02569364063328,1.02531492251136,1.06163464056275,1.24359458343187,1.3825563590918,1.43917241203814,1.46963999742371,1.52421000208357,1.22440599222681,1.15994999071696,1.25852454345556,1.31942420452672,1.47507351471594,1.47220683862574,1.54835967539528,1.5157839400147,1.51375945179047,1.45222000013809,1.43300997632681,1.35130997490697,1.34803300229404,1.28389817832024,1.2830827453513,1.36786772170862,1.51271000355288,1.45672880473347,1.52042000653233,1.49152833198775,1.31091166999478,1.31547833663602,1.22797964891536,1.17921010166355,1.2322980627259,1.14102166571312,0.645483028772815,0.623113396901921,0.62150942902909,0.632815944433431,0.63561007983469,0.663419294846903,0.669662650715294,0.662893063419282,0.670151857810001,0.708228809382392,0.63896404273317,0.661312539803331,0.664082653413232,0.669887297826292,0.678598173599332,0.715867014502215,0.669436564524025,0.68653080734358,0.663387990045934,0.625193895413471,0.632127005768976,0.64525607945625,0.666652349787706,0.772812999999984,0.669599769866565,0.685836338655289,0.687513735912738,0.700420909846944,0.686470307274368,0.743436999999977,0.670547996310058,0.712923901911056,0.680390882436659,0.663103503736299,0.702676953203783,0.641615998297677,0.715529197252355,0.652276999999331
0.439531045570115,0.428233530925006,0.493422749705193,0.49443741217801,0.507594845010357,0.54603260715732,0.654820453217225,0.450759655400039,0.400392997632633,0.409364982863583,0.439794454022322,0.506652463208974,0.479137347575392,0.608853657130797,0.685715513371033,0.659030209841724,0.652359090978356,0.463619333942639,0.379315997134727,0.378019997127122,0.443029568857866,0.442738704963851,0.486825091299276,0.639475036387575,0.561042239340936,0.544181273516932,0.541669716423923,0.576402956319764,0.556735450943831,0.565419839224021,0.60887960208542,0.610936993685471,0.824788998280986,0.917997612496797,0.880633983490323,0.733819322706869,0.64102166290893,0.634647514966995,0.673638643262641,0.732018554528597,0.771033605945245,0.769254591057323,1.0043565608242,0.59421286028807,0.546568990647178,0.568769092613866,0.572604444504692,0.614529416220434,0.638796166217872,0.773015131513025,0.830760743545148,1.07444449758116,1.0646943777836,0.58637519005002,0.569377291087113,0.603278557628838,0.642161004101075,0.798923972900726,0.798571858918506,0.988272367248697,0.985677246051964,1.05657000000067,0.6766586368645,0.630649724246613,0.642717353881255,0.694433479724358,0.762894673496643,0.802348612304442,0.803556830044823,0.807833291610274,0.81227969249628,0.816837183930594,0.857211118399439,0.905037333333166,1.05613192368597,1.06816003213736,1.10096664337382,1.09250329497115,1.11929995614784,1.09184999173729,0.885068317755087,0.815475098991097,0.815796953359645,0.887181146596359,0.977562497015901,1.02969750133471,1.0636700021721,1.0818900060048,1.06193999963533,0.997917623021834,0.997931855541493,0.99861179718376,1.04264998860225,1.07520486799773,1.05982437200092,1.07051050062043,1.09464000016551,1.2743103865479,1.01027362685094,1.00703038719754,1.01791460231108,1.0368319326431,1.07881536558576,1.23942541656813,1.39848363936152,1.42113413499413,1.44472051627804,1.46662866241969,1.1540974179847,1.20185531447664,1.2516607063241,1.31595227683657,1.44650999477163,1.49358492896807,1.51922838992377,1.51738457926389,1.51978807785571,1.51251170295954,1.4849400046415,1.37628235715939,1.35514890239815,1.34411013857118,1.28177291804066,1.36230086546384,1.41570260220142,1.41593098512118,1.41575860220029,1.48944166530812,1.2850399993627,1.19165350841926,1.20587310265407,1.15029007457063,1.23775195135693,1.14022833237031,0.625995074412256,0.624482700733402,0.611078091187411,0.587567222309508,0.657269955782116,0.674512956662261,0.677663038608174,0.689753723194983,0.771458830240006,0.773194163568844,0.657224934449411,0.658988496093962,0.638365029566321,0.65438566797086,0.654606281405491,0.656779189050683,0.66689121509893,0.676441942419088,0.662743319573968,0.613980680430459,0.615319343915099,0.639092701302463,0.687015761895172,0.70191883372924,0.670614156880128,0.638552735219213,0.664521776152572,0.683387229618592,0.738299002809083,0.814562000306838,1.11157000000067,0.725108853229302,0.702348889588207,0.686525816926291,0.704940955970427,0.812921006265269,0.763176344297424,0.915917000000335
0.447450506974321,0.462758022447008,0.44811805952653,0.446846143916273,0.463069069443122,0.475547136892315,0.461772717075098,0.456808134200581,0.427900913628345,0.414098754098929,0.453618141073674,0.486533189382167,0.518398000475191,0.545754999999665,0.627803178984701,0.646602999657287,0.624682562962048,0.556197,0.424669299153507,0.443601907499265,0.44324246056919,0.465983927010797,0.496718591074079,0.582276001795022,0.552664889980682,0.54196926650294,0.501051868988175,0.51915208483394,0.541669217726513,0.545840174918559,0.607040084098573,0.651335145692101,0.875587581524487,0.922207062674606,0.916868707636403,0.734762016288043,0.633205269792888,0.666970223063841,0.670880772638165,0.720855445471029,0.773673464136147,0.817963001228995,1.00150322168432,0.655726,0.618292728217218,0.565617764435688,0.543883492424463,0.610604792629814,0.638924832880173,0.775524552332772,0.809651154843099,1.05974963967926,0.601973694100285,0.60397333161418,0.569831446254193,0.603208866577176,0.700586002589856,0.75596899086625,0.946744266299126,0.980963154441818,0.98257752479686,0.981024995740085,0.666826630429637,0.664132732275059,0.602449987779679,0.664088521823431,0.672403185572005,0.821889161757534,1.1572000000005,0.816597043241346,0.801816803705977,0.776603075525234,0.831592997706792,0.950941443647024,1.0952796430918,1.07877085314584,1.13434999130899,1.17375000823837,1.13623992073616,1.12262008564411,0.858473227623696,0.803494921602756,0.771005989297504,0.87469165839884,1.05605248413192,1.0410798373123,1.0462666931635,1.12973000142861,1.18932128400335,1.21601988860199,0.982502641557978,0.950723997698712,1.03515001872996,0.981453497296777,0.980839497270671,1.03994253819757,1.05324823815107,1.05144156659872,1.04426303798365,1.00757677632182,1.01432772096408,1.00645241502996,1.0548383443863,1.13977000382871,1.33341999660108,1.41077835689781,1.46555343479905,1.47062405434788,1.15612667922655,1.20789858512601,1.24408098287963,1.31699995637371,1.40969999993667,1.47683899809504,1.51739595831134,1.51488104022749,1.50970345580497,1.52735667834688,1.45144579337727,1.37233588910247,1.36542750595272,1.38840957555955,1.31677000531218,1.35699141201817,1.41635490730551,1.41629712969805,1.41657090730497,1.22104666666616,1.22151333333283,1.31254000000067,1.21309780382636,1.17180991259342,1.19644932650307,1.19174942551149,1.07438229819566,0.635102789825609,0.610888374688007,0.646854010621792,0.67372995457447,0.68128328923779,0.680924180740447,0.680500487179441,0.79207166946289,0.805677022202235,0.708683845774669,0.666809441045178,0.639741889513918,0.655353443900478,0.638017336567682,0.635176620206091,0.646681166327265,0.648558351703073,0.619328889351249,0.604966431904377,0.591657010696051,0.634293247332562,0.648589967805829,0.684312796037664,0.69188062192605,0.63684794468846,0.637231637187939,0.615756190000882,0.677616623849565,0.779788006450355,0.7390057772496,0.739800540329844,0.741009991017485,0.647079606408426,0.634124659993666,0.77570200165959,0.743475838774155,0.714590571953927
0.454402741753078,0.46104253300284,0.459092241874548,0.447501055086301,0.49824338665454,0.501604570405154,0.522748701803939,0.473350993040582,0.386664993536764,0.454320996229682,0.464200955678565,0.532328004690192,0.552174010742269,0.615159147421799,0.7392320072315,0.668129457225878,0.63112600608701,0.631824422255414,0.517722084516699,0.444068312080132,0.443221874621108,0.487836200233612,0.487147311104384,0.705262000000669,0.549239991435386,0.538011906172733,0.499922534243281,0.528938897052715,0.566601604140787,0.598641339465765,0.605834044637953,0.648045681040218,0.858169328087028,0.941892684732145,0.915670942960525,0.736232726173339,0.6221045349429,0.681469229065275,0.685712194890629,0.780296779462619,0.776822759857528,0.870995395521233,1.03865000427349,0.970019460769812,0.601906278072586,0.563585409481327,0.545017492425294,0.592006336892406,0.760533013166448,0.704245107899901,0.790349339251519,1.06300582445113,1.06258173120467,0.607202926099048,0.573829826789028,0.604222397337459,0.659028970011642,0.798401005452505,0.945430955671176,1.09489000000067,0.986922167932333,0.983596917834445,0.63909270634344,0.590206173034941,0.646804637399287,0.659982171699351,0.804223002084682,0.840675808912997,1.1574400000005,0.714161321574352,0.713643035390101,0.712283092967995,0.776261002440236,0.961253556353311,1.02174999737239,1.04469643581034,1.17901000389323,0.757995157268083,0.780147418337982,0.781853413871309,0.831496549394779,0.840625692506785,0.805790281230593,0.988569000000871,1.00859020549156,1.0212195078796,1.03234982502064,1.07960930908313,1.209008827396,1.14997,0.974333818936402,0.893501000022186,0.98071703978947,1.06096000338738,1.0634400033549,1.02305610243502,0.99318837484349,1.14971000000067,1.03010360310848,0.983864198076553,1.01900442504325,1.04128539661376,1.04954632848481,1.1149721911107,1.38753197018067,1.40387513985701,1.45485332861563,1.15681267846978,1.15678341830169,1.21322059038422,1.23613450313748,1.32651873311532,1.35801362417019,1.47836571521518,1.49657880624152,1.49700766268852,1.49894337524586,1.48247273990712,1.4639641984365,1.39695063928952,1.35484295759939,1.3296844554017,1.28807000382085,1.25996000235986,1.19467046669326,1.20601874208475,1.19613377092378,1.44753000000067,1.36677310150945,1.22954060536883,1.22842307768294,1.23346027280624,1.20838677796505,1.20906132432472,1.07185039476323,0.648322776958803,0.6011249877957,0.601472631622975,0.718807396137346,0.702858696396882,0.702568921666751,0.701982605114557,0.821853013496066,0.785088306120609,0.682700366566584,0.679314644279534,0.675828600491642,0.632230270172924,0.654484200417894,0.650730413139764,0.644771778772951,0.63595421303227,0.565659846540264,0.545916143198852,0.591040008424976,0.629842737680451,0.636832576639473,0.584758994393706,0.692994217062077,0.671603598928251,0.63773876832519,0.638981312841716,0.677872931415988,0.746267929185442,0.736768803924096,0.768322887878758,1.03523000000067,0.729777001877081,0.65145106169287,0.678610038049499,0.695116093355715,0.716205243503067
0.46083969413965,0.460813081226307,0.46750985329983,0.484954651938909,0.501525345931979,0.502390185441616,0.505020737999571,0.489801948759843,0.456593286815316,0.467335548858409,0.473241293936984,0.502656987948369,0.524679118052322,0.609527587380349,0.702578485581763,0.683193761109528,0.662561316545924,0.593076588335541,0.535925943076509,0.443071384050792,0.442778089114301,0.488977250674656,0.487716260112749,0.592768701978735,0.544568682957057,0.528666730899577,0.524462690561344,0.526670983794538,0.564805495101111,0.600000895605108,0.60608473318108,0.655478090749135,0.857799158509671,0.876041045896816,0.786579454590129,0.738260112774054,0.671642733747831,0.680331665187594,0.682220292058067,0.766352371422124,0.768291472439662,0.872373305651998,0.975241889056608,0.968184194768744,0.604940368840411,0.562518478220195,0.562944283270305,0.603049937661777,0.729460299503215,0.73219175065675,0.78063341698566,0.792149695621263,0.658467555150261,0.605932191857869,0.6065541836255,0.606121750560592,0.639825446196741,0.75777808485633,0.946085105458165,0.997808053417112,0.992623505636198,0.988333829304163,0.623464656522257,0.612149551654709,0.641062571217027,0.657482893223411,0.763669692164851,0.795698657042521,0.763983605501798,0.714405946848735,0.71405947500886,0.713468016292806,0.752755936955542,0.899754372119555,0.871209712081232,0.84544280768005,0.821833150554012,0.79202250259719,0.799806469268538,0.808003954836174,0.825651137146857,0.820890166071942,0.815372936862124,0.887781734997622,0.97615013977177,1.00360625828059,1.01330027162998,1.07166332343096,1.1045535986695,1.0165183948747,0.969103272609069,0.960140511404525,0.969195881104862,0.990065509583235,0.989268977846671,0.989643757280381,0.991379933292459,1.00923439565892,1.02888222808308,1.02851333650444,1.02811486933205,1.03084778324246,1.0532050019901,1.12138407516358,1.37962582418028,1.37997322278992,1.38084406411692,1.17665681067185,1.17284842743315,1.20079451889811,1.22820117464736,1.33395642474258,1.36140455201871,1.4318600905845,1.4918778256771,1.49350028470601,1.49629772957469,1.4795355272756,1.42988741997798,1.39157700885095,1.34517379629284,1.33020387525668,1.26887690947335,1.23916556931859,1.211594217214,1.21814999309507,1.26422631899866,1.38625097220304,1.36837706280634,1.22648279759424,1.22538840913357,1.21351348895065,1.20750151052031,1.20824892620421,1.07249638911908,0.65950689928761,0.606960973322149,0.60739697596277,0.681748552150421,0.708093553074358,0.711476028213297,0.748301812483001,0.776627933748411,0.750692402581719,0.689737375808273,0.681804152744633,0.679795895846143,0.6418606101795,0.654051255271141,0.653273458545777,0.642411040450058,0.637520215092823,0.609408569815371,0.586645141403909,0.593852189628411,0.621643629167591,0.637112030289715,0.644284902467778,0.667935173481667,0.656237507965425,0.637418092446614,0.637907704219573,0.679365557335882,0.715544986272922,0.770002800232437,0.777772530694556,0.825248005210368,0.68852878316063,0.664320466194921,0.670974950323059,0.686978820534774,0.694915762573193
0.461790865620666,0.419174216209037,0.47293082510687,0.508347004138424,0.521643703866674,0.514743940016992,0.508088792379275,0.526373158815402,0.431605167797269,0.500287513076128,0.487243066872714,0.462356300323618,0.486246231974351,0.603802174406628,0.800662000000669,0.729112940700894,0.768421713519594,0.555949997717602,0.55352392059315,0.418583897627688,0.438580899232047,0.492981223735753,0.414213994841161,0.764309400105313,0.538831054516995,0.52762638976092,0.522014833909085,0.495660055576088,0.563299241607729,0.601597650890927,0.607953830825856,0.662724637129214,0.856732551392763,0.908719005353134,0.739166858252415,0.74035820665343,0.66376975213984,0.676130252026428,0.672882154824842,0.760896509076371,0.766922952403728,0.873608568413133,0.980517353708988,0.966882532811941,0.607791962688987,0.561371151062,0.550063434531176,0.612576803049973,0.726714041671521,0.734948507418862,0.762441337779873,0.807651864999521,0.602838728541383,0.604446286410392,0.60736016049838,0.607772720474996,0.609454606323554,0.716536995483514,0.946703833439591,1.00606217418969,0.997991114785206,1.03310001117323,0.592595574865627,0.584704310168949,0.63533625317109,0.654308706738097,0.738929997913626,0.883593117020824,0.697913025685541,0.697821178232024,0.694143556207131,0.690347226253628,0.699478981374451,0.967664000000669,0.737948999728922,0.800942309797046,0.73605699361879,0.760826002405009,1.11734969631211,1.15771000322259,0.826626951429672,0.808111672653089,0.808744668518655,0.84032322973495,0.954142832070324,0.991821286750659,1.00594011715832,1.06383131591018,1.20218000000067,0.967448499517127,0.964857785414554,0.945496196921031,0.944886511005635,0.991839395192397,0.988357483424634,0.988598926275455,0.988221352000535,0.986764529609628,1.23206000000067,1.02849494775292,1.02778433662066,1.02623262420581,1.05727883479001,1.12781334148615,1.38050834915579,1.38055047323028,1.38150010834672,1.18067656019263,1.16787545790705,1.19178223955584,1.22030568262819,1.3447401038064,1.36442051527288,1.39850998953084,1.4898845863687,1.49213528702245,1.50692773151073,1.47548698235282,1.39954246410459,1.38620844704834,1.33768229804443,1.33051633587564,1.24501000015183,1.14486083053634,1.15129912885897,1.23331640083287,1.51455000000067,1.45211397263795,1.36938110150921,1.21034963211572,1.2194705985041,1.19253912087262,1.20496249349052,1.21401955487494,1.07340212352683,0.671397218177538,0.606201460220224,0.608272892380719,0.660943741796168,0.720973082793189,0.718287220452006,0.879975008569503,0.890611991431501,0.725048122472842,0.694577748368291,0.686013738421434,0.690777795296569,0.621717993966392,0.680623434742164,0.658966582640895,0.640650615191065,0.639252250662147,0.628657072719879,0.582787301700338,0.595926735215878,0.614194622654242,0.638215614221169,0.648662546116993,0.864161000000669,0.632685227955934,0.631657153615128,0.617218115898926,0.680842406144634,0.681430592797267,0.822827656065474,0.792614870466928,0.921905996745991,0.62644496060604,0.59333414653667,0.593394155014129,0.66074134198618,0.686955056566571
0.463136758034417,0.423772686155572,0.424862023491143,0.428447172369248,0.569828628810844,0.560394394534376,0.566797168718175,0.527507574626903,0.491746998506587,0.525457809538511,0.500578214721599,0.518711848935313,0.484178892005818,0.634774008472626,0.679354096690185,0.70961708254181,0.777330291036794,0.62484799719809,0.396306191715588,0.413516669297542,0.413170038078593,0.413122721767553,0.474965004522425,0.751211986149134,0.749449947355777,0.506162421192053,0.501699662352548,0.470500665726324,0.5455815651185,0.611337433648695,0.610359923415047,0.611480703050416,0.787614775959441,0.805374995731224,0.846046005985032,0.742993781302832,0.711235002857397,0.59057799001776,0.624612821946736,0.709290999400383,0.739024695818631,0.884530416575927,0.936989148091849,0.638927000255245,0.62686324902719,0.561388061510339,0.551323140067058,0.55674828547711,0.702547995298425,0.747754860105923,0.754066780801375,1.01342000000067,0.619506460056764,0.606228144775069,0.607813480479384,0.607896581007746,0.642698954364036,0.763614006780488,0.987449430473807,0.986966882184682,0.985488764707331,0.987101687681231,0.61277894574862,0.586529207925358,0.633593811125965,0.649848471422751,0.652885665774463,0.90416288298018,0.69451608328666,0.677070229575397,0.687878769871614,0.715261912831207,0.716019350237911,0.718248245711426,0.800270000227434,0.83250798527972,1.15822999986863,1.09601925280685,1.09944489939155,1.103455558536,0.834303006601643,0.85660612579739,0.815445518092094,0.859130631570402,0.94256815114764,0.968436359067653,0.973801558133653,1.04902986305519,1.03739325568415,0.981910681561,0.960906121124791,0.941426979722164,0.883848995514293,0.947441358576865,1.01348123360341,1.01448030882731,1.20068000000067,1.00042710718269,0.98778228218503,0.98725090210435,1.00683369526668,1.02258021976497,1.05040339798967,1.08158999651443,1.1083599987764,1.2009645047489,1.37248221206598,1.1258783334889,1.19528641312799,1.19518606832694,1.21268488737178,1.32894022133598,1.35746328888274,1.43216762987487,1.47247476735901,1.47236570656227,1.47152310605227,1.46456208570729,1.38860427610262,1.30996784915883,1.30430697996447,1.26763984051833,1.21352998914267,1.13011175564606,1.12759842005052,1.24640394155968,1.40477,1.46724602736272,1.30469999999967,1.27057199717333,1.25751850271951,1.33024999999602,1.25004297217645,1.24342703642733,1.07861511753466,0.683149494722789,0.607750979866865,0.652493192050475,0.657408459808491,0.658174990279588,0.716226444480412,0.721841980938303,0.811929000000335,0.712016269421751,0.739888616892671,0.654071054084904,0.58835783840535,0.587828660927852,0.659481857778954,0.652556828093872,0.630503652245681,0.581875529481566,0.583577597441319,0.582336152567614,0.573269552994753,0.612837717500542,0.655958114543094,0.638926400654301,0.60812201413327,0.650611163465348,0.62979318030991,0.592294429112167,0.681706543283381,0.684813545131093,0.717256830948612,0.781757153025894,0.950597861397201,0.600506130053114,0.618670100104214,0.633696842684922,0.641064310956646,0.656674070793114
