0.00395249, 0.967478, 0.00415661, 0.00364942, 0.00375295, 0.00387233, 1.10225, 1.24746, 0.00374178, 0.00412739, 0.00376745, 0.777428, 0.00425856, 0.00395148, 0.00405121, 1.17371, 0.00351165, 0.00397932, 0.00308562, 0.00428164, 0.00392625, 0.00375696, 0.00372641, 0.00386686, 0.00384101, 0.0043132, 0.811092, 0.00391736, 0.00381201, 0.887192, 0.816187, 0.816925, 0.816953, 0.816519, 0.815966, 0.813993, 0.813826, 0.815011, 0.81539, 0.814713, 0.815715, 0.816029, 0.814274, 0.816353, 0.00360191, 1.09822, 1.10207, 0.00400561, 0.00367808, 0.00376798, 0.829618, 0.832137, 0.832027, 0.831444, 0.829018, 0.829482, 0.00408868, 1.20729, 0.00390046, 1.19269, 0.00377856, 1.21888, 0.832302, 0.836785, 0.847547, 0.00396485, 0.00383258, 1.15339, 0.00347133, 1.18968, 0.00378334, 0.00387344, 0.0037682, 1.45775, 0.00399197, 0.866557, 0.866832, 0.869063, 0.00357922, 1.19398, 1.01289, 1.00573, 1.02909, 1.0152, 1.02569, 1.20257, 0.00373072, 1.23748, 1.12376, 1.16213, 0.00392336, 1.45428, 0.89829, 1.45159, 1.16418, 1.28812, 1.1327, 1.42481, 0.00382123, 0.00422597, 0.00386369, 0.926561, 0.00366072, 0.00373515, 0.00392694, 0.936853, 0.936986, 1.21332, 1.21928, 0.94273, 0.00389176, 0.00375077, 0.00352951, 0.00379992, 1.69878, 1.70117, 0.00370363, 0.00401902, 0.00368175, 0.00373588, 1.19925, 1.12997, 1.59099, 1.60297, 1.59971, 1.10934, 0.996734, 0.99757, 0.00365878, 0.00365226, 0.00362262, 1.35264, 1.02533, 1.0265, 1.02672, 1.02735, 1.02994, 1.02694, 1.03081, 1.03308, 1.03326, 1.03543, 1.13771, 1.16326, 1.13128, 1.16411, 1.05339, 1.05363, 1.05688, 1.05603, 1.05607, 1.05802, 1.21963, 1.12192, 1.06991, 1.07073, 0.0037045, 1.07491, 1.17062, 0.00387856, 1.18261, 1.14966, 1.15018, 1.10221, 0.00355238, 1.12588, 1.16496, 1.17886, 1.28203, 1.1225, 1.25087, 1.12473, 1.12689, 1.2786, 0.0038898, 0.00408947, 0.00386055, 0.00386444, 0.00353472, 1.44847, 1.13365, 1.38557, 0.00389738, 1.41965, 1.28295, 1.34141, 1.24769, 1.34741, 1.34699, 1.23042, 0.00418859, 1.48575, 1.36842, 1.47026, 0.00403148, 1.21293, 1.45093, 1.4543, 1.42019, 1.42679, 0.00413516, 1.38248, 0.0037426, 0.0042528, 1.29924, 1.30574, 0.00405727, 1.27079, 1.26788, 1.26854, 1.27496, 1.28191, 1.33836, 1.43414, 1.44141, 1.43636, 0.00390872, 0.00394381, 0.00397626, 1.52756, 1.54358, 1.56836, 1.44456, 1.4461, 0.00374863, 0.00397364, 0.00360932, 1.68989, 1.68492, 1.4914, 1.50504, 1.53229, 1.44816, 0.00386881, 0.0039443, 0.00352649, 0.00375772, 1.56831, 0.00347923, 0.00379698, 1.46536, 0.0039324, 0.00357223, 1.62417, 0.00368718, 0.00367897, 1.54399, 0.00389979, 0.00358745, 0.0038871, 0.00391294, 0.00387668, 0.00388969, 1.49464, 1.49487, 0.00371407, 0.00374069, 0.00399902, 0.00348611, 0.00362994, 0.00392179, 0.00413038, 0.00355644, 0.00389448, 0.00396449, 0.00384568, 0.0035717, 0.00377696, 0.00383389, 0.00400959, 0.00358275, 1.54153, 1.54229, 1.54564, 1.54719, 0.00386596, 0.00346238, 0.00428908, 0.00409689, 1.5631, 1.56564, 1.56295
0.00409346, 0.0038679, 0.00394029, 0.00379101, 1.2895, 0.00363617, 0.00369183, 0.00387474, 0.00402255, 0.00380605, 0.00449303, 0.00395869, 0.00382989, 0.00346572, 1.15291, 0.00364392, 0.00410028, 0.00353137, 0.00367047, 0.00418139, 0.00396794, 0.00364813, 0.784501, 0.00364186, 0.00397045, 0.00332332, 0.799644, 0.00340447, 0.00419258, 0.00385891, 0.805907, 0.00344152, 0.809865, 0.00370805, 0.00419261, 0.00381805, 0.00370591, 0.00365055, 0.00388857, 0.811007, 0.810025, 0.815338, 0.00419835, 0.00391306, 0.814668, 0.816286, 0.81768, 0.00346898, 0.00437378, 0.00388389, 0.00416289, 1.06412, 0.822667, 1.36748, 1.35425, 0.00351898, 1.24756, 0.00363215, 1.16077, 1.14536, 0.815916, 1.19594, 1.19626, 0.00386561, 0.00423911, 0.00342142, 0.00371163, 0.00368255, 0.00434968, 0.00403979, 0.00397333, 0.00355175, 0.00389926, 0.00358703, 0.863282, 0.864138, 0.865153, 0.866913, 0.955764, 0.00360334, 1.06174, 1.05288, 1.05337, 0.00399922, 1.2867, 1.27603, 0.882003, 1.07708, 1.12084, 1.14838, 1.02262, 0.00391617, 0.893087, 1.16362, 1.14644, 1.14656, 0.00418595, 0.00338923, 0.00443077, 0.00378887, 0.00349908, 0.00377922, 0.00378479, 0.00372064, 0.926714, 0.00351352, 1.55779, 1.08139, 0.932462, 0.00393439, 0.00382714, 0.0036938, 0.00427288, 0.00374802, 0.00395245, 0.00313432, 0.00393532, 0.00373694, 1.02567, 0.00412002, 1.42449, 1.61593, 1.66995, 1.66898, 0.98499, 1.11839, 1.10427, 0.00400116, 1.03677, 0.00378411, 1.66994, 1.2778, 1.28173, 1.03469, 0.00381385, 1.02251, 1.0256, 1.02691, 1.02867, 1.02756, 1.03176, 1.03204, 1.03195, 1.03321, 1.03318, 1.14614, 1.14009, 0.00403369, 1.04818, 1.05106, 1.05066, 1.05378, 1.05781, 1.05835, 1.22577, 0.0035146, 1.0724, 1.07464, 1.07799, 1.08025, 0.0039799, 0.00344154, 1.32479, 0.00402263, 1.18556, 1.20629, 0.00365811, 1.18779, 1.36504, 0.003947, 1.12015, 1.12171, 1.12134, 1.12372, 1.1236, 1.12894, 1.12752, 1.12797, 1.12872, 1.12752, 1.13236, 0.00365829, 1.14608, 1.14625, 1.20473, 1.20754, 1.16048, 1.25082, 1.38887, 0.00380793, 1.40216, 1.30906, 1.25373, 0.00376789, 0.00401988, 0.00375937, 1.25324, 0.00387291, 1.27416, 0.00358509, 1.42306, 0.00345924, 0.00343771, 0.00372993, 0.00353832, 0.003962, 0.00419955, 1.26449, 0.00394869, 0.00366791, 1.27283, 1.28064, 1.27874, 1.41711, 0.00388891, 1.48909, 1.49107, 0.00382973, 0.00389297, 0.00385951, 1.42068, 0.00343764, 1.45435, 0.00389435, 1.43502, 0.00369661, 0.00406549, 0.00363322, 0.00395458, 0.00356416, 1.42255, 0.00373878, 0.00378385, 0.00361983, 0.00404613, 1.55846, 1.53991, 0.00396207, 1.63159, 0.00369969, 1.56197, 0.00367705, 0.00400971, 0.00419135, 1.47961, 0.00382469, 0.00382097, 0.00387207, 1.47609, 0.00393548, 0.00419046, 0.00338974, 0.00432674, 1.49176, 1.48898, 0.00374543, 1.79769, 1.50404, 1.50413, 0.00406183, 0.00380301, 1.5114, 0.00407144, 0.00358652, 1.53097, 0.00365431, 0.0042349, 0.00381907, 0.00388523, 0.00356514, 1.67317, 0.0038485, 0.0037534, 0.00385424, 0.00384816, 0.00344737, 0.00367863, 1.55911, 1.56065, 0.00390065, 1.7682, 1.75582
0.00356018, 0.00418939, 0.00384576, 0.00409109, 1.3585, 0.00375305, 0.00356456, 0.00379361, 0.0037243, 0.00376889, 0.0036027, 0.0038917, 0.00338369, 0.00385905, 0.00347369, 0.00392094, 0.00351535, 1.00087, 0.00381482, 0.00419877, 0.00365096, 0.00412644, 0.0034557, 0.00382895, 0.00395552, 0.00389301, 0.788312, 0.00359709, 0.00369697, 0.00381653, 0.00353133, 0.00388874, 0.804115, 0.00451575, 0.00353421, 0.00421166, 0.00352404, 0.807416, 0.808576, 0.808336, 0.0033249, 1.0472, 0.981278, 0.003894, 0.00361237, 0.00436216, 0.00437059, 0.00391767, 0.00369538, 0.00349818, 0.00361087, 0.00382264, 0.00370451, 1.17288, 0.813246, 1.28838, 0.00387042, 0.812811, 0.81057, 0.812421, 0.812392, 0.00358236, 0.00377447, 0.00401367, 0.00393922, 0.00394298, 0.00376886, 1.09098, 0.00380901, 0.00385945, 0.00389037, 0.00357354, 0.00347212, 1.15532, 0.00373001, 0.00356657, 0.00372744, 0.00440433, 0.928512, 0.00380806, 0.00361813, 1.04123, 0.869839, 0.873014, 0.873502, 0.876747, 0.876952, 0.880254, 0.881173, 1.14491, 0.00379903, 0.888978, 0.00385452, 1.08488, 0.00382287, 1.1393, 0.00376635, 0.00432492, 0.00386643, 0.00393907, 0.00377548, 0.974238, 0.00387649, 1.07179, 0.00385297, 1.04336, 0.00357508, 0.00370474, 0.930084, 0.00393631, 1.04988, 0.00403032, 1.27819, 1.05681, 0.00358806, 0.00382156, 0.00381998, 0.00374499, 0.0034629, 1.29924, 1.43065, 1.65604, 1.6545, 1.61186, 0.00364438, 1.28922, 1.43663, 0.00383397, 1.10268, 0.00363054, 0.00387411, 1.12255, 1.13053, 1.01638, 1.10384, 1.02265, 1.02215, 1.14817, 1.02702, 1.02719, 1.02778, 1.03001, 1.03178, 1.03246, 1.0315, 1.03125, 0.00387209, 1.10095, 0.00378773, 0.00385591, 1.05347, 1.05555, 1.05544, 1.0567, 1.0741, 1.07607, 0.00403055, 0.00420905, 0.00371165, 1.07587, 1.32489, 1.33763, 0.00378602, 1.31388, 0.00343343, 0.00400174, 0.00385093, 1.33358, 1.33426, 1.11397, 0.0035479, 1.11569, 1.11863, 1.12955, 0.00377021, 1.12113, 1.12376, 1.12259, 0.00372305, 0.00413279, 0.00349429, 1.36223, 1.36166, 1.17154, 1.16884, 1.18145, 1.36037, 1.21343, 0.00418005, 0.00389064, 0.00383486, 1.24218, 0.00395161, 0.00401472, 1.29789, 1.31337, 0.00363611, 0.00376637, 0.00381093, 1.22564, 0.00395129, 0.00342284, 0.00390207, 1.46068, 0.00369794, 0.00392459, 0.00356002, 1.42817, 0.00362083, 0.00375545, 0.00384696, 0.00402737, 0.00370459, 0.00365765, 0.0037055, 0.00426618, 0.00374755, 1.29906, 0.00351127, 1.59903, 0.0034835, 0.00404171, 1.49118, 0.00379945, 0.00377705, 0.00358765, 0.00385095, 0.00405272, 0.00366283, 0.00399179, 0.0038066, 1.41256, 1.41964, 1.41786, 0.00382225, 0.00385167, 0.00361826, 0.00373424, 0.004008, 0.00390131, 0.00389269, 0.00387352, 0.00369205, 1.51168, 1.46141, 1.46758, 1.46737, 1.46613, 0.00381042, 0.00369892, 0.00409956, 0.00402841, 0.00367895, 1.53977, 0.00393821, 1.49669, 0.00352606, 1.50343, 1.50347, 1.50306, 1.50418, 1.50775, 0.00348149, 1.53385, 0.00330374, 0.00375286, 0.00370095, 0.00338971, 0.00379825, 0.00350476, 1.53083, 1.53134, 0.00387022, 1.66598, 0.00371038, 1.63099, 0.00363867, 0.00390891, 0.00336719, 1.56455, 0.00384792, 1.68273
0.00456638, 0.00390552, 0.0040387, 0.00393583, 0.00410493, 0.00406765, 0.00356603, 0.00325405, 0.00380006, 0.00379603, 0.0037836, 0.00358801, 0.0038954, 0.00362281, 0.756719, 0.755833, 0.756138, 0.75685, 0.00436247, 0.763044, 0.00359379, 0.00391255, 0.00385675, 0.00361303, 0.0037725, 0.00400809, 0.00401083, 0.00348495, 0.00388565, 0.00385086, 0.00429542, 0.00398473, 0.00381149, 0.00392172, 0.00396211, 0.00379983, 0.00394724, 0.00365428, 0.00404178, 0.0036025, 0.80135, 0.00380747, 0.797098, 0.00399014, 0.00372845, 0.00370595, 0.00394292, 0.00372288, 0.00384572, 0.00358987, 0.0036735, 0.00368887, 0.809608, 0.809066, 0.00364994, 0.00347027, 1.31013, 1.30172, 0.804511, 0.806185, 1.28452, 0.00384932, 1.1283, 0.00398812, 1.12003, 0.00376743, 0.0035891, 0.0038306, 1.23014, 1.25284, 0.00377333, 0.00362917, 0.00435442, 0.00384906, 0.00396174, 1.19153, 0.00371513, 0.856184, 0.859087, 0.00392351, 0.856951, 0.00361623, 1.10956, 0.00389043, 0.0039947, 0.00405653, 0.875604, 0.00379333, 0.00417622, 0.00370319, 0.00393926, 0.00381363, 0.00381985, 0.00365728, 1.27065, 0.879255, 0.00370562, 0.00389905, 0.00381948, 0.00376679, 0.00363149, 0.00399345, 0.00415729, 0.00358115, 0.00378026, 0.00365774, 0.918025, 0.91852, 0.00368074, 0.00353291, 0.00372268, 0.00371321, 0.00376301, 0.00367363, 1.17102, 0.00376432, 0.00397328, 0.00357246, 0.00390262, 0.00395931, 0.00382832, 0.00402661, 0.00384006, 0.00381355, 1.06796, 1.06622, 1.36236, 0.0035402, 0.00381293, 0.00385493, 1.35915, 0.00375558, 0.00387135, 0.00350544, 1.41659, 1.01645, 1.0227, 1.02319, 0.00395177, 1.02613, 1.02714, 1.02953, 1.03104, 1.0308, 1.03061, 1.03224, 0.00358292, 0.00402138, 0.00328445, 0.00365585, 0.00362912, 0.00401457, 1.2603, 0.00363467, 0.00365167, 0.00388405, 0.00379622, 0.00388028, 1.10264, 1.11153, 1.11661, 1.11946, 1.12092, 1.08419, 1.09066, 1.09119, 1.1153, 0.00351515, 1.25449, 0.00392727, 1.19092, 0.00359916, 1.1122, 1.11305, 1.11584, 1.11872, 1.11697, 1.11932, 1.12245, 0.00402121, 0.00361927, 1.12294, 1.4312, 1.47463, 1.26088, 0.00391121, 1.20163, 1.53396, 1.5434, 1.56616, 1.38448, 1.56715, 1.34791, 1.33446, 0.00367025, 1.27841, 0.00356078, 0.00374984, 0.00400416, 0.00368924, 1.29124, 0.00362627, 0.00376278, 1.21068, 0.00360088, 0.00381711, 0.00353051, 0.00390898, 0.00358061, 0.00352604, 0.00397376, 0.00361568, 0.00372131, 0.00358325, 0.00391301, 0.00357455, 0.0038597, 0.00380201, 0.00409695, 0.0035252, 1.49379, 0.00380914, 0.00398264, 0.00349501, 0.00405878, 0.00363295, 0.00380553, 1.49394, 1.49982, 0.00378386, 0.00378293, 0.00413382, 0.00402825, 0.00366088, 0.00365849, 0.00392846, 0.00379108, 1.71252, 0.00368163, 0.00366601, 0.00394394, 0.00341194, 0.00363935, 0.00385526, 1.53033, 1.58229, 0.00369486, 0.00379819, 0.00398783, 0.00361438, 0.00413923, 0.00379652, 1.61417, 1.59868, 0.0040032, 0.00370597, 0.0039497, 1.49927, 0.00359105, 1.5031, 1.5018, 0.00359721, 1.50643, 1.51219, 1.51532, 1.51449, 1.51224, 1.51164, 1.51948, 0.00357525, 0.00375252, 0.00393432, 0.00379327, 0.00345705, 0.00393547, 0.00373233, 0.00404604, 1.55934, 1.55972, 1.55918, 0.00375984, 1.66867
0.00407418, 0.00387417, 0.00363122, 0.00372923, 0.00364703, 0.00378191, 0.0034265, 1.07696, 0.00329976, 0.0037298, 0.00359054, 0.00393521, 0.00370395, 0.00351465, 0.00333103, 0.750616, 0.00378438, 0.00362217, 0.00376431, 0.00399212, 0.0036348, 0.00378033, 0.00347274, 0.757509, 0.758772, 0.760465, 0.760904, 0.00351894, 0.00360247, 1.00519, 0.00389044, 0.785062, 0.786371, 0.787541, 0.00400639, 0.00429311, 0.00365516, 0.00428009, 0.00356038, 0.00335288, 0.787344, 0.793799, 1.18172, 1.10992, 1.12976, 0.00379637, 0.803786, 0.804756, 0.804271, 0.803929, 0.807891, 0.806308, 0.806279, 0.805849, 0.807266, 0.80754, 0.799299, 0.801923, 0.802843, 1.305, 0.00342956, 0.00378747, 0.00375856, 1.33602, 1.27276, 0.818918, 1.13255, 1.15977, 1.18586, 1.09929, 0.00365131, 0.00362534, 0.00365368, 0.841013, 0.00393179, 0.00396021, 0.00363351, 0.00381291, 0.845051, 1.26476, 0.850276, 1.12307, 1.23363, 1.29255, 0.00379407, 0.00369068, 0.00384804, 0.00387404, 0.00348861, 0.00394095, 0.0036692, 0.00405923, 0.00376071, 0.864013, 0.865863, 0.00393678, 0.00383428, 1.13511, 0.003686, 0.00372942, 0.00384132, 0.00404889, 0.00355209, 0.00362829, 0.00376738, 0.00384029, 0.00353326, 0.00417962, 0.00381142, 0.00393479, 0.00346122, 1.48755, 0.00370339, 1.11543, 0.00357481, 1.27899, 0.00359435, 1.16084, 1.71414, 1.71684, 0.00397358, 0.00354194, 1.06853, 0.00372057, 0.00362463, 1.2268, 0.00370829, 0.00373091, 0.0037792, 0.00379975, 0.00345231, 0.00408434, 0.00372627, 0.00356202, 0.00369525, 0.00381117, 0.00352207, 0.00345272, 0.00352271, 0.00416509, 0.00403758, 0.00407683, 1.0256, 1.02782, 1.02622, 1.02613, 1.02916, 1.02947, 0.00358985, 1.11192, 0.00377348, 1.17416, 1.23844, 1.08454, 0.00357713, 0.00410092, 0.00362869, 0.00382034, 1.08546, 0.00357227, 0.00395058, 0.00437693, 0.0037302, 1.10286, 0.00392948, 0.00371318, 0.00361126, 0.0038514, 0.00384035, 0.00386683, 0.00401481, 1.21644, 0.00356352, 0.00391365, 0.00346955, 0.00372534, 0.00355146, 1.24067, 1.47242, 1.11008, 1.11393, 1.11425, 1.11607, 1.11811, 1.11933, 1.12143, 1.12325, 1.24413, 1.25422, 1.38609, 0.0037758, 1.31971, 0.00350135, 1.25442, 1.24852, 1.22589, 1.29634, 1.33578, 0.00352884, 1.23789, 0.00394281, 1.1915, 0.00355453, 0.00370438, 0.00380375, 1.30204, 0.00370084, 1.3236, 1.52449, 1.35354, 1.35067, 1.31742, 1.45833, 0.00390574, 0.0038861, 0.00420535, 0.00362736, 0.00366753, 1.49212, 1.48216, 0.00367866, 0.00348094, 0.00363441, 0.00397946, 0.00360398, 1.6092, 0.004025, 1.62657, 0.00360044, 0.00373018, 0.00382743, 1.44513, 0.00369334, 1.94737, 0.00377814, 0.00369661, 0.00352463, 0.00380703, 1.54018, 1.53697, 1.48955, 0.00408442, 0.0036545, 1.44717, 0.00379385, 0.00369788, 0.00390466, 0.00427113, 0.00411227, 0.00391122, 0.00354776, 0.00397069, 0.00380612, 0.00344604, 0.00387118, 1.4976, 1.7881, 1.50304, 0.00386699, 1.50028, 0.00394762, 1.50471, 0.00384127, 1.51658, 1.50869, 1.50662, 1.51585, 1.5258, 0.00378081, 1.52439, 1.53112, 1.54061, 0.00382226, 0.00410047, 0.00339554, 0.00401434, 0.00358125, 1.56105, 0.00381555, 1.64135, 0.00387013, 1.59289
1.29587, 0.00400495, 0.00355391, 0.0036876, 0.00372337, 1.15125, 1.06175, 0.00381979, 0.00403485, 0.00374904, 0.00420998, 0.00394635, 0.00359858, 0.00375871, 0.00376977, 0.00353101, 0.00380394, 0.00350512, 0.750011, 0.00371791, 0.00381043, 0.754135, 0.754433, 0.755998, 0.759189, 0.7606, 0.762323, 0.76594, 0.768054, 0.00351417, 0.00408567, 0.0036304, 0.783492, 0.00370713, 0.00403388, 0.78688, 0.0036659, 0.00369473, 0.00371585, 0.786506, 0.787484, 0.788816, 0.790065, 0.00355566, 0.798539, 0.800498, 0.801972, 0.804125, 0.805197, 0.805347, 0.805391, 0.805037, 0.805591, 0.804883, 0.805661, 0.799742, 0.800112, 0.801306, 0.802187, 0.00383358, 0.00378031, 0.00373154, 1.29721, 0.814091, 0.816578, 0.81926, 0.820068, 0.821976, 0.824361, 0.00362423, 0.00389424, 0.00343396, 0.00348236, 0.00352317, 1.04734, 1.13306, 1.11809, 0.00353203, 1.14172, 0.00348152, 0.936914, 0.00363143, 0.959449, 0.95674, 0.0040988, 0.00376488, 0.0033999, 0.00378003, 1.15446, 1.1893, 1.20687, 1.29138, 0.00389539, 0.00377258, 0.00387589, 0.00403069, 1.07956, 0.00382871, 1.09612, 0.00382919, 1.09878, 1.00426, 0.00384315, 0.990211, 0.978845, 0.00374407, 0.00418798, 0.00382857, 0.00355873, 1.11166, 1.42328, 0.00372905, 0.920481, 1.08591, 1.03936, 0.0036398, 0.997805, 1.67846, 0.00392383, 0.00381271, 0.00401498, 0.00382086, 1.30322, 1.30274, 1.08532, 0.0037944, 0.00393373, 0.0037345, 1.12672, 0.00405018, 1.42691, 0.00369478, 1.18614, 1.17288, 1.17746, 0.00350828, 1.23334, 0.00374163, 1.32368, 0.00394488, 0.00377631, 0.00365831, 0.00347409, 0.00334079, 1.022, 0.00357353, 1.03291, 1.02082, 1.07722, 1.02352, 1.02679, 0.00366454, 1.02938, 0.0037765, 1.19487, 0.00364803, 0.00380155, 1.05413, 1.19892, 1.25406, 1.35893, 0.00367292, 1.24198, 0.00370351, 1.20917, 0.00367726, 0.00416293, 0.00380839, 1.39296, 1.30447, 0.00396844, 0.00385269, 1.25721, 0.00355275, 0.00377047, 0.00389988, 1.10546, 1.10425, 1.10938, 1.11138, 0.0036613, 0.00393074, 0.00386069, 1.11071, 1.1156, 1.11335, 1.1174, 1.1219, 1.12399, 0.00378416, 1.33519, 1.38087, 1.34143, 1.23041, 1.29974, 0.00361122, 0.00375908, 0.00328355, 1.2434, 0.00367523, 1.39262, 0.00380147, 1.39829, 0.00373316, 1.4128, 0.00383314, 1.3817, 1.26124, 0.0039903, 0.00376332, 1.35327, 0.00360363, 0.00365407, 0.00376583, 0.00398485, 1.26065, 0.0039956, 0.00378756, 1.49239, 1.51462, 0.00410058, 0.00387393, 1.34377, 0.00376243, 0.00384026, 0.00344618, 0.00388999, 1.46543, 0.00406875, 1.3569, 1.36472, 0.00349025, 0.00380427, 0.00334966, 0.00404925, 0.00383768, 0.00372499, 0.00365199, 0.00365563, 0.00369547, 0.00409577, 0.0037492, 0.00383315, 0.00365388, 1.44174, 0.00357353, 0.0040633, 0.00362615, 0.0036287, 0.00335396, 0.00388253, 0.00383487, 0.00371448, 0.00374379, 0.00373106, 0.00383564, 0.00398175, 1.4952, 1.49537, 0.00366667, 1.50144, 0.00356397, 0.00425299, 0.0037194, 0.003983, 0.00364382, 1.51985, 0.00363615, 0.00365219, 0.00393752, 1.59009, 1.54171, 1.54267, 1.54784, 1.55395, 0.00386451, 1.56376, 0.00394616, 1.57502, 0.00392929, 0.00437439, 0.00403031
0.00387992, 0.00389359, 1.00141, 1.00175, 0.00391303, 0.00401354, 0.00362824, 0.00406969, 0.00374826, 0.00399948, 0.00370497, 0.00364057, 0.00363642, 0.00386175, 1.2919, 1.29266, 0.00399478, 0.740295, 0.742042, 0.00382712, 0.742872, 0.00391168, 0.00414215, 0.0038076, 0.00391552, 0.760683, 0.763463, 0.00373623, 0.00378516, 0.00387488, 0.00372502, 0.00353315, 0.815348, 0.815116, 0.777857, 0.780108, 0.00383133, 0.779884, 0.780428, 0.782411, 0.00388998, 0.791601, 0.793522, 0.795951, 0.798606, 0.00371369, 0.803878, 0.803443, 0.80327, 0.804196, 0.804417, 0.804524, 0.80457, 0.803632, 0.803247, 0.804179, 0.797087, 0.799194, 0.800337, 0.0039465, 0.00332845, 0.805676, 1.3153, 0.00381038, 0.00388403, 0.81612, 0.00382961, 0.00362493, 0.00374144, 0.00367846, 0.00400517, 1.2533, 1.05411, 0.00394409, 0.00385008, 1.20814, 0.898116, 1.38637, 0.00404924, 0.00319467, 0.00348155, 1.50567, 1.11891, 1.15847, 0.00386519, 0.00366977, 0.00399868, 0.00392435, 0.00365586, 0.00374197, 0.850367, 0.00358899, 0.00355445, 0.851612, 0.853797, 0.853162, 0.852041, 0.00384421, 1.13628, 1.12469, 1.14268, 1.13422, 0.00390092, 0.00406929, 1.14474, 0.00378278, 1.18292, 0.00395651, 0.00387631, 1.18601, 0.00396773, 0.00388417, 0.00351066, 0.00372048, 0.0040997, 0.00344905, 1.53798, 1.24449, 0.0038209, 1.46065, 1.40466, 1.38907, 1.06983, 1.00791, 0.00394964, 1.08135, 0.0038183, 0.00358075, 0.00404274, 0.00379143, 0.00369906, 0.00406939, 0.00367377, 0.00381631, 0.00377903, 0.00384863, 0.00367991, 0.00398346, 1.01111, 0.00390497, 0.00334552, 1.44485, 0.00369668, 0.00384532, 0.00354718, 0.00402518, 1.01793, 1.01902, 1.01868, 1.02108, 0.00340124, 1.09163, 0.00419919, 1.11348, 0.00385689, 0.00387859, 1.0339, 0.00364661, 0.00387318, 0.00353193, 0.00379754, 0.0041299, 0.00379615, 0.0040025, 0.00379866, 0.00391231, 0.00388534, 1.15894, 0.00337621, 0.00372454, 0.00365557, 1.07777, 0.0036902, 0.00368975, 0.00374689, 1.09551, 0.00386237, 0.00380508, 0.00383482, 0.00381742, 0.00368223, 1.73869, 0.00370396, 1.34335, 0.00383981, 1.16075, 0.00395643, 1.28209, 0.00370618, 0.00366894, 0.00406414, 0.00380068, 0.00361142, 0.00392098, 0.00374965, 0.00392469, 0.00381449, 1.38628, 1.65841, 0.0037254, 1.16105, 1.39336, 0.00365889, 1.23582, 0.00396409, 1.59629, 1.57697, 1.60239, 1.40845, 0.00370187, 0.00343793, 0.00401923, 1.38357, 0.00331157, 0.00367179, 0.00395289, 1.58185, 1.52683, 1.47086, 1.81094, 1.80448, 0.00363682, 0.00366386, 1.46753, 1.51369, 1.51898, 1.3471, 0.00388362, 0.00352235, 1.38595, 0.00393352, 0.00423386, 1.40568, 0.00404623, 0.00359686, 1.4347, 0.0038885, 0.00382129, 0.00376587, 0.00354829, 0.00364061, 0.00385084, 0.00360259, 0.00395863, 0.00381136, 0.00386577, 0.00369917, 1.49179, 0.00357309, 0.00371988, 0.00392699, 0.00377648, 0.00383554, 0.00367231, 0.00365161, 0.00388722, 0.0036339, 0.00364838, 0.00361612, 0.00408351, 0.00344779, 0.00406996, 0.003614, 0.00351056, 0.00354132, 1.51496, 1.52019, 0.00384197, 0.00360634, 1.53195, 1.53314, 1.54066, 0.00428107, 0.00398629, 0.00375478, 1.60799, 1.57277, 0.00347486, 0.00374492, 0.0037978, 0.00394136, 0.00366642
0.00407735, 0.00364486, 0.00390266, 0.0038964, 0.00412991, 0.00382105, 0.00380389, 0.00365503, 0.00360271, 0.00328624, 0.00380038, 0.00335849, 0.00389466, 0.00344605, 0.00377639, 0.00356781, 0.0038655, 0.00386465, 0.798183, 0.80054, 0.801189, 0.00359367, 0.00400521, 0.00372704, 1.62711, 0.00394218, 0.00405324, 0.00383592, 0.00395151, 0.00341347, 0.77, 0.767892, 0.768028, 0.769651, 0.00413433, 0.00366621, 0.00399616, 0.777194, 0.777891, 0.781099, 0.003701, 0.00383913, 0.00400809, 0.00334362, 0.799075, 0.00368476, 1.45281, 0.00383438, 0.00385445, 0.00373414, 0.00379546, 0.00357169, 0.00375397, 0.0036563, 0.00418445, 0.00373385, 0.795709, 0.00395216, 0.793446, 0.00370284, 0.00409904, 0.00356934, 1.30265, 0.00375431, 0.00395786, 0.0038325, 0.0039485, 1.06129, 0.0038751, 0.00377128, 0.813565, 0.81246, 0.814141, 0.814284, 0.814547, 1.18965, 1.47507, 1.40629, 1.40633, 0.00367583, 0.00349744, 1.44474, 1.44388, 1.1674, 0.832809, 0.00361479, 0.00415105, 0.00353778, 0.00376671, 0.00370255, 1.2126, 0.00371297, 1.06462, 0.849752, 0.847774, 0.849896, 0.850563, 0.851644, 0.852055, 0.851053, 0.851365, 1.01134, 0.916118, 0.00368639, 1.17126, 0.00372505, 0.885269, 0.00372873, 0.00354939, 0.00390587, 1.12717, 1.36484, 0.00355422, 0.00351429, 0.00420342, 0.00389645, 0.0037203, 0.00358743, 0.976521, 0.988771, 1.30485, 1.40275, 1.32415, 0.00351175, 0.987347, 1.01123, 1.10246, 0.00384389, 1.38258, 0.00373679, 0.00357098, 0.00342225, 0.00375493, 0.00374741, 0.00382753, 0.00374023, 0.00388696, 0.00380543, 1.67879, 0.00363139, 0.0038295, 0.00336063, 0.0034875, 0.003519, 1.17093, 0.00371637, 0.00404162, 0.00374764, 0.00410336, 0.00355317, 0.003562, 0.00363213, 0.00394726, 0.00385639, 1.02637, 1.02764, 1.0231, 1.13022, 1.02736, 0.00343604, 0.00391196, 1.22792, 1.25828, 1.23437, 1.28335, 0.00363795, 0.00436385, 0.00375559, 1.07113, 0.00355983, 1.21633, 1.21642, 0.00398245, 0.00386247, 0.0037074, 1.08036, 1.0816, 0.00366687, 1.12247, 0.00328983, 0.00369188, 0.00363251, 1.28903, 0.00367506, 1.31437, 0.00395656, 1.59875, 0.00361731, 0.00361137, 0.00401904, 0.00374888, 0.00359158, 0.00412087, 0.00361439, 0.00391485, 0.0036739, 1.22974, 0.00347829, 0.00351688, 0.00358109, 0.00378314, 0.0034106, 0.003851, 0.00358117, 1.30346, 1.19156, 0.00397514, 0.00390453, 1.32335, 0.00388748, 1.23399, 0.00323047, 0.00409014, 0.00380829, 1.53746, 1.53812, 1.40491, 0.00364997, 0.00355747, 1.73716, 0.00364706, 0.00344898, 0.00405427, 0.00345529, 1.27898, 0.00389144, 1.30572, 0.00349784, 0.00381559, 1.3571, 1.35715, 0.00325506, 0.003776, 0.00343531, 1.41311, 0.00354393, 0.00380939, 0.00375724, 0.00364975, 0.00360748, 0.00416849, 0.00380185, 0.00363705, 0.00382469, 0.00365581, 0.00363133, 0.00369082, 0.00361144, 0.00375354, 0.00360374, 0.00374698, 0.00360572, 0.00424178, 0.00384372, 0.00359225, 0.00403969, 0.00382821, 0.00353813, 0.00411613, 0.00365504, 0.00404502, 0.00352727, 0.00399835, 0.00364162, 0.00422097, 0.00345603, 0.00403997, 0.00384194, 0.00405279, 0.00358375, 0.00419272, 0.00343216, 0.00422054, 1.55775, 1.56175, 0.0036754, 0.0035699, 0.00385873, 0.00401848, 0.00348403, 1.59275, 0.00381163
0.00408094, 0.00359701, 0.00380946, 0.0040447, 0.00425493, 0.00412348, 0.00352916, 0.00390617, 0.00385445, 0.00387271, 0.00398056, 0.00367152, 0.00370162, 0.00370622, 0.0037292, 0.00353199, 0.00357368, 0.00352634, 0.00388858, 0.00398058, 0.00387483, 0.00429426, 0.00382182, 0.00369606, 0.00372741, 0.00356241, 0.00370181, 0.00425139, 0.00345103, 0.00368152, 0.763703, 0.763477, 0.765228, 0.765101, 0.768698, 0.769727, 0.00381244, 0.772955, 0.00386086, 0.00363653, 0.00366559, 0.00403616, 0.00355787, 0.00382456, 0.00388119, 0.00333491, 0.00363685, 0.00388239, 0.00397226, 1.12901, 0.00372607, 0.00387016, 0.00362745, 0.00392113, 0.00356286, 0.00403361, 0.00362508, 0.00386588, 0.00372273, 0.0039435, 0.00373398, 1.14008, 0.00334503, 0.00408016, 0.00400956, 0.00391456, 0.00394584, 0.00389461, 1.1171, 0.00390292, 0.00358775, 0.00392083, 0.00342896, 0.803979, 0.805644, 0.809084, 0.811917, 0.817833, 0.818228, 0.00367355, 0.00384346, 1.4846, 0.824604, 0.00394237, 0.00371088, 0.00405782, 0.00356817, 0.00396582, 0.00392353, 0.00413367, 1.20793, 1.21706, 1.18192, 0.00361469, 0.00398867, 0.846959, 0.849112, 0.84998, 0.851423, 0.852889, 0.854344, 0.00394487, 0.00389024, 0.863447, 0.872518, 0.87547, 0.875059, 0.87849, 1.22048, 1.1909, 0.00355413, 0.00396131, 0.0039182, 0.905765, 0.908146, 1.1313, 1.20237, 0.998428, 0.998943, 1.14127, 1.37079, 1.30965, 1.25123, 0.0035445, 1.00982, 1.03582, 0.00372916, 1.10472, 1.10523, 0.963003, 1.25078, 1.25726, 1.15745, 0.00363176, 0.0034902, 0.00386657, 0.00386386, 0.00358673, 0.003604, 0.00399898, 0.00361375, 0.00377389, 0.00373411, 0.00382696, 0.00369017, 0.0040367, 0.00368531, 0.00385497, 0.00388077, 0.00382498, 0.0033535, 0.00388729, 0.00348968, 1.01984, 0.00367031, 1.01897, 1.02129, 1.02353, 1.02505, 0.00393629, 1.02965, 0.00396322, 0.00363923, 0.00409401, 0.00362807, 0.00422729, 1.14632, 1.14727, 0.00392847, 0.00376973, 0.00369065, 0.00395028, 1.05722, 1.32925, 0.00352413, 0.00385633, 0.00365093, 1.24853, 0.00381686, 0.00370474, 0.00329939, 1.18888, 1.20346, 1.25503, 0.00378061, 0.00412263, 0.00358624, 0.0040723, 0.00355933, 0.0040498, 0.00362859, 1.19544, 0.00381407, 0.00373344, 0.00363769, 0.0038927, 0.00357308, 0.0037912, 0.00373304, 1.35482, 0.00369431, 0.00420457, 0.00386923, 0.00380682, 0.0034507, 0.00400008, 0.0036072, 1.26277, 1.2651, 0.00389661, 0.00365753, 1.29278, 1.46906, 1.37929, 0.00345283, 0.00371653, 0.00367375, 1.27098, 1.27045, 1.27184, 0.00375541, 1.37465, 0.00366776, 0.0037111, 0.00357621, 1.28129, 1.28201, 1.29514, 0.00347003, 1.35854, 0.00351363, 0.00392712, 0.00382414, 0.00408963, 0.00402965, 0.00415328, 0.00360053, 0.00366465, 0.00354748, 0.00385092, 0.00368969, 0.00376345, 0.00349775, 0.00357115, 0.00383651, 0.00382074, 0.00377596, 0.00360307, 0.00382129, 0.00398305, 0.00359556, 0.00372171, 0.00340409, 0.003522, 0.00368623, 1.5336, 0.0036583, 0.00366458, 0.00367279, 1.53356, 0.00390071, 0.00387046, 0.0034267, 1.49826, 0.00324771, 0.00393688, 0.00383524, 0.00407933, 0.0033651, 0.00377799, 0.00368179, 1.54483, 0.00365136, 0.00353703, 0.00345133, 0.00390652, 0.00361058, 1.56266, 0.00361534, 0.00381806, 0.00359567, 0.00392612
0.00345619, 0.00360164, 0.00373013, 0.00375953, 0.00378707, 0.00389464, 0.00360816, 0.00356618, 0.00396613, 0.00354305, 0.00381982, 0.00353645, 0.00379274, 0.0036366, 0.0039232, 0.0038084, 0.00378699, 0.00359929, 0.00403693, 0.00368529, 0.00378589, 0.00377408, 0.00348405, 0.00388308, 0.00378631, 0.00361165, 0.00389221, 0.00393285, 0.0037028, 0.00391659, 0.760214, 0.00366527, 0.00379248, 0.765564, 0.765324, 0.767773, 0.769681, 0.770204, 0.770372, 0.770643, 0.00382201, 0.00356508, 0.00387573, 0.00373493, 0.786819, 0.00364175, 0.00386349, 0.00362954, 0.00375275, 0.00378861, 0.00403417, 0.00353542, 0.00377646, 0.00390323, 0.00384509, 0.00384589, 0.00356274, 0.00364867, 0.00385593, 0.00377554, 0.00413438, 0.00380852, 0.00373222, 0.00401939, 0.00384557, 0.00371241, 0.00362362, 0.00368128, 0.00406607, 1.19385, 1.15975, 0.00372543, 0.800676, 0.80241, 0.807224, 0.809135, 0.81139, 0.00396623, 0.817512, 0.816, 0.816079, 0.817806, 0.818087, 0.81845, 0.821304, 0.00354774, 0.813517, 0.815012, 1.01373, 1.25809, 0.003654, 0.00385823, 0.00316411, 0.00364273, 0.00372075, 0.00401022, 0.00423862, 0.00384975, 1.11353, 0.00356561, 1.4693, 0.00360616, 1.52066, 0.00386355, 0.863123, 0.00375372, 0.87775, 0.875839, 0.00364583, 0.00366464, 0.00373073, 0.00349122, 1.27091, 0.00378091, 0.00363636, 0.00398891, 1.11617, 0.00357533, 0.00366236, 0.00386185, 0.00414179, 0.00337133, 0.0042062, 0.0036961, 0.00353062, 0.00369553, 0.00403678, 0.00372995, 0.00375018, 0.00365993, 0.00393628, 0.00356418, 0.00421082, 0.0034647, 0.00385108, 0.00392136, 0.00406287, 0.00387972, 0.00392728, 0.00352709, 0.00337244, 0.00369312, 0.00362596, 0.00392, 0.00371578, 0.00350987, 1.09685, 0.00376007, 1.22425, 0.00380138, 0.00362971, 0.00372633, 0.00406911, 0.00376827, 0.00390629, 0.00357216, 1.01335, 1.14722, 1.17465, 0.00374868, 0.00402511, 0.00335555, 0.00362777, 0.00375943, 0.00417884, 0.00388286, 0.00401128, 0.00328082, 1.34656, 0.0035935, 0.00406022, 0.00355952, 0.0036076, 0.00378317, 0.00386763, 0.00369203, 0.0036363, 0.00326648, 1.29425, 0.00380334, 0.00348896, 1.60956, 1.1911, 0.0035309, 1.21951, 0.00350056, 0.00390907, 0.00339413, 0.00420036, 0.0037101, 0.00386705, 0.00355408, 0.00396096, 0.00367775, 0.00386487, 0.00353459, 1.27482, 0.00380678, 1.42079, 0.00359024, 1.21183, 0.00360615, 0.00373315, 0.00404611, 1.14684, 1.29846, 0.00382627, 0.00355502, 1.40978, 0.00330442, 0.00415222, 1.33333, 0.00355066, 1.5018, 1.40837, 0.00382735, 0.0035804, 0.00352929, 1.53081, 0.00376778, 1.27735, 0.00382989, 0.00399929, 0.00368997, 1.34132, 0.00377558, 1.28556, 0.0036883, 1.28387, 0.00350365, 1.52703, 0.00377185, 0.00344151, 0.00383807, 0.00377855, 0.00345728, 0.00385878, 0.00337284, 0.00392785, 0.00327865, 0.00391517, 0.00366272, 0.00365886, 0.00383063, 0.00380223, 0.00346967, 0.00407155, 0.00388807, 0.0035188, 0.00390038, 0.00350353, 0.00365965, 0.0035252, 0.00345239, 0.00388043, 0.00381782, 0.00450118, 0.00345764, 1.46579, 1.46306, 0.00372149, 0.00377258, 0.00414938, 0.00381331, 0.00344105, 0.00364079, 0.00345222, 0.00344996, 0.00348669, 0.0033758, 0.00390021, 0.00370993, 1.55786, 0.00373782, 0.00369406, 0.00374718, 0.00364153, 0.0038342, 0.00387669, 0.00373478, 0.0038232, 0.00378918
0.00367577, 0.00419657, 0.00368944, 0.00389765, 0.003666, 0.00392984, 0.00355438, 0.00399001, 0.00347282, 0.00363232, 0.00335316, 0.00395507, 0.00347239, 0.00433651, 0.00378091, 0.00396896, 0.00382758, 0.0034256, 0.00363471, 0.00421769, 0.0035771, 0.00414256, 0.00368495, 0.00406187, 0.0039084, 0.00399466, 0.00378639, 0.0038335, 0.00350974, 1.05676, 0.00365854, 0.00371984, 0.00382316, 0.00424505, 0.00362092, 0.76639, 0.766599, 0.76712, 0.76838, 0.00401044, 0.00365496, 0.00362859, 0.00408643, 0.00420844, 0.00324725, 0.00387811, 0.0038687, 0.00375908, 0.00376094, 0.00400555, 0.00363747, 0.00393439, 0.00353067, 0.00338638, 0.00354861, 0.0037917, 0.00359014, 0.00401129, 0.00363267, 0.763606, 0.00369094, 0.00380056, 0.778987, 0.780059, 0.00363783, 1.3197, 0.77764, 0.782746, 0.782477, 0.786737, 0.00371285, 0.00375248, 0.00346338, 0.801429, 0.804231, 0.807792, 0.80872, 0.809837, 0.805392, 0.808411, 0.808977, 0.812749, 0.81437, 0.815399, 0.00378829, 0.818026, 0.815564, 0.816339, 0.816732, 0.00412682, 1.49174, 0.825567, 0.00352739, 0.00364474, 0.003535, 1.15684, 0.00349444, 0.00394649, 0.00383504, 0.846504, 0.00395371, 1.43102, 0.00350005, 0.00398858, 0.00383764, 0.003793, 0.00372044, 0.00355273, 0.00374894, 0.00429131, 0.870465, 0.00434108, 0.00384325, 0.00382571, 0.00364684, 0.00396036, 0.0037269, 0.00373134, 1.37614, 1.05019, 1.04882, 1.08767, 0.00370884, 1.14446, 1.14652, 1.16752, 1.19245, 0.00414077, 0.00334735, 0.00369008, 0.00355674, 0.00370183, 0.00376456, 0.0039859, 0.00336126, 0.00367751, 0.00386476, 0.00383888, 0.00357319, 0.960126, 0.00326805, 0.00375514, 0.00372536, 0.0039655, 0.00367809, 0.00360525, 0.00391982, 0.00413954, 1.15011, 0.00380887, 0.00361732, 0.00386111, 0.00356205, 0.00374696, 0.00341054, 0.00422809, 1.00821, 1.01227, 0.00364837, 1.11376, 0.00357357, 0.00412063, 0.00382555, 0.00392719, 0.003663, 0.00395389, 0.00347908, 1.1748, 0.00369316, 0.00382871, 1.02669, 1.02853, 0.00363386, 1.09568, 0.00368012, 0.00384413, 0.00370838, 0.0041844, 0.0034841, 0.00414698, 0.00339129, 1.09456, 0.00370207, 0.00367893, 0.00338025, 1.17106, 0.00349313, 1.07454, 0.00379642, 0.00372351, 0.00387485, 0.00360202, 0.00341796, 0.00384772, 0.00380412, 0.00342942, 0.00337255, 0.00391758, 0.00383616, 0.00399502, 0.0035803, 0.00416942, 0.00390859, 0.00415088, 0.00349496, 1.24339, 0.00368057, 1.34554, 0.00356176, 0.00386174, 0.00319642, 0.00386195, 0.00364774, 0.00385106, 0.00340991, 1.41302, 0.00328348, 1.4014, 0.00365208, 0.00400174, 0.00348424, 1.3135, 1.32334, 0.00404184, 0.00401258, 0.00380409, 0.00357069, 0.00411727, 0.0034462, 0.00420837, 0.00363033, 1.39633, 0.00364229, 0.00396611, 0.00366884, 1.34642, 0.00367748, 1.39956, 0.00344363, 0.00441681, 0.00350648, 0.00445071, 0.00377631, 0.00381326, 0.0034583, 0.00384438, 0.00345436, 1.62875, 0.00350682, 0.00402585, 0.00390697, 0.00386384, 0.00345482, 0.00379923, 0.00372345, 0.00361076, 0.00364919, 0.00376669, 0.00324733, 1.51398, 0.0034373, 0.00398168, 1.60837, 1.46384, 1.4649, 0.00389429, 0.00333924, 0.00402523, 0.00347674, 0.00430569, 0.00354349, 1.49879, 0.00358411, 0.0035627, 0.00343129, 0.00376176, 0.00339857, 0.00387875, 0.003785, 0.00378971, 0.00374247, 0.0042701
0.00362079, 0.00364498, 0.00395993, 0.00369441, 0.00401477, 0.00352532, 0.00372719, 0.00384449, 0.00408262, 0.00370585, 0.00364975, 0.00344416, 0.00352351, 0.00360711, 0.00362111, 0.0036995, 0.00380334, 0.00368443, 0.917173, 0.00363945, 0.00397665, 0.00362285, 0.876626, 0.884217, 0.00396204, 0.00387572, 0.00370981, 0.00354792, 0.0038863, 0.00385448, 0.00404741, 0.003522, 0.00372513, 0.00370412, 0.00369321, 0.00373149, 0.00379781, 0.00399276, 0.00399541, 0.00372206, 0.00361466, 0.758534, 0.00399027, 0.00313374, 0.00410405, 0.00368803, 1.23295, 0.00351927, 0.00413759, 0.747864, 0.7507, 0.751944, 0.754789, 0.00370494, 0.00397682, 0.00390929, 0.00416343, 0.00367253, 0.760859, 0.762504, 0.763376, 0.00340057, 0.00356134, 0.00388419, 0.00360356, 0.774806, 0.777338, 0.779757, 0.781385, 0.00381263, 0.00372739, 0.00364731, 0.797087, 0.798262, 0.799168, 0.00347885, 0.00405295, 0.804822, 0.804647, 0.806905, 0.807372, 0.808442, 0.808657, 0.00343208, 0.812366, 0.815233, 0.814534, 0.815646, 0.815905, 0.00367398, 0.00387021, 0.00361075, 0.00412428, 0.00374451, 0.0037323, 0.00348978, 0.00358014, 0.00372474, 0.00370452, 0.00342924, 0.00353851, 0.00380906, 0.00414103, 0.00366027, 0.850489, 0.00356043, 1.15634, 0.00374622, 0.00430802, 0.00362207, 0.865974, 0.970844, 0.977128, 0.00387665, 0.0037371, 0.00358503, 1.48903, 0.00336598, 0.00436972, 0.00372033, 0.00413508, 0.907667, 0.907462, 0.911838, 0.910224, 0.912726, 1.18513, 1.18496, 1.20968, 0.940736, 0.00434343, 0.00357573, 0.00411322, 0.00394806, 0.00365184, 0.00365347, 0.00386141, 0.00372982, 0.00342729, 0.0037419, 0.00404367, 0.9541, 0.955976, 0.00371415, 1.09239, 0.965283, 0.967453, 0.00375756, 0.00397587, 1.19249, 1.18928, 0.00366474, 0.00376172, 0.00375699, 0.00376175, 0.00361256, 1.04888, 0.00379189, 0.00429929, 0.00378608, 1.00518, 0.00367543, 0.00359259, 0.00338453, 0.00394027, 0.00347996, 1.80262, 1.28443, 1.28249, 0.00357931, 1.07467, 0.00350411, 0.00405732, 0.00397917, 0.0037541, 0.00377967, 0.00384257, 0.00344815, 1.57862, 0.00381265, 0.00395863, 0.00361743, 0.00346218, 0.0036636, 0.00404105, 0.00403097, 0.00379447, 0.00362635, 0.00354615, 0.00384266, 0.00374433, 0.00380612, 0.00372545, 1.08149, 1.08483, 0.0038586, 0.0036362, 0.00329721, 0.00351483, 0.00375201, 0.00409223, 0.00376752, 1.33794, 0.0034144, 0.00427547, 0.00351041, 0.003862, 0.00383096, 0.00360308, 0.00360765, 0.00351704, 0.0035515, 0.00371838, 0.00374786, 0.00365233, 0.00369782, 1.18602, 1.40673, 1.40851, 0.00376298, 1.2406, 1.3689, 0.00391372, 0.00379947, 1.40009, 0.00348342, 0.00400379, 0.00358219, 0.00360334, 0.00384091, 0.00353348, 0.00379008, 0.00371201, 0.00382906, 0.00398073, 0.00365794, 0.00364727, 0.00365081, 0.00390119, 0.00327093, 0.00427966, 0.00390386, 0.0037167, 0.0037488, 0.00367746, 1.41289, 0.00355721, 0.00344095, 0.00399686, 0.00353241, 0.0039135, 0.00345129, 0.00358529, 0.00366916, 0.00390221, 0.00328303, 0.00391077, 0.00367325, 0.00394435, 0.00360087, 0.00384171, 0.00356759, 0.00395099, 0.00393862, 0.00365209, 0.00360784, 0.0040093, 0.00363999, 1.46793, 0.00387014, 0.00368545, 0.00362872, 0.00377953, 0.00321015, 0.00388165, 0.00365897, 0.00394453, 0.0036671, 0.00390769, 0.00348694, 0.00379287, 0.00362856
0.00407549, 0.00373236, 0.00391504, 0.00347074, 0.00349163, 0.00380882, 0.00371628, 0.00424339, 0.00404505, 0.00390542, 0.00357083, 0.00352695, 0.00386913, 0.00386069, 0.00382662, 0.00385793, 0.00370851, 0.00394334, 0.00378732, 0.0036161, 0.00351059, 0.00366646, 0.00345769, 0.00367972, 0.00368293, 0.00343752, 0.00381169, 0.0037151, 0.00348517, 0.00415615, 0.00384504, 0.0035293, 0.00381224, 0.00387513, 0.00365276, 0.00371983, 0.0036825, 0.00346224, 0.00384714, 0.00378784, 0.00369729, 0.00384387, 0.00382071, 0.00409966, 0.0036135, 0.00375756, 0.00358033, 0.758061, 0.756786, 0.750894, 0.752743, 0.75386, 0.754399, 0.755568, 0.75521, 0.757857, 0.00379995, 0.00347047, 0.758496, 0.759626, 0.00366065, 0.762668, 0.764815, 0.765872, 0.00353903, 0.00368894, 0.00342959, 0.768034, 0.00377522, 0.0038094, 0.00404275, 1.66834, 0.00380988, 0.00402408, 0.00367395, 0.00375169, 0.00381441, 0.00415174, 0.800676, 0.798981, 0.00367803, 0.0035134, 0.00393431, 0.807283, 0.00361936, 0.00357798, 0.00392139, 1.09872, 0.00372545, 1.46173, 1.46248, 1.36891, 1.36937, 1.63343, 0.00371475, 1.21468, 1.21691, 0.00405561, 0.00361795, 0.00380789, 0.00407085, 0.00377352, 0.0038054, 0.842415, 0.00365133, 0.843404, 0.00355056, 0.00388025, 1.54212, 0.00371327, 0.860576, 0.864006, 0.865296, 0.870715, 0.873504, 0.875933, 0.00390106, 0.884124, 1.16861, 0.998547, 1.19449, 1.06778, 0.906413, 0.909108, 0.912833, 0.914254, 0.916659, 0.925323, 0.923974, 0.92106, 0.915807, 0.918209, 0.918859, 1.26331, 0.00373078, 0.0034498, 0.0035014, 0.00371458, 0.00387521, 0.943174, 0.00376367, 0.00384994, 0.00354357, 0.00393083, 0.0038222, 0.00350337, 0.00379142, 0.00352371, 0.00355501, 0.964381, 0.00352239, 0.00398199, 0.969898, 0.972346, 0.97431, 0.00412351, 0.00366317, 0.00376278, 0.00351848, 0.00349675, 0.00358703, 0.00384736, 0.00358571, 0.00392524, 0.00383412, 0.00395592, 0.00386418, 1.19128, 1.19465, 0.00447002, 0.00371855, 0.00358615, 0.0038608, 0.00360375, 0.00357617, 0.00385593, 0.0035883, 0.00371967, 0.00360122, 0.00361785, 0.00366754, 0.00356736, 0.00374643, 1.07999, 0.00357497, 1.39185, 0.00345052, 0.00439152, 0.00386578, 0.00403865, 0.00356328, 0.00401958, 0.0034818, 1.54456, 0.00369365, 0.00395686, 0.0035489, 0.00357691, 0.00365222, 0.00391805, 1.09721, 1.10175, 0.00364455, 0.00421282, 0.00377984, 1.11154, 1.11279, 0.00381495, 0.00368097, 0.00377598, 0.00365563, 0.00381432, 0.00362815, 1.33355, 0.00355443, 0.00393886, 0.00377471, 0.00385282, 1.17616, 0.0034872, 0.0037857, 1.40723, 1.45372, 1.45463, 0.00359509, 0.003644, 0.00380946, 1.32251, 0.00412287, 0.00355574, 0.00368146, 0.00391006, 0.00363945, 0.00395027, 0.00344883, 0.00361428, 0.00334146, 0.0041245, 0.00345052, 0.00407769, 0.00369475, 0.00373108, 0.0039541, 0.00360146, 0.00363812, 0.00383664, 0.00373826, 0.00351046, 0.00367151, 0.00332056, 0.00356843, 1.54618, 0.00360933, 0.00380591, 0.00380003, 0.00386554, 0.00343391, 1.4353, 1.43542, 0.00383609, 0.00338462, 0.00380783, 0.00378791, 0.00390145, 0.00365533, 0.00367834, 0.00332699, 0.0040203, 0.00367976, 0.00374533, 0.00351138, 1.77354, 1.77451, 1.76968, 0.00370802, 0.0035068, 0.00383594, 0.00380163, 0.00367265, 0.00400361, 0.00347062, 0.00382793
0.00397136, 0.00366647, 0.00379477, 0.00394498, 0.00347765, 0.00366927, 0.00364567, 0.00347315, 0.0039678, 0.00353546, 0.00373299, 0.00380928, 0.00357625, 0.00352998, 0.00376943, 0.00354065, 0.00397813, 0.00342729, 0.00359157, 0.00354941, 0.00407267, 0.00377212, 0.00411709, 0.00358985, 0.00406157, 0.00352727, 0.00384907, 0.00364856, 0.00364423, 0.00368193, 0.00411408, 0.00341425, 0.924372, 0.00344668, 0.00392328, 0.00378952, 0.00406176, 0.00346027, 0.00400846, 0.734966, 0.00366654, 0.00371785, 0.00386902, 0.00354951, 0.0037152, 0.0034864, 0.754935, 0.753478, 0.753027, 0.753242, 0.752802, 0.752187, 0.752041, 0.75315, 0.754019, 0.755598, 0.752009, 0.750857, 0.752163, 0.751848, 0.00405458, 0.00376004, 0.76375, 0.764678, 0.76393, 0.765046, 0.767544, 0.769308, 0.769334, 0.0035026, 0.00386305, 0.00356533, 0.00378085, 0.00375087, 0.00363232, 0.00367672, 0.00373885, 0.00391694, 0.00347164, 0.0041878, 0.00355961, 0.00362529, 0.79833, 0.00372487, 0.00385506, 0.00354871, 0.801098, 1.0373, 1.02384, 0.00366965, 0.00420893, 0.00373298, 1.46169, 0.00365136, 0.00382796, 0.00360163, 0.0038854, 0.00353277, 0.00391238, 0.00339141, 0.00377041, 0.00378478, 0.00407916, 0.0034956, 0.00369544, 0.00367191, 0.00429776, 0.00388752, 0.00401182, 0.00355471, 0.912672, 0.00392986, 0.00401638, 0.872408, 0.874522, 0.875652, 0.878793, 0.883749, 0.884565, 0.886777, 0.893806, 0.905565, 0.907371, 0.910503, 0.91188, 0.916877, 0.917951, 0.918989, 0.916388, 0.915593, 0.911119, 0.908382, 1.28997, 0.00384218, 1.2161, 0.00384322, 1.18059, 0.00365469, 0.00364576, 0.00356473, 0.00406216, 0.00360085, 1.16996, 0.00384394, 0.00392406, 0.00361691, 0.00391813, 0.00328862, 0.00385782, 0.00356988, 0.00384799, 0.00343998, 0.963809, 0.964008, 0.00408168, 0.00348463, 1.05013, 0.00360663, 0.00359605, 0.00380153, 1.05029, 0.00364956, 0.00410694, 0.0034715, 1.2233, 0.00344843, 1.70131, 0.00368751, 0.00420539, 0.0035895, 0.00376546, 0.00352826, 1.49426, 0.00345356, 0.00367745, 1.38791, 0.00389018, 0.00367097, 0.00399502, 0.00351337, 0.00384143, 1.41356, 1.14769, 0.00349874, 1.07762, 0.00363436, 0.00344629, 0.00357436, 0.00377612, 0.00380977, 1.7011, 1.67966, 0.00369742, 1.06494, 1.07423, 0.00336098, 1.12471, 0.00384003, 1.08519, 0.00353425, 1.34794, 1.09172, 0.00387477, 1.31982, 1.10487, 1.10787, 0.00370868, 0.00328286, 1.11521, 0.0037109, 0.00416247, 0.00347512, 0.00409368, 0.00381505, 0.00363829, 0.00338122, 1.32064, 0.00359981, 0.00391124, 0.00367012, 0.00387667, 0.00373378, 1.20511, 1.3463, 1.20502, 0.00356416, 1.44742, 0.00351504, 0.00363452, 0.00378552, 0.0039877, 0.00353496, 0.00375158, 0.0038601, 0.00373705, 0.00378779, 1.37149, 0.00360766, 0.00384796, 0.00356339, 1.5991, 0.0036792, 0.00355637, 0.00360969, 0.00396229, 0.00334866, 0.00354766, 0.00363948, 1.70421, 0.00385863, 0.0038895, 0.00361453, 0.00412415, 0.00369461, 0.00367801, 0.00360634, 0.00381677, 0.00392341, 0.00423761, 0.00324646, 1.48602, 0.00388366, 0.00362535, 0.00382562, 0.00379064, 0.00335989, 0.0035926, 0.00381497, 0.00348125, 0.0035421, 1.47848, 0.00372917, 0.00411119, 0.00366203, 1.48553, 0.00375783, 0.00379043, 0.00340358, 0.00380146, 0.00362862, 0.00386995, 0.00364344
0.00356957, 0.00387555, 0.00377999, 0.00381398, 0.00364778, 0.00380967, 0.00352109, 0.00375095, 0.00356348, 0.00357782, 0.00377748, 0.00371108, 0.00335508, 0.00389953, 0.00377769, 0.00386327, 0.0036025, 0.00399549, 0.0035607, 0.00343759, 0.00359063, 0.00378784, 0.00374641, 0.00327002, 0.00343894, 0.00377665, 0.00349016, 0.00353557, 0.713274, 0.715214, 0.717538, 0.71743, 0.71796, 0.00386983, 0.721105, 0.72148, 0.723296, 0.724431, 0.00333241, 0.734843, 0.734724, 0.730582, 0.731327, 0.999376, 0.00392836, 0.0041149, 0.00351935, 0.752002, 0.752626, 0.753311, 0.754024, 0.750628, 0.751238, 0.75283, 0.753632, 0.753476, 0.743877, 0.745409, 0.747904, 0.751621, 0.751047, 0.752669, 0.00360064, 0.0037518, 0.00383289, 0.764663, 0.766814, 0.768203, 0.769424, 0.0039742, 0.00341348, 0.00359717, 0.00359646, 0.00371443, 0.00358566, 0.00410511, 0.00393501, 0.00357116, 0.00363017, 0.00389519, 0.00344929, 0.00373562, 0.00355747, 0.00367773, 0.00363723, 0.00418494, 0.00349481, 0.960054, 0.00357194, 1.48287, 1.43813, 1.43825, 0.00359201, 0.00375616, 0.00368701, 0.00373289, 0.00381446, 1.35462, 0.00348249, 0.00386564, 0.00339857, 0.00393505, 0.00355091, 0.00372243, 0.00365007, 0.00387381, 0.00371956, 0.00398399, 0.00305632, 0.00363752, 0.00404095, 0.00374526, 0.00353852, 0.003866, 0.00345566, 0.00385024, 0.880945, 0.88264, 1.24355, 0.00392992, 0.00352265, 0.899425, 0.904157, 0.00387788, 0.00330188, 0.915619, 0.00346391, 0.916635, 0.918251, 0.912555, 0.905802, 0.90892, 0.909629, 1.01484, 0.00364918, 0.00407952, 0.00354411, 0.00382957, 0.0036149, 0.00350694, 0.00390802, 1.22385, 0.0036404, 0.00361959, 0.00352589, 1.11004, 0.00354739, 0.00371754, 0.0037486, 0.00364374, 0.00365276, 0.00409049, 0.00357088, 0.00387145, 0.00357383, 0.00402397, 0.00348326, 0.00368311, 0.00339714, 0.00384174, 0.00358779, 0.00337657, 1.25067, 0.00377852, 0.00354955, 0.973126, 0.972729, 0.973453, 0.00349715, 0.00412089, 1.20313, 0.00380331, 0.00372634, 0.00369992, 0.00376035, 0.00403075, 0.00346306, 0.00378148, 0.00321203, 1.06092, 0.0034997, 0.00389133, 0.00365347, 0.00357439, 0.00332201, 0.00356865, 0.00364989, 0.0041012, 0.00326365, 0.0040385, 0.00356853, 1.04999, 0.00383324, 0.00374474, 1.73011, 0.00351705, 0.00367129, 0.00413507, 0.0038201, 1.10126, 0.00393437, 1.0877, 1.17772, 0.0037727, 0.00332969, 0.00391175, 0.00371332, 0.00385852, 1.22125, 1.23256, 0.00352604, 0.00364934, 0.00377009, 0.00398363, 0.00363144, 0.00390182, 0.00342408, 0.0037243, 0.00347937, 0.00416833, 0.00361178, 0.00375757, 0.00388804, 0.00380881, 0.00397304, 0.00406996, 0.00363882, 0.00372266, 0.00362697, 0.0043901, 1.44378, 1.44672, 0.00349366, 1.36598, 1.36594, 1.33474, 1.33656, 0.0036879, 0.0037295, 0.00385878, 0.00377877, 0.00390351, 0.00372903, 0.00382546, 0.00336993, 0.00412044, 0.00350632, 1.69263, 0.00353234, 0.00372343, 1.44492, 0.00393713, 0.00350902, 0.00386831, 0.00359297, 0.00375578, 0.00349302, 1.58854, 0.00365304, 0.00414063, 0.00369249, 0.00369476, 1.41322, 1.75974, 0.00344065, 1.59705, 0.00348479, 0.00367856, 0.00360248, 0.00383868, 0.00381825, 0.00385815, 0.00369954, 0.00348891, 0.00376373, 1.48033, 0.00359021, 0.00398102, 0.00373193, 0.0041721, 0.00388128, 1.52757
0.00396058, 0.00363189, 0.00365596, 0.00345451, 0.00379055, 0.00360196, 0.0039278, 0.00346615, 0.00394382, 0.00389267, 0.00381315, 0.00401407, 0.00402214, 0.00394927, 0.0038479, 0.00372956, 0.0035384, 0.0033385, 0.00378063, 0.0033949, 0.00373007, 0.00361853, 0.00352253, 0.00360086, 0.00362648, 0.00385583, 0.00364061, 0.00338323, 0.711821, 0.714688, 0.715807, 0.00358157, 0.720664, 0.722199, 0.723235, 0.724417, 0.724165, 0.725366, 0.726808, 0.727137, 0.728597, 0.731169, 0.731642, 0.00371079, 0.00399963, 0.00363814, 0.00402144, 0.00356664, 0.749961, 0.750243, 0.75051, 0.750798, 0.7511, 0.747264, 0.745797, 0.749752, 0.750005, 0.748679, 0.750271, 0.751521, 0.00402826, 0.75894, 0.758083, 0.75975, 0.761545, 0.762427, 0.764385, 0.00373888, 0.767217, 0.767367, 0.768256, 0.767165, 0.769248, 0.00354999, 0.00382509, 0.00357357, 0.00363418, 0.00350713, 0.003599, 0.00420898, 0.77791, 0.00358464, 0.00355015, 0.00357071, 0.00376946, 0.00359174, 0.778474, 0.773308, 0.77448, 0.00364678, 0.00378847, 0.00361009, 0.00365544, 0.00376909, 0.00362943, 0.00364351, 1.47262, 1.13426, 0.0037569, 0.00365197, 0.00380043, 0.00357999, 0.00383378, 0.00354533, 0.00386519, 0.00368161, 0.00375498, 0.00374213, 0.00388248, 0.00365481, 0.00359762, 0.00377445, 0.00366059, 1.23678, 0.00341198, 1.01256, 1.07472, 0.00369122, 1.60596, 0.00355811, 0.977145, 0.00384004, 0.00418666, 0.00366752, 0.00317292, 0.0037256, 0.00364966, 0.00373558, 0.00395488, 0.00347842, 0.00366111, 0.00352348, 0.00339117, 0.00392916, 0.00361654, 0.00357413, 0.00363273, 0.00376474, 1.34467, 1.3329, 1.35669, 0.00345315, 0.00357642, 0.00383422, 0.00358429, 0.00402532, 0.00369133, 0.00353721, 0.00370986, 0.00368822, 0.00405836, 0.00397016, 0.00374755, 0.00390196, 0.00357481, 0.00379237, 0.00363724, 0.003792, 0.959911, 0.00397208, 0.00384561, 0.00377641, 1.00426, 0.0035931, 1.10185, 0.00382879, 0.00363701, 0.00369772, 0.00363427, 0.00353922, 0.00374886, 0.0037611, 0.00376775, 0.00379976, 0.00375493, 0.00372473, 0.00378504, 0.00370938, 0.00356669, 0.0038468, 0.0039594, 1.02206, 1.02336, 0.00365942, 0.0039817, 0.00360765, 0.00359957, 0.00380511, 0.00360401, 0.00342648, 1.16027, 1.16721, 0.00390143, 0.00341776, 1.16452, 1.09027, 1.1853, 0.00370683, 0.00387177, 0.00338926, 0.00362966, 0.0034558, 1.15812, 0.00386153, 0.00405251, 0.00344828, 0.00424484, 0.00360287, 1.16369, 1.20517, 0.00352049, 0.00356451, 0.00397141, 0.00379216, 0.00360262, 0.00392112, 0.00391085, 0.003525, 0.00343896, 1.45336, 1.44911, 0.0037491, 0.00379548, 0.0037882, 1.41286, 0.00415155, 1.28975, 0.00357568, 0.00364381, 0.00378176, 1.22884, 0.00341114, 0.00357037, 0.00371981, 0.00390212, 0.00385072, 0.0040201, 0.00368356, 0.00340706, 0.00361898, 1.30629, 1.30069, 1.30484, 0.00395567, 0.00374562, 0.00389472, 1.69601, 1.68835, 1.73097, 0.00366602, 0.00382822, 0.00377604, 1.46257, 1.94553, 0.00355301, 0.00384364, 0.00366949, 0.00383806, 0.00382066, 0.00359013, 0.00394206, 0.00353663, 0.00366597, 0.00338168, 0.00395532, 0.00374131, 0.00348941, 0.00416193, 0.00410459, 0.00366597, 1.5177, 0.0036431, 1.50611, 0.00329999, 1.61425, 0.00378528, 0.00349526, 0.00342303, 0.00405514, 0.00328992, 0.00392818, 0.00375672
0.00365055, 0.00410799, 0.00344311, 0.00402238, 0.00347578, 0.00414003, 0.0035236, 0.00381945, 0.00359033, 0.00388064, 0.00365546, 0.0041841, 0.00348414, 0.00351836, 0.00349931, 0.0039919, 0.00340768, 0.00355962, 0.00359392, 0.00395968, 0.00342091, 0.0036884, 0.00362917, 0.00367689, 0.00368221, 0.00368356, 0.00326125, 0.00406403, 0.00362653, 0.00338254, 0.0035136, 0.00390887, 0.00337638, 0.00398597, 0.00340677, 0.724149, 0.725581, 0.726732, 0.727575, 0.728063, 0.727949, 0.726562, 0.731054, 0.731302, 0.0033754, 0.00376801, 0.00360728, 0.0040735, 0.00355852, 0.0038639, 0.0037318, 0.00370311, 0.745154, 0.74716, 0.748504, 0.749422, 0.00374726, 0.750176, 0.003474, 0.00400872, 0.00342163, 0.00355998, 0.757896, 0.759996, 0.761172, 0.763129, 0.764015, 0.763501, 0.00373537, 0.0037724, 0.00386983, 0.760813, 0.762823, 0.764982, 0.00345402, 0.00386188, 0.00346036, 0.00384586, 0.00352943, 0.00382325, 0.00363126, 1.06046, 0.0035601, 0.00397714, 0.772257, 0.0039755, 0.00364508, 0.770409, 0.771077, 0.770947, 0.00356005, 0.757199, 0.75727, 0.759084, 0.978961, 1.09303, 0.998116, 1.04794, 0.00328309, 1.31175, 1.31733, 1.26509, 0.00375901, 1.15632, 0.00377618, 0.00352681, 0.00381452, 1.49601, 0.00366103, 0.00383438, 0.00366201, 0.942007, 0.942322, 0.00373239, 0.00378112, 0.00370941, 0.0036761, 0.00379884, 0.00393123, 0.00382801, 0.00363462, 0.003293, 0.0039083, 0.00411348, 0.00364878, 0.00332736, 0.003686, 0.928809, 0.929919, 0.00415071, 0.00375469, 0.00347975, 0.00352615, 0.0036946, 0.00372983, 0.00373162, 0.00327191, 0.00386386, 0.00380992, 0.00377874, 0.00361345, 0.00399113, 0.00337026, 0.00376376, 0.00360081, 1.43105, 0.00337549, 0.00356871, 0.00368615, 0.00377627, 0.00353061, 0.00352283, 0.00353196, 0.00363002, 0.00339777, 0.00391439, 0.00374475, 0.00417336, 0.95582, 0.95463, 0.956965, 0.00360539, 0.00370977, 0.0037937, 0.00358182, 0.00388837, 0.957239, 1.14355, 0.954052, 0.954809, 0.00347479, 1.16818, 0.00366449, 0.00408626, 0.00360214, 0.00383307, 0.00358416, 0.00387419, 0.00354695, 0.00341194, 0.00363242, 0.00358372, 0.00367314, 0.00366803, 0.00370857, 0.00404147, 0.00350952, 0.00370809, 0.00395466, 0.00446522, 0.0033733, 0.00378087, 0.00369694, 1.23907, 0.00352708, 0.00398156, 0.00358314, 0.00382134, 0.00394825, 0.00382477, 0.00364166, 0.00412645, 0.00331968, 1.17402, 0.00368701, 0.00381122, 0.00328704, 0.00342737, 0.0038904, 0.00363039, 0.00362558, 1.44365, 0.00356358, 0.00406992, 0.00368769, 1.33057, 0.00369777, 1.41721, 0.00353485, 1.44939, 0.00366279, 1.46654, 0.00343652, 0.00359291, 1.18184, 1.18462, 0.00350818, 1.58073, 0.00321957, 1.21172, 0.00352903, 0.004018, 0.00371595, 0.00390262, 0.00336241, 0.00387912, 0.00363182, 0.00355416, 0.00345088, 0.00424173, 0.00361642, 0.00441947, 0.00351246, 0.00411898, 0.00352578, 0.00396354, 0.0037185, 1.67633, 0.00343163, 1.35356, 0.00354435, 0.00341494, 0.00354504, 0.0039835, 0.00364438, 1.89379, 1.52048, 1.46576, 0.00350242, 1.50308, 0.00329916, 0.00384331, 0.00358485, 1.474, 0.00363351, 0.00349857, 0.00349354, 0.00381169, 0.00346382, 0.00373796, 0.00357484, 0.00387363, 0.00375248, 0.0036356, 0.00347789, 0.00366379, 0.00355334, 1.47417, 0.00359352, 0.00405481, 0.00328125, 0.0100335
0.00378068, 0.00325061, 0.00382116, 0.00363997, 0.00369159, 0.00358772, 0.00395544, 0.00334487, 0.00351871, 0.00376543, 0.00365848, 0.00385757, 0.00350726, 0.00365186, 0.00397855, 0.00366763, 0.00371983, 0.00391202, 0.00390712, 0.00376203, 0.00370197, 0.00342425, 0.00382636, 0.00336923, 1.01965, 0.00369983, 0.0036528, 0.00337238, 0.00396368, 0.00362854, 0.00355915, 0.00343079, 0.00347935, 0.0037023, 0.00382642, 0.722208, 0.723261, 0.724919, 0.724996, 0.725012, 0.726682, 0.726992, 0.00381363, 0.00370207, 0.00421678, 0.00366655, 0.00350454, 0.00394614, 0.00399321, 0.00355332, 0.00397441, 0.00336107, 0.00413962, 0.00362799, 0.0035513, 0.00367005, 0.00379151, 0.0034313, 0.00392505, 0.0038107, 0.00398337, 0.00360016, 0.756196, 0.757419, 0.759528, 0.759847, 0.760499, 0.76095, 0.757808, 0.757549, 0.759383, 0.75911, 0.00372458, 0.00344197, 0.00368247, 0.00369363, 0.00356406, 0.00346626, 0.00365426, 0.00370401, 0.00402224, 0.00364454, 0.00364441, 0.00353462, 0.00412371, 0.00348483, 0.00409133, 0.0036387, 0.00367405, 0.00378141, 0.75948, 0.760678, 0.75798, 0.758844, 0.759325, 0.00343943, 0.00363502, 0.00356053, 0.00408324, 0.00368725, 0.00377034, 0.00366116, 0.00359815, 0.00352998, 0.0037496, 0.00373112, 0.00365307, 0.00363308, 0.00381126, 0.00368292, 0.00375268, 0.00352053, 0.00357847, 0.00380306, 0.00358051, 0.00359468, 0.00394756, 0.00354294, 0.00378242, 0.00363159, 0.00364268, 0.00366173, 0.00393481, 0.00360357, 0.00364441, 0.0031054, 0.00353406, 0.00334844, 0.00414236, 0.00369528, 0.00391736, 0.00367276, 0.00378568, 0.00381336, 0.00385693, 0.0036834, 0.00354828, 0.00388468, 0.00348136, 0.00350626, 0.00382636, 0.0035468, 1.08678, 1.14837, 0.0037, 0.00351502, 0.00372817, 0.00358892, 0.00418771, 0.00373104, 0.00375443, 0.00342338, 0.00346057, 0.00352743, 0.00347751, 0.0035926, 0.00376238, 0.00347664, 0.00353468, 0.948827, 0.951287, 0.951289, 0.00389177, 0.00360197, 0.0040812, 0.00370834, 0.954022, 0.951857, 0.94755, 0.949359, 0.950333, 1.20516, 1.18747, 1.1862, 1.25381, 1.25564, 1.262, 0.00351587, 0.0039204, 0.00365427, 0.00378348, 0.00361024, 0.00363326, 1.00536, 0.00397306, 0.00360836, 0.00361997, 0.00362019, 0.00406932, 0.00339295, 0.00369004, 0.00376315, 0.00348986, 1.33671, 1.17572, 0.00397167, 0.00400446, 0.00389587, 0.00371423, 0.00391103, 0.00343918, 0.00379153, 0.00390947, 0.00353774, 0.00395494, 0.00382344, 0.00377821, 0.00353735, 0.00395632, 0.00342922, 0.00368429, 0.00368798, 1.35115, 0.00347092, 0.00406441, 0.00376888, 0.00370762, 0.00330245, 1.45419, 1.45409, 1.46211, 0.00365596, 0.00386245, 0.00350488, 0.00362287, 1.17896, 1.18088, 1.1967, 0.00397407, 1.29826, 0.00390388, 0.00372092, 0.00339745, 0.00377424, 0.00347433, 0.00349643, 0.00351578, 0.0037068, 0.00390352, 0.00342209, 0.00394716, 1.35401, 0.00370064, 0.00354903, 0.00386428, 0.00375511, 0.00360874, 0.00370966, 0.00374389, 0.00385168, 0.00390108, 0.0035858, 0.00377657, 0.00369027, 0.00370529, 0.00387029, 1.45753, 0.00359305, 0.00376586, 0.00349472, 0.00388238, 0.00352302, 0.0034228, 0.00374837, 0.00388437, 0.00355514, 0.00368418, 0.00375604, 0.00381511, 0.0038334, 0.00341318, 0.00377233, 1.84203, 0.00380195, 0.00379616, 0.00372431, 0.00390915, 1.46799, 1.46922, 0.00381588, 0.00401871, 0.00372832
0.00379402, 0.00341458, 0.00354428, 0.00366454, 0.00378112, 0.00380809, 0.00360992, 0.0037102, 0.00346405, 0.00394762, 0.00372113, 0.00411024, 0.00348606, 0.00394169, 0.00344888, 0.00381538, 0.00366034, 0.00379535, 0.00390917, 0.00382192, 0.00364403, 0.00377487, 0.00385666, 0.00356489, 0.00370624, 0.00354351, 0.00360833, 0.00396947, 0.00345862, 0.00353127, 0.00382625, 0.00363993, 0.00368726, 0.00387218, 0.00340345, 0.00368292, 0.00378784, 0.00344101, 0.00366443, 0.72153, 0.00368614, 0.00396966, 0.00365145, 0.00379621, 0.00350167, 0.00370121, 0.00387117, 0.00406689, 0.00359056, 0.0039012, 0.00356345, 0.00368284, 0.0035703, 0.00329953, 0.00368234, 0.00402294, 0.00363635, 0.00351109, 0.00389517, 0.00334804, 0.00373808, 0.00378023, 0.00372749, 0.00357559, 0.789367, 0.00403257, 0.00360829, 0.00369686, 0.0035546, 0.00368311, 0.00339577, 0.00331867, 0.003747, 0.00363556, 0.00394127, 0.00407792, 0.00352235, 0.73981, 0.740463, 0.742055, 0.742764, 0.741849, 0.74059, 0.742295, 0.744715, 0.745168, 0.745621, 0.00395881, 0.751051, 0.00404005, 0.754905, 0.755975, 0.756435, 0.755519, 0.756126, 0.757345, 0.763242, 0.00358703, 0.00367851, 1.36876, 0.00372396, 0.00351298, 0.00373096, 0.00351395, 0.00348558, 0.00350915, 1.55962, 0.00348314, 0.00344259, 0.00367135, 0.00351834, 0.00401665, 0.00355558, 0.00422412, 0.00381915, 0.00368321, 0.00376991, 0.00406321, 0.00366025, 0.00382874, 0.0035115, 0.00397452, 0.00370328, 0.00358233, 0.00343369, 0.00364552, 0.00362999, 0.00379109, 0.00341206, 0.00379022, 0.00334308, 0.00365178, 0.00376595, 0.00384084, 0.00401311, 0.00378705, 0.00368032, 0.00361739, 0.00389384, 0.00374325, 0.00364549, 0.871211, 0.87307, 0.874313, 0.00372148, 0.00372595, 0.00376558, 0.00386483, 0.00372195, 0.00408944, 0.00359026, 0.00389963, 0.00369863, 0.00404825, 0.00391868, 0.00368939, 0.00383308, 0.00368932, 0.00353912, 0.00368372, 0.947252, 0.947395, 0.946657, 0.947663, 0.00355759, 0.943402, 0.947613, 0.949746, 0.949886, 0.952988, 0.948761, 0.951803, 0.953494, 0.0038697, 1.26388, 1.27137, 1.27405, 1.25148, 0.00387403, 0.00341655, 0.0037822, 0.00374157, 0.00340711, 0.00358277, 0.00330882, 0.00424643, 0.00354752, 0.00351714, 1.34265, 0.00359807, 0.00374537, 1.22008, 0.00384448, 0.00321674, 0.00373037, 0.0037691, 0.00397299, 0.00356829, 0.00351786, 0.00370783, 0.00378768, 0.00363075, 0.00387042, 0.00385075, 0.00350871, 0.00439133, 0.00369508, 1.45235, 0.00359574, 1.37986, 0.00352982, 0.00355445, 0.00342339, 0.00363295, 0.00346847, 0.00360805, 0.00380298, 0.00343218, 0.00346338, 1.53597, 1.54102, 0.00356657, 0.00377336, 0.00355789, 1.17157, 1.17432, 0.00368481, 0.00403707, 0.00378134, 0.00370634, 0.00369069, 0.00376742, 0.00369285, 1.38423, 0.00371343, 1.35556, 0.00364527, 0.00375219, 0.00359661, 1.2862, 0.00367013, 0.00380458, 0.00393977, 0.00361163, 0.00352897, 0.00381834, 0.0037235, 0.00390258, 1.32049, 0.00363118, 0.00370042, 1.42997, 0.00363212, 1.46424, 0.00353612, 0.00395034, 0.00360908, 0.00372091, 0.00380359, 0.00368916, 0.00389886, 1.59941, 1.5994, 1.53927, 0.00384027, 0.00390936, 0.00365182, 0.00371908, 0.00373333, 0.00382242, 0.00341073, 0.00365774, 0.00369022, 0.00376664, 0.00384842, 1.45941, 1.46842, 1.46767, 0.00389646, 0.00366027, 0.00337811, 0.00382026
1.00459, 0.00346406, 0.00383022, 0.00358043, 0.00386003, 0.00374385, 0.00421568, 0.00357739, 0.00387629, 0.00369905, 0.0036931, 0.00377067, 0.0036774, 0.00333501, 0.00335501, 0.00367596, 0.00380627, 0.00358027, 0.00416359, 0.00380191, 0.00393354, 0.0036642, 0.00417494, 0.0036155, 0.00360592, 0.00370082, 0.00396414, 0.00375647, 0.00394888, 0.00377879, 0.00390273, 0.00369019, 0.00387399, 0.00335271, 0.00353106, 0.00364625, 0.00402449, 0.00363765, 0.00431407, 0.00382379, 0.00351904, 0.00365038, 0.0042801, 0.00334647, 0.00374308, 0.0038411, 0.00386635, 0.00326244, 0.00388564, 0.0038251, 0.0035571, 0.00394625, 0.00434521, 0.00348169, 0.00409465, 0.00378039, 0.0039111, 0.00345371, 0.00344491, 0.00361575, 0.00374343, 0.00379432, 0.00381908, 0.00364394, 0.00386448, 0.00367218, 0.0037628, 0.00367016, 0.00394503, 0.00325076, 0.00376997, 0.00367912, 0.00386723, 0.743234, 0.743036, 0.00357555, 0.973993, 0.00343028, 0.00389811, 0.736813, 0.738544, 0.00375612, 0.741849, 0.743639, 0.743923, 0.00377096, 0.748867, 0.749714, 0.751655, 0.753407, 0.753221, 0.754468, 0.755799, 0.757898, 0.757716, 0.758701, 0.759943, 0.762001, 0.762548, 0.763221, 0.766882, 0.00366523, 0.00387238, 0.00348526, 1.61249, 1.58468, 0.775995, 0.00349016, 1.35524, 0.00361029, 1.19919, 0.00382108, 0.00404035, 0.00338729, 0.00384508, 0.00386377, 0.00387907, 0.00359093, 0.00366161, 0.00383586, 0.00359326, 0.0034347, 0.0038532, 0.00368872, 0.00401929, 0.00387464, 0.0037643, 0.00343385, 0.0033667, 0.00370807, 0.00381512, 0.0035029, 0.00398063, 0.00352811, 0.00423047, 0.0037425, 0.0037815, 0.00348875, 0.00357004, 0.00362499, 0.00393116, 0.00367943, 0.00356514, 0.00378106, 0.00376649, 0.00364304, 0.00403725, 0.00375434, 0.00396443, 0.00387785, 1.1603, 0.00366734, 0.00388609, 0.00358375, 0.0036276, 0.00365432, 1.06639, 0.0038838, 0.00410045, 0.00354024, 0.00405073, 1.288, 0.00399399, 0.00387873, 0.942162, 0.944814, 0.945858, 0.945851, 0.944488, 0.00356535, 0.0035569, 0.00353891, 0.00380812, 1.19927, 1.25788, 0.00372405, 0.00357764, 0.0037149, 0.00376723, 0.00390139, 0.00365371, 0.00369673, 0.00411325, 0.00374122, 0.00407556, 0.00364779, 0.00374656, 0.00341918, 0.00403241, 0.00356217, 0.00352464, 1.21689, 1.13517, 0.00378089, 1.202, 0.00353388, 0.00367794, 0.00332914, 0.0041795, 0.00349616, 0.00403739, 0.00356485, 0.0037198, 0.00346589, 0.00353826, 0.00387662, 1.05586, 0.00355439, 1.32943, 1.34963, 1.30663, 1.24318, 1.25996, 0.00372232, 1.21563, 0.00367594, 0.0037076, 0.00353684, 0.00361672, 0.0034105, 0.00377732, 0.00352398, 0.00370447, 0.00353482, 0.00379482, 0.00359363, 1.30675, 0.00372738, 1.52785, 0.00389649, 0.00335891, 0.00351078, 0.00407269, 0.0036968, 0.00373726, 0.00371512, 0.00378572, 0.00391092, 0.00389207, 0.0035255, 0.00374496, 0.00363208, 0.00395511, 0.00364148, 0.00385549, 0.00334676, 0.00378508, 0.00314426, 1.31621, 0.00343432, 0.00391158, 1.46899, 1.4849, 0.00340841, 1.3871, 1.38897, 1.41614, 0.00363914, 1.36407, 0.00372157, 0.00394349, 0.00350498, 1.55711, 0.00365215, 0.00411984, 0.00364578, 0.00378819, 0.00369131, 0.00401097, 0.00350718, 0.00374939, 0.0037979, 0.00384915, 0.0035691, 0.00393585, 0.0034041, 0.00369012, 0.00370626, 0.0036729, 0.00371656, 0.00358298, 0.00352512
0.0037407, 0.00366712, 0.00329397, 0.00398795, 0.00365557, 0.00390644, 0.00357519, 0.00376063, 0.00379957, 0.00372221, 0.0035249, 0.00377013, 0.00382833, 0.00376456, 0.00372824, 0.00401122, 0.00363529, 0.00375862, 0.0036857, 0.00367843, 0.0035331, 0.00406714, 0.00406321, 0.00422135, 0.00363486, 0.00378957, 0.00341484, 0.00378569, 0.00345585, 0.00368013, 0.00371968, 0.00360639, 0.0033979, 0.00361494, 0.00330309, 0.00396043, 0.00377961, 0.00363063, 0.00350193, 0.00355076, 0.00385604, 0.00370411, 0.00363733, 0.00405856, 0.00363569, 0.00366571, 0.00354754, 0.00402783, 0.00372867, 0.00351531, 0.00340816, 0.00412451, 0.00363982, 0.00373303, 0.00365685, 0.00379484, 0.00360651, 0.00373378, 0.00379193, 0.0036185, 0.00369361, 0.00368502, 0.00350403, 0.00397744, 0.00383047, 0.00341253, 0.00355896, 0.00362579, 0.00362451, 0.00364799, 0.00367508, 0.00364845, 0.00342432, 0.00358175, 0.713235, 0.715884, 0.716748, 0.717891, 0.00356144, 0.726753, 0.729238, 0.73073, 0.733936, 0.737318, 0.00366993, 0.00348807, 0.00368194, 1.33953, 0.00326028, 0.003835, 0.753082, 0.753768, 0.755727, 0.757095, 0.758004, 0.00366546, 0.00367396, 0.00385871, 0.761083, 0.00363725, 0.00376428, 0.0039262, 0.00401029, 0.0037328, 0.00346867, 0.00398447, 0.00366791, 0.773302, 0.00360781, 1.13246, 0.00374604, 0.00376932, 0.00347839, 0.00374138, 0.00387826, 0.00362165, 0.0036198, 0.812374, 0.813235, 0.814709, 0.805772, 0.00373099, 0.898194, 0.919939, 0.937713, 0.00387989, 0.00359769, 0.00373566, 0.00348077, 0.00399352, 0.00349488, 0.00382924, 0.0036098, 0.00378069, 1.1909, 0.00364264, 1.17172, 0.00383282, 0.00353894, 0.00360653, 0.00332466, 0.00370984, 0.00353365, 0.0038998, 0.00362312, 0.00379195, 0.00396503, 0.00381073, 0.880777, 0.00360928, 0.00353429, 0.00392298, 0.0035529, 0.00388358, 0.00364226, 0.00404168, 0.0036616, 0.00409944, 0.00337409, 0.00386016, 0.00344496, 0.00381503, 0.00384209, 0.00396928, 0.00343329, 0.00358038, 0.942197, 0.940639, 0.00345793, 0.00398998, 0.0035326, 0.00387472, 0.00372858, 0.0039456, 0.0036747, 0.00358775, 0.00371408, 1.28174, 1.28061, 0.00384817, 0.00353538, 0.00402984, 0.00385683, 0.0038637, 0.969923, 0.00335844, 0.00365, 0.00380868, 0.00341932, 1.20915, 1.25407, 0.00385589, 0.00360242, 0.00336478, 0.00327489, 0.0038816, 1.48222, 0.00373698, 0.00375587, 0.00373449, 0.00368607, 0.003745, 0.0035704, 1.22967, 0.00397784, 0.00371671, 0.0036569, 1.36469, 0.00354315, 1.26485, 0.00352653, 1.30731, 0.00362723, 0.00370672, 0.0036387, 0.00411195, 1.67891, 0.00408553, 0.00350155, 0.00390745, 0.00356242, 0.00384202, 0.00365003, 0.00367688, 0.00321754, 0.00414538, 0.00342576, 0.00359596, 0.00361514, 0.00417543, 0.00328257, 0.00374082, 0.00355268, 0.00387117, 0.00370047, 0.00354559, 0.00356641, 0.00398913, 0.00349947, 0.0036742, 0.0036237, 0.00401754, 0.00364534, 0.00363856, 0.00376607, 1.64731, 1.64757, 0.00382216, 0.00368895, 0.00357726, 0.00370093, 0.00407022, 0.00367189, 0.00406878, 0.00357457, 0.00358665, 0.00355644, 1.44065, 0.00383121, 1.42107, 0.00386411, 0.00358143, 0.00347682, 0.00379434, 1.54828, 1.65376, 0.00346858, 0.00359643, 0.00367487, 0.00398167, 0.00368581, 0.00366876, 0.00341666, 1.45152, 1.69517, 0.00353058, 0.00381314, 0.00394647, 0.00355631, 0.00415658, 0.00370798, 0.00386097
0.00369141, 0.00336131, 0.00374322, 0.00367384, 0.0034782, 0.00373507, 0.00398975, 0.00353891, 0.00355937, 0.00390992, 0.00372414, 0.00381799, 0.00366415, 0.0035994, 0.00344883, 0.00371579, 0.00392455, 0.00371541, 0.00397231, 0.00344724, 0.00385647, 0.00395436, 0.00354639, 0.00383791, 0.00419426, 0.0034215, 1.09792, 0.00363268, 0.0038594, 0.00354972, 0.00383213, 0.00338545, 0.00359233, 0.00376497, 0.00390107, 0.00368663, 0.00368643, 0.00369991, 0.00379249, 0.00333868, 0.00357671, 0.00385094, 0.00386779, 0.00375634, 0.0038281, 0.00357234, 0.00386478, 0.00377699, 0.0037487, 0.00358627, 0.00362507, 0.00370394, 0.00394085, 0.00374672, 0.00362134, 0.0035523, 0.0039548, 0.00370556, 0.00391797, 0.00345405, 0.00365447, 0.00369879, 0.00353755, 0.00349362, 0.00357502, 0.00371559, 0.00369003, 0.00353365, 0.00372153, 0.00365522, 0.00364488, 0.00386701, 0.713907, 0.71427, 0.715836, 0.717547, 0.71767, 0.00371634, 0.722201, 0.00355869, 0.727956, 0.729368, 0.00391945, 0.00342523, 0.00352393, 0.739302, 0.743534, 0.743342, 0.00404405, 0.00388943, 0.749106, 0.00348346, 0.0038408, 0.00379467, 0.00390346, 0.00352434, 0.00434814, 0.00364927, 0.00362115, 0.00373647, 0.00395553, 0.00401361, 0.00383445, 0.00349086, 0.00377495, 0.00347484, 1.28265, 1.29783, 0.00392904, 0.00389851, 0.00367979, 0.00359122, 0.00395161, 0.00367076, 0.00409569, 0.00370472, 0.00393275, 0.743854, 0.745773, 0.00367177, 0.00348786, 0.742588, 0.745239, 0.74583, 0.00372393, 0.923745, 0.924754, 0.00358875, 0.0038258, 0.0038494, 0.00414673, 0.0035178, 0.00375351, 0.00355585, 0.00338146, 0.00363941, 0.00360065, 0.00374079, 0.00354306, 0.00360777, 0.00385389, 0.00347139, 0.00373608, 0.00353892, 0.00352058, 0.00352551, 0.0035954, 0.00367202, 0.00416605, 0.00368153, 0.887221, 0.888357, 0.00421401, 0.00352169, 0.00353802, 0.00365901, 0.00376678, 0.0038863, 0.00387032, 0.00368756, 0.00356789, 0.00363378, 0.0040466, 0.00348365, 0.00344024, 0.00351378, 0.00384193, 0.00356127, 0.0032382, 0.00367885, 0.93581, 0.93741, 0.00355126, 0.00383878, 0.00361719, 0.00356327, 0.951045, 0.952482, 0.00398108, 0.00363245, 0.00384342, 0.00357733, 0.00343851, 0.00350913, 0.00369292, 0.00373873, 0.00382124, 0.00385268, 0.00381756, 0.00358002, 0.00381058, 0.980329, 0.983251, 0.00381026, 0.0034449, 0.00363565, 0.00374103, 0.00352429, 0.00384162, 1.10563, 0.003593, 0.00383073, 0.00350021, 0.00368125, 0.00386106, 0.00340872, 1.2136, 1.34445, 1.44054, 0.00370513, 1.30351, 0.00357397, 0.00365414, 0.00368927, 0.00383516, 0.00381047, 0.00375568, 0.00358657, 0.00396932, 0.00361997, 0.00375543, 1.30635, 0.00349239, 0.00376375, 1.39505, 0.0038385, 0.00370605, 0.00366887, 0.00374968, 0.00375766, 0.003719, 0.00371659, 0.00378323, 0.00364354, 0.00376982, 0.00346674, 0.00364875, 0.00378591, 0.00345009, 0.00353551, 0.00359238, 0.00365525, 0.00396065, 0.00339636, 1.27164, 0.00367582, 0.00327968, 0.00396865, 0.00348229, 0.00358738, 0.00393892, 0.00371215, 0.00380616, 0.00358063, 0.0037867, 0.00366904, 0.00383315, 0.00367644, 1.35248, 0.00384201, 0.00386086, 0.00338422, 1.42357, 0.00353632, 0.00382168, 0.00342487, 0.0036457, 0.00354058, 0.00360708, 0.00354569, 0.00388462, 0.00326557, 0.00378341, 0.00384589, 0.0039386, 0.00371438, 0.00346877, 0.00367322, 0.00388533, 0.00369622, 0.00368845, 0.00340333
0.00375983, 0.00361928, 0.00347493, 0.00327502, 0.00363929, 0.0039309, 0.00380402, 0.00374734, 0.00346385, 0.00417101, 0.003693, 0.0034692, 0.0036346, 0.00407104, 0.00355059, 0.00408749, 0.00338699, 0.003526, 0.00340087, 0.00381521, 0.00355106, 0.00371957, 0.00311764, 0.0037504, 0.00356348, 0.0035866, 0.00379863, 0.00387351, 0.00363433, 0.00400807, 0.00370492, 0.00355515, 0.00346638, 0.00377159, 0.00326384, 0.00390898, 0.00357336, 0.00354507, 0.00349424, 0.0042198, 0.00354751, 0.00350108, 0.00354925, 0.00411491, 0.00363822, 0.00384718, 0.00369894, 0.00399908, 0.00387262, 0.00375957, 0.00345592, 0.0038718, 0.00353698, 1.06477, 0.00362891, 0.00360868, 0.00363319, 0.00391492, 0.00352281, 0.00380849, 0.00377531, 0.00367923, 0.00363594, 0.00374487, 0.00343526, 0.00394125, 0.00363515, 0.00399302, 0.00398506, 0.00358308, 0.00360905, 0.00385685, 0.708738, 0.709417, 0.71047, 0.00352808, 0.00366624, 0.716609, 0.717036, 0.719079, 0.00360516, 0.00379477, 0.00343873, 0.733636, 0.00401586, 0.00385492, 0.00363359, 0.00353486, 0.00343323, 0.00334784, 0.00361795, 0.00347387, 0.746191, 0.744354, 0.00396877, 0.00349803, 0.00363006, 0.00380094, 0.00362098, 0.0036692, 0.0035272, 0.00400702, 0.00347243, 0.0041594, 0.00353072, 0.00365825, 0.00399704, 0.004111, 0.0036888, 0.00416593, 0.00344484, 0.762841, 0.762656, 0.00372394, 0.00362422, 0.76705, 0.742377, 0.74414, 0.745786, 0.746526, 0.74464, 0.748313, 0.748678, 0.749415, 0.750387, 0.752169, 0.00344195, 0.00378071, 0.00357753, 0.00368962, 0.00369247, 0.00396987, 0.00367223, 0.00375607, 0.0038133, 0.00353805, 0.0037159, 0.0038871, 0.00355681, 0.00388512, 0.00363963, 0.0035786, 0.00348936, 0.00348743, 0.00351318, 0.00373295, 0.00344707, 0.00370109, 0.00343425, 0.00387195, 0.00357026, 0.0038952, 0.00341366, 0.00362666, 0.00349606, 0.00394832, 0.00364457, 0.00376182, 0.00361303, 0.00395141, 0.00350903, 0.00388434, 0.00328434, 0.00372559, 0.00379346, 0.00376697, 0.00354447, 0.00362442, 0.00363147, 0.00367291, 0.00366526, 0.932528, 0.935353, 0.93799, 0.939846, 0.94138, 0.946071, 0.00362788, 0.00362414, 0.00371625, 1.45227, 0.9493, 0.00361621, 0.00369163, 0.00370236, 0.00391548, 0.0036545, 0.00414684, 0.00351839, 0.00368163, 0.00372583, 1.18423, 0.979051, 0.980256, 0.00368952, 0.0041249, 0.00350915, 0.00428795, 0.00390151, 0.00368627, 0.00347735, 0.00417256, 0.00366456, 0.00394354, 0.00328965, 0.00388097, 0.00343103, 0.003927, 0.00351802, 1.32022, 0.00376141, 0.00411357, 0.00368578, 0.00398464, 0.00351975, 0.00339253, 0.00336666, 1.41979, 0.00357619, 1.24122, 0.00360456, 0.00399354, 0.00363995, 0.00411953, 0.00351407, 0.00386981, 0.00342075, 1.32055, 0.00362577, 0.00383961, 0.00335226, 0.00373764, 0.0035209, 1.31085, 1.34707, 0.00402293, 0.00388919, 0.00359466, 0.00336525, 0.0038646, 0.00321661, 1.23383, 1.23728, 0.00388795, 0.00352573, 0.00364274, 0.00355449, 0.0038334, 0.00346793, 0.00388964, 0.00355269, 0.00392886, 0.00358021, 0.00388986, 0.0038212, 0.00406007, 0.00352172, 0.00353663, 0.00349397, 0.00406357, 0.00355411, 1.84106, 0.0037674, 0.00372194, 0.00380325, 0.00370926, 0.00382092, 0.00380275, 0.00344509, 0.0039864, 0.00348885, 0.00356404, 0.00348501, 0.00391273, 0.00334088, 0.00396438, 0.00369439, 0.00379971, 0.00348144, 0.00348171, 0.00375044, 0.00393118
0.00385096, 0.00340745, 0.00361795, 0.00336016, 0.00377176, 0.00347952, 0.00378736, 0.00362854, 0.00360124, 0.00358161, 0.00408564, 0.0037573, 0.00357436, 0.00352218, 0.00388042, 0.00371211, 0.00376771, 0.00367942, 0.00388653, 0.00389438, 0.00403247, 0.00364677, 0.00380373, 0.0038089, 0.00370866, 0.00361947, 1.01232, 0.00390393, 0.00382665, 0.00337878, 0.00388812, 0.00357704, 0.00379479, 0.00372466, 0.00351841, 0.0034606, 0.00388789, 0.00374696, 0.00370528, 0.00350313, 0.00395611, 0.00363386, 0.00368617, 0.00363695, 0.00351177, 0.00371248, 0.00349688, 0.00374072, 0.00372087, 0.00360447, 0.00402141, 0.00351852, 0.00360581, 0.00341438, 0.00345735, 0.00372426, 0.00376978, 0.00370884, 0.00356287, 0.00358187, 1.16767, 0.00406229, 0.00352911, 0.00364013, 0.00351878, 0.00351211, 0.00400368, 0.00364104, 0.00370957, 0.00362829, 0.700527, 0.703327, 0.70469, 0.7061, 0.00376149, 0.00355518, 0.712903, 0.71457, 0.716425, 0.717637, 0.00374227, 0.00364781, 0.00369591, 0.00353057, 0.00388355, 0.732221, 0.734005, 0.00384222, 0.739281, 0.738189, 0.739689, 0.740957, 0.74153, 0.741664, 0.741121, 0.00363556, 0.738761, 0.739756, 0.741066, 0.00377295, 0.00385144, 0.00376817, 0.00377807, 0.0037548, 0.00349897, 0.00360089, 0.0039634, 0.00344703, 0.00387833, 0.00343515, 0.755845, 0.0034635, 0.756442, 0.00329346, 0.00372443, 0.00352949, 0.00360895, 0.740771, 0.74343, 0.74565, 0.745767, 0.745745, 0.746883, 0.749045, 0.75125, 0.752079, 0.990634, 0.00383059, 0.00335122, 0.0035862, 0.00363178, 0.00323805, 0.0037535, 0.00360505, 0.00338265, 0.00370155, 1.07447, 0.00382642, 0.825709, 0.00378488, 0.00382381, 0.00368435, 0.00371637, 0.00381705, 0.0036042, 0.00364554, 0.00346299, 0.0034016, 0.00401053, 0.00379225, 0.00421221, 0.00336376, 0.00399107, 0.00399906, 0.00396274, 0.00339615, 0.0038054, 0.00381405, 0.00362769, 0.00380248, 0.00382396, 0.00338614, 0.0039497, 0.00361202, 0.00362549, 0.00362703, 0.00362859, 0.919755, 0.920527, 0.00355508, 0.00355036, 0.0034186, 0.00379169, 0.00357122, 0.939231, 0.0038978, 0.00390326, 0.00394229, 0.00392857, 0.00384818, 1.14989, 0.00345562, 0.00371562, 0.00364725, 0.951153, 0.00386254, 0.957236, 0.00332688, 0.00406753, 0.00373469, 0.9668, 0.00343567, 0.00373969, 0.974384, 0.00401215, 0.00370069, 0.00359964, 0.00375813, 0.00370702, 1.02817, 0.00382624, 0.00386057, 0.0034464, 1.01564, 0.0038714, 0.00363778, 0.00367628, 0.00366795, 0.0039786, 0.00369711, 0.00378666, 0.00329123, 0.00358958, 0.00368018, 0.00409665, 0.00359515, 0.00411264, 0.0035827, 0.00337426, 0.00354592, 0.00382818, 0.00368318, 1.27601, 0.0035764, 0.00365112, 0.00393599, 0.00362319, 0.00357045, 1.13894, 0.0034807, 0.00369341, 0.00340912, 0.00364476, 0.00387894, 0.00366914, 0.00353394, 0.00404447, 0.00369578, 0.00389718, 0.0035254, 0.00358436, 0.00418627, 0.00384075, 0.00382863, 0.00391395, 0.00366291, 1.34656, 0.00375811, 1.36699, 0.00358817, 0.00400048, 0.003416, 1.35064, 0.00357686, 0.00353884, 1.35777, 0.00412528, 0.00370345, 0.00381583, 0.00364171, 0.00407881, 0.00400975, 0.00384615, 0.00351114, 0.00367485, 0.00362137, 0.00355861, 0.00357833, 1.4893, 0.00394122, 0.00370282, 0.00360814, 0.00395965, 0.00364903, 1.93176, 0.0036948, 0.00369193, 0.00350187, 0.00381654, 0.00375351, 0.00379944, 0.00367343
0.00377619, 0.00373649, 0.00379338, 0.00375429, 0.00368197, 0.00364441, 0.0035293, 0.00376159, 0.00393655, 0.00370167, 0.00369186, 0.00377312, 0.00382092, 0.00409522, 0.00375409, 0.00362381, 0.00373711, 0.00354598, 0.00385781, 0.00364311, 0.0035214, 0.00395784, 0.00366851, 0.00350608, 0.00345776, 0.00402901, 0.00355307, 0.00389416, 0.00407821, 0.00351378, 0.00363043, 0.00394568, 0.00369972, 0.00381984, 0.00355568, 0.00404353, 0.0037487, 0.0035781, 0.00366895, 0.00367746, 0.00370878, 0.00377393, 0.00380692, 0.00385055, 0.0037433, 0.00414057, 0.00348737, 0.00369175, 0.0036526, 0.00380624, 0.0035946, 0.00375974, 0.00332918, 0.0036886, 0.00350804, 0.00388144, 0.003662, 0.00362127, 0.00335794, 0.00381503, 1.10133, 0.00345755, 0.00357275, 0.00368547, 0.0035616, 0.00353653, 0.00340049, 0.00385998, 0.700115, 0.698618, 0.700226, 0.699591, 0.00361577, 0.0039448, 0.00373981, 0.00374901, 0.00376369, 0.00375564, 0.00370943, 0.709804, 0.712654, 0.713967, 0.00339953, 0.00345519, 0.00361985, 0.00390594, 0.0036384, 0.736403, 0.736448, 0.738007, 0.739409, 0.739093, 0.738478, 0.738977, 0.00375841, 0.00396829, 0.00352947, 0.00396327, 0.00357695, 0.00387515, 0.00357001, 0.722063, 0.00359967, 0.0038484, 0.00364138, 0.732205, 0.0034766, 0.00350771, 0.0040163, 0.00378684, 0.00371329, 0.00382459, 0.00355464, 0.00389048, 0.0036566, 0.00403479, 0.00392028, 0.741772, 0.742471, 0.742593, 1.00465, 0.737268, 0.739931, 0.741747, 0.741979, 0.00398204, 0.00359426, 0.00404452, 0.00386895, 0.00371922, 0.00379684, 0.00373442, 0.00355744, 0.00398274, 0.00339778, 0.00393582, 0.00351833, 0.00384192, 0.00336268, 0.00419757, 0.00360137, 0.00382077, 0.00352584, 0.00369744, 0.00360574, 1.09829, 1.06062, 1.04965, 0.00380008, 0.00367893, 0.0036495, 0.00379508, 0.00355489, 0.00354723, 0.00355697, 0.00392332, 0.00367567, 0.00383705, 0.00356912, 0.00439412, 0.00371937, 0.00375379, 0.00373171, 0.00394687, 0.00344586, 0.00345445, 0.00364256, 0.00365771, 0.0033777, 0.00376761, 0.00339012, 0.00351848, 0.00353341, 0.00361476, 0.00390583, 0.935108, 0.930371, 0.932442, 0.00367202, 0.93562, 0.00381724, 0.938297, 0.941767, 0.944869, 0.946983, 0.950735, 0.00357487, 0.00395506, 0.00394115, 0.00391966, 0.0033252, 0.963639, 0.00346154, 0.00345092, 0.00353561, 0.00388963, 0.00352314, 0.00390171, 0.00348263, 0.00387697, 0.00366861, 0.00361727, 0.00402286, 0.00372819, 0.00363258, 0.00406308, 0.0035686, 1.01964, 1.02184, 0.00393854, 0.00363201, 0.00376419, 0.0036786, 0.00404211, 0.0038469, 1.19955, 0.00377507, 0.00352103, 0.00380084, 0.00412786, 0.00365833, 0.00334457, 0.00359698, 0.00362086, 0.00388114, 0.00384959, 1.49221, 0.00329264, 0.00360463, 0.00367854, 0.00365868, 0.00394832, 1.30066, 0.00379673, 0.00362729, 0.00385268, 0.00357674, 0.00392234, 0.00362535, 0.00381423, 0.00382288, 0.00359656, 0.00374446, 0.00366658, 0.00377835, 0.0035823, 0.00335075, 0.00377046, 0.00325138, 0.00410707, 0.00382197, 0.00363265, 1.36485, 1.35511, 0.00348465, 0.00397246, 0.00351886, 0.00373672, 0.00354654, 0.00375744, 0.00374947, 0.00379157, 0.00386105, 0.00371076, 0.0039387, 1.50861, 0.00351463, 0.00399093, 0.00358507, 0.00387043, 0.00362343, 0.00405003, 0.0037404, 0.00348002, 0.00366872, 0.00380674, 0.00362446, 0.00364368, 0.00357666, 0.00390157, 0.00378431, 0.00406957
0.00388525, 0.00339804, 0.00379017, 0.0034332, 0.00377737, 0.00353435, 0.00378562, 0.00362868, 0.00353315, 0.00338612, 0.00376752, 0.00363238, 0.00377274, 0.0038255, 0.00387145, 0.00354557, 0.00402262, 0.00367621, 0.00388016, 0.00336045, 0.00361091, 0.00347186, 0.00381921, 0.00356572, 0.00380756, 0.00369807, 0.00372127, 0.00346233, 0.00430118, 0.00375162, 0.0037648, 0.00370294, 0.00393388, 0.00330937, 0.00401489, 0.00366068, 0.00369975, 0.00352795, 0.00437101, 0.0036736, 0.00367214, 0.00372156, 0.00414173, 0.00344284, 0.00392856, 0.00363035, 0.00359904, 0.00352061, 0.00399935, 0.00357493, 0.00390023, 0.00359011, 0.00358829, 0.00359997, 0.00391944, 0.00360818, 0.00393636, 0.00354434, 0.00386621, 0.00342035, 0.00358083, 0.00333596, 0.00382451, 0.00367846, 0.693896, 0.694782, 0.696168, 0.00372842, 0.695837, 0.693572, 0.693144, 0.692218, 0.693784, 0.694265, 0.0039665, 0.00367287, 0.00413907, 0.00362629, 0.710398, 0.710412, 0.712372, 0.713557, 0.00358168, 0.0037652, 0.00385358, 0.00357713, 0.00396499, 0.00368378, 0.73497, 0.736898, 0.736561, 0.00354358, 0.00397802, 0.00372225, 0.00407081, 0.003731, 0.715565, 0.714799, 0.71654, 0.71763, 0.720723, 0.720121, 0.721147, 0.00337872, 0.726497, 0.00361013, 0.00373368, 0.00370659, 0.00391996, 0.00366546, 0.00403494, 0.00378291, 0.00392846, 0.00370483, 0.00364799, 0.00345781, 0.00388073, 0.00346183, 0.733297, 0.732427, 0.733988, 0.733533, 0.00374673, 1.09521, 0.00400002, 0.0036466, 0.00395441, 0.00358538, 0.00421724, 0.00392485, 0.00364566, 0.00348841, 0.00391726, 0.00375581, 0.00426356, 0.00387369, 0.00382221, 0.00360876, 0.00372851, 0.00357513, 0.00406222, 0.00360033, 0.00368211, 0.0036725, 0.00401136, 0.00364661, 0.828556, 0.0034411, 0.0037538, 0.00361717, 0.00387415, 0.00370751, 0.00377315, 0.0036594, 1.46055, 1.47733, 1.46938, 0.00372423, 0.00379537, 0.873957, 0.878952, 0.879729, 0.00388497, 0.00378398, 0.00382656, 0.00357602, 0.00391249, 0.00358887, 0.00359819, 0.00367983, 0.00363117, 0.00347842, 0.923284, 0.00352527, 0.956821, 0.00348822, 0.929862, 0.00344709, 0.92842, 0.929081, 0.00375523, 0.00349837, 0.00371896, 0.00361235, 0.943239, 0.00341858, 0.00355629, 0.0034972, 0.00395864, 0.00353394, 0.953458, 0.00355355, 0.961881, 0.0037439, 0.96953, 0.0036744, 0.00389727, 0.00361258, 1.23658, 1.18427, 1.18802, 1.00179, 1.00449, 1.00505, 1.00561, 1.00618, 0.00377718, 0.00380364, 1.01764, 1.01932, 1.02189, 0.00366178, 0.00381382, 0.00347179, 0.00379583, 0.00383123, 1.41854, 1.3315, 1.30949, 0.00341738, 1.33723, 0.00335689, 0.00400265, 0.00381362, 0.00375249, 0.00360581, 1.71648, 1.48657, 0.00338953, 0.00381103, 0.0039298, 0.00353515, 1.28183, 1.26735, 0.00362684, 0.00377396, 0.00357055, 0.00353272, 0.00376771, 0.00372056, 0.00365686, 0.00358914, 1.44673, 0.00339519, 1.26153, 0.0035129, 1.44021, 0.00372132, 0.00393721, 0.00373997, 1.27855, 0.00363538, 1.41445, 0.00363706, 0.00365502, 0.00354896, 0.00388185, 0.00350083, 0.00367712, 0.00370328, 0.00394121, 0.00345981, 0.00374353, 0.00383683, 0.00337332, 0.00348265, 0.00399254, 1.39911, 0.00361748, 0.00338083, 0.00379305, 0.00348238, 0.00356387, 0.0035612, 0.0038596, 0.00343749, 0.00380524, 0.00339353, 1.44102, 0.00382411, 0.00374852, 0.00354039
0.00339923, 0.00399049, 0.00337161, 0.00356399, 0.0033284, 0.00329083, 0.00371889, 0.00375848, 0.00362206, 0.00371867, 0.00347925, 0.00376218, 0.00396144, 0.00373824, 0.00379631, 0.00369994, 0.00354819, 0.00365877, 0.0037865, 0.00391963, 0.00351643, 0.00389263, 0.00367784, 0.00380446, 0.00351575, 0.00378784, 0.00360344, 0.00370563, 0.00386271, 0.00366258, 0.00358739, 0.00422052, 0.00401771, 0.00384227, 0.00345102, 0.00360946, 0.00357054, 0.00367706, 0.00367615, 0.00331765, 0.00361328, 0.00399994, 0.00364577, 0.00402203, 0.632759, 0.632993, 0.634716, 0.634288, 0.0035316, 0.00400079, 0.00375408, 0.00371374, 0.00352205, 0.0038274, 0.00378236, 0.00385951, 0.00362177, 0.658351, 0.0037103, 1.02049, 0.00359494, 0.00389736, 0.0034127, 0.00354603, 0.00354018, 0.00390309, 0.00361551, 0.00381504, 0.00379117, 0.690735, 0.69088, 0.692076, 0.693249, 0.693742, 0.00369565, 0.00390185, 0.00369844, 0.00362313, 0.00381899, 0.710933, 0.00345948, 0.714381, 0.00373996, 0.00387049, 0.00359576, 0.00398554, 0.00377156, 0.00374874, 0.00348412, 0.00386718, 0.00379847, 0.00377348, 0.00371711, 0.00395005, 0.72335, 0.00340688, 0.714114, 0.717653, 0.717533, 0.715782, 0.717994, 0.719379, 0.72101, 0.722, 0.00356414, 0.00410845, 0.00368435, 0.00384869, 0.00340259, 0.00386945, 0.003549, 0.00374933, 0.00349226, 0.00375477, 0.717701, 0.718092, 0.0037367, 0.00387312, 0.00361153, 0.731784, 0.731987, 0.73013, 0.00396468, 0.00372922, 0.0036267, 0.0039675, 0.00381881, 0.00366313, 0.00394315, 0.00383499, 0.00387929, 1.27085, 0.00347873, 0.00412616, 0.00371383, 0.00392628, 0.00366359, 0.00398841, 0.00386591, 0.0039674, 0.00371467, 0.00372267, 0.00336235, 0.00386336, 0.0034233, 0.00375543, 0.00358429, 0.00376109, 0.00368325, 0.00372544, 0.0037698, 0.00390504, 0.00370425, 0.00375946, 0.00375842, 0.00384261, 0.00371861, 0.00341736, 0.00365617, 0.870921, 0.872555, 0.873255, 0.00385952, 0.00353801, 0.00385279, 0.0037944, 0.00351652, 0.00354704, 0.00350234, 1.07537, 0.00354852, 0.00391485, 0.00368038, 0.00373356, 0.0037818, 0.918434, 0.919776, 0.922766, 0.925046, 0.925767, 1.3843, 1.05741, 0.00365332, 0.0036132, 0.939839, 0.93981, 0.943243, 0.943322, 0.946408, 0.946986, 0.00368271, 0.00375023, 0.00380244, 0.00374046, 0.00350948, 0.00360572, 0.00351503, 0.00349345, 0.00343737, 0.00389905, 0.00337297, 0.999572, 1.00179, 1.00343, 1.00608, 1.00817, 0.00383352, 0.00388632, 0.00385301, 0.00424617, 0.00327888, 1.0186, 0.00382994, 0.0035035, 0.00371308, 1.23033, 0.00349286, 0.00358122, 0.00353277, 1.33715, 0.00387311, 0.00368169, 0.00369443, 0.00421739, 0.0035221, 1.65849, 0.00374698, 1.46741, 0.0038143, 0.00368135, 0.00363309, 0.00403481, 0.00386693, 0.00389086, 0.00372164, 0.00389949, 0.0034841, 0.00396014, 1.17464, 0.00396199, 0.00367615, 0.00431638, 0.00388179, 1.33753, 0.00361441, 1.41669, 0.00377197, 0.00438558, 0.00362876, 0.00370262, 1.25047, 0.00392104, 0.0036342, 0.00395374, 0.0038114, 0.00372584, 0.00375615, 1.41535, 0.00341017, 0.00364241, 0.00360231, 0.00379516, 1.32009, 0.00352394, 0.00326036, 0.00369274, 0.0036758, 0.00371724, 0.00357744, 0.00389127, 0.0036908, 0.00386367, 0.0036637, 0.00374229, 0.00339701, 0.00341658, 0.00362712, 0.0038261, 0.00341307, 0.00392304, 0.00367289, 0.00418147
0.00399497, 0.0038478, 0.00344578, 0.00406663, 0.00365059, 0.00377222, 0.00371103, 0.00344838, 0.00406063, 0.00356348, 0.00377616, 0.0034194, 0.00402803, 0.00337159, 0.00358769, 0.00379643, 0.00366371, 0.00345678, 0.00371397, 0.00372864, 0.00374039, 0.00340234, 0.00324752, 0.0034675, 0.00363203, 0.00364214, 0.00393443, 0.00382131, 0.0034522, 0.00360957, 0.00405152, 0.00354234, 0.00380211, 0.00377774, 0.932904, 0.0041344, 0.00380115, 0.00364241, 0.00394909, 0.626423, 0.0038024, 0.00359471, 0.00341606, 0.00354755, 0.628987, 0.630988, 0.63241, 0.632889, 0.633319, 0.00355526, 0.00376344, 0.00354508, 0.0034585, 0.00381356, 0.0039661, 0.0036198, 0.650511, 0.651653, 0.652721, 0.00375662, 0.00400199, 0.00332081, 0.0038339, 0.00343573, 0.00367268, 0.00385528, 0.00353138, 0.00392861, 0.687783, 0.00367146, 0.00341618, 0.00365294, 0.00385868, 0.00379523, 0.00397943, 0.00379832, 0.00377797, 0.00338608, 0.00398027, 0.00373715, 0.00357221, 0.00377098, 0.00375143, 0.00361636, 0.00405108, 0.00387578, 1.58468, 0.00382549, 0.00370407, 0.00376238, 0.00339703, 0.00339844, 0.00391538, 0.00366582, 0.00343964, 0.0036421, 0.00356876, 0.0038629, 0.00349342, 0.00382354, 0.00339997, 0.00372184, 0.00372345, 0.00346503, 0.00377812, 0.997834, 0.00377008, 0.00345888, 0.0038482, 0.707197, 0.709794, 0.710838, 0.712947, 0.715654, 0.717409, 0.717482, 0.715765, 0.716589, 0.720456, 0.722308, 0.723167, 0.0035701, 0.727845, 0.00367209, 0.00347647, 0.00347578, 0.00378457, 0.00372069, 0.0033511, 0.00352022, 0.00380184, 0.00358092, 0.00414696, 0.00352617, 0.00361417, 0.0037198, 0.00411988, 0.00370415, 0.00400035, 0.00363949, 0.00373373, 1.15708, 1.15333, 1.04103, 1.17805, 0.0038775, 0.00361099, 0.00367178, 0.00376035, 0.00365508, 0.00387847, 0.00367046, 0.00368472, 0.00374335, 0.00367766, 0.00374557, 0.00372538, 0.00355092, 0.00384126, 0.00352501, 0.00358009, 0.00364067, 0.003878, 1.53502, 1.56396, 0.0035041, 0.00391245, 0.00332957, 0.00377825, 0.00327534, 0.0037276, 0.00369037, 0.00380127, 0.00385475, 0.00330764, 0.916496, 0.920289, 0.924636, 0.924692, 0.926401, 0.00393767, 0.00371883, 0.935602, 0.00340885, 0.938758, 0.941177, 0.00367456, 0.00386972, 0.949577, 0.949277, 0.951131, 0.95289, 0.00372534, 0.00364161, 0.00368666, 0.00347801, 0.00366203, 0.00372292, 0.00352951, 0.997714, 0.00354355, 0.00389457, 1.0029, 1.00193, 0.00388704, 0.00362483, 0.00424762, 0.00357344, 0.00388218, 1.00892, 1.01019, 1.01211, 0.00373786, 0.00388496, 1.01294, 0.00387887, 1.24389, 0.00390477, 0.00359847, 0.00388662, 1.03283, 0.00355603, 0.00402705, 0.00363085, 0.00362123, 0.00380004, 0.00374359, 0.00354469, 0.00394684, 0.00390604, 0.00371777, 0.00331817, 0.00361924, 0.00356555, 0.00370916, 0.00345943, 0.00371912, 0.0038041, 0.00382083, 0.00362079, 0.00371001, 0.00372179, 0.00406837, 1.3198, 0.00371903, 0.00385209, 1.33628, 0.00370084, 0.00373814, 0.00342332, 0.00335472, 0.0038478, 0.00392076, 0.00371941, 1.27115, 0.00349954, 0.00368875, 0.00391768, 0.00422752, 0.00374745, 0.0037253, 0.00416095, 0.00373312, 0.00360947, 0.00383962, 0.00399362, 0.0038048, 0.00367202, 0.00365781, 0.00367453, 0.00370278, 0.003857, 0.00345825, 0.00345878, 0.00376622, 0.00358419, 0.00390238, 0.00381509, 0.003844, 0.00348796, 1.46509, 0.00351598
0.00388392, 0.00374245, 0.00335039, 0.00351976, 0.00371488, 0.00376961, 0.00351163, 0.00353337, 0.00375507, 0.00356118, 0.00366363, 0.00359454, 0.00370481, 0.00394339, 0.00359573, 0.00366894, 0.00378625, 0.00402467, 0.00364258, 0.00356892, 0.0034462, 0.00364456, 0.00352524, 0.00362902, 0.00374696, 0.00397559, 0.0034911, 0.00395847, 0.00375908, 0.00376361, 0.00371817, 0.00436395, 0.0038326, 0.00424578, 0.00363673, 0.914713, 0.00368946, 0.00382039, 0.0037537, 0.00385227, 0.0038607, 0.00400053, 0.00382395, 0.631395, 0.627849, 0.629715, 0.629721, 0.629922, 0.0036218, 0.629379, 0.00345177, 0.00400053, 0.00372706, 0.00387419, 0.00385651, 0.648769, 0.00346629, 0.0038455, 0.00337865, 0.655705, 0.657272, 0.660134, 0.00365189, 0.00391729, 0.0036148, 0.00391215, 0.00359337, 0.00388182, 0.00349851, 0.00392707, 0.00375392, 0.0040723, 0.00411285, 0.00377465, 0.00333769, 0.00363896, 0.00376807, 0.00399398, 0.00374978, 0.0039814, 0.0035228, 0.00358497, 0.00355965, 0.00387022, 0.00340468, 0.00396618, 0.00353398, 0.00380034, 0.00359229, 0.00390557, 0.00349575, 0.00378353, 0.00374231, 0.00389388, 0.00380211, 0.713643, 0.70568, 0.700321, 0.703955, 0.703499, 0.707317, 0.00399461, 0.00361412, 0.00409679, 0.00373359, 0.699587, 0.701635, 0.701248, 0.00348482, 0.00401352, 0.709552, 0.711347, 0.712922, 0.715819, 0.71793, 0.718174, 0.718615, 0.718485, 0.718769, 0.720595, 0.722524, 0.723039, 0.724232, 0.725169, 0.00362502, 0.00393093, 0.00345001, 0.00377355, 0.00344698, 0.00396424, 0.00398371, 0.00427386, 0.00320002, 0.00371436, 0.00351568, 0.00388992, 0.00355875, 0.00340913, 0.00337106, 0.00394737, 0.00348071, 0.00382778, 0.00362421, 1.09897, 0.00377498, 0.0038243, 0.00339811, 0.00372747, 0.00354483, 0.00387239, 0.00343426, 0.00354937, 0.00357326, 0.00383888, 0.00354353, 0.00380279, 0.00340731, 0.00403478, 0.00378179, 0.00374585, 0.00355917, 0.00357342, 0.00328551, 0.00366607, 0.00363707, 0.00379739, 0.0036929, 0.00361983, 0.00355905, 0.00375397, 0.00365542, 0.0036355, 0.00354196, 0.00389019, 0.00346868, 0.00396456, 0.00368367, 0.0036863, 0.00350425, 0.00387325, 0.00365031, 0.00381073, 0.00383294, 0.00374537, 0.943363, 0.945518, 0.944418, 0.949128, 0.949988, 0.953465, 0.00357359, 0.992143, 0.00365188, 0.00383403, 0.00334257, 0.00399469, 0.00370922, 1.77011, 0.00352567, 0.00401493, 0.00362639, 0.00399728, 0.00364829, 0.00334468, 0.00364834, 0.998573, 0.00385479, 0.00389063, 0.00359906, 0.00367905, 0.00361899, 0.00389953, 0.00346787, 0.00345261, 0.00355013, 0.00370566, 0.00353943, 0.00344886, 0.0037405, 0.00369434, 0.00352153, 1.03227, 0.00355548, 0.00390254, 0.00345026, 0.0038708, 0.00348305, 0.00377014, 0.00381082, 0.00338867, 0.00327674, 0.00376383, 0.00352732, 0.00362298, 0.00368418, 0.00361435, 0.00350414, 0.00376849, 0.00352536, 0.00379004, 0.00372921, 0.00381635, 0.00365768, 0.00379293, 0.00357681, 0.00359227, 0.00390358, 0.00392937, 0.00362777, 0.0038895, 0.0037826, 0.00372569, 0.00336686, 0.00415506, 0.00340062, 0.00384968, 0.00376382, 0.00343922, 0.00364619, 0.00335636, 0.00355936, 0.00391171, 0.00361073, 0.00368047, 0.00359659, 0.00408708, 0.00359295, 0.0038197, 0.00362364, 0.00359492, 0.0036872, 1.57236, 1.57763, 0.00374471, 0.00344551, 0.00378683, 0.00377784, 0.00386642, 0.00369933, 0.00394575, 0.00384126, 0.00389091
0.00367971, 0.00358155, 0.00413962, 0.00369263, 0.00391792, 0.00354186, 0.00410504, 0.00337838, 0.00388659, 0.00355003, 0.0035605, 0.00351424, 0.00351237, 0.00333275, 0.00366709, 0.00373483, 0.00366269, 0.00336632, 0.00365727, 0.00350852, 0.00363561, 0.003339, 0.00349576, 0.00368533, 0.00373558, 0.0034728, 0.0036513, 0.00379324, 0.00349286, 0.00349697, 0.00396088, 0.00370641, 0.00377703, 0.00354181, 0.00407001, 0.00363626, 0.00381445, 0.00356613, 0.0036208, 0.00361387, 0.00381422, 0.00378842, 0.62534, 0.62628, 0.626462, 0.627474, 0.624881, 0.623333, 0.624079, 0.623892, 0.622385, 0.622943, 1.1463, 1.14928, 0.00381283, 0.00377832, 0.00397897, 0.00351533, 0.00388781, 0.655102, 0.657571, 0.658905, 0.00362958, 0.00378244, 0.00376825, 0.663017, 0.664329, 0.664711, 0.663387, 0.662339, 0.66208, 0.00368104, 0.00377609, 0.0038915, 0.00381762, 0.00355209, 0.00357272, 0.00359825, 0.00366087, 0.00325476, 0.00371785, 0.00357419, 0.811551, 0.812515, 0.00387543, 0.00350096, 0.00406494, 0.00375984, 0.00377549, 0.00355613, 0.00384859, 0.702841, 0.705847, 0.706511, 0.707238, 0.706169, 0.70521, 0.705791, 0.70505, 0.705106, 0.706082, 0.706575, 0.706867, 0.696437, 0.69837, 0.699781, 0.700989, 0.701739, 0.702532, 0.0036084, 0.0037347, 0.00357017, 0.714361, 0.716372, 0.716782, 0.716741, 0.718233, 0.718894, 0.716594, 0.719467, 0.720342, 0.72161, 0.715936, 0.717181, 0.717663, 0.00348108, 0.0033919, 0.00378861, 0.00363398, 0.00353777, 1.21673, 0.00354111, 0.00413119, 0.00365146, 0.00371338, 0.00351718, 0.00383309, 0.00373204, 0.00390453, 0.00365212, 0.0040675, 0.00383297, 0.00394016, 0.00372632, 0.0039976, 0.00348725, 0.00419939, 0.00368002, 0.00373501, 0.00389062, 0.00358679, 0.00358352, 0.00385646, 0.00346495, 0.00345346, 0.911673, 0.857707, 0.00366914, 0.00373893, 0.00359682, 0.00371842, 0.00365801, 0.00396652, 0.00371869, 0.00360302, 0.00362081, 0.0039478, 0.00359972, 0.00347068, 0.00368438, 0.00391486, 0.00367585, 0.00374254, 0.00340811, 0.00373359, 0.00355626, 0.00411637, 0.00345543, 0.00381021, 0.00373052, 0.00390257, 0.00377233, 0.940487, 0.943198, 0.944487, 0.00336631, 0.949253, 0.950205, 0.950343, 0.00339214, 0.00392318, 0.00349137, 0.00374032, 0.00345064, 0.00381306, 0.00338404, 0.00389876, 0.00363768, 0.00350937, 0.00358615, 0.00368547, 0.00373281, 0.00372318, 0.00373673, 0.00405657, 0.00346056, 0.00405647, 0.00363355, 0.00379886, 0.00319098, 0.00390441, 0.00383514, 1.00211, 0.00372137, 0.00404463, 0.0036709, 0.00380637, 0.0032711, 0.00362698, 0.00341146, 0.00351792, 0.00372474, 0.00373588, 0.0035909, 0.00361091, 0.00372849, 0.00377778, 0.00373466, 0.00403482, 0.00393235, 0.00369591, 0.00364051, 0.00377971, 0.00362748, 0.00400785, 0.00355225, 1.4798, 1.47654, 1.31629, 0.00377239, 0.00376143, 0.00369948, 0.00385713, 0.00348777, 1.1513, 1.1525, 0.00371305, 0.00362333, 0.00387717, 0.00368317, 1.28476, 0.00352599, 0.00400507, 0.00365889, 0.00386393, 0.00377333, 0.00365626, 0.00341112, 1.48889, 0.00336563, 1.5243, 0.00363889, 0.00361814, 0.00370603, 0.00382389, 0.00344137, 0.00392184, 0.00373058, 0.00426924, 0.00363714, 0.00367041, 0.00350463, 1.42075, 0.00359102, 0.00382709, 0.00369324, 1.4381, 0.00358652, 0.00349561, 0.00346613, 0.00368924, 0.00346884
