0.00372392,0.919722,0.00333452,0.781186,0.00380788,0.00391817,0.00365335,0.80043,0.800106,1.04915,0.00336216,0.0036899,0.00369776,0.00410073,0.00373937,0.864063,0.864687,0.915048,0.896043,0.881064,0.887586,0.889504,0.00388148,0.896914,0.898167,0.00355118,0.00329589,1.28208,0.915124,0.917338,0.918885,0.920226,0.923385,0.924382,0.0039013,1.49645,0.933516,0.934557,0.00351408,0.00379631,0.00380546,0.942686,0.942615,0.945979,0.941887,0.941356,0.941764,0.942395,0.943601,0.944475,0.943317,0.9452,1.18549,0.948873,0.00388586,1.23626,0.00327312,1.80001,0.976944,0.970451,1.45107,0.00343211,0.00348809,0.0033356,0.00337837,0.00371808,1.30848,1.00927,0.0034811,1.00888,1.01666,1.02273,1.0006,1.00053,1.00112,1.03702,1.00709,1.00851,1.00815,0.99843,0.998196,0.994985,0.998113,1.02022,1.07048,1.01271,0.961057,0.984941,0.976741,0.987178,1.03193,1.03423,1.04826,1.07697,1.11828,1.13213,1.1775,1.17773,1.1757,1.22531,1.1783,1.22867,1.27299,1.23105,1.23993,1.24714,1.2224,1.2212,1.28559,1.30535,1.29282,1.2419,1.29559,1.362,1.36382,1.37218,1.29184,1.28455,1.28293,1.36955,1.2919,1.36535,1.36717,1.36598,1.36476,1.38427,1.38455,1.39262,1.33531,1.3679,1.35214,1.34995,1.3458,1.34801,1.35043,1.34368,1.34671,1.35047,1.34981,1.34926,1.34925,1.39193,1.3792,1.35076,1.35032,1.36467,1.362,1.36195,1.37055,1.35468,1.35449,1.36855,1.35324,1.36671,1.32401,1.32306,1.32424,1.3294,1.38684,1.31446,1.28237,1.28486,1.28253,1.30471,1.32737,1.32756,1.29927,1.30579,1.29787,1.25036,1.25433,1.25387,1.2581,1.26025,1.30531,1.32451,1.30715,1.30735,1.31541,1.31522,1.33714,1.44803,0.00376615,1.46378,1.36313,1.36389,0.00321011,1.41217,0.00350578,0.00371073,0.00351714,1.37509,1.37598,1.37435,1.36874,1.3745,0.00341147,1.38724,1.39202,1.37494,1.37429,1.37405,1.37769,1.61286,0.00366058,1.49292,1.47787,1.47828,0.00378986,1.47972,1.46757,1.5305,0.00323139,1.40312,1.40477,1.40874,1.40795,1.40727,1.40944,1.41213,1.41172,1.41138,1.40667,1.40861,1.40719,1.40958,1.41159,1.46164,0.00327654,0.0035511,0.00342404,0.00376767,1.43824,0.00331786,0.00366298,0.00343872,0.00383453,0.00391295,0.00348142,1.47841,1.47736,1.48254,1.48045,1.48477,1.49744,1.49852,1.50056,1.50044,1.50933,1.50977,0.00386354,1.54836,1.54747,1.52985,0.0037235,1.58825,0.00376617,0.00344403,1.55087,0.00384317,0.00362848,0.00340957,0.00334623,0.00390592,0.00363843,0.00369669,0.00354578,1.55763,0.00340537,0.00342053,0.00355164,0.00365252,0.00350292,0.00394812,0.00374342,0.00323269,0.00371077,0.00358081,0.00348121,0.00391017,0.00354103,0.0036744,0.00343912,0.00380835,0.0036055,1.75859,0.0036608,0.00367438,1.8107,1.82206,0.00381367,0.00375188,0.00350102,0.00379572,0.00339986,0.00340303,0.00355513,0.00394481,0.00340081,0.00394079
0.00381529,0.00354233,0.00359957,0.0034563,0.00393064,0.00331389,0.00392002,0.00359055,1.09068,0.00370168,0.00330352,0.00332815,0.00354306,0.00360577,0.852517,0.854086,0.855017,0.87038,0.00360729,0.00358283,0.00388909,0.00331876,0.00338375,0.00393686,1.26136,0.00360155,1.40389,0.00337455,0.00393157,0.00343218,0.00356771,0.920016,0.920917,0.923108,0.923587,0.924009,1.30226,1.11703,0.935351,0.00348207,1.55405,1.23654,1.24214,0.939839,0.939112,0.942204,0.940045,0.94071,0.942903,0.943706,0.932978,0.936379,0.936334,0.00369428,0.00366962,0.00362434,0.00380137,0.00373249,1.09417,1.30571,0.975601,1.29891,0.00341368,1.08748,0.00333557,1.09191,1.21915,1.32246,1.0053,1.00605,0.986358,0.98811,0.99105,1.00301,0.996756,1.01519,1.01087,0.967772,1.04916,1.02368,0.988561,0.989786,0.984423,1.0404,0.974916,0.973213,0.992087,1.00069,1.00204,1.00627,1.04207,1.01954,1.08426,1.0837,1.10927,1.15039,1.17679,1.17012,1.17051,1.18433,1.19458,1.21013,1.20915,1.2078,1.24569,1.2243,1.23323,1.29204,1.24599,1.23989,1.30157,1.30179,1.27845,1.36511,1.36401,1.33723,1.33088,1.48997,1.30288,1.30497,1.37705,1.34973,1.36194,1.35669,1.33973,1.38201,1.38137,1.34866,1.34676,1.34736,1.34058,1.33966,1.33998,1.35398,1.36701,1.35471,1.35856,1.36524,1.40126,1.40599,1.34676,1.34635,1.34652,1.3695,1.3851,1.37412,1.36434,1.36414,1.37066,1.36715,1.35536,1.36103,1.3621,1.37192,1.37842,1.34732,1.32229,1.32886,1.36518,1.33684,1.33959,1.31325,1.3004,1.29309,1.31451,1.31618,1.33529,1.31833,1.29851,1.27377,1.27358,1.27334,1.26167,1.37086,1.31688,1.31655,1.31031,1.30967,1.32251,1.32232,1.32601,1.32648,0.00356124,0.00379069,0.00341066,0.0038075,1.35572,1.35432,1.35413,1.35718,1.35122,0.00348857,1.35455,0.00353129,0.00363419,0.00375486,1.39045,1.38865,1.36184,1.37475,0.00364339,0.00367458,1.43849,1.3715,1.37439,1.55428,0.00380126,1.38056,1.37994,1.50947,1.50583,0.00371014,0.00360236,0.00328458,1.59434,0.00351903,1.49701,1.40708,1.40693,1.40905,1.40507,1.40396,1.40576,0.00331977,1.41443,0.00361723,0.0034859,0.00389396,0.00440177,0.0034971,0.00376219,0.00372993,0.00365903,1.44852,1.45104,1.45117,0.00324104,1.51999,0.00358255,1.48229,0.00351768,1.47646,1.48118,0.00380817,1.56596,1.50325,0.00354144,0.00375842,0.00369398,1.51067,1.5162,0.00353332,1.52613,1.5236,1.52778,1.52916,1.53549,1.5361,1.54134,1.54059,1.5469,1.54463,1.55124,1.55415,1.55399,1.55754,1.55826,1.55828,1.55298,1.55474,1.5612,1.56498,1.56592,0.00380656,0.00357653,1.57134,1.57569,0.00356449,0.00359312,0.00368048,0.00358818,0.0034913,0.00331952,0.00342753,0.00394011,0.00357435,0.00334741,1.6313,1.62928,1.62998,1.80577,0.00377234,0.00343791,0.00351249,0.00327118,0.00339794,0.00377668,0.00344413,0.00339338,0.00358304
0.988356,0.995462,0.00384248,0.00388585,0.00360607,0.00343086,0.00374515,0.00378556,0.00345213,0.929014,0.00313297,0.00352435,0.00348902,0.842,0.849125,0.00376153,0.85613,0.856889,0.869702,0.00360863,0.00351896,0.86714,0.00349228,1.21399,0.00322471,1.39312,1.5524,1.54806,1.36765,1.36838,0.912116,0.0039098,0.918729,0.918852,0.92051,0.922461,0.923636,1.12964,0.00351114,0.933018,1.53356,0.933855,0.935868,1.24387,0.937356,0.937456,0.00372783,1.62054,0.935178,0.938815,0.00328486,1.21012,1.16108,0.934597,0.00339221,0.00373735,0.00320982,0.0033782,0.00356888,0.957443,0.958623,0.987315,0.973927,0.00387132,0.00372979,0.00340263,0.00383301,1.06833,0.990231,1.05826,1.06303,0.991291,0.990841,1.02959,1.01653,0.936904,0.938593,0.977199,0.951919,0.959074,0.970672,0.966332,0.966648,0.967762,0.965069,0.954285,0.964928,0.983829,1.00863,1.02092,1.04279,1.06412,1.10589,1.10598,1.12828,1.14089,1.16723,1.22111,1.18808,1.18911,1.18839,1.27972,1.1946,1.23315,1.21705,1.21914,1.23254,1.23013,1.26455,1.26331,1.30142,1.26736,1.28308,1.299,1.498,1.5137,1.62506,1.48506,1.48428,1.48143,1.49586,1.34629,1.32033,1.32641,1.32742,1.42777,1.42654,1.39865,1.34266,1.34405,1.34071,1.34578,1.34635,1.35002,1.3746,1.35934,1.36046,1.36224,1.35899,1.35482,1.38766,1.44245,1.43871,1.44815,1.47173,1.40948,1.37071,1.36779,1.36662,1.3677,1.35704,1.35715,1.39699,1.37224,1.39629,1.36318,1.4028,1.40269,1.35328,1.35406,1.3978,1.39796,1.35992,1.29819,1.2983,1.30024,1.32329,1.30487,1.29192,1.30926,1.27345,1.33499,1.29282,1.32013,1.30412,1.3021,1.28842,1.25098,1.2508,1.32671,1.32496,1.38325,1.3891,1.38866,0.00359804,0.00350381,0.00371497,1.34708,0.00334571,0.0037439,0.00329274,0.00419352,0.0034873,1.7522,0.00330702,1.43688,0.00385606,1.40486,1.39637,1.4333,0.00361145,0.00361801,0.00330801,0.0031971,0.00341885,0.00357042,0.00354755,1.37191,1.36879,1.37421,0.00363854,0.00363374,0.00347156,1.58981,0.00353008,0.00327348,0.00356689,1.48352,1.42331,0.00369942,0.00324561,1.50963,0.0033627,0.00329848,0.003359,0.00377351,0.00331479,1.69019,0.0037265,0.00391172,0.00330583,0.00365388,1.45028,0.00377886,1.45455,1.4515,0.00347705,0.00372965,0.00341836,1.4732,0.003546,1.53964,0.00355342,1.49839,0.00340977,1.49928,0.00349185,1.50389,0.00345488,0.00364573,0.00343557,1.59764,0.00336932,0.00371377,0.00359128,1.53653,1.54012,1.53799,1.53883,0.00332948,0.00349531,0.00376385,0.00351775,1.55394,1.55264,1.55372,1.553,1.55286,1.55452,1.55787,0.00351365,1.67168,1.6859,1.55421,0.00360959,0.00388049,0.00359451,1.57065,1.57091,1.57924,0.00323901,0.00359748,0.00338113,0.00368008,0.00349698,0.00352679,0.00356681,0.00384518,1.62889,1.62819,1.62496,0.0034668,0.00350221,1.84196,0.00328406,1.63519,1.63451,1.63747,0.00377354,0.00395868
0.863857,0.821432,0.869737,0.00350657,0.811972,0.814266,0.911802,0.0035036,0.894906,0.987351,0.95307,1.00226,0.880181,0.00324569,1.11716,1.11723,0.00371152,0.00339807,0.0034754,0.00375459,0.00387919,0.00336558,0.016661,0.00354867,0.00396961,1.05958,1.08933,1.38988,1.4034,1.38179,1.38792,1.39651,0.00335669,0.00336521,0.919971,0.923086,0.924036,0.00369052,0.00382323,0.928951,0.929681,0.929337,0.932201,1.17628,0.00359275,0.00345503,1.63052,0.929714,0.925831,0.926638,0.926724,0.928814,0.930654,0.932921,0.00359253,0.00382514,0.935658,0.00324019,1.09899,0.958119,0.960223,0.962964,0.973349,0.00371789,0.0037155,0.00362435,0.986754,0.980533,0.970888,1.01335,0.984005,0.927059,0.928245,0.937486,0.9384,0.914604,0.91516,0.933774,0.931911,0.97101,0.96759,0.958883,0.979393,0.980497,0.946064,0.957689,0.957818,0.98117,1.01837,1.02964,1.10108,1.14626,1.13006,1.13394,1.14027,1.15638,1.17116,1.17492,1.17534,1.19225,1.18411,1.19599,1.20232,1.20313,1.21494,1.21625,1.25796,1.30579,1.35169,1.26733,1.29541,1.27544,1.27936,1.29296,1.33543,1.34385,1.51944,1.50489,1.58213,1.50305,1.48373,1.48415,1.36434,1.35766,1.32728,1.32635,1.33101,1.33432,1.38138,1.35026,1.34797,1.34014,1.33994,1.41596,1.4153,1.36053,1.36177,1.36282,1.36115,1.39268,1.36761,1.64906,1.50986,1.51812,1.56894,1.47584,1.4755,1.44841,1.39129,1.38672,1.38244,1.37773,1.38897,1.4535,1.38205,1.3837,1.429,1.37746,1.36354,1.36986,1.3935,1.37958,1.36222,1.36099,1.30548,1.30693,1.31941,1.3118,1.30526,1.32269,1.3067,1.29825,1.30184,1.27207,1.26741,1.27851,1.27957,1.24365,1.24694,1.24016,1.24327,1.31867,1.34646,1.29208,1.33117,0.00345955,1.323,0.00339186,0.00382105,0.00383772,1.38399,1.32741,0.00339611,0.00326617,0.00390326,0.00330026,0.00357212,0.00361775,0.00342178,0.0036461,0.00365435,0.00373359,1.36127,0.0037445,1.36478,0.0035927,1.86968,1.57413,1.41973,1.51697,1.42598,0.00378159,0.00357089,0.00359523,1.5385,1.38863,1.39081,1.57,0.00384907,0.00328281,0.00354886,1.5416,0.00400856,0.00370656,0.00375994,0.00345498,0.00375476,0.00342829,0.00405086,0.00354191,0.00378941,0.00343916,0.00377171,0.00370916,0.00388903,0.0035068,0.00324723,1.46254,0.00350706,1.47139,0.003596,0.00349653,0.00363432,0.00342832,1.49849,0.00359293,1.50524,1.50527,1.50621,0.00352921,0.00331567,0.00359125,0.0035318,0.00374116,0.00389674,0.00365792,1.53961,0.00337188,0.00362791,0.00392958,1.54572,0.00355682,0.00343021,0.00355514,0.00356966,0.00375688,0.0034622,0.00387882,1.54797,1.55165,1.53902,1.54228,1.54161,1.54606,1.54544,1.54993,1.55104,0.00336885,0.00407265,0.00353235,0.00390946,0.00378351,0.0033913,0.00366081,1.79662,1.72912,1.80433,0.00356655,0.00349208,1.70984,1.62729,0.00375115,0.00381317,0.0035258,0.0034876,1.63397,1.68267,0.00336949,0.00339144,0.00348976
0.00366991,0.89032,0.819656,0.840309,0.933543,0.922779,0.00373257,0.802546,0.803576,0.804722,0.00349805,0.00361787,0.00374576,0.00363936,0.00372078,0.00350087,0.0032664,1.07157,0.979965,1.0193,0.00354629,0.00343576,0.00376401,0.00335692,1.18561,1.3931,0.00328182,1.37794,0.00376449,0.00369721,0.00356494,1.40648,0.00348012,0.00352413,1.42318,0.00362893,0.00349873,0.00373532,0.0032725,0.928026,0.00363997,0.00355988,0.00358485,0.00342394,0.00349784,0.00317828,0.00372,0.922282,0.922711,0.925293,0.927922,1.62942,0.929224,0.929334,0.00387038,0.00393527,0.00351132,0.93516,0.933726,0.936133,0.00361446,0.960048,0.00376209,0.00338532,0.0036531,0.00369513,0.969927,0.963531,1.00558,0.984427,0.94123,0.9425,0.932264,0.910953,1.00102,0.91076,0.911797,0.912482,0.932589,0.959207,0.951756,0.950557,0.95204,0.948009,0.969133,0.984412,0.990792,0.991835,1.0139,1.12448,1.16134,1.12021,1.13244,1.15248,1.15247,1.17389,1.18291,1.19211,1.20253,1.24904,1.2478,1.25186,1.2533,1.26317,1.27427,1.27383,1.27074,1.26673,1.2772,1.29185,1.29025,1.29133,1.28902,1.29081,1.28296,1.28442,1.29974,1.34727,1.31821,1.31967,1.33599,1.34331,1.32299,1.32939,1.32262,1.37136,1.32661,1.3272,1.32977,1.35382,1.34256,1.34069,1.34625,1.34448,1.35479,1.35696,1.35828,1.3946,1.40717,1.37011,1.37189,1.51421,1.53999,1.53032,1.58158,1.57018,1.49415,1.45937,1.45718,1.3908,1.35058,1.39144,1.39026,1.37248,1.37715,1.37487,1.37843,1.42766,1.36435,1.36099,1.38481,1.35918,1.35756,1.35564,1.38152,1.37675,1.32165,1.34843,1.31997,1.32837,1.3292,1.30615,1.24299,1.24266,1.24962,1.2166,1.21657,1.21481,1.21827,1.21895,1.21965,1.24778,1.2886,1.2976,1.40265,1.37927,0.00341932,1.43139,1.38782,0.00351735,1.40569,1.31543,0.00365681,0.00354525,0.00360211,1.36515,0.00361789,1.3429,1.32794,0.00353226,1.33698,1.35144,0.00343405,0.00401915,0.00352878,0.00379117,0.00368837,1.35002,1.35342,0.00363741,0.00339962,1.41354,0.00359509,0.003493,0.00380643,0.00368848,1.38476,1.38177,0.0036243,1.37288,1.37302,1.54417,0.00327452,0.00362113,0.00353196,0.00381896,0.0037574,0.00366404,0.00336379,0.00391622,0.0031461,0.00328021,0.00356199,0.00332644,0.00346531,0.0041183,0.00342531,0.00363347,0.00336328,0.00347021,0.00380642,1.49288,0.00350228,0.00356012,0.00352737,0.00363502,0.00377149,0.00358853,0.00359326,1.51208,1.51387,0.00364492,0.00364409,0.00389939,0.003314,1.53172,0.00387145,1.53073,0.00343257,1.53655,1.53297,0.00349917,0.00359463,1.53954,0.00359531,1.53431,1.53272,1.53352,0.003584,1.53454,1.5376,1.54179,1.54086,1.54375,1.54756,1.5474,1.54569,1.54679,0.00341223,1.73175,0.00364328,0.00357533,0.00347629,0.00351975,0.00359679,1.80404,0.00338267,0.00347163,1.64013,1.63529,0.00339749,0.00358128,0.00371884,1.61229,0.00370731,1.69522,0.00359133,0.00387864,0.00357518,0.00367904
0.00349587,0.00355385,0.00355167,0.00340909,0.00342516,0.0034503,0.00361757,0.00326426,0.801521,0.801683,0.804933,0.0031603,0.80578,0.00362441,0.00353759,0.00343299,0.00371932,0.00330169,0.00379694,0.00355506,0.00345524,0.00336246,0.00365973,0.00373958,1.39296,1.3915,1.38109,0.00360137,0.00373277,0.00359091,0.00364953,0.00372919,0.00338655,0.00343686,0.00374669,0.00322055,0.919095,0.921322,0.00387575,0.00346677,1.50559,0.00330477,0.00373493,0.998513,0.984259,0.915017,1.07174,1.05696,1.33562,0.00316725,0.00324554,0.924387,0.928085,0.00356049,0.00379326,0.00354797,1.29853,0.918398,0.929772,0.92397,0.940467,0.939841,0.946329,0.00357071,0.00381238,0.0034063,0.963102,0.963956,0.961296,0.9594,0.924615,0.915915,0.91682,0.927437,0.908427,0.908295,0.969006,0.932292,0.932552,0.934837,0.943796,0.967193,0.974083,0.981806,1.00048,1.00143,0.990348,1.07668,1.07883,1.12622,1.15624,1.20205,1.17986,1.16006,1.23332,1.18486,1.18637,1.20972,1.23686,1.24116,1.22254,1.22315,1.24478,1.24755,1.24791,1.26407,1.25992,1.26007,1.2668,1.25958,1.26077,1.27866,1.28102,1.28202,1.28834,1.29371,1.31934,1.32887,1.30945,1.30827,1.32045,1.32214,1.33991,1.3404,1.33969,1.33645,1.34973,1.34998,1.35878,1.35382,1.35128,1.34129,1.36499,1.34271,1.36438,1.35898,1.35422,1.36749,1.36238,1.36216,1.61268,1.54839,1.56187,1.51542,1.51604,1.51843,1.56487,1.53375,1.49687,1.3516,1.34486,1.35017,1.34806,1.37508,1.43416,1.36429,1.36524,1.36466,1.36402,1.36269,1.36515,1.35726,1.35362,1.39046,1.3679,1.35222,1.33068,1.33843,1.33961,1.32039,1.31734,1.31856,1.28645,1.26424,1.26687,1.27448,1.23056,1.22884,1.23083,1.16728,1.17521,1.17838,1.18064,1.28366,1.30283,1.28308,1.3332,0.00349299,1.33419,0.00346143,1.37227,1.3566,1.30149,1.30157,1.34714,0.00333043,1.4194,0.00321365,1.3121,1.31303,1.32652,0.00365912,0.00387065,0.00356155,0.00364783,0.00324952,0.00363942,0.00359625,0.00399407,0.0035557,0.00387639,0.00366738,0.00374685,0.00332783,0.00341336,0.00344623,0.00404428,1.36892,1.37016,0.00341553,1.41006,1.47433,1.54872,0.00335208,0.00367915,0.00360344,0.00391222,0.0032681,0.00384832,0.00345577,0.0038001,0.00381774,0.00355516,0.00341051,0.00408581,0.00385729,1.44825,0.00360446,1.62593,0.00364358,0.00377996,0.00361135,0.00389276,0.00354418,0.00359518,0.00357277,0.00361165,0.00352874,1.50136,0.0035634,1.50594,1.51109,0.00375842,0.00366299,1.52912,1.5251,1.52655,1.52232,1.52452,1.52726,0.00330599,0.0036131,1.53032,1.53083,1.53069,1.53066,1.52926,1.53338,1.53028,1.53167,1.53571,1.5383,0.00355374,1.53803,1.54311,1.54364,1.5429,1.55023,0.0033779,0.00393671,0.00404338,0.00345412,0.00420493,0.00365271,0.00394417,0.00364002,1.67153,1.68501,0.0036063,0.00358714,0.00348968,0.0035585,0.0039366,0.00355805,0.00371762,0.00353612,0.00345989,0.00359117,0.00373192,0.00356446
0.00337787,0.0033363,0.00342056,0.00376511,0.00365784,0.00320562,0.0033907,0.79362,0.795816,0.796045,0.798947,0.798554,0.797667,0.00395221,1.00968,0.00351144,0.00347537,0.00413348,0.0034774,0.00379578,0.00305903,1.39633,0.003649,0.0033323,0.00342709,0.00364731,0.00356166,0.0036767,0.0035215,0.00346838,0.00342506,0.00320356,0.00365031,0.00336554,0.00351018,0.00347451,0.00345081,0.00409322,0.00356816,1.48906,0.00358621,1.49775,0.00326673,1.54447,0.00342756,1.09594,1.0534,1.05405,1.09079,1.10253,1.10147,1.13596,0.00351153,0.00358149,0.00370971,0.00379953,1.18785,0.00308493,0.00396235,0.00364998,0.00359881,0.986337,0.989485,0.996463,1.00072,0.963728,1.03573,0.958174,0.959672,0.958462,0.959811,0.922254,0.91874,0.923589,0.922389,0.920614,0.939311,0.962947,0.967766,0.969881,0.971143,1.01271,1.01569,0.986821,0.98411,0.984887,1.04648,1.05255,1.1437,1.14986,1.206,1.1741,1.17323,1.17456,1.24907,1.24842,1.19749,1.20617,1.24949,1.24915,1.25496,1.25375,1.25324,1.25834,1.26018,1.45328,1.27615,1.25961,1.2635,1.29016,1.26604,1.28838,1.27468,1.28267,1.31908,1.32182,1.30798,1.34971,1.29862,1.29495,1.31568,1.3193,1.3272,1.33903,1.33556,1.3587,1.35473,1.40208,1.402,1.38795,1.36761,1.36766,1.37176,1.37209,1.36696,1.41065,1.41182,1.37435,1.37145,1.37094,1.39569,1.37958,1.37776,1.39255,1.40644,1.41343,1.42401,1.36133,1.35437,1.35658,1.42479,1.38673,1.38657,1.37475,1.37128,1.37449,1.37319,1.37175,1.3676,1.3651,1.3602,1.38593,1.37065,1.37071,1.31385,1.31184,1.30593,1.29409,1.29536,1.31238,1.31253,1.29645,1.29933,1.27675,1.27063,1.26808,1.25085,1.24778,1.14696,1.16368,1.18021,1.17888,1.25529,1.25616,1.25828,1.30168,1.33058,1.33538,1.29295,1.29432,1.30348,1.35686,1.29234,1.44042,1.28415,1.28442,1.51051,0.00353918,0.00337277,0.00365017,0.00336184,0.00354935,0.00366418,1.31033,0.00345736,0.00360498,1.32637,1.32759,0.00365295,0.00331664,0.00340563,0.00374041,0.00378872,1.42731,1.36107,1.36456,0.0033639,1.36166,1.36013,0.00358815,1.35205,1.35397,0.00334155,1.7443,0.00373338,0.00355618,0.00325899,0.0038786,0.00360855,0.00334506,0.00327484,0.00339625,1.60401,0.00337286,0.00352173,1.44063,1.43989,0.00377978,0.00352371,0.00375115,0.00339949,0.00359705,0.0035018,0.00357043,0.00369226,0.00375084,0.00346904,0.00346501,0.00351955,0.0034327,0.00368229,0.00340946,0.00367902,0.00336478,1.5235,1.52797,1.52759,1.52368,1.52291,1.52301,1.52639,1.5274,1.52789,1.52947,1.52938,1.52753,1.52476,1.52579,1.53104,1.53052,1.53088,1.53959,0.00341998,1.54227,1.54533,1.54479,1.54213,1.54162,1.54471,1.54737,0.00344146,0.0037548,0.00376486,0.00341822,0.00350291,0.00400758,0.00330429,1.69392,1.74107,1.56854,0.00382769,0.00360861,1.65841,0.00360813,1.59802,1.5965,1.59917,1.60743,1.60646,1.62048
0.00361507,0.00371157,0.00349725,0.00347236,0.00376445,0.00318054,0.00321953,0.00365376,0.787654,0.79049,0.792109,0.791845,0.793422,0.794769,0.795122,0.00365801,0.813728,0.00367176,0.00381646,0.00387536,0.00356573,0.00362339,0.00336281,0.00334965,0.00365514,0.00347708,0.00385032,0.870808,0.873255,0.00352729,0.00336722,0.00369138,0.00388984,0.00357241,0.00371285,0.0034431,0.00358805,0.003631,0.907514,0.00344736,0.00320496,0.00367641,0.00344202,0.902839,0.904231,0.904112,0.00342155,0.0035461,0.00364638,0.00359413,0.911094,0.00347641,1.09174,1.16636,1.17793,0.897109,0.897527,0.902268,1.11128,0.00334747,0.00342138,0.00344921,1.1727,0.00345883,1.19612,0.951638,0.948137,0.949588,0.95182,0.957434,0.958214,0.9541,0.972187,0.978746,0.980258,0.988356,0.990689,0.956834,0.958379,0.963227,1.01292,0.998127,1.01637,1.02133,1.01094,1.01928,1.06472,1.1332,1.14283,1.15033,1.15065,1.15328,1.16508,1.16619,1.16732,1.19555,1.22287,1.22002,1.20206,1.21648,1.21613,1.21927,1.26095,1.2692,1.27872,1.27969,1.27962,1.30113,1.30442,1.2627,1.26129,1.27868,1.27158,1.2993,1.41125,1.40876,1.40824,1.44795,1.39864,1.34903,1.35112,1.3632,1.34319,1.35661,1.35591,1.36423,1.36072,1.38376,1.38381,1.38432,1.40924,1.36275,1.36161,1.36333,1.37081,1.3641,1.37178,1.37335,1.37658,1.38649,1.38542,1.38792,1.40513,1.4004,1.40957,1.41271,1.38486,1.39579,1.36651,1.40252,1.40322,1.38961,1.39034,1.39187,1.38061,1.37336,1.36498,1.36315,1.36296,1.36275,1.35701,1.35042,1.352,1.33628,1.34978,1.31631,1.32948,1.27389,1.2718,1.274,1.29148,1.34498,1.29168,1.30481,1.28256,1.27889,1.27899,1.24028,1.26534,1.25092,1.21284,1.26139,1.26358,1.27837,1.26588,1.25871,1.25967,1.34434,1.30902,1.30527,1.33482,0.00330704,1.3262,0.00355465,0.00346074,1.278,1.27728,1.27846,1.38576,1.38827,1.44049,1.29674,1.30281,1.44354,1.42264,1.30805,1.42688,1.43515,1.44051,1.4209,0.0034432,0.00345244,1.84915,0.00335713,0.00367343,0.00360484,0.00344107,1.35056,1.58193,1.35109,1.35641,1.35174,1.71855,1.74832,0.00362762,0.0036618,0.0034101,0.00347584,0.00341404,0.00354192,1.41839,0.00358048,0.00350389,0.00323502,0.00363936,1.43981,1.44356,0.00351352,1.48166,1.4865,0.00361225,0.00367049,0.00385777,0.00365075,0.00350541,0.00325945,1.61764,0.00351872,0.00363522,0.00367307,0.0037701,0.00353869,0.00365664,0.00326538,1.5243,1.52521,0.00370273,0.00394414,1.52843,1.52113,1.52666,1.52517,1.52289,0.0037306,1.52653,0.00334753,0.00365134,1.52943,1.52508,1.5266,1.52803,0.00361904,0.00343435,1.5417,1.54102,1.54412,1.54264,1.54978,1.54459,1.54804,1.54735,1.53981,1.54407,1.54137,0.00372684,0.00380224,0.00369527,0.00379856,0.00380325,0.00367292,0.00375377,0.00368892,1.58346,0.00355833,1.5882,0.00350025,0.00392986,0.0034406,0.00381021,0.0034061
0.00306872,0.00358988,0.00361785,0.00386725,0.762728,0.00366572,0.00324785,0.00349391,0.0033237,0.00365661,0.00341325,0.789319,0.00349939,0.00363967,0.00345081,0.00358676,0.0034352,0.00365138,0.00380943,0.00379394,0.00345608,0.00368003,0.00351859,0.00408059,0.00365414,1.12583,0.00369484,0.00392059,0.00326554,0.00367934,0.00340977,0.00365513,0.0034081,0.00379451,0.00370437,0.00410864,0.00356971,0.00367644,0.00330996,0.00377682,0.00367497,1.247,0.00370249,0.00335798,0.00320001,0.00341794,0.00363694,1.1623,0.00328853,0.00357809,0.00360117,0.00372365,0.00347722,0.896217,0.89619,0.896353,0.89807,0.899269,0.00381472,1.73402,0.00361158,1.22384,0.00389904,0.939741,0.985513,0.944,0.947374,0.949164,0.953395,0.957488,1.01249,1.0118,0.982012,0.977312,0.97668,0.977656,0.96149,0.962665,0.956553,0.957027,0.943833,0.982018,0.999957,1.00369,1.06938,1.08869,1.16653,1.1672,1.15403,1.14985,1.18618,1.17745,1.17642,1.17463,1.17265,1.23826,1.22539,1.42349,1.25297,1.21197,1.21668,1.23769,1.25033,1.27203,1.29866,1.29622,1.28612,1.28709,1.28515,1.28927,1.31565,1.3478,1.32624,1.34027,1.33931,1.40212,1.34123,1.34179,1.34148,1.33646,1.32592,1.32853,1.32058,1.33977,1.33043,1.35722,1.36543,1.38007,1.39652,1.40639,1.43032,1.45163,1.42545,1.41646,1.42815,1.43011,1.39076,1.40209,1.40292,1.41559,1.40661,1.40654,1.40508,1.42304,1.4399,1.39511,1.38815,1.3842,1.38336,1.38081,1.38463,1.38521,1.38561,1.39341,1.39792,1.38702,1.38566,1.38418,1.36522,1.36775,1.36205,1.35779,1.33377,1.33403,1.34423,1.32322,1.29595,1.29598,1.28903,1.28995,1.28924,1.29504,1.27765,1.26401,1.26424,1.26882,1.27082,1.26469,1.26408,1.22948,1.2363,1.22436,1.22646,1.23668,1.256,1.24453,1.24819,1.29876,1.30576,1.30571,1.30663,1.33076,0.00381804,1.48202,1.27011,1.52112,0.00325596,0.00328041,0.00343263,0.00358092,0.00323554,0.00386804,1.42101,1.41385,1.50134,1.43715,1.46472,1.42992,0.0035593,1.38554,0.00380613,0.00387205,1.35874,0.00371959,1.38886,1.39005,0.00370133,1.4716,0.00353442,1.52454,1.34666,1.35102,0.0035207,0.00335076,0.00374761,0.0039437,0.0037716,0.00379196,0.00347953,0.00346907,0.00355208,1.41749,0.00335521,1.54785,0.00325252,0.00376882,0.0034405,0.00367061,0.00337079,0.00342984,0.00355101,1.60025,0.0033487,0.00333538,0.00337508,0.00356255,0.0035781,0.00358389,0.00375952,0.00389864,0.00367787,0.0035425,0.00340968,0.00331763,0.00367575,0.0108627,0.00332239,0.00360889,0.00343718,0.00357377,0.00360752,0.00407861,0.00379128,0.00379178,1.52089,1.52289,1.52028,1.52388,1.52393,1.52985,0.00354398,1.53471,1.53335,1.53638,0.00340087,0.00375127,1.55438,1.54903,1.55048,1.55166,1.54812,1.54489,1.542,1.54175,1.54706,1.54634,0.00360375,1.55863,0.00351983,0.00360275,0.00351745,0.00362693,1.57681,1.5818,0.00357357,0.00375654,0.00371375,0.00329678,0.00330748,1.60991
0.0036437,0.00349182,0.00356821,0.0035213,0.00338537,0.00367262,0.00381731,0.00351539,0.00362539,0.00340905,1.02078,0.00377175,0.00345122,0.00335829,0.00351721,0.0035877,0.0037496,0.799398,0.799817,0.00339489,0.0036206,0.00365657,1.40506,0.00382048,0.844879,0.00348564,0.00377055,0.00368418,0.00419678,0.00344926,0.848089,0.849075,0.850109,0.00354812,0.00354119,0.00370552,0.00371463,0.00359944,0.00361762,0.00357521,0.00355869,0.00338195,0.00378611,0.0037473,0.00328568,0.00369613,0.00379764,0.00362932,0.00377241,0.00346527,0.900636,0.00350329,0.896885,0.89349,0.893593,0.89258,0.00361841,1.17172,1.27408,0.0035066,1.16186,1.1876,0.00369087,0.00361634,0.00348008,0.00338417,0.970391,0.959577,0.962147,0.964126,0.978623,0.974188,1.01913,0.984979,0.993869,0.994487,0.984588,0.981406,0.978205,0.947006,0.984113,0.984562,1.02451,1.05816,1.09042,1.11681,1.19522,1.14728,1.15471,1.21246,1.19928,1.18105,1.17154,1.21284,1.21721,1.25737,1.38541,1.25329,1.21845,1.24716,1.24064,1.24413,1.26933,1.28492,1.27862,1.28463,1.28304,1.28202,1.28594,1.28427,1.28607,1.34371,1.32296,1.32602,1.34335,1.33648,1.35407,1.36225,1.34988,1.35046,1.34807,1.3573,1.35235,1.3747,1.39882,1.38175,1.38875,1.38681,1.38319,1.39489,1.40003,1.42338,1.4464,1.40656,1.40907,1.42504,1.45462,1.39885,1.38767,1.38609,1.39479,1.40534,1.48484,1.39571,1.39979,1.3959,1.38948,1.38303,1.398,1.38101,1.37218,1.38124,1.37967,1.38494,1.46817,1.39601,1.36749,1.38113,1.38251,1.36472,1.35255,1.34202,1.33362,1.3537,1.36597,1.33853,1.29208,1.2936,1.29155,1.29405,1.35544,1.31971,1.32161,1.322,1.27766,1.27911,1.27505,1.30772,1.27457,1.24767,1.24062,1.20026,1.24921,1.22765,1.22738,1.22358,1.24036,1.30006,1.29143,1.29621,1.30489,0.00344197,1.32704,0.00323272,1.39984,1.49954,1.26533,1.78119,1.59417,0.00341306,0.00319944,0.00392503,1.40984,1.45859,1.46124,0.00328574,1.49525,0.00369596,1.28958,0.00398421,1.39341,0.00325021,0.00354751,0.00374843,0.00321866,0.00352458,0.00340096,0.00334943,0.00369389,0.00362345,1.33764,0.00365815,1.35113,0.00352476,0.00373262,0.00370816,0.00350183,0.0035555,0.00341878,0.00345263,0.00356083,0.00351405,0.00370595,0.00355224,1.67294,0.00370577,0.00387854,0.00367436,1.45507,0.00356958,0.00360395,1.82814,0.00326536,0.00369494,1.4729,1.48254,1.48604,0.00372725,0.00361735,0.00348716,0.0038911,0.00331327,0.00384465,0.00364047,0.00352928,1.50371,1.50764,1.50514,1.5045,1.50946,1.50868,1.50401,1.50919,1.50924,0.00393329,0.00345105,1.5183,0.00362502,0.00364667,0.00343222,0.00347687,1.53174,1.53087,1.53015,0.00363723,0.00365562,0.00340379,0.00347498,1.54237,1.54606,1.54401,1.54438,1.54384,1.54806,1.54744,1.55578,1.55493,0.00367838,0.00371905,0.00353042,1.56839,0.00353713,0.00380901,0.00356839,0.00333617,0.00335481,0.00365048,0.00340323,1.61302,0.00359201
0.00339193,0.00369626,0.00368319,0.00386044,0.00370665,0.0033711,0.00361795,0.00380725,0.0039283,0.00321884,0.00361958,0.00360081,0.00377816,0.00372662,0.0036791,0.797111,0.798616,0.799659,0.800142,0.00369434,0.00351698,0.00356697,0.00373735,0.00377244,0.00396908,0.00365427,0.00372313,0.0037722,0.00370708,0.850582,0.847693,0.8502,0.850294,0.850301,0.00347316,0.00361225,0.00342709,0.00401795,1.00954,0.988652,0.00356801,0.00386895,0.00341214,0.00331804,0.00323091,0.00367019,0.880364,1.12191,0.00340364,0.00370775,0.00354691,0.00334905,0.00350981,0.886842,0.886961,0.8843,0.884834,0.885936,0.00338199,1.16296,0.00351643,1.25444,0.00339921,0.935878,1.17798,0.954873,0.962576,0.962715,0.964015,0.963718,0.967953,1.00228,0.979745,0.980264,0.991209,0.987417,0.974722,0.976595,0.977514,1.00189,0.979275,0.998338,1.04607,1.04759,1.078,1.10628,1.15474,1.17549,1.17097,1.16317,1.19847,1.18396,1.25858,1.20628,1.33601,1.25629,1.22248,1.22651,1.23144,1.25099,1.261,1.25351,1.28597,1.29137,1.28986,1.27463,1.28027,1.27804,1.28562,1.27711,1.28616,1.33335,1.31802,1.37492,1.40257,1.40387,1.35986,1.36053,1.36536,1.37836,1.37747,1.37238,1.37731,1.42684,1.39892,1.39846,1.38933,1.4102,1.38732,1.3855,1.40031,1.41005,1.4086,1.40041,1.40362,1.40152,1.39983,1.39128,1.39243,1.3826,1.3829,1.39612,1.3933,1.40158,1.3909,1.40008,1.38285,1.37501,1.36711,1.37217,1.3679,1.37926,1.38858,1.41472,1.40462,1.40362,1.39589,1.37488,1.37475,1.35353,1.35787,1.34101,1.34747,1.33997,1.33941,1.33294,1.33326,1.31846,1.31862,1.32316,1.31241,1.36072,1.36036,1.30496,1.27628,1.26235,1.27461,1.2884,1.29937,1.30409,1.27816,1.25361,1.2045,1.26829,1.23924,1.23963,1.24057,1.26388,1.20287,1.26508,1.35698,1.26146,1.25188,1.25339,1.24999,1.25189,0.00362619,1.25984,1.26009,1.26154,0.00366035,1.43077,1.26488,1.26427,1.26734,1.26866,0.00364233,1.27946,1.28151,1.28317,0.00350835,0.00363376,0.00361061,0.00336164,0.00322868,0.00360298,0.00329221,0.0038178,0.00313637,0.0037187,0.00335144,1.38576,0.0038133,0.00365268,0.00345145,1.42892,0.00335669,0.00355215,0.00330345,0.00356564,0.00364288,1.42733,0.00332311,0.0035348,0.00360034,1.42926,1.60982,1.612,0.00329449,0.00393073,0.00350059,0.00356834,0.00347672,0.00353973,1.47278,1.47162,0.0033907,0.00341372,0.0035128,0.00332152,1.49961,1.49837,0.00343609,1.5055,1.50289,1.50019,1.50525,1.50171,1.50591,1.50342,1.50291,1.50265,1.50583,1.71738,1.50651,1.51242,1.51435,1.51005,1.51698,0.00328454,0.00362936,1.52577,0.00336137,1.52702,1.53166,1.54137,0.00371353,1.54544,1.54806,1.54535,1.54411,1.54632,1.54397,1.54683,0.00372532,1.55166,0.0034226,1.5588,1.56473,1.56353,0.00353136,0.0034718,0.00360277,0.00375078,0.0033695,0.00360291,0.00356273,0.00355033,0.00368879,1.62773
0.00374593,0.00349694,0.00357623,0.871013,0.00360009,0.00347866,0.00410196,0.00322038,0.00324027,0.00348564,0.00394877,0.00351208,0.00387838,0.00327878,0.00358096,0.00348531,0.00384844,0.00354575,0.00365528,0.00377283,0.00360615,0.00347472,0.00360171,0.00347206,0.00392254,0.00327357,0.00357098,0.00360482,0.00368479,0.00354779,0.00349574,0.00361918,0.0111375,0.00329742,0.00359674,0.00330102,0.8513,0.853593,0.854646,0.0034091,0.866388,0.871154,0.00363957,0.873441,0.874002,0.875351,0.875935,0.0033938,0.00360539,0.00335447,0.0033708,0.883451,0.883087,0.8832,0.883553,0.884031,0.886972,0.888079,1.07466,0.00349698,0.00377168,0.0034701,1.15465,0.939219,0.94762,0.991455,0.960599,0.963994,0.96164,0.968421,0.964969,0.94478,0.949933,0.934932,0.936126,0.963609,0.958016,0.9846,0.987221,1.01532,1.01496,1.01181,1.01183,1.11112,1.09744,1.14118,1.17869,1.17994,1.19982,1.23604,1.23709,1.21184,1.25098,1.25149,1.23101,1.23154,1.24513,1.24684,1.26707,1.27733,1.27076,1.29074,1.29585,1.29311,1.30264,1.28475,1.30363,1.31106,1.28187,1.29526,1.30156,1.29464,1.32091,1.35115,1.35365,1.36187,1.35806,1.35218,1.35516,1.3775,1.3648,1.3793,1.38085,1.38544,1.40255,1.40832,1.41422,1.41352,1.41757,1.39294,1.38979,1.43445,1.43746,1.45028,1.40689,1.4096,1.41043,1.39759,1.38661,1.39294,1.3944,1.42932,1.44292,1.43992,1.41865,1.402,1.38091,1.39607,1.38089,1.38007,1.40929,1.37932,1.37914,1.41532,1.38443,1.40116,1.35455,1.35786,1.35831,1.35062,1.34821,1.34155,1.33738,1.34068,1.3277,1.34121,1.33785,1.32953,1.33436,1.30251,1.33411,1.2772,1.2768,1.28062,1.2879,1.29621,1.37613,1.40223,1.27091,1.27014,1.3007,1.25057,1.25103,1.21841,1.22251,1.22426,1.19085,1.19083,1.19381,1.2025,1.20645,1.25327,1.23957,1.36652,1.26129,1.36098,1.24488,1.25015,1.24826,1.25122,1.25165,0.00347957,1.26367,1.26411,1.26523,1.26675,1.2749,1.27165,1.27401,0.0033118,0.00371957,0.00349242,0.00372075,0.00329713,1.2904,1.29151,1.30715,0.00347283,0.0037826,0.00332831,0.00361153,0.00328185,1.42298,0.00355107,1.34944,0.00328207,0.00385939,0.00333445,1.47807,0.00354529,0.00372283,0.00364244,0.00373744,1.41747,1.41862,0.00341698,1.58041,0.00325155,0.00362277,0.00334041,0.00337815,0.00346717,0.0036003,0.00362239,0.00337986,0.00343641,1.47219,1.47125,0.00349896,0.00359995,1.49874,0.00357324,1.66192,1.64798,1.49882,1.50331,0.00375061,0.00348792,1.81474,1.50081,1.50087,1.49929,1.68801,1.70934,1.54815,1.50442,1.50615,1.50591,0.00387557,1.51642,1.5186,0.00354955,0.00380766,0.00351163,0.00374944,0.00368477,0.0033927,1.54238,1.5454,1.54722,1.54624,1.5413,1.54416,1.54437,1.54702,0.00374232,0.00377842,0.00366922,1.56428,1.56554,0.00379592,0.00366803,0.0034253,0.00375008,0.0038863,0.00362202,0.00347987,0.0033108,0.00368668,0.00341172
0.00342777,0.00344801,0.00348268,0.00381048,0.00362049,0.718965,0.00355958,0.00393095,0.00382114,0.00369006,0.00342961,0.00368401,0.00379533,0.00355169,0.00365673,0.00355276,0.00360515,0.00357443,0.00359545,0.00378722,0.00352646,0.00346041,0.00342557,1.38402,0.00356656,0.00371934,0.00370587,0.00339324,0.00336385,0.00375943,0.00351749,0.00369059,0.00337934,1.20079,0.00352065,0.00397417,0.902896,0.940494,0.00358626,0.00356793,0.00364547,0.00344205,0.00339972,0.871079,0.871784,0.00339144,0.869226,0.868852,0.869466,0.8697,0.00311733,0.879146,0.882233,0.960934,0.883913,0.885309,0.887393,1.34035,1.12935,1.13034,1.13769,0.930748,0.934653,0.00342395,0.954414,0.967361,0.958175,0.957676,0.955224,0.956182,1.00183,1.05701,1.02927,0.905045,0.904003,0.905449,0.906068,0.926425,0.933783,0.937885,0.922255,1.00198,1.04978,1.08631,1.11934,1.1408,1.19877,1.22708,1.19573,1.204,1.24634,1.22394,1.23733,1.32755,1.22263,1.22414,1.22553,1.26847,1.49045,1.30837,1.30602,1.29893,1.28618,1.2882,1.29666,1.29927,1.29936,1.30349,1.28881,1.28586,1.2874,1.28233,1.30554,1.30539,1.32042,1.34694,1.34742,1.35074,1.34087,1.35421,1.3448,1.35648,1.36216,1.37665,1.37501,1.37666,1.38263,1.37874,1.40411,1.41121,1.41045,1.45537,1.45131,1.40715,1.43027,1.42929,1.41459,1.41213,1.39993,1.4098,1.40561,1.4195,1.40394,1.40543,1.41056,1.40744,1.4946,1.4189,1.39538,1.39825,1.40739,1.41625,1.37314,1.38489,1.35793,1.3642,1.3357,1.33523,1.33276,1.34442,1.36276,1.33979,1.33785,1.35218,1.34868,1.34071,1.35157,1.36907,1.33209,1.31475,1.31481,1.32969,1.3268,1.32657,1.30279,1.28996,1.29771,1.2849,1.28981,1.24796,1.25246,1.29219,1.21607,1.19732,1.19731,1.20015,1.19371,1.19473,1.22647,1.21787,1.21885,1.22662,1.21559,1.27413,0.00353806,1.36176,0.00355017,1.26371,0.00362502,0.00369967,0.00321842,1.42753,1.36104,1.36539,1.42909,0.00343773,0.00330463,1.26853,1.27019,1.2744,1.271,1.36265,1.27189,1.27685,1.2776,1.27798,1.28013,1.28049,0.00357354,1.55252,0.00376634,1.47751,0.00353067,0.00366455,0.00363726,1.40927,0.00354702,1.40223,0.00342792,1.52399,0.00339004,0.00358935,0.00356917,1.5069,0.00374506,1.4399,1.44232,0.00342667,0.0035565,0.0036519,0.00354012,1.45021,0.00353924,1.45298,0.0035075,0.00332439,0.00370072,1.46447,0.00340201,0.00356404,0.0034698,0.00363165,0.00369329,1.48021,0.00320158,0.00383528,0.00332913,0.00370037,0.00389026,0.00397305,0.003674,0.00335936,1.49682,1.49661,1.50032,1.50225,0.00354892,0.00303287,1.5137,1.51214,1.51236,1.5188,1.51678,1.57441,0.0034797,0.00342297,0.00319134,1.54158,1.54465,1.54125,1.54217,1.54277,1.54122,1.54186,0.00347758,1.55162,1.55258,0.0035635,0.00371837,0.00357885,0.00354864,0.00351351,0.00354415,0.00341446,0.00317939,0.00340104,0.00356033,0.00372354,0.00343009,0.0033402
0.00362081,0.00344564,0.00354913,0.00314768,0.00395678,0.00361649,0.00372213,0.0036434,0.00341989,0.00356534,0.00358494,0.00353212,0.00335312,0.00362594,0.00375279,0.00375766,1.23824,0.0036535,1.09123,0.00334812,0.00386798,0.790267,0.00318129,0.00364079,0.00354483,0.00359425,0.00342165,0.00346637,0.00379036,0.00368593,0.00364271,0.00332746,0.00361489,0.0036817,1.58352,0.00373202,0.00369755,0.00352096,0.00357434,0.00385333,0.00364682,0.00354783,0.0032341,0.00367478,0.00358783,0.869489,0.867512,0.868826,0.869276,0.871824,0.872549,0.00327917,0.00347823,0.00357202,0.00372271,0.00348398,0.0035663,0.00359184,0.00359248,0.0033766,0.00378554,0.00369272,0.0034603,0.00372887,0.955703,0.961475,0.962825,0.962971,0.959941,0.938844,0.922589,0.919203,0.913269,0.9126,1.0325,0.890517,0.883816,0.894021,0.894453,0.907391,0.908746,1.02783,1.03405,1.10886,1.11932,1.15213,1.15751,1.17725,1.22387,1.25453,1.2272,1.22773,1.22046,1.23756,1.25275,1.23578,1.24582,1.24294,1.3828,1.43223,1.43534,1.27787,1.27832,1.29388,1.30138,1.29542,1.29625,1.33469,1.30011,1.28872,1.30011,1.28995,1.29021,1.3016,1.2892,1.30394,1.3159,1.35464,1.35688,1.37259,1.35686,1.3557,1.37014,1.35767,1.36728,1.36496,1.38481,1.3849,1.38344,1.39845,1.41735,1.42079,1.44064,1.42056,1.43768,1.43203,1.433,1.40368,1.40198,1.40856,1.40949,1.3933,1.41438,1.41407,1.40958,1.39154,1.39395,1.38562,1.38579,1.37638,1.38844,1.40673,1.3759,1.3773,1.35245,1.3501,1.34882,1.35333,1.34327,1.34463,1.34379,1.34278,1.36734,1.35611,1.34219,1.34139,1.3432,1.35568,1.35474,1.32436,1.33725,1.28971,1.28981,1.32645,1.30769,1.27851,1.27806,1.27865,1.2759,1.2637,1.26052,1.25718,1.23735,1.23643,1.18471,1.17005,1.16632,1.17503,1.16734,1.20537,1.24071,1.22242,1.22376,1.21187,1.29891,1.2785,1.24368,1.4891,1.23046,1.2664,1.23285,0.00362626,0.0034198,0.00364795,1.4486,0.00371736,0.00347272,0.00354428,0.00370318,0.00342914,0.00351191,0.00344889,0.00351597,1.27619,1.27726,1.27477,1.27583,1.27287,1.27709,0.00358027,1.46183,1.46167,0.00355949,0.00334124,0.00353696,0.00341817,1.39879,0.00361837,1.50449,0.00361161,1.43144,0.0036981,0.00360442,0.0035558,0.00369785,0.00349377,0.00344643,0.00354508,1.53336,0.00317309,0.00352708,0.00336459,0.00359638,0.00355552,0.0038413,0.00343186,0.00360421,0.00344733,0.00358692,0.00364825,0.00359627,0.00370038,0.00355166,0.00331606,0.00378028,0.00347485,0.00315219,0.00354594,0.00352923,0.00374978,1.4882,1.48768,0.0031947,0.00328674,0.00354704,0.00362047,0.00373022,0.00331233,0.00372778,0.00336854,0.00369914,0.00361913,0.00315463,0.00351374,0.00351315,0.00355919,0.00355247,0.00357865,1.53842,1.53773,1.5395,1.54155,1.54248,0.00351336,0.00333493,1.55555,0.00343255,1.5613,1.55883,0.00360596,1.57277,0.00351518,0.00359929,0.00384025,0.00361649,0.00371319,0.00367765,0.00367976,0.0036748,0.00367115
0.00346553,0.00390833,0.00350515,0.00345515,0.00351769,0.00369141,0.00387253,0.00385067,0.00361271,0.00341355,0.0033484,0.00357045,0.0033689,0.00374706,0.00359665,0.00360381,0.00321268,0.00386018,0.00350811,0.00377718,0.00342424,0.780208,0.781829,0.0033439,0.00338562,0.00351053,0.00352549,0.00383459,0.00360765,0.00338482,0.00340142,0.00380348,0.0036128,0.00329284,0.00337846,0.830096,0.83897,0.00355849,0.00339365,0.00401897,0.00360004,0.00357307,0.00338767,0.00327912,0.00349199,0.00370592,0.00327352,0.00339593,0.865848,0.00358135,0.00328258,0.00373825,0.00320259,0.00372439,0.0033968,0.00345956,0.00331986,0.0036724,0.0035841,0.00359103,0.00340353,0.00331287,0.00343454,0.00319967,0.0032958,0.957112,0.960976,0.961698,0.998548,1.02031,0.916881,0.917072,0.922119,0.922079,0.91588,0.908885,0.918344,0.902365,0.926538,0.913021,0.932923,0.967532,1.00958,1.06854,1.14208,1.13995,1.14295,1.1841,1.20475,1.20453,1.20465,1.23777,1.2271,1.22648,1.22628,1.22602,1.23691,1.26322,1.24827,1.25227,1.2623,1.30334,1.27441,1.27542,1.29889,1.29947,1.29997,1.36124,1.35899,1.29068,1.29192,1.2749,1.27846,1.27768,1.31206,1.29331,1.31018,1.33361,1.3659,1.37194,1.38101,1.35637,1.37558,1.37444,1.3609,1.37355,1.37081,1.38306,1.38939,1.38877,1.42017,1.41731,1.48051,1.42712,1.40585,1.40575,1.40412,1.41896,1.40891,1.39527,1.40362,1.41387,1.41511,1.42826,1.39237,1.38833,1.38214,1.39204,1.36397,1.35241,1.35474,1.3496,1.3491,1.34448,1.34421,1.34912,1.35099,1.34756,1.34634,1.33709,1.35465,1.34786,1.34711,1.33272,1.33252,1.33212,1.32476,1.32132,1.32098,1.32677,1.34035,1.34432,1.36157,1.29118,1.29954,1.26818,1.27449,1.27468,1.28511,1.23175,1.24155,1.21511,1.20564,1.21345,1.19987,1.17094,1.17376,1.16997,1.16264,1.16338,1.20188,1.24037,1.23141,1.20236,1.26754,1.27201,1.22869,1.22389,0.00338843,0.00344664,0.00344275,0.00325823,1.61597,1.2293,1.67685,0.00372923,0.00341383,0.00409048,0.00352903,0.00343288,0.00340116,0.00369901,0.00339087,0.00365223,1.27351,1.27266,1.27422,1.27502,0.00363128,1.2808,0.00357975,1.49196,0.00344274,0.00352024,0.00349093,0.00358593,0.00318319,0.00363983,0.0034031,0.00401259,0.00362806,0.00346452,0.00346876,0.00349159,0.00358791,0.0036732,0.00345917,0.0036911,0.00333658,0.00396323,1.47547,0.00360511,0.00350016,0.00381058,0.00344199,0.00356264,0.00345911,0.00356661,0.00325436,0.00351823,0.00338612,1.48193,0.00348688,0.00349873,0.00351287,1.46884,0.00360831,0.00338994,0.00341886,0.00348662,0.00341684,1.48295,0.00332119,0.00355675,1.49904,1.49768,1.50197,0.00349391,1.50688,0.00388305,0.00353604,0.00384198,0.00352389,0.00341019,0.00354517,0.00380224,1.52556,1.64789,0.00353189,0.00373173,0.00365772,0.00374801,0.00335465,0.00366625,1.55552,1.55354,0.00334987,0.00349291,0.00347837,0.00359755,0.00352978,0.00354583,0.0034661,0.00347792,0.0033911,0.00356428,0.00353728,0.00368373,1.61824,1.62281
0.00344239,0.00362043,0.00346555,0.00351287,0.00374067,0.00319684,0.00361262,0.00375528,0.00368719,0.00355732,0.00343849,0.00349411,1.35038,0.00338048,0.00353193,0.003359,0.00385225,0.00363083,0.00356424,0.00353724,0.00346701,0.00359496,0.7782,0.00351718,0.00363061,0.00363747,0.0038455,0.00333305,0.00349145,0.00339732,0.00353991,0.00355107,0.00375674,0.00325569,0.00336345,0.0037694,0.00336401,0.00326109,0.00365933,0.0035189,0.00413535,0.00343796,0.00346499,0.00367536,0.00369505,0.00365726,0.00348527,0.00367861,0.00329265,0.00366942,0.00367352,0.00349446,0.00381283,0.00343671,0.883938,0.886731,0.897743,0.00373408,1.09077,0.00372523,0.00367201,0.00362583,0.0035988,0.00345444,1.05321,0.956554,0.96381,0.963102,0.988308,1.00625,0.935948,0.932663,0.931965,0.912346,0.984217,0.94065,0.93594,0.912839,0.918358,0.930227,0.956486,0.983552,0.996528,1.0155,1.13801,1.14976,1.23962,1.2311,1.22703,1.25801,1.2444,1.27732,1.24294,1.2426,1.24032,1.23473,1.24095,1.24327,1.23114,1.24065,1.2221,1.27024,1.29136,1.26815,1.28756,1.31559,1.31254,1.31148,1.30483,1.30545,1.29934,1.32383,1.35619,1.31587,1.31068,1.30901,1.31038,1.31189,1.31882,1.31918,1.34998,1.32171,1.36393,1.34971,1.35076,1.3506,1.37179,1.3781,1.3733,1.45475,1.40831,1.41293,1.46748,1.47309,1.47141,1.47198,1.40926,1.39507,1.41541,1.3802,1.40914,1.39155,1.39162,1.39344,1.43028,1.42726,1.42564,1.45668,1.39484,1.35839,1.32821,1.35447,1.33316,1.34055,1.34246,1.34127,1.34243,1.34389,1.34513,1.35174,1.37585,1.37772,1.36571,1.3495,1.33881,1.34037,1.34422,1.33556,1.3166,1.32993,1.32959,1.34637,1.30143,1.28211,1.28373,1.24716,1.24611,1.24699,1.24951,1.24917,1.24105,1.24349,1.23682,1.21445,1.21571,1.18878,1.1914,1.19108,1.19173,1.16544,1.18768,1.18275,1.18475,1.25231,1.19454,1.27213,1.20257,1.20443,1.28227,0.00355082,0.00359756,0.00350268,1.32248,0.00344537,0.00373148,0.00347897,0.00350226,0.00390316,0.00350265,0.00319141,0.00397071,0.003606,0.00357869,0.00370019,1.26163,0.00347408,0.00351214,0.00343276,1.27263,0.00354097,0.00362837,0.00342624,0.00328138,1.29428,0.00349834,1.57845,1.57944,0.00321915,0.0038333,0.00352301,0.00370246,0.00345091,0.00365668,0.00332964,1.38396,0.00359535,0.0036217,0.00351374,0.00384701,0.00342069,0.00345573,0.00357156,0.00365108,0.00358378,0.00336016,0.00352776,1.46091,0.00360119,0.00350397,0.00344187,0.0034029,1.45553,0.00370151,0.00373298,1.46013,0.00359842,0.00331544,0.00349285,0.00349597,0.00357864,0.00363696,0.0035933,1.49347,1.49287,1.49731,1.49934,1.49891,1.50033,1.50017,0.00322489,1.51284,0.00368897,0.00344594,0.00340854,0.00339811,0.00340254,0.00363594,1.52498,1.5256,0.00340229,1.63183,0.00346718,0.00345908,0.00357014,1.55859,1.55714,0.00362273,0.00365583,1.70506,1.73488,0.00344877,0.00355661,0.00349057,0.00340859,0.00329047,0.00336237,1.61483,1.61499,1.61575,1.61754
0.0035756,0.00354127,0.0034736,0.00347244,0.0035098,0.00358464,0.00368011,0.00410285,0.00383732,0.00346083,0.00364493,1.27188,0.00356597,0.00350522,0.00358683,0.00355137,0.00344659,0.00364737,0.00344325,0.00336617,0.00346678,0.0034575,0.00340393,0.003688,0.766302,0.769216,0.769189,0.769954,0.00355028,0.00353481,0.00351189,0.791625,0.00342443,0.00336711,0.0030945,0.00356819,0.00362299,0.928811,0.0034253,0.00328804,0.00362292,0.00386087,0.00335269,0.00378168,0.00343686,0.00377992,0.00366709,0.00376319,0.00391378,0.00333437,0.00335041,0.00364845,0.00378442,0.00334636,0.00339549,0.00347668,0.00349449,1.10331,1.10531,1.09979,0.00366539,0.00390793,0.0035467,0.00382883,0.00364161,0.963892,0.964601,0.966362,0.968078,1.01243,0.943669,0.967313,0.927597,0.929238,0.928803,1.01971,0.937472,0.926678,0.929705,0.922307,0.923487,0.925797,0.94912,0.967878,0.991762,0.999015,1.18388,1.23308,1.23619,1.24156,1.25875,1.25717,1.29548,1.29716,1.24338,1.2345,1.24305,1.24352,1.24463,1.22983,1.2914,1.28911,1.31748,1.2845,1.28391,1.28708,1.29703,1.2974,1.29283,1.30552,1.30543,1.31886,1.33366,1.33516,1.29851,1.29242,1.29901,1.31656,1.30829,1.32277,1.30896,1.30177,1.32705,1.31981,1.36807,1.37101,1.36055,1.36146,1.3815,1.39662,1.38707,1.46541,1.45848,1.45759,1.46,1.40389,1.39284,1.38679,1.38659,1.39621,1.38735,1.414,1.39183,1.40742,1.40904,1.42674,1.54854,1.43369,1.41073,1.40125,1.36804,1.33607,1.33689,1.33631,1.35908,1.36051,1.35918,1.36841,1.33725,1.33607,1.33988,1.35329,1.34325,1.35429,1.33044,1.33136,1.34667,1.34798,1.33355,1.33638,1.3311,1.31358,1.31042,1.38224,1.28903,1.28919,1.28927,1.28424,1.26075,1.24646,1.3019,1.2192,1.20381,1.20099,1.20206,1.17096,1.17571,1.17532,1.17055,1.16935,1.16933,1.17249,1.17375,1.18556,1.18492,1.1903,1.19514,1.19616,1.19519,1.20298,1.20197,0.00359551,0.00336161,1.33352,0.0037256,1.21254,1.21358,1.21862,0.00367987,0.00351956,0.00346423,1.44769,1.45064,0.00335987,0.00348353,0.00358429,1.62411,1.38127,0.00358489,0.00357533,0.00355902,0.00352764,0.00372134,0.00377802,0.00338558,0.0036816,0.00350853,1.48656,0.00346782,0.0036177,0.00350663,0.003844,0.00350152,0.00350379,0.00355738,1.37428,0.00340469,0.00378243,0.00350642,0.00345311,0.00355149,0.00338298,0.00362496,0.00352995,0.00319957,0.00346025,1.47089,0.0034363,0.0035977,0.003515,0.00357126,1.45088,1.44773,1.45506,1.46502,0.00363577,0.00350993,0.00377822,0.00349757,1.4784,0.00343754,0.00347498,0.00359918,0.00367686,1.49519,1.49416,1.49891,1.4973,0.00351157,1.50361,1.50478,1.50635,1.50909,1.50788,1.5063,1.51308,0.00353026,0.00337585,0.00366042,0.0037223,0.00326697,0.00348755,0.00359004,1.55649,1.55718,1.55513,1.55419,0.00383484,0.00366956,0.00378142,0.00367042,0.00348625,0.00376976,0.00372916,0.003435,0.00354474,1.61741,1.61758,1.62197,1.62027
0.0036077,0.00346985,0.00368785,0.0030619,0.00397934,0.00337965,0.0109548,0.00344136,0.00375757,0.00339985,0.00357868,0.00335739,0.00368464,0.00347332,0.00325078,0.0035623,0.0039297,0.00347362,0.00349956,0.00334863,0.00368452,0.00338539,0.00369251,0.00334611,0.764252,0.765805,0.767223,0.00342955,0.00358027,0.00331949,0.00351774,0.0032711,0.00347371,0.00341021,0.00351748,0.0034498,0.00369165,0.00349157,0.00371866,0.00345612,0.00337562,0.814999,0.81678,0.00344818,0.00374154,0.00350913,0.00383725,0.003577,0.00377818,0.00361391,0.00364033,0.00339511,0.00347701,0.878034,0.00353182,0.00370617,1.10428,0.00351073,1.20578,0.00332668,0.00372855,0.00321953,0.00326653,0.00344246,0.960256,0.00322288,0.965407,0.974263,0.976569,0.977378,0.957062,1.03149,0.92333,0.924828,0.931116,0.955613,0.928823,0.928928,0.928883,0.940408,0.936303,0.928399,0.926313,0.94991,0.919034,0.919879,1.2264,1.20963,1.19741,1.19984,1.31053,1.31028,1.42331,1.2639,1.28736,1.23107,1.22655,1.22634,1.189,1.2193,1.2755,1.30816,1.29618,1.29292,1.29479,1.29718,1.29827,1.27568,1.27099,1.27841,1.31659,1.32966,1.33797,1.33676,1.32881,1.33216,1.28748,1.28752,1.31135,1.32046,1.35636,1.30944,1.31628,1.32934,1.32675,1.33588,1.35642,1.36713,1.3876,1.3738,1.39294,1.40082,1.41657,1.39736,1.38861,1.40306,1.4009,1.38116,1.38292,1.38538,1.37865,1.41347,1.40526,1.39429,1.38901,1.40716,1.41046,1.4131,1.41634,1.50399,1.44209,1.38963,1.37875,1.37384,1.34622,1.36265,1.36166,1.36068,1.35852,1.36137,1.35071,1.35764,1.34415,1.34321,1.32907,1.32911,1.32882,1.32787,1.32953,1.32394,1.33823,1.31622,1.27834,1.27498,1.26896,1.26945,1.24934,1.2307,1.23932,1.23944,1.24387,1.20687,1.20415,1.21628,1.19903,1.20347,1.19205,1.2051,1.19397,1.14862,1.14942,1.17211,1.19184,1.19205,1.18916,1.18725,1.19126,1.19178,1.19029,1.1913,1.19201,1.19332,1.26868,0.00333377,0.00365153,0.00316176,0.00374409,0.00348926,0.00379945,0.003289,0.00348699,0.00340595,0.00372016,0.00346061,1.5771,1.38763,1.3231,0.00364212,1.46877,0.00335086,0.00345755,0.00342736,0.00364944,0.00342113,0.00362408,1.49294,1.29803,1.29929,0.00378468,0.00334908,0.00382441,0.00331782,0.00371563,0.00349693,0.00326511,0.00371918,0.00384004,0.00347823,0.00349611,0.00366136,0.00374801,0.00355435,0.00373179,0.00358468,0.00375982,1.51351,0.00350457,0.00335883,0.003516,0.0034695,1.43838,0.00340464,0.0035391,1.44689,0.00339021,0.00371361,0.00393107,0.00374578,0.00373745,0.00326965,0.003828,0.0034709,0.00349232,1.78115,1.49224,0.00330349,0.00371502,0.00329179,0.0035715,0.00337191,0.00358033,0.00339321,1.51102,1.50944,1.50723,0.00323211,1.51914,0.00356704,1.53036,0.00338172,0.00354908,0.00356436,0.00388312,0.00330901,1.56153,1.55907,0.00351505,0.00339792,0.00403172,0.00362149,0.00359424,0.00331599,0.00334626,0.00361082,0.00370587,0.00305502,0.00339878,1.61766,1.61746,1.61815
0.00362364,0.00362538,0.0033103,0.00330107,0.00330564,0.0033587,0.00336283,0.00350214,0.00332515,0.00392299,0.0035238,0.00349213,0.00335631,1.06018,0.949554,1.01926,0.00329404,0.0031911,0.00346478,0.00341347,0.00342842,0.00338614,0.00356725,0.00369533,0.00363237,0.00365789,0.00356068,0.00341761,0.00336154,0.768271,1.20949,0.76863,0.770659,0.772617,0.772929,0.765857,0.00355987,0.00342532,0.00335148,0.003729,0.00342012,0.00352811,0.00354513,0.00365794,0.00379255,0.00348963,0.00371422,0.00344131,0.0032269,0.00357616,0.00355283,0.00366495,0.00349999,0.00375081,0.00338417,0.862776,1.13972,0.00389214,0.00367058,0.00351464,0.00365931,0.921239,0.00367342,0.00373541,0.00360125,0.00382261,0.00354442,1.0398,1.06497,0.976634,1.00678,0.973397,1.01153,1.00541,0.92826,0.922956,0.930164,0.918924,0.915927,0.940453,0.920216,0.923456,0.905786,0.907914,0.911311,0.962863,0.951225,1.18628,1.20555,1.20144,1.20055,1.2057,1.20838,1.21695,1.23076,1.23884,1.21581,1.22224,1.22652,1.24189,1.25599,1.25586,1.26482,1.27563,1.28928,1.29831,1.28881,1.28791,1.28954,1.27438,1.27601,1.33638,1.3415,1.31535,1.32685,1.3118,1.31173,1.29931,1.30891,1.30593,1.29576,1.31331,1.30998,1.31905,1.34656,1.34624,1.37446,1.38334,1.36516,1.3772,1.51221,1.39801,1.41064,1.4103,1.41246,1.40445,1.38866,1.38567,1.39373,1.38593,1.3855,1.37859,1.38239,1.38247,1.40606,1.41014,1.41328,1.40478,1.41327,1.37911,1.38439,1.37836,1.38437,1.38052,1.37796,1.36278,1.3634,1.35656,1.36167,1.39342,1.37477,1.32128,1.31717,1.31597,1.3294,1.3125,1.32715,1.37401,1.326,1.31984,1.31085,1.30852,1.28551,1.29041,1.29072,1.24493,1.24655,1.24107,1.2429,1.22312,1.23143,1.27891,1.20413,1.23013,1.20386,1.20763,1.15475,1.15638,1.15864,1.13438,1.141,1.14443,1.15081,1.16366,1.18001,1.18082,1.18345,1.18464,1.21139,0.00369515,1.19216,1.18815,0.00345899,1.26799,1.55479,0.00365139,0.00344474,1.2986,0.00313263,0.00339726,0.00363755,1.39278,1.36117,1.57882,1.39556,0.00352654,0.00368295,1.40915,0.00368105,0.0037281,0.0033319,0.00360672,0.00340172,1.42445,0.00374396,1.4872,0.00344863,0.00351076,0.00326365,0.0034276,0.00332787,0.00387597,0.0032448,0.00352253,0.00354425,1.34101,0.00359969,0.00358483,0.00332469,0.00387373,0.00346451,0.00391536,0.00349203,0.00383454,0.00374157,1.46125,0.00343649,0.00347792,0.00320567,0.00350041,1.43318,1.43568,0.00330517,1.48552,0.00345683,0.00367247,0.0032021,0.00358844,0.00332011,0.00365907,0.00344307,0.00318208,0.00356806,0.00339517,1.48314,0.00375584,0.00326017,1.49467,0.00337516,0.00369969,0.0035553,0.00389289,1.51029,1.51658,0.00353649,1.51813,0.00324677,0.00350664,1.53766,1.53809,0.00357292,0.00345997,0.00345186,0.00352574,0.00349094,0.00335872,0.00351812,0.00341899,0.00360295,1.58257,0.00332349,0.00355625,0.00341804,1.60237,1.60643,1.60718,1.61584,0.00347414,1.61743,1.61776
0.00379526,0.00326313,0.00353159,0.00345909,0.00347261,0.00346369,0.00317665,0.0033268,0.00354438,0.00353027,0.00330326,0.993557,0.00355499,0.00335773,0.00332667,0.00354688,0.00378383,0.00359621,0.0035775,0.00346457,0.00344442,0.00348761,0.00354537,1.28823,0.00338773,0.00340825,0.00353803,0.00338033,0.00366848,0.00347731,0.00350404,0.00334341,0.77014,0.0036752,0.00364072,0.00327719,0.003799,0.0033936,0.789313,0.00323923,0.00359244,0.00315149,0.00327685,0.00366007,0.816004,0.00356361,0.00323887,0.00341317,0.00367332,0.00335373,0.00335733,0.00350303,0.00351149,0.0035064,0.880339,0.878247,0.00329302,0.00356881,0.00345435,0.00358031,0.00350831,0.00337741,0.00331006,0.00351369,0.939031,0.957232,0.00353687,0.990787,0.960131,0.960073,0.960124,0.994792,0.935148,0.935709,0.934877,0.935489,0.925389,0.918966,0.921732,0.932624,0.931889,0.994292,0.923918,0.942358,0.90968,0.953696,1.03936,1.02441,1.13689,1.13942,1.13879,1.15208,1.15521,1.18926,1.20892,1.2195,1.24587,1.24422,1.23406,1.2599,1.25037,1.2578,1.27229,1.28538,1.29497,1.3068,1.29214,1.29853,1.28725,1.30537,1.27122,1.30846,1.31153,1.30381,1.30527,1.30745,1.29762,1.29811,1.29659,1.29875,1.29384,1.31797,1.33146,1.33395,1.33497,1.34381,1.37607,1.3693,1.37099,1.52354,1.52242,1.3847,1.39889,1.40197,1.39329,1.40202,1.3934,1.428,1.38629,1.38641,1.3751,1.37479,1.3713,1.38152,1.36733,1.3759,1.47411,1.39097,1.49478,1.38796,1.3909,1.37781,1.37895,1.38546,1.37391,1.34042,1.33121,1.33362,1.35379,1.33333,1.34351,1.35519,1.35162,1.3291,1.33288,1.3233,1.33032,1.37466,1.3159,1.31541,1.33455,1.302,1.30158,1.26339,1.24625,1.2605,1.25208,1.24757,1.27439,1.27411,1.26119,1.19683,1.19801,1.22348,1.22122,1.16002,1.17435,1.15581,1.16044,1.16577,1.11179,1.13334,1.1398,1.11922,1.13103,1.16443,1.17028,1.22307,1.18432,1.17501,0.00334626,0.00346672,0.00360727,1.17187,1.17426,0.00335746,0.00357198,0.00354648,1.41475,0.00355491,1.23935,1.30972,0.00337354,0.00387805,0.00342786,0.00340441,0.00349069,0.00336659,0.00341915,0.00369038,0.00356398,0.00368057,0.00335603,1.57975,1.52173,0.00347333,0.00364716,0.00344165,0.00357991,0.00356778,1.47202,1.50571,0.0034792,0.00340973,1.33368,0.00354573,0.00362736,0.00335557,0.00363365,1.35489,0.00370012,0.00357137,0.00345697,0.00343331,0.00344048,0.00346474,0.00351516,0.0035691,0.00337712,0.00330821,0.00339421,0.00329456,0.00323477,0.00325391,0.0035279,0.0033267,0.00324525,0.00385079,0.00334074,0.00338195,0.00376293,0.00338656,0.00316566,0.00342213,0.00379511,0.00331111,0.00326261,0.00352275,0.00325339,0.00340581,0.00328332,0.00356496,1.5111,1.51644,1.5171,0.0033504,0.00372903,0.0037501,0.00324542,0.00340808,0.00360229,0.00330574,0.00366298,0.00344986,0.00365803,0.00351056,0.00365186,1.59965,1.59229,0.00367991,0.0034119,0.00348374,0.00324491,0.00340456,1.60745,0.00315508,0.00342178,1.61724,1.61687,1.61918
0.00318111,0.00357802,0.00353289,0.593926,0.615219,0.591093,0.00346781,0.00368764,0.00321593,0.00362117,0.00348009,0.00366034,0.00347235,0.00362967,0.00328094,0.00354049,0.00333515,0.00354881,0.0036047,0.0037703,0.00349258,0.00358248,0.00321353,0.00362127,0.00381249,0.00325922,0.00339238,0.807266,0.808909,0.810528,0.00306984,0.76522,0.00338528,0.00364368,0.00364847,0.0035474,0.0035446,0.00356942,0.00339634,0.00307719,0.00337339,0.790837,0.0035438,0.00358448,0.00318374,0.00380151,0.00343252,0.00351635,0.00352304,0.816859,0.00357627,0.00308705,0.00342245,0.00359382,0.00331095,0.00351288,0.00320747,0.00342623,0.00335527,0.00348224,0.00358352,0.00369076,0.00340058,0.00358073,0.00315579,0.00362392,0.937562,1.03352,0.925644,1.09247,0.92674,0.916872,0.914929,0.973973,0.939024,0.923021,0.924408,0.923805,0.925059,0.936695,0.911847,0.91017,0.940792,0.936435,0.918987,0.946627,0.984683,0.953094,1.10773,1.12638,1.11458,1.12314,1.12647,1.15152,1.19519,1.2128,1.23784,1.24688,1.248,1.24484,1.26205,1.26332,1.24169,1.26936,1.281,1.30707,1.3012,1.28601,1.28728,1.30974,1.3024,1.30777,1.31457,1.32447,1.32429,1.33027,1.30924,1.30935,1.31051,1.30161,1.30633,1.30937,1.3115,1.31556,1.32886,1.34882,1.36419,1.36326,1.35693,1.36147,1.35773,1.36459,1.37155,1.51306,1.38801,1.38829,1.39507,1.37319,1.37298,1.38601,1.38156,1.38312,1.35648,1.35612,1.35312,1.37408,1.42686,1.43156,1.37562,1.37484,1.37481,1.38068,1.38428,1.37288,1.35404,1.41889,1.41572,1.42702,1.3686,1.34026,1.35134,1.33862,1.32734,1.34271,1.32367,1.33497,1.30069,1.30187,1.31204,1.34454,1.30503,1.31876,1.27243,1.28753,1.27361,1.25812,1.26082,1.23617,1.2348,1.23423,1.23605,1.18804,1.21248,1.17627,1.17224,1.14633,1.14691,1.1545,1.09307,1.09236,1.09191,1.08868,1.10129,1.10364,1.1259,1.15161,1.15168,1.15012,1.1494,1.15022,0.0036027,1.17412,0.00325215,0.00375695,1.16137,1.16737,0.00341076,0.00334188,0.00350071,0.00366044,0.00339918,0.00380363,1.30167,1.26654,0.00343642,0.00355845,0.00341627,0.00357074,0.00326986,0.00355969,1.22574,0.00368344,0.00332611,0.00353779,0.00350082,1.28971,0.00349172,0.00367163,0.00345366,0.00374042,0.00354442,0.00360724,0.00341382,0.00364561,0.00339688,0.00351017,0.00351563,0.00340835,0.00345128,0.00366922,0.00332781,0.00335379,0.00329891,0.0035884,0.00327588,0.00349417,0.00342796,0.00375614,0.00326558,0.00364292,0.003056,0.00386373,0.00368057,0.00388643,0.00346531,0.00355517,0.00344317,0.00359831,0.00325885,0.00324291,0.00330328,0.00354182,0.00336457,0.00329102,0.0033453,0.00347681,0.00343324,0.00352686,0.00338451,0.0035465,0.00354483,0.00347826,0.00338436,0.00332189,0.0036166,0.00395382,0.00340491,0.0039431,0.00345713,0.00346429,0.00358065,0.00343604,0.00312655,0.00355902,0.00333892,0.00339378,0.00350688,0.00346738,1.58199,0.00394576,0.00334919,0.00372557,0.00338614,0.00372679,0.00356177,0.00344654,0.00356617,1.61619,1.61574,1.62257
0.00334876,0.00370176,0.00334741,0.00360081,0.00346247,0.00317985,0.00343032,0.00363013,0.00340255,0.00365729,0.00375574,0.00366853,0.0035684,0.00339377,0.00310962,0.00371044,0.0034454,0.00345305,0.0034269,0.00342677,0.00346527,0.00326775,0.00356837,0.00336494,0.00376939,0.00321868,0.00367959,0.00351252,0.874024,0.00370113,0.00303454,0.00320696,0.00322373,0.00344484,0.00348385,0.00333486,0.00355808,0.00316547,0.00350234,0.784345,0.785393,0.78669,0.00362714,0.00351246,0.0033171,0.798783,0.800581,0.801699,0.802366,0.00350455,0.00328382,0.00339587,0.0036967,0.00356627,0.00357324,0.00340341,0.00378657,0.00379558,0.00348413,0.00343472,0.00362285,0.00360217,0.00356322,0.00346394,0.982943,0.910787,0.975486,1.06046,0.918849,1.13257,0.907534,0.906224,0.89751,0.905628,0.911563,0.911691,0.926958,0.919008,0.919928,0.919319,0.909545,0.900564,0.917172,0.918642,0.914726,0.94957,0.973956,1.06885,1.06108,1.07172,1.08795,1.10973,1.1209,1.16638,1.22645,1.22994,1.23061,1.23242,1.25699,1.25567,1.26346,1.27759,1.39612,1.38959,1.31918,1.30174,1.30199,1.3025,1.31498,1.31637,1.31657,1.31908,1.30565,1.3156,1.30983,1.4028,1.31868,1.3198,1.36038,1.32931,1.32793,1.33259,1.33283,1.32729,1.34779,1.35593,1.36824,1.37022,1.36089,1.36059,1.36459,1.3705,1.36137,1.38167,1.38475,1.38117,1.38657,1.39082,1.36754,1.36857,1.37085,1.37311,1.35103,1.35619,1.3547,1.35828,1.34287,1.34212,1.3823,1.37797,1.37846,1.37926,1.36906,1.37109,1.36724,1.37772,1.3782,1.40576,1.40576,1.40615,1.368,1.33118,1.34026,1.33847,1.33993,1.33354,1.3408,1.3206,1.29709,1.25401,1.25394,1.29503,1.29487,1.25032,1.25217,1.25387,1.22007,1.22589,1.21196,1.21295,1.18894,1.19224,1.19307,1.16751,1.21867,1.12172,1.12248,1.12252,1.13933,1.10978,1.09113,1.09194,1.10063,1.13118,1.13236,1.18071,1.15989,1.14903,1.14932,0.00338422,1.15708,0.00339371,1.15094,1.14741,1.1509,0.00321432,0.00364477,1.15699,1.15654,0.00372645,1.36812,0.0033935,0.00359335,0.00364132,1.32388,1.32454,1.34394,1.43531,1.46819,1.20194,1.49632,0.00350647,0.00335715,0.00338137,0.00365852,1.27518,0.00373586,0.00345475,0.00328636,0.00333846,0.00351451,1.2745,1.2758,1.2795,1.38131,0.00344552,0.00387269,0.00357022,0.00377188,0.00376807,0.00346452,0.00347255,0.00350009,0.0034344,0.0036962,0.00346513,0.0034995,0.0034251,0.00368834,0.00359654,0.00363262,0.00339976,0.00341094,0.0033825,0.00313597,0.00361355,0.00357177,0.00349181,0.00343103,0.00343363,1.52338,0.00344757,0.0036175,0.00377228,0.00341821,0.00348863,0.0036544,0.00325013,0.00338137,0.00349436,0.0032945,0.00365094,0.00358583,0.00364837,0.00352293,0.0034262,0.00334938,0.00358283,0.00335859,0.00325551,0.00349071,0.00354035,0.00373759,0.00358102,0.00343115,0.00363304,0.00312009,0.00340512,0.00361989,0.00324235,0.00354733,0.00352872,1.60355,0.00334439,1.61012,1.60813,0.00371742,0.00350765,0.00363204,0.00330024
0.00346742,0.00345666,0.00332623,0.00353456,0.00338381,0.00367659,0.00338055,0.00351628,0.62682,0.650249,0.654191,0.00350493,0.00332349,0.00370265,0.00314661,0.0036873,0.00331688,0.00355759,0.00340712,0.00350203,0.00344815,0.00343742,0.00359395,0.00347238,0.00324067,0.00322129,0.00349698,0.962039,0.0034178,0.0034951,0.00343338,0.00358544,0.00338451,0.00334323,0.00359931,0.00352144,0.00356761,0.00353176,0.00350864,0.00349074,0.781747,0.783721,0.785193,0.787996,0.78847,0.00338667,0.00337444,0.0034615,0.00361195,0.804257,0.00340789,0.00356199,0.00354614,0.00330368,0.0033146,0.00335023,0.00316162,0.00365808,0.00325799,0.00342069,0.00321599,1.16042,0.00382716,0.952012,0.960255,0.902434,0.902232,1.06356,0.892366,0.898814,0.900991,0.901036,0.895489,0.930136,0.922714,0.923237,0.896761,0.922861,0.908031,0.89201,0.887786,0.901693,0.901167,0.910844,0.897996,0.922708,0.96095,0.987993,1.02338,1.0261,1.30569,1.29349,1.14638,1.43975,1.17466,1.21294,1.21235,1.23285,1.26863,1.27267,1.27543,1.27694,1.29227,1.29815,1.30548,1.3125,1.28867,1.31308,1.30616,1.32607,1.3392,1.32364,1.31038,1.31765,1.33705,1.32703,1.32761,1.38432,1.38012,1.37674,1.33324,1.32474,1.33859,1.35828,1.35799,1.36958,1.36505,1.36466,1.36713,1.36778,1.36699,1.36782,1.37931,1.36552,1.37618,1.37912,1.40956,1.37104,1.36905,1.36398,1.36096,1.37542,1.33301,1.34336,1.38783,1.36507,1.35331,1.34307,1.37153,1.54115,1.52796,1.35291,1.35343,1.37169,1.36141,1.37624,1.37683,1.40798,1.40833,1.48306,1.38648,1.32139,1.32367,1.32412,1.32221,1.31935,1.3137,1.30334,1.31017,1.27237,1.27471,1.28562,1.23399,1.23293,1.20748,1.20535,1.19492,1.19549,1.26926,1.1912,1.19661,1.19915,1.16409,1.16429,1.1403,1.13941,1.13753,1.13428,1.13285,1.12584,1.12701,1.10854,1.10491,1.08484,1.16446,1.15001,1.14548,1.14936,1.14447,0.00340181,1.14622,1.14403,0.00368145,0.00371012,0.00328296,0.00361223,0.00320103,0.00369203,0.00378765,0.00320033,0.00360978,0.00325939,0.00349245,0.00334146,0.00353168,0.00329414,0.00364328,0.00332472,0.00314345,0.00341924,0.00327367,1.46392,0.0036045,0.00359562,0.00338509,1.3475,0.00331589,1.44553,0.00337477,0.00343756,0.00369121,0.00334705,0.00351349,1.34457,0.00342007,0.00333815,1.28714,0.0035331,0.00324547,0.00363957,0.00343704,0.00350894,0.00353152,0.0036567,0.0033744,0.00366616,0.00346896,0.00365884,0.00330053,0.00365002,0.00334374,0.00373114,0.00359453,0.00313512,0.0034337,0.00388757,0.00344315,1.47869,0.00369989,0.0034383,0.00334106,0.00351723,0.00343656,0.00337808,0.00326199,0.00364839,0.00340187,0.00353998,0.00346935,0.00361049,0.00340695,0.00363173,0.00357091,0.00377884,0.00358284,0.00358326,0.0034231,0.00336528,0.00318698,0.00335229,0.00332762,0.00310838,0.00357525,0.0035652,0.00355899,0.00332005,0.0035273,0.00346656,0.0034906,0.00334594,0.00351742,0.00359914,0.00376077,0.00357556,0.00362863,0.00341731,0.0033882,0.00327428,0.00335655,0.0034197
0.00363906,0.0032483,0.00373398,0.003334,0.0035575,0.00304482,0.00370336,0.00377715,0.62545,0.00324248,0.00360913,0.00316615,0.00359495,0.00340988,0.00325566,0.00330516,0.00316415,0.00342019,0.00341733,0.00343895,0.00379154,0.00337728,0.00356137,0.00332472,0.00361696,0.00334987,0.00385068,0.00337705,0.00342639,0.00337859,0.0037773,0.00315742,0.00352822,0.00359863,0.00376776,0.00349288,0.00362803,0.0032566,0.00370817,0.00319162,0.0035351,0.00309533,0.0033909,0.00331911,0.00353411,0.0031869,0.804921,0.805196,0.803957,0.80314,0.804644,0.00349612,0.00363866,0.00345807,0.00370432,0.0032539,0.820341,0.00306596,0.968085,0.967952,0.986775,0.00317561,0.0034178,0.00335914,0.00336454,0.88576,0.887807,0.889143,0.890551,0.888265,0.890464,0.890687,0.947487,0.961328,0.950202,0.898113,0.898486,0.898272,0.879872,0.885265,0.881914,0.880795,0.905737,0.900608,0.888844,0.925054,0.957778,0.960684,1.01045,1.35292,1.31608,1.32701,1.35824,1.28861,1.38205,1.38169,1.2202,1.1991,1.26156,1.25591,1.25407,1.25199,1.27193,1.29239,1.30889,1.30846,1.31233,1.31326,1.30841,1.32218,1.32343,1.35325,1.30658,1.31571,1.31586,1.3269,1.35019,1.43285,1.43228,1.42839,1.43134,1.33586,1.33269,1.37075,1.37926,1.37698,1.35945,1.38839,1.38426,1.39306,1.37601,1.37896,1.37152,1.36228,1.35751,1.37694,1.37347,1.37751,1.36966,1.37805,1.36013,1.33685,1.37733,1.37574,1.38541,1.38601,1.38698,1.35545,1.38215,1.37605,1.36159,1.36611,1.36909,1.37159,1.36475,1.34426,1.34348,1.33809,1.3694,1.37885,1.3544,1.32224,1.32018,1.35814,1.312,1.30553,1.34921,1.33037,1.28813,1.24503,1.24648,1.24015,1.23487,1.2132,1.21401,1.20826,1.19217,1.18572,1.1879,1.14865,1.12912,1.14382,1.12658,1.11271,1.10081,1.10382,1.11446,1.07399,1.04678,1.05384,1.0736,1.08548,1.10564,1.07856,1.07904,1.13948,1.1651,1.15713,1.12713,1.12994,1.27189,0.00337445,0.00337684,1.13189,1.13218,0.00361506,0.00368979,0.00342004,0.00384034,0.00343395,1.13541,0.00358421,0.00386433,0.00345332,0.00342746,0.00332451,0.00363594,0.00314393,0.00347957,0.00343194,0.00370692,0.00346334,0.00392011,0.0034931,1.40898,0.00355558,0.00343905,0.00353521,1.39891,0.00337084,0.00387553,0.00351348,0.00352239,0.00340609,0.00377278,0.00329897,0.00358477,0.00334722,0.00348656,0.0034758,0.00344411,0.00358666,0.00383772,0.00339206,0.00365327,0.00338061,0.00360238,0.00341835,0.00350632,0.00348699,0.00338782,0.0035479,0.0036082,0.00351318,0.00381595,0.00358752,0.00365055,0.00369924,0.00341196,0.00349079,0.00347323,0.00321453,0.00336318,0.00360607,1.43744,0.00360041,1.5891,0.00332223,0.00357803,0.00334247,0.00382923,0.00348281,0.0036391,0.00351341,0.00360809,0.00346485,0.003359,0.00334417,0.00335207,0.00349711,0.00345724,0.00350867,0.00378533,0.00317393,0.00351637,0.00341598,0.00337609,0.00354511,0.00357822,0.00379745,0.00325978,0.00327439,0.00373693,0.00349882,0.00383776,0.00326411,0.00359101,0.0032013,0.00343749,0.00364301
0.00349113,0.00342145,0.00366883,0.00342824,0.00362391,0.00310266,0.0034407,0.00341126,0.00348435,0.00374205,0.00348897,0.00345366,0.00342803,0.00374411,0.00357505,0.00362982,0.0033039,0.00336768,0.00355997,0.00356678,0.0036275,0.00369027,0.003212,0.734876,0.00362787,0.00350404,0.912247,0.930184,0.00346271,0.00334526,0.00330912,0.88765,0.00320188,0.00363231,0.00367964,0.00354607,0.00330427,0.00345458,0.00355338,0.00385451,0.00331738,0.00389294,0.00336672,0.00369629,0.00357826,0.00346309,0.00349559,0.00354621,0.0033311,0.00324273,0.00348979,0.00356867,0.0034611,0.00344748,0.00360456,0.818822,0.820544,0.821457,0.00369649,0.00350496,0.00346016,0.00342409,0.00334411,0.0035468,0.00319839,0.973983,0.00334336,1.0305,0.885971,0.886501,0.889428,0.890528,0.890775,0.889319,0.893637,0.894409,0.89609,0.901557,0.908573,0.874147,0.876499,0.865708,0.89111,0.884784,0.894486,0.922639,0.924817,0.932632,0.960986,1.27756,1.34041,1.34732,1.30655,1.31686,1.34454,1.32673,1.30047,1.30147,1.2161,1.24016,1.23961,1.24729,1.24829,1.27443,1.29941,1.28601,1.28783,1.31267,1.32289,1.3291,1.33,1.32313,1.32851,1.37848,1.33517,1.31472,1.31523,1.31763,1.43833,1.43724,1.43949,1.33039,1.35798,1.3584,1.3727,1.37639,1.37518,1.36817,1.36967,1.36859,1.3691,1.37453,1.37117,1.35516,1.34627,1.34025,1.34163,1.3337,1.33513,1.34828,1.35872,1.32793,1.33,1.32811,1.38618,1.39169,1.39789,1.39767,1.36827,1.40524,1.38775,1.38911,1.3827,1.49156,1.51861,1.33878,1.33782,1.34032,1.33644,1.3385,1.32336,1.32758,1.31427,1.30112,1.33675,1.30359,1.29059,1.27671,1.27505,1.28736,1.23543,1.23549,1.21618,1.18416,1.18311,1.16748,1.17574,1.16787,1.16747,1.12626,1.12833,1.11233,1.09039,1.11754,1.11987,1.07253,1.07274,1.02717,1.02973,1.04374,1.06447,1.07897,1.09806,1.09738,1.09879,1.12181,1.1299,1.11879,1.12311,1.12732,1.13603,0.00336551,0.00368701,1.12551,1.1248,0.00345262,0.00338846,0.00338323,1.12714,1.12949,1.13019,1.12581,0.00374158,0.00373148,0.00340603,0.00374735,0.0034532,0.00339374,1.1539,0.00324613,0.00336539,0.00350002,0.00323427,0.00329615,0.00344779,0.00384862,0.00347989,0.00374127,0.00344794,0.00361771,0.00343505,1.38449,0.00331969,0.00336634,0.0033523,0.00355455,0.00328051,0.00356703,0.00344769,0.00349958,0.00335612,0.00360377,0.00333037,0.00321154,0.00348577,0.00399978,0.00380552,0.00363956,0.00335801,0.00346978,0.00351941,0.00372395,0.00372608,0.00362444,0.0036807,0.00358696,0.00333319,0.00341639,0.00367347,0.00360243,0.00344757,0.00357122,1.60289,0.00356741,0.00339288,0.00370606,0.0035863,0.00356702,0.00343391,0.00347243,0.00331396,0.0035388,0.00344428,0.00319959,0.00354271,1.46153,0.00349683,0.00340637,0.00322297,0.00329535,0.00352872,0.00343167,0.00335943,0.00358061,0.00320781,0.00356726,0.00332621,0.00341553,0.00375119,0.00339881,0.00364183,0.00379579,0.00316608,0.00333756,0.00353827,0.00350512,0.00355912,0.00356966,0.00348771,0.00371581
0.00333398,0.00337152,0.00340001,0.00337563,0.00367011,0.00354968,0.00376868,0.00348378,0.0034401,0.00356081,0.00339391,0.00337159,0.00335688,0.00394549,0.00345604,0.00344185,0.0035076,0.00350821,0.00353789,0.00359129,0.0031938,0.00343969,0.00337958,0.00364345,0.00321388,0.00354233,0.00373755,0.00357698,0.00352018,0.00370853,0.00359598,0.00374693,0.00357647,0.00370617,0.00344557,0.00335141,0.00361774,0.00343615,0.00344538,0.00346193,0.00359493,0.00334928,0.00367648,0.00356561,0.00381964,0.00335802,0.00379734,0.00344015,0.00333075,0.00337532,0.00333939,0.0034445,0.00325906,0.00346777,0.0033582,0.00350618,0.819766,0.819731,0.00345006,0.00306341,0.00327094,0.00334848,0.00341069,0.00371328,0.952809,0.951305,0.00339797,0.00346318,0.995147,0.00344054,0.88764,0.887561,0.889519,0.888503,0.888578,0.8897,0.891103,0.880459,0.869623,0.891212,0.867771,0.863872,0.864185,0.854738,0.89446,0.888365,0.909235,0.936798,1.00841,1.02574,1.27623,1.2785,1.27804,1.2415,1.39588,1.33336,1.34275,1.21891,1.1984,1.19809,1.23642,1.24014,1.25228,1.25923,1.26533,1.2661,1.26198,1.33148,1.28435,1.28769,1.31748,1.33068,1.34388,1.32872,1.34943,1.3618,1.36157,1.37057,1.37076,1.35191,1.35631,1.35255,1.36827,1.39512,1.36713,1.36674,1.38543,1.3575,1.35562,1.35836,1.35966,1.36328,1.38484,1.36114,1.36334,1.37176,1.35735,1.36236,1.33311,1.34844,1.35063,1.32914,1.32288,1.32225,1.37719,1.38583,1.38397,1.37518,1.38074,1.39441,1.49542,1.52026,1.51031,1.49006,1.47553,1.47632,1.31696,1.30917,1.31655,1.30721,1.33961,1.34111,1.34049,1.30167,1.29997,1.2926,1.29119,1.28417,1.26355,1.26107,1.23334,1.19549,1.19911,1.1757,1.1612,1.16689,1.15639,1.16522,1.14135,1.13931,1.09676,1.09877,1.09551,1.11974,1.08855,1.08712,1.07285,1.06088,1.07075,1.05394,1.05589,1.04814,1.09041,1.08732,1.09271,1.13296,1.13068,1.11545,1.11843,1.12211,0.00355782,0.00334637,1.11815,1.11754,1.11615,0.00357652,0.00364538,1.34013,1.34107,0.00344799,0.00356144,1.12083,1.1217,1.12248,1.12632,1.12601,1.22258,1.38615,0.00347353,0.0037541,0.00349528,0.00335871,0.00366486,0.00359489,0.00344166,1.17508,1.39794,1.38167,0.00340164,1.44618,1.4157,0.00332812,0.00329504,0.00342232,0.00355593,0.00365268,0.00335172,0.00382337,0.00336346,0.00319949,0.00374722,0.00361221,0.00330362,0.00350877,0.00338791,0.00357456,0.00385682,0.00354935,0.0032567,0.00351124,0.00356286,0.00322381,0.00352463,0.00329916,1.69152,0.00349962,0.00353558,0.00316631,0.00372931,0.00339854,0.00322138,0.00351738,0.00361501,0.00349444,1.43115,1.42985,0.00343251,0.00341883,0.00347255,0.00324424,0.00343378,0.00332334,0.00351534,0.00334917,1.45561,1.45789,0.00355351,0.00362541,0.00336643,1.76476,0.00347135,0.00338316,0.00339846,0.00353475,0.0034802,0.00366595,0.00354563,0.00340402,0.00334199,0.00378883,0.00359224,0.00338469,0.00360215,0.00339148,0.0033775,0.0036648,0.0032305,0.00328652,0.00348098,0.0034281
0.00344335,0.00345324,0.00332278,0.00344617,0.00346365,0.00380457,0.00330971,0.00366796,0.00330747,0.00394148,0.00342924,0.00355208,0.0033698,0.00321696,0.00353372,0.00365849,0.0032736,0.00333764,0.003541,0.00370979,0.00341878,0.00349687,0.00334086,0.00370573,0.00328038,0.00338569,0.00341188,0.0037429,0.00341961,0.00347703,0.00364249,0.00337893,0.00337891,0.00353549,0.0035826,0.00359119,0.00342521,0.00326575,0.00334759,0.00372863,0.00348921,0.989282,0.00327259,0.00381156,0.00371896,0.00311892,0.00351464,0.00345926,0.00343261,0.00345452,0.0030862,0.00330291,0.00373478,0.00342408,0.00337341,0.00392223,0.00337841,0.00355016,0.00348831,0.00347242,0.00330156,0.00351467,0.00339165,0.00322753,0.00352367,0.00360273,0.00343236,0.962357,0.964407,0.974729,0.967669,0.889192,0.890518,0.894033,0.890842,0.893572,0.891127,0.887331,0.904025,0.883258,0.887672,0.869223,0.870308,0.851787,0.854031,0.888892,0.886083,0.90532,0.916528,0.912937,0.976943,1.20086,1.18051,1.18141,1.19088,1.1917,1.17473,1.17921,1.19859,1.12614,1.13022,1.13679,1.27158,1.24987,1.26231,1.27808,1.26747,1.26573,1.28094,1.30735,1.28696,1.28855,1.33196,1.33385,1.35176,1.35567,1.36941,1.37057,1.38008,1.39568,1.36093,1.35553,1.35567,1.36104,1.38122,1.34932,1.34946,1.34802,1.33875,1.34733,1.36231,1.36385,1.35134,1.35547,1.35606,1.35729,1.36434,1.38637,1.34461,1.34248,1.3637,1.32523,1.32534,1.3535,1.34801,1.35118,1.37954,1.40522,1.35946,1.37953,1.34243,1.34267,1.3383,1.3466,1.33684,1.30188,1.29823,1.30575,1.30477,1.30258,1.29363,1.3582,1.3593,1.29052,1.30239,1.30266,1.25993,1.26148,1.24332,1.24825,1.20789,1.20527,1.19911,1.17858,1.16305,1.19614,1.13631,1.13775,1.14111,1.144,1.12144,1.11678,1.1257,1.11453,1.0784,1.06271,1.07389,1.06516,1.06596,1.03097,1.04235,1.05682,1.08126,1.08375,1.0774,1.07874,1.12805,1.147,0.00317294,0.00367394,0.00325053,0.00355066,0.00348807,0.00367599,0.00350527,0.00377556,1.29686,1.10585,1.10687,0.00358257,0.00353561,1.12302,1.11631,1.12164,1.12186,1.12561,1.13326,0.00340431,0.00337104,0.00362164,0.00324345,0.00372049,0.00338391,0.00351648,0.00352571,0.00349363,0.00344488,0.00354885,0.00337673,0.00378348,0.00321828,0.00344494,0.00337105,1.21615,0.00324098,1.45667,0.00348751,0.00356799,0.00334476,0.0037541,0.003315,1.25917,1.27397,1.27315,0.00338118,0.00361039,0.00340362,0.0034811,0.00346682,0.00367695,0.00342021,0.00321987,0.0032808,0.0036547,0.00342597,1.65426,0.00327364,0.00366376,0.00360988,0.00370485,0.00332699,0.00309065,0.00357474,0.00372855,0.00328811,0.00350988,0.00338716,0.00359634,0.00329558,0.00351099,0.00337125,0.00386964,0.00345428,0.00356347,0.00361536,0.00362451,0.00332977,0.00344351,0.00329702,0.00355772,0.00332656,0.00370027,0.00332407,0.00355223,0.00338164,0.00358474,0.00328943,0.00365089,0.00359131,0.00347864,0.0034533,0.0034934,0.0033376,0.00337383,0.00350627,0.00357553,0.00339665,1.61196,0.00323182,0.00361574
0.0036232,0.00359697,0.0036764,0.00361302,0.00346301,0.00343264,0.00333605,0.00371804,0.00373685,0.00377567,0.00354543,0.00336366,0.00347998,0.00338273,0.00336793,0.0033947,0.00350732,0.00367907,0.617601,0.00333707,0.00324322,0.00324481,0.00363315,0.00356172,0.00338387,0.0035367,0.00362029,0.00348746,0.0032885,0.0034083,0.00374812,0.00352141,0.707589,0.00351634,0.00341615,0.00337443,0.00365609,0.726775,0.729513,0.731188,0.7314,0.00351767,0.0034785,0.739832,0.742564,0.744112,0.744715,0.00337103,0.00379626,0.0036676,0.00355553,0.00340399,0.0034452,1.0095,0.00357163,0.00322965,0.804832,0.00341347,0.00382487,0.00319256,0.00372883,0.00347926,0.00362586,0.00350609,0.00381079,0.00358375,0.00347587,0.00363855,0.0037123,0.00352665,0.900009,0.888871,0.888884,0.891073,0.890513,0.887087,0.88704,0.881217,0.867344,0.867698,0.837613,0.878879,0.856841,0.847819,0.856301,0.869879,0.866921,0.88536,0.849881,0.845924,0.938185,0.950068,1.17191,1.17277,1.17279,1.1757,1.17722,1.17806,1.14985,1.12153,1.1339,1.1158,1.11689,1.1331,1.12902,1.26761,1.26872,1.28107,1.27177,1.27812,1.28441,1.29244,1.29482,1.30783,1.31991,1.32858,1.34027,1.33275,1.32963,1.3251,1.32687,1.33396,1.34021,1.33506,1.34274,1.31882,1.32266,1.33357,1.33527,1.32957,1.31706,1.31544,1.31733,1.32005,1.32045,1.33147,1.32722,1.32776,1.3234,1.34039,1.33802,1.34297,1.33986,1.32622,1.31197,1.33266,1.32224,1.32054,1.31538,1.31701,1.31588,1.32431,1.30523,1.32129,1.29124,1.2866,1.28984,1.29116,1.29085,1.30165,1.282,1.32428,1.29262,1.28639,1.2867,1.24355,1.26565,1.26429,1.26213,1.19358,1.19433,1.20048,1.15732,1.15831,1.15704,1.14641,1.14408,1.15108,1.14465,1.13936,1.11698,1.08557,1.08477,1.09147,1.0787,1.08153,1.04395,1.06841,1.07096,1.0687,1.05135,1.05232,1.05073,1.08562,1.08933,1.07376,0.00378759,1.09565,0.00363627,0.0034419,0.00344377,0.00335238,0.00353979,0.0035083,0.00337984,0.00348839,1.1923,0.00343988,0.00359766,0.00333555,1.10848,0.00347458,1.12221,1.11797,0.00330531,0.00355073,1.36555,0.00359458,0.00379816,0.00379325,0.00336364,0.00350877,0.00345506,1.16262,1.16302,0.00340574,0.00360035,0.00355992,0.00342575,0.00333888,1.19922,0.00341772,0.00372606,0.00326514,0.00337721,0.00338994,0.00352038,1.42949,0.00347497,0.0033209,0.00328862,0.00331468,0.00354897,0.00357176,0.00368406,0.00324561,0.00353211,0.00333464,0.00334468,0.00326566,0.00338313,0.00333247,0.00371996,0.0034641,1.68191,0.00337772,0.00333071,0.00331435,0.0032672,0.00339585,0.00345055,0.00362409,0.00356934,0.00341232,0.00330191,0.00357312,0.00348051,0.00353131,0.00312668,1.41059,1.75031,0.00345026,0.00341086,0.0032228,0.00337571,0.00342741,0.00362798,0.00352502,0.00356418,0.00354621,0.00366377,0.00329026,0.0034082,0.00358565,0.00324489,0.0037317,0.0032544,0.00361308,0.00337103,0.00315853,0.00338588,0.00355373,0.00328767,0.00332484,0.00366515,0.00346917,0.00348991,0.00337508,0.00359972,0.00364739
0.00348326,0.00358018,0.00324311,0.00367929,0.00359282,0.00334754,0.00339139,0.00317574,0.00337183,0.00353655,0.00334528,0.00356278,0.00366429,0.00356634,0.00343699,0.00336662,0.00332166,0.00346693,0.00348473,0.00353089,0.00324718,0.00349633,0.00366846,0.00311044,0.00350555,0.00349797,0.00340422,0.00339125,0.00347301,0.00374946,0.00348283,0.00341169,0.00330994,0.00361875,0.00332515,0.00359054,0.00347269,0.00377974,0.0036769,0.00344704,0.00323449,0.00353491,0.738501,0.739335,0.741575,0.74556,0.74712,0.750737,0.750319,0.751925,0.00294758,0.00350133,0.00358121,0.00353516,0.00373706,0.00343249,0.00318572,0.00368688,0.00342276,0.00353895,0.0036026,0.00338561,0.00318032,0.00344777,0.0034324,0.00330048,0.00349437,0.00363045,0.00324394,0.00340433,0.00363005,0.884963,0.888588,0.890699,0.888216,0.888159,0.887865,0.886928,0.885954,0.876678,0.877234,0.854418,0.821976,0.872802,0.857993,0.836271,0.837151,0.831375,0.825744,0.831666,0.867459,0.890219,0.976044,1.02541,1.01462,1.02841,1.04499,1.04115,1.11037,1.06375,1.07255,1.0748,1.12724,1.11192,1.11362,1.1699,1.22269,1.22238,1.26775,1.25177,1.23862,1.2388,1.2392,1.26052,1.30864,1.29083,1.33217,1.31263,1.29167,1.30622,1.29324,1.28864,1.30373,1.29576,1.31275,1.30305,1.29512,1.29518,1.28157,1.29905,1.32061,1.31437,1.31232,1.32337,1.32175,1.3017,1.30879,1.30254,1.30959,1.32946,1.31419,1.31251,1.3111,1.31662,1.31795,1.32569,1.30436,1.32231,1.30738,1.31039,1.31639,1.31398,1.31545,1.28719,1.28679,1.35718,1.33566,1.30559,1.32334,1.30003,1.29511,1.26405,1.26763,1.27028,1.27473,1.32033,1.23125,1.19761,1.18651,1.18486,1.18551,1.15728,1.20886,1.14703,1.12664,1.13194,1.13291,1.11326,1.11113,1.09259,1.1019,1.11631,1.065,1.06678,1.02968,1.03812,1.0324,1.01175,1.02878,1.06872,1.05071,1.04679,1.04592,1.04607,1.09366,1.06877,1.07146,0.00332483,0.00335324,0.00340781,0.0032887,0.0031746,0.00339581,0.00351699,1.08039,0.00336445,0.00324063,0.00355811,0.00342084,0.00346211,0.00340201,0.00342854,0.00332098,0.00335414,0.00333719,0.00348018,0.00319213,0.00369534,0.0032547,0.00326876,0.00345679,0.00320667,0.00351136,0.00339951,0.00353511,0.00347713,1.30873,0.00341957,0.00352603,1.18054,0.00342785,0.00343806,0.00326685,0.00327285,0.00324486,0.00344273,0.00352879,0.00359289,0.00320354,0.00343041,1.38558,0.00341869,0.00356397,0.00342841,0.00345128,0.00363766,0.0034747,1.29541,1.29905,1.29978,0.00323458,0.00389361,0.00348336,1.68625,0.00321743,0.0036834,0.00348494,0.00378124,0.00372292,0.00349288,0.00362687,0.00330648,0.00353851,0.00347311,0.00374069,0.00364407,1.39497,1.39506,0.00350378,0.00351775,0.00300987,0.00330183,0.00327487,0.00352745,0.00343215,0.00351048,0.00346941,0.00329114,0.00310387,0.00324679,0.00345372,0.00357919,0.00355006,0.00340361,0.00335291,0.0033346,0.00360462,0.00330341,0.00338375,0.00361391,0.00355096,0.0036566,0.00340393,0.00325818,0.00337825,0.00336407,0.00330463,0.00344453,0.0034104,0.00357543
0.00345594,0.00354072,0.00343845,0.00346572,0.00352412,0.0034141,0.00338559,0.00361625,0.00324223,0.00319013,0.00360186,0.00337984,0.00321933,0.0034043,0.00357613,0.00336284,0.00363671,0.00334975,0.00388186,0.00349608,0.00340486,0.00334427,0.00340267,0.00318999,0.00320904,0.00313439,0.0032891,0.00347387,0.00341143,0.00348067,0.00348892,0.00333888,0.00385588,0.00332053,0.0035919,0.00326094,0.00345534,0.00352726,0.00363987,0.00333163,0.00328728,0.00339858,0.00345268,0.00330437,0.00360496,0.747824,0.747842,0.748721,0.750721,0.75205,0.753233,0.00309897,0.00355564,0.00331457,0.0035688,0.00329716,0.00358653,0.0033415,0.00368912,0.00331686,0.00346444,0.00349537,0.00368717,0.00333487,0.00343526,0.0031866,0.00339761,0.00336175,0.00356756,0.00333473,0.0034314,0.00329359,0.00352877,0.891714,0.894189,0.00316804,0.881169,0.883343,0.890658,0.893051,0.896095,0.877651,0.880128,0.871643,0.844583,0.829236,0.84769,0.812339,0.812522,0.833666,0.825101,0.818844,0.839072,0.874632,0.00352347,1.02317,1.02374,1.05662,1.05102,1.13215,1.08131,1.07927,1.09909,1.08214,1.10761,1.14019,1.17587,1.161,1.17053,1.20534,1.35037,1.34947,1.3462,1.34629,1.22382,1.25262,1.25946,1.34398,1.27271,1.27097,1.26943,1.30425,1.28934,1.28962,1.30127,1.30257,1.30287,1.26973,1.28204,1.28069,1.28151,1.28581,1.28391,1.27943,1.27611,1.28199,1.28276,1.30326,1.30759,1.32479,1.31516,1.28996,1.29864,1.31211,1.32007,1.315,1.29448,1.28417,1.30708,1.31391,1.31669,1.31302,1.31669,1.36024,1.34749,1.35081,1.28492,1.28105,1.25305,1.24665,1.26467,1.24983,0.00334997,0.00328883,1.24024,1.2269,1.18785,1.21155,1.14921,1.15046,1.18597,1.18747,1.13591,1.15703,1.1502,1.1516,1.12623,1.1104,1.11491,1.12347,1.08057,1.06198,1.0706,1.06996,1.04553,1.03237,1.09156,1.04358,1.03499,1.0036,1.03216,1.04909,1.04827,1.04998,1.05121,0.00326128,0.00364757,0.00316278,0.00357645,0.00325435,0.00332597,0.0031404,1.07225,1.07194,0.0032812,0.00358419,1.29542,0.00319604,0.00387162,0.00321536,0.00358444,0.00340694,0.00359263,0.00333496,0.00332049,1.1063,1.10801,1.10571,0.0033255,0.00378268,0.00336535,0.00342467,0.00395597,0.00334075,0.00359574,0.00337222,0.00362994,0.00338537,0.00370024,0.00316593,0.00323694,1.18794,0.00343282,0.00365031,0.0033701,0.00355379,0.00342141,0.00336392,0.00320346,0.00343148,0.00363493,0.00308311,0.00352738,0.00362284,0.00366972,0.00333115,0.00319756,0.00328142,0.00353591,0.00323409,1.30294,0.00350289,0.00358732,0.00343445,1.69036,0.00332947,0.00352938,0.00360849,0.00342748,0.00338968,1.33832,1.34022,1.3462,0.00336385,0.00353901,0.00347868,1.4174,0.00345109,0.00365819,0.00316727,1.46516,0.00327113,0.00372216,0.00350862,0.00352641,0.00378937,0.00357161,0.00351954,0.00369354,0.00332651,0.00366289,0.00311387,0.00364129,0.00332047,1.46756,0.00343441,0.00320906,0.00325806,0.00338786,0.00321244,0.00344693,0.00342947,0.00354551,0.00351036,0.00327972,0.00346411,0.00357815,0.00332613,0.00339149,0.00321979
0.00329897,0.00347786,0.00358028,0.00343182,0.00329111,0.00335516,0.00329771,0.00342337,0.00344749,0.00357652,0.00351377,0.00350396,0.00321158,0.00332966,0.00322257,0.003396,0.00305314,0.00343677,0.00337294,0.00350945,0.00304938,0.00366157,0.00353588,0.00367868,0.00342914,0.00309096,0.00338705,0.00349767,0.00333054,0.00330498,0.00312126,0.00349196,0.0033414,0.00337307,0.00322101,0.0035907,0.00340661,0.00336566,0.0033992,0.0035977,0.003292,0.00346649,0.00376089,0.00320765,0.00341667,0.00343248,0.00348582,0.748436,0.00314774,0.749999,0.751655,0.0034565,0.00344726,0.00344996,0.00355601,0.00347007,0.0033473,0.00335254,0.00339327,0.0035979,0.00338951,0.00363698,0.00304937,0.00378856,0.00334564,0.00329115,0.00342198,0.00353837,0.00324735,0.00354534,0.0033547,0.00353191,0.00343678,0.877502,0.00361246,0.886362,0.887647,0.904805,0.864194,0.865201,0.866675,0.886499,0.881467,0.848139,0.86954,0.807791,0.870435,0.827714,0.828936,0.785778,0.786757,0.813295,0.849101,0.843613,0.864667,0.93211,0.994025,1.00202,1.02874,1.05772,1.08447,1.28255,1.28522,1.13263,1.11844,1.14661,1.14743,1.14889,1.1496,1.15158,1.24144,1.35082,1.3482,1.34656,1.20828,1.27662,1.2459,1.24268,1.27482,1.29182,1.28462,1.28196,1.27687,1.28994,1.28998,1.28865,1.27421,1.27258,1.2851,1.26551,1.26375,1.27372,1.30259,1.26186,1.27201,1.27053,1.28463,1.2599,1.26122,1.25635,1.25596,1.25898,1.28501,1.29472,1.28962,1.31014,1.31766,1.31576,1.29948,1.27162,1.26072,1.26015,1.26716,1.24417,1.24593,1.27191,1.35682,1.22934,1.21063,1.21446,1.18963,1.1891,1.19265,1.17399,1.16868,1.16808,1.16359,1.16021,1.17706,1.1452,1.13661,1.13061,1.12853,1.12691,1.12575,1.12221,1.11875,1.11965,1.0871,1.07505,1.04678,1.03981,1.04736,1.01229,1.02211,1.03983,1.03683,1.0391,1.03892,1.01619,1.03288,1.03242,1.0385,1.03685,1.0412,1.04949,1.05183,0.00382861,0.00306954,0.00335265,0.00340266,0.00364969,0.00327896,0.0037715,0.00351754,0.00353131,0.00330146,0.00391626,0.00345536,0.00360429,0.00339963,1.08691,0.00355881,0.00377396,1.08359,1.10168,1.11329,0.00364664,0.00358755,0.00343586,0.00335668,0.00356816,0.00359481,1.32022,0.00350833,0.00363056,0.00355893,1.45563,0.00333356,0.00383365,0.00335325,1.17861,1.18233,1.18453,1.36442,0.00360132,0.00337524,1.29871,0.00348608,1.53136,0.00350199,0.00346808,0.0035035,0.00335757,0.00325368,0.0034645,0.00332985,0.00324274,0.00340514,0.00357014,0.00329007,0.00370146,0.00346514,0.00342847,0.0036467,0.00358191,0.00349555,0.0037908,0.00351757,0.00347848,0.00320197,0.00348631,0.00339148,0.00351594,0.00337483,0.00343652,0.00333414,0.00366345,0.00352263,0.00361688,0.00372341,0.00351443,0.0034955,0.00333485,0.00355395,1.72766,0.00344504,0.00366471,0.00360024,0.0035598,0.00324544,0.00331722,0.00339116,0.00322206,0.00335538,0.00361416,0.00331354,0.00366444,0.00314294,0.00341295,0.00331089,0.00346215,0.00353774,0.00324357,0.00362547,0.00365156,0.00340979,0.00325821,0.00350476,0.00327489
0.00344634,0.00330196,0.00350855,0.0032858,0.00359532,0.00322636,0.00356025,0.00347668,0.00341977,0.00345671,0.00353386,0.00349244,0.00351699,0.00323646,0.00326636,0.00351793,0.0036203,0.00343123,0.00301587,0.00353665,0.00343894,0.00327228,0.00356497,0.00351344,0.00364059,0.00342795,0.00334672,0.0033903,0.00355366,0.00338956,0.00358774,0.00340561,0.00359397,0.00308752,0.00342597,0.00341286,0.00370356,0.00322644,0.00366844,0.00349345,0.00362134,0.00352035,0.00341122,0.00334434,0.00320772,0.0033991,0.00373117,0.00332787,0.00339804,0.00330802,0.0032662,0.96803,0.00359022,0.00355551,0.00342989,0.00333169,0.00353792,0.00333497,0.0034524,0.00338719,0.00348308,0.00348711,0.00346888,0.00354386,0.00344326,0.0033031,0.0034453,0.00332465,0.00353004,0.0034775,0.00343507,0.00341839,0.0036304,0.00327051,0.00358404,0.00343502,0.864405,0.863665,0.864555,0.86461,0.863757,0.877075,0.877836,0.826589,0.825045,0.867587,0.825805,0.795339,0.793366,0.793838,0.7976,0.84891,0.808967,0.846757,0.884516,0.910805,0.983715,0.984216,1.09316,1.06476,1.09097,1.06,1.08157,1.12855,1.13012,1.11256,1.11189,1.10137,1.10352,1.15109,1.15086,1.18474,1.20591,1.19962,1.20545,1.20747,1.20818,1.22581,1.28388,1.38582,1.36193,1.28445,1.28114,1.28213,1.28399,1.28827,1.28861,1.29027,1.26702,1.27513,1.25861,1.26462,1.25112,1.25072,1.26725,1.24071,1.23495,1.26142,1.24087,1.2473,1.23963,1.24781,1.26897,1.28697,1.30146,1.28312,1.30893,1.29638,1.28783,1.24815,1.25053,1.21801,1.22311,1.22382,1.24989,1.24721,1.24903,1.21372,1.1926,1.1942,1.1987,1.19855,1.1578,1.17077,1.11873,1.13954,1.13558,1.1546,1.14602,1.12035,1.12153,1.13881,1.12783,1.10499,1.11545,1.0813,1.0816,1.05177,1.03785,1.00999,1.01534,1.01304,1.02455,1.00883,0.99587,1.00154,1.03425,1.02902,1.0433,1.03061,1.01816,1.02272,1.0238,1.02928,1.03174,1.03836,0.00351816,0.00322548,0.00374114,0.00354028,1.08845,0.00334424,0.00298521,0.00350411,0.00366663,0.00333682,0.00322907,1.05412,0.00367029,0.00353843,1.06662,1.06793,1.06816,0.00354511,0.00336375,0.0031562,0.00344077,0.00334977,0.00339482,0.00324,0.00342978,0.00341144,0.00382055,0.00327205,1.50419,0.003426,0.00382785,0.0034564,0.00320412,0.00345291,0.00336612,0.00361162,0.00355408,0.00337469,0.00344127,0.0034216,0.00334274,0.00344887,1.21236,0.0034165,1.33435,0.00322303,0.00348071,0.00331348,0.00370328,0.00323806,0.00339319,0.0033837,0.00354699,0.00355988,0.00360574,0.00344166,0.0034743,0.00346746,0.00368762,0.00333386,0.00340651,0.00343193,0.00337873,0.00330778,0.00342014,0.00348692,1.53643,0.00356496,0.00352365,0.00333777,0.00327718,0.00352013,1.5993,0.00336778,0.0038383,0.0032433,0.00381182,0.00335765,0.00346653,0.00354687,0.00322315,0.00345223,0.00349975,0.00348331,0.0035724,0.00322613,0.00359568,0.003226,1.46242,0.00347886,0.0032134,0.00336635,0.00345041,0.00351816,0.00350941,0.00339672,0.00338086,0.00347492,1.52668,0.00336328,0.00360247,1.53935,1.54035,1.54129
0.00335074,0.00352772,0.00390906,0.00352238,0.00332435,0.00348512,0.003391,0.999142,0.00336492,0.00339973,0.00346473,0.0034915,0.00346685,0.00337641,0.00322632,0.00337526,0.00337842,0.00346434,0.0033875,0.00340481,0.00344941,0.00363318,0.00319205,0.00342219,0.00327339,0.00359525,0.00331652,0.00343379,0.00334009,0.00341804,0.0034843,0.00334436,0.00346934,0.00365463,0.00327735,0.00335202,0.00322954,0.00336921,0.00346751,0.00332348,0.00372537,0.00376016,0.0031737,0.00349369,0.00357904,0.00335457,0.00360107,0.00339787,0.00344075,0.00362985,0.00365406,0.0035934,0.00336293,0.00343689,0.00323343,0.00324408,0.00325658,0.756318,0.00334753,0.00362927,0.00309613,0.00397884,0.00328168,0.767713,0.00313192,0.00359257,0.00318629,0.779765,0.00334368,0.00377314,0.00373368,0.00345839,0.0035132,0.00357881,0.00337888,0.00331386,0.00332485,0.873712,0.867051,0.865334,0.859158,0.857571,0.855089,0.840996,0.840388,0.879037,0.849681,0.797078,0.79762,0.839743,0.831579,0.803906,0.797803,0.811897,0.853935,0.863996,0.929233,0.932265,0.93189,1.05725,1.06017,1.03881,1.10099,1.09784,1.0983,1.0978,1.10101,1.07421,1.07838,1.08925,1.09107,1.11451,1.20385,1.20561,1.14629,1.15869,1.20633,1.20739,1.26184,1.26358,1.28614,1.26781,1.26051,1.25861,1.2604,1.2814,1.28158,1.28514,1.28113,1.27801,1.25824,1.25729,1.25379,1.24858,1.25937,1.23477,1.2347,1.23515,1.23473,1.23568,1.23677,1.2473,1.20376,1.20481,1.2143,1.25352,1.23923,1.23965,1.2614,1.24798,1.2123,1.21454,1.17998,1.2627,1.26369,1.25869,1.1854,1.18569,1.18091,1.1782,1.18131,1.14559,1.12642,1.12656,1.12491,1.1175,1.11642,1.16838,1.12273,1.10175,1.15635,1.08876,1.10809,1.06394,1.07455,1.04387,1.05472,1.03312,1.03551,1.02978,0.991488,1.00517,0.985835,0.973444,1.01095,0.976938,0.984544,0.986521,0.99969,1.00492,1.00749,1.01092,1.0116,1.02704,1.03302,1.03884,0.00314389,1.28473,0.00326785,0.00360658,0.00334215,0.0033006,0.0029437,0.00345482,0.00348026,0.00348472,0.00342437,0.00361864,0.00316219,1.05804,1.05808,0.00330204,0.0031886,0.00366852,0.00341145,0.00360717,0.00333726,1.41323,0.00308376,0.00351268,0.00312815,0.00344143,1.11682,1.10969,0.00359857,0.00343611,0.00330574,0.00347688,0.0031491,0.00331776,0.00340807,0.00354675,0.00344363,0.00343513,0.00318081,0.00351688,0.0033927,0.00352411,0.00341511,0.00370028,0.003191,0.00384881,0.00321658,0.00344093,0.0034805,0.00337988,0.00329391,0.00354327,0.00335039,0.003624,0.00327934,0.00370375,0.00339839,0.00348924,0.00324025,0.00351405,0.00320715,0.00329993,0.00342568,0.0034136,0.00333847,1.38044,1.38218,1.34485,1.34663,1.34967,0.00332628,0.00365393,0.00324423,0.00346444,0.00332876,0.00333081,0.00357909,0.00340036,0.00332658,1.411,0.0033492,0.00346336,0.00313403,0.00343209,0.00322539,0.00349398,0.00325842,0.00345672,0.00334176,0.0034308,0.00306265,0.00346085,0.00325011,0.00372351,0.00318355,0.00343362,0.00347774,0.00344995,0.00358097,0.00326217,0.00329009,0.00349529,0.00335122,0.00355795
