1.17077709054839,1.16984720179602,1.16891167818853,1.16824560662351,1.16800779203296,1.16824883791885,1.16893590755816,1.16998274201205,1.17127648943094,1.17269291864928,1.17410384067698,1.17539316676687,1.17649462705057,1.17744607779673,1.17772632282889,1.17744748123485,1.1773823828226,1.17752184456636,1.17776632216158,1.17801717716313,1.17825684979474,1.17854283590477,1.1789042539085,1.17924232881555,1.17936401802702,1.17911417136999,1.17963010778362,1.18050267101221,1.18284597397594,1.18492476386844,1.18605289346965,1.18646029756375,1.18412678523385,1.18220538813247,1.18109197076076,1.18079140819706,1.18096118638805,1.18121963510556,1.18603850004322,1.19950269958384,1.1998149587916,1.20024223619403,1.20169648062806,1.20445100545558,1.20800419412257,1.20302843578238,1.19767493375863,1.19475546385814,1.18510463160779,1.1821022232967,1.19638995634607,1.20614355809386,1.21606069558712,1.22608247753268,1.23597078128512,1.24513479779925,1.25222186483822,1.2600309543158,1.26060778107684,1.26113279959027,1.26191714072149,1.26273442083976,1.26384370679932,1.26531978669697,1.2708990295511,1.27270767289641,1.27997339592682,1.28595280000018,1.28842111377955,1.2957202746966,1.2962235032785,1.29744119104662,1.29972241183357,1.31678520837233,1.3144467806341,1.31315561723566,1.31234166172442,1.33308242597179,1.34892974835924,1.36760364411994,1.34985011133052,1.35033783239719,1.34926731827988,1.34825693449101,1.34982752974735,1.36056157327274,1.36840583337894,1.38407870997635,1.38498810823161,1.38594837047784,1.38574379328459,1.38558292377217,1.37859173242358,1.37764818796107,1.37576084474756,1.37420444963015,1.37552933147545,1.37884224294895,1.37749816480681,1.38501379532357,1.39049893148338,1.40203038118043,1.3969938679587,1.38871365223371,1.38863167462609,1.38879503069681,1.38917626515259,1.39016304637076,1.3911325813166,1.39262975477875,1.39338331939196,1.39518437992964,1.39719278977207,1.40131991422909,1.40215422364687,1.40336965859541,1.07890931014804,0.841186849936746,0.841615209388081,0.753059176587582,0.753091147816478,0.235475284670197,0.196698078964224,0.158235271560645,0.120005611003375,0.0814693614347111,0.121058216595507,0.160158949947676,0.733470680873243,0.733352286682894,1.172369659388,1.63349820345952,1.61337944598466,1.61312967516923,1.61336383307967,1.63345734452153,1.43065920005756,1.37487067802884,1.3472513593419,1.33211821531584,1.33084353261887,1.32971808307587,1.30059270737553,1.30059250759335,1.30059230781117,1.31374455465688,1.31460374362181,1.31750908537368,1.32069866836539,1.3239895776258,1.32698544944313,1.32728109743926,1.32607266443939,1.32421893319825,1.32236487522063,1.32015921972658,1.31860187210187,1.32115634692306,1.32687829268127,1.13349643134314,1.13349724327378,1.13349825563034,1.13349870589949,1.34129495591825,1.36146578655057,1.4085487166545,1.4061799798415,1.4046146409244
1.16141305953146,1.15564103764705,1.15922530237436,1.16239563066072,1.1625590393805,1.16256902316596,1.16169981919757,1.16062827484087,1.16380254440434,1.16731472101211,1.16194944158872,1.15881830618222,1.16783449355241,1.17771426024793,1.16398744490393,1.14758701098958,1.14872119172973,1.15130489384817,1.15876057372005,1.16720045196914,1.1555950012312,1.13820667215461,1.13844659325262,1.13734895865065,1.14062707705711,1.13130372930777,1.15948388845666,1.16148052690743,1.16327681716915,1.16584883038217,1.175716810327,1.18906020622691,1.1765935818257,1.16619359035403,1.17183361646679,1.1764231202207,1.17681257204292,1.17844190220459,1.1822664214389,1.1988641819655,1.18891259902549,1.18123818779402,1.17983720620794,1.18039769062245,1.21360401677716,1.24692000011025,1.22754035444132,1.24983000005982,1.17775432679437,1.14201670746514,1.14107839662461,1.1401903312257,1.15395811980837,1.15921167958018,1.15857540278623,1.1599381831188,1.21820578801745,1.29536000001759,1.24818640414315,1.24078999666456,1.22840548747805,1.21320998870729,1.22360268453679,1.23375088034179,1.2358724998435,1.23801844031054,1.24847374051394,1.25713001231057,1.26983290492299,1.29760873085851,1.29678942024937,1.30190679828708,1.3005891287345,1.31892405168928,1.31701516751297,1.31751992280135,1.30535012004891,1.29349205465806,1.32815051392691,1.37783996682372,1.35138958080136,1.3542231098631,1.3494926837095,1.34822026659802,1.34736996923137,1.34650071837652,1.35571692733009,1.40898093371433,1.401414545971,1.40964764665732,1.39982128435273,1.41338001719016,1.3781344370453,1.37773601670109,1.37516281081202,1.37200698120582,1.37493510756853,1.37804714461317,1.37765193636918,1.4026923783386,1.40075074606736,1.42988000014334,1.40100762125178,1.38731634119652,1.38876880577213,1.39042559782307,1.39059534103218,1.39237757672936,1.39222521897713,1.39333387485162,1.40560025465968,1.41214220049189,1.40950237759943,1.40546116487411,1.40478164840073,1.4049699472315,1.4058319543393,1.40723225112387,0.842820439491635,0.00402558000000008,0.753069456968865,1.47974,0.839905924763003,1.70445,0.158999734304188,0.00373485000002991,0.0820215224966055,0.00389781000000827,0.733790462090877,1.56088,1.17236919017858,1.80048,1.61301402376619,1.61213716558187,1.61299707033246,1.64059999999927,1.57714882522732,1.85906,1.36149349247576,0.00376668000000006,0.713865299479066,1.41789,0.160624320543063,0.00403561000000004,0.280449911644452,1.33241349906847,1.33250149996151,1.33136163430534,1.33241764616705,1.3316824420754,1.32915954312215,1.32838933223247,1.32783080156419,1.32935074725398,1.33506022221178,1.56865,1.38793816081236,1.45194999999922,1.33563130990663,0.00387815000000091,0.082132582913457,0.00374653000000005,1.13349825478464,1.40013000006377,1.37638979464837,1.43416000003464,1.41990379613744,1.42678927542062
1.16150710619931,1.15927823182238,1.16001767688668,1.16051973711833,1.16084251797631,1.16128376306763,1.16178613576256,1.16209093374836,1.16352593301995,1.16397814028447,1.16061614920401,1.15805582357134,1.15546458802546,1.15316304026812,1.15118169641403,1.14941001329582,1.14799090667624,1.1466002933151,1.14443590574742,1.14300277998461,1.14187754067381,1.14091422003488,1.13988327315247,1.13820536620934,1.14446833092526,1.14776237163009,1.15792241142759,1.16058405668321,1.16257186323398,1.16399735586016,1.16384666041487,1.16433620086315,1.1651086666497,1.1664038419118,1.1689696760756,1.17214028061475,1.17442115118575,1.17540619132829,1.1746834309835,1.1747684216597,1.17554238497342,1.17806489125371,1.17788866850102,1.17917069415877,1.21876252281458,1.22737188907875,1.22262934847116,1.19237301327036,1.16566146646237,1.14118424050373,1.14094852040599,1.14057137083711,1.15011094717579,1.15249575279982,1.1545456105489,1.15712822647106,1.17521837160091,1.17625988140216,1.18094876099439,1.18471612699939,1.19323840892576,1.20310023783871,1.21338896584555,1.22318147319375,1.23165344704323,1.23717904664436,1.24567088344775,1.251617967076,1.25654911956105,1.26075048752994,1.26470826203169,1.27236898135741,1.27357689863768,1.27534599437899,1.27755283523995,1.28045640707003,1.28388838238739,1.28828559356099,1.30831289397173,1.32314322676659,1.32701446096958,1.32995604328648,1.33364148390195,1.34379913643828,1.34445415729949,1.34517154284715,1.34480375732959,1.34502463723384,1.34603916052543,1.34796459188543,1.35078872578105,1.35435009186137,1.35838334116918,1.36261973822821,1.36687255352509,1.37103138250008,1.37409183006036,1.37593980926744,1.37707365495267,1.38641522733829,1.39875238496136,1.4071317768343,1.40494762819657,1.40522687927118,1.40556356654277,1.40529051757131,1.40541124299741,1.40582210887698,1.40645757027444,1.40709082497314,1.40816627662528,1.4102568553699,1.41036290454623,1.40976554962794,1.40688253478767,1.40565032681935,1.40568759786168,1.40622011598985,0.844026999184818,0.844572124567165,0.843755650153782,0.842618438151319,0.840407246010185,0.839905924763003,0.733583200088255,0.73369350915488,0.733863141481817,0.734018250413497,0.734098155499494,0.734241132811424,1.10358517402597,1.56687214374594,1.56337728338822,1.55832463356991,1.5544337589041,1.55167170070562,1.54999130534809,1.54590290531901,1.36895556956799,0.713865299479066,0.713918606418378,0.160624320578443,0.121489030898798,0.0823532982345449,0.242640925194047,1.33314678266507,1.33316354613477,1.33299274422478,1.33363120333819,1.33465090417613,1.33803916899569,1.34101448642354,1.34393611254343,1.34450460536218,1.34578695079142,1.3503794742892,1.35026840166295,1.35004075036122,1.33806456521232,0.160388448881245,0.121257169788468,0.0820257749937292,1.13349724174985,1.3530677849675,1.3529585715527,1.35231018513186,1.35210104232381,1.35191022776728
1.14071016506851,1.14073553044034,1.14145781457012,1.14119790409424,1.14008485845669,1.14090010682434,1.13978686467477,1.14131343531891,1.14877732207707,1.16774478845778,1.155745672128,1.15130923557812,1.14757410085105,1.1431972200581,1.14721874352553,1.15094394881642,1.14706147401798,1.14361513875342,1.14364754549353,1.12653998650685,1.14204383058306,1.14393936541807,1.14145259117407,1.13528442329322,1.14679637929602,1.1524025094516,1.15411743425409,1.14239292791947,1.15078098641531,1.14362719347193,1.1636767445049,1.16465881647879,1.1651973696509,1.16510091873142,1.16599743985942,1.15080997950917,1.1605104780394,1.15377011942397,1.17383291421723,1.17006013770784,1.17467354554059,1.17287136729887,1.17479560477495,1.17352731376609,1.22325984798241,1.26793999999681,1.21338045285297,1.13413999312433,1.14745643317388,1.14044816297943,1.14080277977496,1.12392999987927,1.14607254446527,1.14137331006687,1.14879314788958,1.14235382484867,1.17267673318172,1.17020200576993,1.18095017754381,1.18194075159024,1.18216144874628,1.17915294688759,1.18342363751081,1.17897866345157,1.19394409014956,1.19036330084546,1.20215859087087,1.20138922690334,1.2028256391793,1.20172586891798,1.25256903899148,1.27108522809223,1.27284926604298,1.27398505682894,1.27730572812766,1.28050921132083,1.27765667030789,1.27473433513964,1.30261645951517,1.31726204114857,1.31823570077264,1.31894059324824,1.32982692137102,1.34310724800327,1.33863765717444,1.33430621199591,1.3344045528667,1.33449818628453,1.33503889203656,1.33516711481389,1.33799552436331,1.34082555190029,1.34056527681336,1.34124263983425,1.34045441676311,1.34037901976986,1.34100936895465,1.34274833818409,1.34598289936056,1.35087311545418,1.39717701051091,1.40931566887626,1.40633569300051,1.40843293173289,1.40644025140095,1.40752458549966,1.4053108788505,1.40515678632275,1.40883299706883,1.41600176248312,1.41690629165855,1.41819739628794,1.41706566084078,1.41672235473112,1.42046633927139,1.42289983077786,1.42294711389159,1.42286968106517,1.18773774159575,1.43734,0.842618615772765,0.00374711000000005,0.839320173565695,1.41464,1.09259929747914,1.50934,1.09164561359571,1.62674,0.734241132811425,0.00356402000000001,1.10367270033925,1.57123154782154,1.56604091325271,1.39568,1.54966480001566,1.54908848645738,1.54930160549121,1.51706999979216,1.54579575145196,1.80333,0.714061134057862,0.00353045486628769,0.00289816357460136,0.00376141681949991,0.206104002087501,1.50227,1.41105738569738,1.4611999999983,1.39916259657614,1.50962,1.40773383181795,1.47974999999966,1.34642209416672,1.34928716628288,1.34763266635403,1.35059094753552,1.35007862998352,1.34965215221157,1.34875565734933,1.34867797449805,0.160388448881245,0.00368174000000005,1.13349642944282,1.35301709302675,1.35332748852033,1.35144761485433,1.35218653866186,1.35009199253126
1.14175506926672,1.14159237520688,1.14271603643559,1.14063071244966,1.13818979334505,1.1388463484989,1.13746307110913,1.13755950225922,1.13565192932084,1.13508441702304,1.13592820313209,1.13772239541367,1.140030097285,1.14244787412788,1.14374974141372,1.14464935714996,1.1451539727163,1.14337645450798,1.14241729518552,1.14109385394695,1.14064987352395,1.14109607499685,1.14121532093958,1.14287410291828,1.14628846956635,1.15013108950755,1.15284669775606,1.15485129626144,1.15724607223859,1.15994752637059,1.16286284503656,1.16453157362303,1.16623664075078,1.16511283986493,1.16427645198994,1.16220120238571,1.16089085746688,1.16058178306092,1.17607094095361,1.17626564500628,1.17598665001656,1.18683218207332,1.19779066998516,1.20500481928647,1.22710287463044,1.22855293304367,1.2045262871736,1.16068640375705,1.16186238048445,1.1632560371804,1.16558138395544,1.16774868642568,1.16977033609712,1.17157720873158,1.17294536184011,1.1736427072934,1.17351149414873,1.17267888435011,1.17987185039996,1.18213923244287,1.1850504963737,1.18662359249677,1.18864938282244,1.19284968713513,1.19704484238985,1.20076101994073,1.2026498533479,1.20482968161583,1.20523295034406,1.20505281328219,1.22764046897182,1.23887498569506,1.24950607143245,1.25172625456423,1.25541565052801,1.26131909729265,1.26846750234295,1.27361492107377,1.28947287603354,1.30023001210864,1.31086006393662,1.322508826345,1.32372705686664,1.3247162087618,1.3263592518545,1.32897382483253,1.33165098492931,1.33392678908886,1.33517591143061,1.33615394916429,1.33773824685646,1.33924900722998,1.33945749284093,1.3394671083371,1.33953697066914,1.3394911128596,1.33973083029068,1.34136398039354,1.34185418738667,1.37388830187601,1.39654152972775,1.39883778601291,1.40324806826463,1.40511921886765,1.40448520058109,1.40485027311837,1.40406031172362,1.40413955020727,1.41194657978944,1.41488103457688,1.41649542885803,1.41778930129889,1.41888345826229,1.42153621253096,1.42256252435692,1.42389597056393,1.42319223513617,1.42290584202756,1.18773993882998,0.839906273781931,0.840407522053651,0.839320333065162,0.838572462448125,0.838063007770986,1.09247472440636,1.0921274175199,1.09177996556215,0.983122416306593,0.98312241628072,0.983122416267783,1.10382832175856,1.5688742499283,1.56469293133657,1.5570220305524,1.55161788878,1.54974020748378,1.54959691474152,1.55011296077732,1.55035926589979,1.58324971568393,0.714193156573989,0.126142909755992,0.0020442615048554,0.00265961236294153,0.170736395390525,1.39606220951215,1.39589526297386,1.39577130042288,1.14509764594415,1.14598081439511,1.14773339668674,1.15020765483251,1.15304644096291,1.15319211211279,1.15321142375323,1.15317901193855,1.34591390986689,1.34871963219504,1.34833152591721,1.34818516586249,1.33825989067164,1.33825989067164,1.33825989067164,1.35501814123756,1.35514761935956,1.35471949702206,1.35442588723434,1.35618437658715
1.145070147953,1.15661819301644,1.14746437616409,1.12887103372466,1.1338762575294,1.13139123231357,1.13356604290814,1.13213702828741,1.13099835193939,1.12837936655261,1.12775518654983,1.12368048885414,1.12428893252126,1.12360664382976,1.12328205381602,1.12081734171753,1.14535570194552,1.14176048825404,1.141508508188,1.14033934290595,1.13921269404087,1.13626141956315,1.15623014081104,1.16959493816608,1.17025584426567,1.17080532713365,1.17201672967339,1.19518639903288,1.1726451198727,1.166851066483,1.16349527841868,1.15373980844949,1.17022473463034,1.18888965050652,1.18826834429639,1.18766463954137,1.17508446548781,1.16112633926296,1.17844307481601,1.18072310421709,1.17801012711486,1.21876003166123,1.20510484893242,1.23016454548847,1.22905720031739,1.22969040169687,1.19487265852927,1.15889299623633,1.16102832810851,1.1614816839901,1.16499403682001,1.18098014022901,1.17138728302209,1.17264486897461,1.1729913112445,1.1738690164076,1.17398843031391,1.17395330246615,1.17605417351607,1.18178356821726,1.18891472045501,1.32511,1.20094062677788,1.20042145705851,1.20005045424212,1.20210574375537,1.20250936863585,1.20983720611137,1.2080996089443,1.20809159548289,1.20953717742766,1.20909421740627,1.24633985141115,1.2464286530448,1.2472760245454,1.2469311326625,1.26511015929612,1.27497651698667,1.27073971058457,1.26752920486295,1.29491408110525,1.32510304114974,1.32424446295737,1.32415804825816,1.32546114507273,1.32553585697396,1.31769648398412,1.3062779248692,1.31363597325585,1.30954081341584,1.33706260442032,1.33877427454845,1.33830331106898,1.33741379049682,1.33847944454855,1.33812797487571,1.3377976309689,1.33044407062926,1.33916808768294,1.39246616507777,1.39444757995089,1.39108055153894,1.40078580034663,1.42756000578664,1.4019373870304,1.38767435574794,1.39253758833319,1.38775561034919,1.41783237760155,1.42318939777284,1.42730721006594,1.45834003600546,1.43076696465289,1.42336979840602,1.42432267459945,1.42694331565644,1.43114652948846,1.43531422879775,1.18774344719023,0.00339917000000005,0.839906273781931,1.45411,0.838063007770986,0.00326779000000005,1.0926043481392,1.56163,1.09165991556115,0.00342361000000005,0.983122416267783,1.43367,1.10401900681905,1.5716066566691,1.5675718920187,1.74336,1.58297479597478,1.7592,1.54988631878567,1.55057489742125,1.55052704025008,1.61905,0.714271872150798,1.48176,0.00198408201933685,0.00297220694825883,0.13638698738052,1.3963329341905,1.39596822883176,1.39575111600801,0.34175127091922,0.00356116000000005,0.840701658131778,1.47846,1.15563154800449,0.00409693000000005,0.0895104590234071,0.00381239000000006,1.34591390986689,1.36200782530087,1.36190829375445,1.35998111314979,1.36073978579204,1.35811048609927,1.35755206022117,1.35646709104968,1.35895513748755,1.53421,1.36518344270348,1.36449319187533
1.14856055548276,1.15257830636345,1.15218366113775,1.13568847840168,1.13413628952489,1.13367802689944,1.13320759686252,1.13233000125984,1.13144569275625,1.13018827282749,1.12836016572456,1.12585979505553,1.12534043218034,1.12540299519403,1.12554202302939,1.12672381208023,1.14856460773512,1.15016387875935,1.15177897685835,1.1543247722599,1.15778286477595,1.16167985522007,1.16527637312758,1.16801404419243,1.17038583303691,1.17152230799394,1.17354606980963,1.18579643537715,1.17800924923648,1.16981781613387,1.16158094174881,1.15684040648406,1.17402197335541,1.18776908810454,1.18787261777526,1.18712661646085,1.18520829120642,1.18256397450369,1.17987274271077,1.1785323174973,1.17805735445485,1.17879992725034,1.17943202240614,1.17974255018399,1.176229775486,1.17288359788318,1.17012258813136,1.16876908538688,1.16801644440426,1.16748078958398,1.16681025940691,1.16756102706709,1.16977745146115,1.17164515676179,1.17198537097987,1.17355721348874,1.17411513827721,1.17410657205039,1.17380433205343,1.18244292064148,1.19216143547146,1.20132476394394,1.20088135638475,1.20038774261169,1.2003314416329,1.20120581173012,1.20256867873958,1.20692887086958,1.20902284868473,1.21042972759242,1.21124827098453,1.21181951614201,1.24591421469173,1.2483419142334,1.24847456346728,1.25821435037257,1.2629382344001,1.26267078901629,1.26323433251521,1.26495499105912,1.27843212837519,1.28600803313429,1.29204018625652,1.30528494317603,1.30736001280861,1.309085483223,1.31102793280447,1.31393687403823,1.31832784331838,1.32247716760877,1.33560707465653,1.33658975138591,1.33733024051663,1.33769211675319,1.33863275721149,1.33911700563324,1.33815643756646,1.33756188943908,1.3379705666156,1.39455961936541,1.39703998948746,1.39836951377438,1.39937386571048,1.3991099956532,1.39990928698335,1.41111573790218,1.4156972305127,1.42084547347094,1.42392963217061,1.42555645726258,1.4277974994703,1.4308445119712,1.43027657482868,1.42977330776811,1.43021037895466,1.43132823978599,1.43271050902219,1.43406889573485,1.18774700959186,1.18774967034498,1.18775115271951,1.18775172523942,1.1104878024422,1.11041348626381,1.11030838764659,1.11023407193511,1.10412484174536,1.10414742960381,1.10418085321151,1.104206666528,1.104207297472,0.824872871664422,0.824873162511678,0.824873341930345,0.824873161428168,0.824872869911265,0.280022412987625,0.242194117137178,0.205607621668874,0.170137282585314,0.135603271529534,0.10178028080019,0.00241451741051971,0.00284133179921655,0.102870532555987,0.141372046504747,0.342043754623491,0.341751270861702,0.338125212563147,0.083320120970447,0.840701949068246,1.1586091731725,1.1577356592644,1.15830736412538,1.15844152319071,1.15841466849686,1.34591390986689,1.36293461458978,1.36368136018919,1.36243517922767,1.36363884399147,1.36418330094135,1.36632975444416,1.36601241842849,1.36543415216343,1.36625890894788,1.3659444512421,1.36498931774284
1.1487385336051,1.16866577329342,1.15608991164096,1.13765740062482,1.14333420072741,1.16828997922269,1.14335830983652,1.13252116943472,1.13215579406406,1.13247478933726,1.1303336258857,1.11236998192324,1.12615710394487,1.12734426138584,1.12692283157315,1.12800788095635,1.15223905995758,1.15837567154068,1.1602085054824,1.17442937825373,1.17420410925415,1.17508205840779,1.16993096478638,1.16644343514191,1.17172416861288,1.18128373970586,1.17739829217027,1.19540479990585,1.18633555624549,1.19591686906928,1.16305585517169,1.15443642691711,1.1774301603316,1.18615531108687,1.18774095962746,1.21783000014844,1.18531756109185,1.18225915609597,1.17973049593467,1.17585796426227,1.17699562423526,1.15101997837521,1.1751124786301,1.18446927754332,1.17600452838735,1.16608017781927,1.16936276159839,1.19548173860976,1.18545304348735,1.1982800009276,1.1669756010816,1.16569308633583,1.16796685571932,1.19560000014136,1.16898729222868,1.1450650499695,1.15537978661359,1.15030354372027,1.17072952486522,1.18321761377609,1.19475710471083,1.20125976785751,1.20031948099348,1.19961951483586,1.19937659108432,1.19968158412626,1.20010293982255,1.19734559263973,1.21072406497114,1.21341274196705,1.21296613805471,1.21490425485312,1.24487600802772,1.25018404155189,1.24986953765443,1.26641757246169,1.26143551181351,1.25973046465295,1.26194348407559,1.26372909750365,1.26340363601353,1.26483441476534,1.28845994824434,1.30277585111516,1.30153896996365,1.30034981888293,1.30657624991335,1.32791286292893,1.32418778816756,1.32765977897828,1.33236235109481,1.33447615067055,1.3363500148247,1.3371032261292,1.33899600788578,1.34138141652482,1.33921720979521,1.33770060969872,1.33816171256105,1.40528874953009,1.40171780963369,1.40358747605421,1.40019249904542,1.39839761419161,1.39905252343895,1.4367503661277,1.4353297093083,1.43128466082841,1.43771172545667,1.45250954832788,1.44320480742793,1.43441548499883,1.44662243951506,1.46410605204941,1.46159669932236,1.45533319938738,1.46113627739013,1.46466211474632,1.46522445442105,1.54696999999961,1.46840318486391,1.46813396169839,1.16813434567117,1.46739,1.14802235801224,1.5648,1.14855086092272,1.61703,1.14805454185887,1.4755,1.10436086640333,0.00323107000000902,0.0813409475974929,0.00354829778227339,0.126708860852798,1.63553,0.134129996544359,0.00357255661480196,0.00347825053454928,0.00362219056802453,0.00356223704008008,0.00371259270595545,0.00321092988466482,0.00350762570629731,0.0706074946269637,0.00353910999995267,0.341377501261483,1.70899,0.338143710362729,0.00385071000000006,0.840702128631261,1.38083802778341,1.38125488905407,1.38151650701053,1.38115331182672,1.38110115186356,1.37951535649843,1.37845573376211,1.3672878351962,1.3706400551514,1.36792084397095,1.36951471356744,1.36950093199828,1.37029371643845,1.36847695702822,1.36796288729104,1.36736748267839,1.36558685603274
1.14974657863345,1.16166326990275,1.15955749253278,1.15746431571358,1.15564327325773,1.15389044429079,1.15379022252128,1.15312420238481,1.15325326845135,1.15407886566445,1.15519574558405,1.15611345268128,1.15652604279176,1.15627752238328,1.1553545005071,1.15440272405982,1.15593944675823,1.16034599206412,1.16187542523214,1.17365316982181,1.17357994271508,1.17318068157316,1.1714240344073,1.17016669732257,1.1724292283061,1.17723944450378,1.17759263552318,1.17877760485493,1.17737151954407,1.17475716157354,1.1655879555517,1.16221041823486,1.18033084053414,1.18757397580131,1.18866237004953,1.19114879255692,1.18810066731201,1.18350395591675,1.18018625121694,1.17768097340221,1.17701205341965,1.16235077890213,1.17094409593994,1.17033823718928,1.16962328319977,1.16784937357828,1.16907782584793,1.17222915179265,1.17543607189986,1.17731619211831,1.16811577088138,1.1648951099708,1.16433215223912,1.16473944239818,1.16500279432356,1.1620296602711,1.16001723632239,1.16119734342613,1.16757831075789,1.17264747337431,1.19686444082345,1.2003542963777,1.19917958622629,1.1974840415669,1.19772984891448,1.19801821357544,1.19949830298652,1.20423289681337,1.21168608232825,1.21300294897309,1.21238379824091,1.21379535381025,1.24301738568145,1.25040683915267,1.25093630636895,1.25281432126866,1.25659671800892,1.25939267617057,1.26028465425869,1.26113731120961,1.26176569316269,1.26260114903627,1.2684731127471,1.27482980848455,1.28178400804044,1.29141005504336,1.29626367956311,1.30388556903514,1.31093179692212,1.31702736628701,1.32218791760798,1.32663457662869,1.33056727098249,1.33760574451948,1.33865697542603,1.33992129044936,1.33954053845534,1.33914026264984,1.33946311353533,1.35615288480323,1.36428770403275,1.37782823738757,1.38255235062004,1.38780866334925,1.38914950639524,1.42839413464385,1.43773092253904,1.43750856760504,1.44133022505632,1.45564472920662,1.45886066362878,1.46132234722776,1.46329319635878,1.46480527914288,1.46448977891516,1.46521764837349,1.46574386169068,1.46592355413329,1.46617206131779,1.46636212435632,1.46874512238058,1.46840471463324,1.16818948520765,1.1480497487143,1.14858975150191,1.14850718198774,1.14872511298128,1.14841032756198,1.14829459941043,1.14805454185886,1.10444633140114,0.159465839112187,0.120368338903073,0.00263853511944911,0.00192464465301448,0.00215822504801494,0.00262836823583487,0.00328385310648293,0.00333799757069399,0.00341286619486469,0.00343125509939517,0.00352427555340428,0.00341858685454951,0.00348868671330596,0.108038558228413,0.146757808848658,0.340189775535044,0.339227735349475,0.33829831147209,0.337789518855483,0.840701948273432,1.38115386945709,1.38128364597549,1.38125779668126,1.38089077000804,1.38034667702559,1.37933068217153,1.37862748047162,1.35410265338489,1.35410265338489,1.35410265338489,1.37058942175058,1.37156658389924,1.37179572910971,1.37099737728113,1.3706595846253,1.37006246893266,1.36959402678545
1.15097754848576,1.16296574477386,1.16258925524966,1.16403974659086,1.15594648167432,1.15266864018953,1.15416793412307,1.15982435398951,1.16051072999253,1.16109385861671,1.16054945793489,1.15853783931235,1.1583761255755,1.15706948938103,1.15480874666218,1.15208705970514,1.15925298188887,1.16068512725469,1.16479730459678,1.17274697669728,1.17303645262661,1.17318449285855,1.17183467099648,1.16976584215996,1.17303955397914,1.17519467046701,1.17751494919942,1.18203221554316,1.1779993104788,1.17138298749722,1.16885247362602,1.15647654248362,1.18274331871958,1.18759674033985,1.18777187040058,1.19649910962402,1.19228331953465,1.20499646585552,1.1911827882369,1.23451000000555,1.17643220557879,1.15291002016171,1.17082140600204,1.168935861247,1.16897357832392,1.16535252088771,1.16751266064127,1.16212764986386,1.17651654595659,1.17979309685632,1.16897746856541,1.14999391842216,1.15866551166232,1.1463633652609,1.16349580997657,1.16049205931427,1.16102498361904,1.16209867841215,1.16444302368953,1.16446158224067,1.19865119795646,1.20048683785191,1.19872381163978,1.19292200434004,1.19598482845004,1.19450446991809,1.19760170440053,1.21648543558326,1.21429382301216,1.21637584558051,1.2088991015475,1.20384211626335,1.24024654913782,1.25000267267777,1.25064096930304,1.25091676839237,1.25291635387891,1.26089792816449,1.2587158253811,1.25886480838791,1.26003034878515,1.261305093962,1.26221352007,1.2646941123044,1.27658174940843,1.28906470260447,1.28103806663848,1.27220431761577,1.27882695232638,1.28228026954468,1.28822991106506,1.29625972074192,1.31921134467961,1.33687131931813,1.33786883806784,1.40234999999668,1.33977932663718,1.33987262880087,1.34088572880798,1.34552572730953,1.35939016562514,1.37391416892619,1.37371303771904,1.37355824752705,1.38457656325458,1.41354001621201,1.44008407917893,1.46860737440201,1.45805018358267,1.46223683026306,1.46055054399448,1.46398289461844,1.46349085490523,1.46705849203893,1.46620508731206,1.48992000020335,1.46822353484792,1.46737714296313,1.46729908556317,1.46420206315295,1.47184980802677,1.48010612324848,1.16826746415867,0.00346067000000005,1.15014717096671,1.48491,1.14959807268899,0.00396777000000005,1.14885354221929,1.51349289973802,1.50584105562748,1.51614794915563,0.159465839112187,0.00323995769961115,0.00250425720583387,0.00324754528813206,0.00312231814688312,0.00381177614706091,0.00334257704818256,0.00343916791405974,0.00333376764232296,0.00361282521605225,0.00352130239502624,0.00358817968747343,0.146294045249419,1.55733,0.339697189167132,0.00376854000000005,0.160328550312592,1.53,0.840701656845742,1.42150439239616,1.42188515390257,1.42261550421546,1.42127363001003,1.82618,1.39147831763672,1.40131566911054,0.834516852748873,0.00363464000000006,1.21554807126897,1.3768183936381,1.37428211461451,1.37445059127096,1.37308360116778,1.37391540714253,1.37284464191841,1.37290539624573
1.15211445445295,1.16334903003004,1.16377573223451,1.16342566457219,1.15931994867383,1.15323348021227,1.15373735517374,1.15806702305895,1.16105829131835,1.16210552053876,1.16154932563025,1.15997989002188,1.15843231816075,1.15528015833667,1.15423801448263,1.15353997401169,1.16144534801689,1.1633544669191,1.16690432721164,1.17113427072979,1.17236651289288,1.17298562797995,1.17287398240414,1.17284858433403,1.17419474661619,1.17568798502813,1.17628933138603,1.17549688322466,1.17524442144723,1.17432081146435,1.18051708691632,1.18339678047067,1.1848656496195,1.18643087192741,1.18681999410279,1.18371303757915,1.18093616604394,1.17878734998012,1.17735558543821,1.1764638152016,1.17577665309067,1.17447860431752,1.17205028857357,1.17041381786251,1.16991586931515,1.17029198627558,1.17074823210815,1.17395270478299,1.17472558337465,1.17126607342663,1.16972327011286,1.16888081655807,1.16798997433614,1.16634655309424,1.16450522324227,1.1609930195788,1.16128773994358,1.16246460429864,1.16362165284015,1.16404409071912,1.20026019059226,1.2003463973558,1.20022003835716,1.19972658455976,1.19800311558548,1.19664799536121,1.19708029727545,1.19819525047422,1.19997739288645,1.20262231595146,1.20593945614973,1.21495444170973,1.23658293014779,1.23950673478836,1.24346765832554,1.24888510189605,1.2500143130349,1.25230105400333,1.25505655551638,1.25706030451708,1.25830600423409,1.25961301282845,1.26076674153424,1.26235796568267,1.2646612328531,1.26716608446231,1.26993249976271,1.27309563718806,1.2770171981879,1.27938258365648,1.28212106017412,1.30082588959524,1.31164779332414,1.31475823649885,1.31818834119698,1.3220142505475,1.3255384000144,1.33052532097774,1.33615221755159,1.33989016780763,1.35061050345874,1.35733228067779,1.36368663018669,1.37164046732133,1.38059730434838,1.42877443201381,1.44181807310798,1.45379388055661,1.45513956430834,1.45524475402616,1.45720486336964,1.45998929392655,1.46300117450476,1.46517282923862,1.46684070738243,1.46859251501182,1.47028337089729,1.46965432957158,1.47137270292605,1.47327956319083,1.47488794880506,1.47752242036442,1.16832260351233,1.1523482806434,1.15164647517809,1.15124544180635,1.15044474932165,1.1500413949569,1.14947838317101,1.49774456031743,1.49823464858858,1.49843600273239,0.250134821285726,0.211274425968686,0.172663258996791,0.134216729716707,0.0958624626331422,0.00339233773641181,0.00308316030430033,0.00299207829872949,0.0031119260923516,0.00346460599244815,0.0963739330418875,0.135592182907139,0.184981874671708,0.339296994245271,0.338912918352219,0.0820725955366791,0.121199412626384,0.160328549588913,0.60763043147362,1.42151612105177,1.421573223481,1.42137474163657,1.41999638892461,1.41870487646568,0.834661618664838,0.834614588687034,0.834544928153174,0.834516852748873,1.21590521111928,1.21690093055799,1.21797553880996,1.21893939087744,1.21966980290178,1.37553612483505,1.37492332193191,1.37488270984225
1.15300810431903,1.1726501430115,1.16704738402092,1.17718459301051,1.16164798902395,1.14345339309382,1.14871678871988,1.13708196156072,1.16326991780817,1.1642167258349,1.16506012731902,1.16795038882373,1.16363183503072,1.15009769233539,1.1525557128411,1.13798002079178,1.16801784051225,1.18884047340084,1.17178326013143,1.17157853043699,1.17202037830944,1.17328409119065,1.17371504821236,1.17446188737548,1.17528595785392,1.17711638119045,1.1756149804906,1.17360088179013,1.17214412552908,1.17018722163427,1.18374260702026,1.18486527647101,1.18643643743447,1.1978437515252,1.1883310246832,1.16896694201272,1.17647940762309,1.15118999990755,1.16982622434115,1.15148999987824,1.17562507228437,1.1753305407227,1.19139979518095,1.23066861433003,1.23023046485944,1.2311554251785,1.20345727617948,1.17615935271169,1.17584478476384,1.16802419546015,1.16887466343234,1.16881022170994,1.16856564764977,1.16872495020601,1.16681493892485,1.15733415073471,1.16070330779976,1.16280814903208,1.16349429952693,1.16400638959266,1.20173516610464,1.23984000008576,1.20193427241542,1.20396969243132,1.19914414178011,1.1966832761144,1.19658037025571,1.18681473990138,1.18868330706294,1.19143370572393,1.19891980747998,1.22732850163358,1.23251751442422,1.2332058069799,1.23951576634293,1.24703002850508,1.24863486948141,1.24834713356762,1.25245585496049,1.25676911774022,1.25658244356074,1.25821989267771,1.25904279451805,1.25949085552992,1.25780574138969,1.25589518169553,1.25565482530249,1.25416297151108,1.25521084065639,1.25508454822789,1.27682367035847,1.30587927592617,1.30866985844464,1.30994564727663,1.31168022017176,1.3130000507403,1.32202236779414,1.3269075058417,1.32547892502283,1.32449617969623,1.32464080133723,1.32404598946431,1.35742557269675,1.36969766718828,1.37712483190311,1.44382019487751,1.44299020968168,1.45282466931097,1.45311756743809,1.45283465349235,1.45117880875832,1.44387234941907,1.44303490347932,1.44105552470329,1.45158316824758,1.44045503719712,1.47421311801073,1.47744047929381,1.47468709515407,1.47282673199,1.47703694380607,1.48615258826989,1.48701336111217,1.4888228448527,1.1523482806434,0.00354942000000006,1.1506794162221,1.49428093949162,1.49555373732237,1.49685536410275,1.49775342612637,1.49824839502923,1.49804580499734,1.49843642057413,1.49685687125878,1.49543807450427,0.1392851287207,0.00349910971308666,0.124685194350225,1.48616,0.116713524736501,0.00384086778694487,0.135591490431254,1.4712,0.338825574496927,1.47243,0.337423726754339,0.00381994000000167,0.0820725957721752,0.00360639000000005,0.607900686865202,1.63085,1.46264043880571,1.906,1.41870487646568,1.41747771740004,0.403888346471342,0.00316585000000005,0.405039362431977,1.39911,1.21554807126897,1.38613,0.398727809461969,0.00361059000000005,1.22013445159262,1.37854445611756,1.37657862050926,1.37693879400624
1.15354830206722,1.15920369540183,1.16019003853385,1.16126452098417,1.16339764639661,1.16552295766625,1.16540946025299,1.16501493684779,1.16423519802416,1.16409345103496,1.16557697013089,1.16784264362877,1.17064570862648,1.17301688706546,1.1747329410533,1.17585500477127,1.17672171077052,1.17629648192754,1.17384268147721,1.17203989953285,1.17148007374589,1.17274369810167,1.17400471131018,1.17467390806607,1.17532245209621,1.17599166539943,1.17565111663814,1.17113244862509,1.16956468609019,1.16848586444753,1.18560594723999,1.1867552837287,1.18921656176287,1.18968637633235,1.18738260491542,1.18208837370511,1.17710056821548,1.17308465462937,1.17019061090533,1.16844929124755,1.1814226329069,1.1949122359348,1.20671166061505,1.23003895314683,1.22912217868178,1.22824822240474,1.22498951713608,1.22252951589791,1.22081880549019,1.21958936349504,1.21851077045423,1.21730720309719,1.21579766977977,1.21388452126498,1.2115440874487,1.20883117375911,1.20592409214481,1.20380801691423,1.20305499143968,1.2026407828303,1.20321498679212,1.20495147899899,1.20210348883043,1.20048031206706,1.1989228145586,1.19719639928984,1.19660236339295,1.18776538828661,1.18774882921243,1.18959957495825,1.19377833985567,1.21411879463065,1.2315779137776,1.23267296353066,1.23728388277728,1.24136382423729,1.24474858247579,1.24749412739112,1.24968811740092,1.25095339423648,1.25383805828428,1.2568426597901,1.25783557243547,1.25835325137979,1.25821928069029,1.25811151480609,1.25698980547416,1.25644924664478,1.25638892711225,1.25672731774536,1.27278564773135,1.30643493402952,1.30795363121829,1.30973456081146,1.31160367621579,1.31265561756643,1.31982795030358,1.32239714473457,1.32549701428797,1.32496909581813,1.32527591231062,1.32471644720317,1.34186777280399,1.35448665374637,1.37389456143754,1.39736120691004,1.41816338658586,1.45260987257475,1.45188525941675,1.45054237885238,1.4482054550338,1.44569405457405,1.44379932649945,1.44272667013539,1.45828464904736,1.4679581039009,1.47635054534206,1.47814406504591,1.47872332823583,1.480073180169,1.4817150795546,1.48433307768372,1.48634415496462,1.48802262137143,1.34307110928748,1.34307110928748,1.34307110928748,1.49470910768029,1.49564793752593,1.49677647577509,1.49734805875197,1.49762400378764,1.49761232165019,1.49745367570931,1.49678136429156,1.49614279641489,0.345725251818112,0.327151014942213,0.327816657575895,0.331075381853109,0.334462543408711,0.336368257555811,0.337698239952509,0.33832215341384,0.338457379567832,0.33753298845247,0.335823377765612,0.335769221780886,0.34575627455042,0.379201111187954,0.608329400188136,0.608548516784769,0.608675819115022,0.6088057486721,0.399786039041613,0.401099487537638,0.403081191866974,0.403951768449251,0.404234455203431,0.403091116664275,0.40164489293728,0.400240062810623,0.399109813286915,0.398727809461969,1.22037649612659,1.37715829522253,1.37653570374931,1.37651820656142
1.15624727227764,1.15742608203581,1.15900835077009,1.15835485300254,1.16624307720672,1.16760108116242,1.17003343005486,1.19720002370041,1.16910932723219,1.16221406078559,1.17291358406519,1.20384000922071,1.18662856147859,1.18931945163042,1.181250425973,1.18054000887144,1.17802856888675,1.17840596194841,1.17580206488901,1.15211000165883,1.16474890412458,1.15702516522375,1.17454000367626,1.17472309967852,1.18478685984908,1.25481000000931,1.18746287012473,1.16523264507893,1.16696080085166,1.16580768284932,1.18793391640066,1.19543509371123,1.192568363736,1.17483001228985,1.20068909723229,1.21109003868461,1.21120154894815,1.21167819535501,1.19300259815895,1.1673858818831,1.18832537513702,1.22882655874708,1.22543705641889,1.23055493935907,1.2283103284922,1.24070776272549,1.23548764241221,1.24571455147748,1.24133525226337,1.27151998822466,1.25961547489795,1.28251001619758,1.27511079696944,1.28321000906445,1.2525290500491,1.26487001374443,1.20519657476079,1.20258786738675,1.2029345127507,1.20176064798265,1.20267127852103,1.21115507848431,1.20109287339053,1.19720940973461,1.19890384527772,1.23864000009812,1.19700256185377,1.18171847443335,1.18466859716357,1.18437484427757,1.18592698181156,1.18435340285833,1.22943716472149,1.22734744809575,1.22589150494524,1.21745817002267,1.23265078210839,1.23424479683552,1.24686730136681,1.24888921772324,1.25095906733813,1.2575852046153,1.2575662932076,1.25795151814583,1.25903474465234,1.26144008238084,1.25778968665813,1.25829840493783,1.2571431549819,1.25867806971875,1.2687098065666,1.30699388764987,1.30213011771506,1.29280760365211,1.29540244782635,1.29639744839713,1.31497972279166,1.31054254016381,1.32658004788459,1.43158999999999,1.32662109129701,1.31506462469102,1.31816438070149,1.31674665898452,1.37044725269694,1.37415045610478,1.40389622399119,1.45320217697504,1.4514750117032,1.44942896463925,1.44646632415697,1.44602108749431,1.44455706538328,1.44400264146562,1.4626946920869,1.48133957791714,1.48158190783587,1.48019072452344,1.48458122630692,1.48765705712287,1.4842312085432,1.4838316124748,1.48636583006025,1.48918937695939,1.49153573181484,1.49662476218545,1.4944339466976,1.4943263930623,1.49549021972004,1.4975656000242,1.49713862134067,1.49766445123911,1.49718236632067,1.49728595153842,1.49660645961106,1.49636117347205,1.49473355293336,1.493259489965,0.326118692107403,0.00355317000000004,0.335391837768214,1.54329,0.337979491421527,0.00377176000000004,0.0822950415385428,0.00356188000000005,0.333015045022763,1.51762,1.02958381759047,1.70933,0.608531839534424,0.00362537000000003,0.608552765623348,1.74168,0.159823265291926,0.00349213000018438,0.151363557701257,1.48523,0.211006988015334,0.00362468000017164,0.0766114664339261,0.00370034000004519,0.155184656185598,1.3928,1.22047040718786,1.39303016199547,1.3933674658268,1.39383317840368
1.1574209945485,1.15777346966707,1.15826261672213,1.15867891347661,1.16929732962242,1.17078692366869,1.17253608532457,1.17544851400452,1.1791440982818,1.18071578233176,1.1819831266063,1.18156239254177,1.18402269949996,1.18469940627794,1.18201968200762,1.17968862583022,1.17646840637281,1.17568356118565,1.17537879608754,1.17508747816248,1.17557591485229,1.17701638533737,1.17949078507416,1.18310123109688,1.18824476512289,1.19517886179215,1.19642722782113,1.19483097997935,1.195783247839,1.19662829889128,1.19762028013103,1.19904058470549,1.20104838928576,1.20359965594707,1.20648560208109,1.2094569429931,1.21070956388759,1.2112878556623,1.2041484832595,1.19006530051714,1.18981223158595,1.20502365175897,1.22179806772707,1.22373462621927,1.22544103647703,1.22796785407152,1.23096801131584,1.23368539478593,1.23723157151602,1.24290268544641,1.25084491934988,1.25991549030679,1.25908976201581,1.25838170574816,1.24278585451113,1.227821321259,1.20725449287121,1.20726617075989,1.20447582895279,1.20235104984588,1.20188643404973,1.20070343840132,1.20058107690365,1.19990486942983,1.20025988726192,1.20114973278449,1.19831767986296,1.18489853617197,1.18456806080733,1.18352132964343,1.18999849612989,1.1927395860135,1.22872571357268,1.22738554207261,1.22543867318067,1.22254547261904,1.23116891969883,1.232635085445,1.24297299377296,1.24447976063735,1.24476421012406,1.24543036283943,1.24660833759283,1.24951282262563,1.25174181982376,1.25324810623538,1.25448863994014,1.25493765771144,1.25516898221279,1.25702014476565,1.26470485984998,1.27658767807959,1.28961105515139,1.29211406178893,1.29551375778607,1.29519354074027,1.31627221002672,1.32049665823166,1.32785402757098,1.32866747787717,1.32763736182965,1.32653078611344,1.32249975037735,1.31858491810722,1.36527229481933,1.37707093925504,1.39278612415538,1.40274066886179,1.41983298451223,1.44045059798432,1.44220098824376,1.45069539157391,1.4554230616384,1.46350906741845,1.46788835912615,1.48228469598926,1.4830756852582,1.48514370336957,1.48701147087339,1.48675879426659,1.48582503016519,1.48558321366658,1.48640734923541,1.48843022421173,1.4905427733718,1.49277282929947,1.49287346737604,1.4932953700179,1.49472690882051,1.49594769865295,1.49643131109029,1.49659418056376,1.49667430095015,1.49675274276768,1.4964086942077,1.49601396062587,1.49482921127379,1.49395679215393,1.04060893321725,1.0406089331054,1.0406089331054,1.04060893321724,0.827911086119856,0.827911377317521,0.827911557303159,0.827911377367955,0.82791108620146,1.02958381759047,1.02958383946878,0.608761218862968,0.608668885926404,0.608536088424383,0.608337077844653,0.159823265291927,0.12075430350655,0.0784109681651189,0.1126092985219,0.142443558497665,0.17302417140048,0.140201441441794,0.108217234893063,0.0764733656606457,0.116268353962079,0.155184656185598,0.793080493920825,1.39313773135217,1.3932537509895,1.39328241219856
1.15771761373759,1.15790022956109,1.15790788492689,1.14117995433542,1.17184007131529,1.17370639837205,1.1736947537739,1.17456411081679,1.1807067063305,1.18816493764262,1.18420063277135,1.17748796897729,1.18378142015845,1.18315231998062,1.18261384878268,1.16803545508286,1.17331062086379,1.17259941335454,1.18445237576027,1.37015999999986,1.29441003087999,1.36458999999956,1.26129422219181,1.28982000005801,1.21196424517876,1.2014617106969,1.19909412381489,1.19208761755871,1.21303573916706,1.26833000004787,1.22637116795153,1.21473998008504,1.22872793577575,1.23943777681155,1.23954110069602,1.2400187556361,1.23857382271415,1.24658998307848,1.21034724674628,1.19098720820298,1.19033386644064,1.19063212464306,1.21590822867437,1.20976801234103,1.22183877019005,1.21854967968303,1.22606913735426,1.22344685422322,1.22485076977531,1.22812292801363,1.23944701848903,1.26103221636778,1.25928946103908,1.25795051445278,1.23313418745345,1.21211208277853,1.20962633686986,1.21037372022837,1.20613114611004,1.20104968353383,1.20041227406959,1.19848913423534,1.1999667101365,1.20116101152027,1.20080587367204,1.2016404722091,1.19994627557484,1.18705780317571,1.18554730849068,1.18098218076418,1.19274354804843,1.19652582304135,1.22832222958892,1.27485999999571,1.22541406682037,1.19547000125957,1.20562756586352,1.19354998266366,1.23946013131008,1.23587789227925,1.24376027729039,1.244212572869,1.24385839300522,1.24182565530362,1.24202929315987,1.24224977343883,1.25237001471597,1.24984976754537,1.25191786083487,1.24963415688562,1.25727097467626,1.25757183341563,1.28643330630213,1.28926246014237,1.29660857746017,1.29384135987548,1.31615377408642,1.33019851545358,1.3280014065654,1.33103720304152,1.3283651280601,1.32910199214395,1.32647062736193,1.31630934774375,1.35921539512531,1.37998791743771,1.38053563095499,1.38108320475511,1.40283497086374,1.43948426955565,1.44049135441988,1.46862571471655,1.46094085869005,1.48599889890482,1.47548971312548,1.50937000007103,1.49042503704743,1.4975550907743,1.49226789907848,1.51098789527901,1.50760570203303,1.50360653051718,1.50642223822853,1.50638241778198,1.48970082513422,1.49172478487686,1.49114360135112,1.49152282900338,1.49411866015907,1.49546496914657,1.49591456263501,1.49611566480096,1.49603026700091,1.49720628252053,1.49619885240091,1.4968971432551,1.4947023109094,1.49411334968207,1.49107060706098,1.61044,1.50842973719526,1.551829999999,1.32503595827626,1.59938,1.32591640876317,1.47674703475707,1.46733948626751,1.46660101747777,1.02958388322541,0.00369810000000009,0.608761218862968,1.4713,0.607913762929596,0.00382128000001587,0.0818090287695387,0.00372884000016244,0.0785801053079739,0.00408411000020737,0.199540773118077,1.63944,0.140123425750803,0.00381826000008467,0.0777795074990209,0.00378746000013615,0.792221132158594,1.81452,1.61480647075183,1.86222
1.15825632341463,1.15891891911121,1.16810730318294,1.17133728276571,1.17243236349632,1.17376784226503,1.17545418962547,1.17800166744135,1.18122881314471,1.18484612376661,1.18583050225646,1.18715969102691,1.18701172081296,1.18749222387795,1.19084931155759,1.19253306638047,1.1938030002868,1.19445830146568,1.19573288829936,1.22872039071113,1.22986154000232,1.23123263435167,1.23231949829329,1.23379344337151,1.23538655436275,1.23726040800149,1.23959303814812,1.24084513311598,1.24158932208654,1.24125930843001,1.24072750700879,1.24039848689836,1.23937952680329,1.2389004035799,1.23885346776873,1.23870355594132,1.23678496937873,1.22102102045991,1.2110806250892,1.21176522032593,1.21310383971546,1.21487803434338,1.21693180855955,1.21908812909617,1.22131081276424,1.22325260075457,1.22555725765471,1.22455909775808,1.22392165120631,1.22200551936501,1.21672655828937,1.21271230837408,1.2105022374573,1.20986330799691,1.20987290132923,1.21046667627914,1.20909590384748,1.20772267686599,1.20475470011698,1.20180347880834,1.20022820257671,1.1995070140992,1.19968085669547,1.19991494670353,1.19996920623158,1.19996636592526,1.19975945227722,1.19962068846547,1.19959000416584,1.19949745670483,1.20753415317566,1.21327639578463,1.22658293727037,1.22537294959356,1.22464602224601,1.22250137750317,1.22109727735195,1.21995202147454,1.2387863170478,1.2372497701986,1.24257027049718,1.24260632169811,1.2428597766898,1.2423799445265,1.24213539471295,1.24198736284242,1.2523976331566,1.25243636269828,1.2528058356881,1.25472531820169,1.2576354019233,1.25700379086578,1.28227168469618,1.28634158581767,1.30370190617033,1.30782428029243,1.31532661561259,1.31891274032299,1.32423745097706,1.3245567335379,1.32634424645017,1.32673764528688,1.32739008244365,1.33435639686915,1.35230250867669,1.35604911603437,1.36503065249798,1.37303763413921,1.38929571149867,1.40371616885645,1.41087197669931,1.42857730970319,1.43390853251202,1.44371649206499,1.45450834125994,1.46389045931072,1.47170496632626,1.47850358524973,1.48444740332545,1.50920135514899,1.50783323265845,1.50735482312758,1.50824579945315,1.50773691689982,1.48741434075058,1.48913464273083,1.4887528442028,1.49000932203468,1.49541573014424,1.49545007101646,1.496018950734,1.49500325406931,1.4946504275225,1.49493514900331,1.49484298606751,1.49449118757868,1.49334483774157,1.49169591313821,1.48811260057132,1.48548829258634,1.48372478610583,1.48201556171495,1.32526546656704,1.32551480659337,1.32580751068985,1.47244393816353,1.46845592252824,1.4671428647139,1.06376887479497,1.06376919143574,1.06376963939254,1.06376995625834,0.607646468652492,0.366201725234109,0.331221618820809,0.30024455195044,0.27297114486546,0.248962554722098,0.227653210785767,0.199462757427085,0.172870351407141,0.142145426921855,0.112177438643168,0.0782468152195819,0.79061617557372,1.58619018190247,1.60291822586869,1.61480869550005
1.15905563574538,1.15940557221633,1.17160882008551,1.17540556850907,1.17848703242697,1.19620191439229,1.19298696393714,1.1935102993969,1.19030082483929,1.2035863846456,1.18803616712618,1.18882854362902,1.19061311949188,1.19429801353479,1.19279322250975,1.19271802565894,1.19357096477379,1.19333306159077,1.19631927097182,1.2273585198475,1.229390114669,1.2312656771276,1.23163700364748,1.23336620998471,1.23475889630298,1.23641811620308,1.24023275737836,1.24285153916705,1.24232681335132,1.24121324441367,1.24021153511944,1.25417999798402,1.23815302613961,1.23746167988398,1.23785309538595,1.23881897803019,1.23260615075961,1.21040084640363,1.21091294427585,1.21154403096583,1.22718759164309,1.23963888196213,1.23897935580334,1.2392814212927,1.23740768265951,1.23513371533552,1.22882548038136,1.22568997045573,1.22450550387298,1.21048998183818,1.21502732332138,1.21199520712134,1.21062685255269,1.21055853068906,1.21035757873288,1.2113794761429,1.20910454664115,1.20721070279567,1.22035079397688,1.23021795008059,1.23406832188318,1.2367093800019,1.22030669147129,1.19885334909581,1.19905058965786,1.1982524107688,1.19916450157331,1.1991782716962,1.19941059791031,1.19928678827548,1.21352547598886,1.22346849218749,1.22501624326277,1.22412405010404,1.22458486806473,1.22127771048856,1.22036081612635,1.21839698294378,1.23906003388374,1.23510557298547,1.24256523312689,1.24136863249406,1.24236286518964,1.24270802268232,1.24216539917411,1.24165333871392,1.26153183641924,1.29883001820923,1.26950904990169,1.26696142029868,1.26223264332199,1.25617651481628,1.27580354121045,1.26568303958132,1.30742654974718,1.31062495602288,1.31415940916711,1.31325277470274,1.32212174165075,1.32220796221481,1.32468411787422,1.32380815114953,1.32849881583245,1.3421726748205,1.34179657649555,1.34373879322217,1.3453850422382,1.34911046582424,1.34962184524105,1.35194744609432,1.40461187621645,1.42362027468749,1.40835041886352,1.39630560041182,1.39747646300858,1.40090153725282,1.4018933132745,1.40345745036498,1.46905459292942,1.52588378158265,1.51826621946651,1.52960001124353,1.51108883567915,1.51297074411383,1.4840988622933,1.48099696815111,1.48458512769778,1.48639081945687,1.50028856815055,1.51652992883123,1.49870198428854,1.48724332010181,1.49361879163015,1.49353341866099,1.49378929956982,1.49315781907166,1.49236353768425,1.48181461464446,1.48440113190699,1.4800701036271,1.48297248765493,1.47896773055994,1.32538361375224,0.00353183000000009,1.3259214758489,1.50209001177126,1.46725482983729,1.46661843897392,1.465581239086,1.46610397939613,1.46440629375451,1.46397633349328,1.46170202412188,1.45926420680046,1.45968040619936,1.45869945472922,1.46052257097861,1.57628,0.264671093675789,0.00347583000000005,0.210850273592094,1.48335,0.150915518901831,0.00362174000020047,0.788496329325046,1.55065996217708,1.58619018190247,1.84907
1.17901221030891,1.18103980611972,1.1827319248768,1.18370412281727,1.18395436356979,1.19043217176683,1.19008935779198,1.18892419175582,1.18791397621002,1.18831283445983,1.18973982171867,1.19130837235543,1.19247665584853,1.19372737095352,1.19329865930121,1.19346178641737,1.19790332306589,1.20273114221205,1.20379122036686,1.22812345983199,1.22896303549076,1.2296482700083,1.22941703376756,1.23177232887154,1.23326196773301,1.23820398304194,1.24178996708142,1.24362334510358,1.24351763894432,1.24208126534797,1.23877605662403,1.23784702659775,1.23716286193493,1.23826990264196,1.23595367212391,1.23213347181975,1.22789136853462,1.22459813490617,1.22669357378683,1.22917774657407,1.23243504461597,1.23694724639399,1.23799618732544,1.23835825788462,1.23761101493622,1.23673220433963,1.23708169412533,1.23697568906392,1.23666213466613,1.23646705198017,1.23545201739651,1.23489373715292,1.23471572212914,1.23471785412968,1.23472493575908,1.2347064387232,1.23476511786567,1.2350601893449,1.23484512884452,1.23493668272436,1.23508452333272,1.2360554679301,1.22803564296734,1.22295663302088,1.22481545961822,1.22627858266267,1.22706564258477,1.2271832959229,1.2267311385165,1.22574444335996,1.22457518653012,1.22379463528134,1.22544172141718,1.22667332204466,1.22789386044122,1.22981781065709,1.23094580134402,1.23159533032859,1.2431368104985,1.24473713939458,1.24576098269105,1.24903904873965,1.25040014690238,1.25231986036656,1.25491398068443,1.2582956152702,1.26244952676808,1.26876541134674,1.27178404165308,1.27505373925073,1.27710765613264,1.27764502347788,1.28810206479294,1.29719526743986,1.31047534608432,1.3132313878407,1.31561717895781,1.3180931043312,1.32064262596783,1.32303121912838,1.32629673602302,1.32690783070161,1.32898930911677,1.33861843699732,1.33968633841897,1.34120191976272,1.3433592954085,1.34629745019387,1.34801079770054,1.36704821804691,1.39068443879858,1.39114632394642,1.39343195342532,1.39508506725628,1.39657168324685,1.39917055387464,1.40146690709785,1.40310378624516,1.45324878366988,1.48798039802573,1.49112109158671,1.50214171693927,1.50100504464612,1.49971391619018,1.48156124616648,1.48154068007288,1.48262401554706,1.4936838523559,1.50567891820981,1.50828632746685,1.50102575677168,1.50110012182389,1.49817986032274,1.49648853277834,1.49390188678411,1.4922725403338,1.49053024479038,1.48695206685044,1.48626950628366,1.48514919981426,1.48715174612976,1.32558956772328,1.325587915443,1.32579027895545,1.32591670202488,1.48684993437026,1.46694444604564,1.46483585210975,1.46404610371562,1.4637208807348,1.46311627015993,1.46250121661006,1.46183794253181,1.46122983326722,1.46109309931905,1.46114813617264,1.46240604750441,1.46418413606874,1.03837324688062,1.03837324676877,1.03837324676877,1.03837324688061,0.784009813553996,0.784813035462611,0.786197156933604,0.785845762830579,0.78570205525136,1.50251293281449
1.18071431903904,1.18087253719744,1.18291609155232,1.18465023351606,1.1854602135498,1.18771290964795,1.18744371685295,1.18460068986256,1.18510535239187,1.18327522625431,1.19190302273618,1.19447706305484,1.19436216870091,1.19469189469111,1.19289032582844,1.19046295429379,1.2008607512515,1.20777380058043,1.20745441377317,1.24358476595358,1.22929981428861,1.22146823791821,1.22590805165118,1.22442827500928,1.23008117834813,1.2450575498235,1.24428889517743,1.24617083681783,1.24542986160696,1.24795427512275,1.23483149308696,1.21813810475327,1.23430099093494,1.24236475980819,1.23524890123161,1.21842093229701,1.22191099988156,1.21924859403789,1.23711029548351,1.24472879837555,1.24653074408597,1.26737907066186,1.25939650220545,1.28528000894288,1.27396163819564,1.28831000731299,1.27133110797242,1.29505000005336,1.23766444592056,1.23759263314364,1.23785620678179,1.25729001484404,1.24180285040332,1.2433689973782,1.2429381169858,1.24354189823245,1.24095840614187,1.23546170438636,1.23984858768295,1.24417907031112,1.24738129312934,1.284510000073,1.23579336715106,1.22051731051291,1.22745515043057,1.23270163525804,1.24155122347935,1.24676892615322,1.23814148663773,1.22551097173088,1.22390853314615,1.22096107891374,1.22659591429208,1.22898334536508,1.23017153352395,1.23052927642783,1.23156698915782,1.23250701565362,1.24518206426623,1.2565444101873,1.25647716381393,1.25424988562641,1.25701090303395,1.28465179461227,1.292454764166,1.33703000002194,1.28248495724968,1.27055308574209,1.27373939842969,1.27920425177085,1.2780002196444,1.27797742929968,1.29701576091403,1.31574700678154,1.31634403987579,1.31595739677518,1.31681853271009,1.32182917761445,1.31987576823697,1.33494577882947,1.33075345512844,1.32708241604179,1.33135501085668,1.33432273740613,1.33747177560986,1.33813565210756,1.34057576587692,1.34015483178999,1.34684442173704,1.38875833844582,1.38952180895277,1.38912783037844,1.38114898548482,1.37350034110848,1.38968919345011,1.39896740059369,1.40216206034657,1.40458130906005,1.43774618650029,1.47831996975394,1.4881001147086,1.50287488385773,1.50074712058401,1.49809551922692,1.47958232411489,1.47289432724887,1.47969165616778,1.51980001309936,1.5088256639815,1.51230356812912,1.50260907637499,1.50408039679284,1.50071823268129,1.5018031050675,1.49269176868104,1.49145909235939,1.49028087479971,1.4886600544456,1.48779415738131,1.49951135916209,1.49102210930102,0.00369671000000004,1.32558956772328,1.61107999999826,1.56248579833544,1.61370999999897,1.46887301759138,1.46174678746618,1.46198531833576,1.46157258581334,1.46175387775522,1.46104931636442,1.4618465777724,1.46274352675451,1.46226815642685,1.46248339426091,1.46377919793385,1.46605705866558,1.46436274103472,1.46256632782643,1.46312671480716,1.53757999999879,1.50225976045819,1.52062000003228,0.785845762830579,0.00370159000000005,0.785737127300732,1.77614
1.1802310282179,1.18107107509392,1.18299691619028,1.18462190497362,1.18589620763605,1.18733192782305,1.18821072406745,1.1890628701267,1.19006568865244,1.19129924575135,1.19268591435786,1.19421495215486,1.1957252526468,1.1990092792019,1.20009941257135,1.20168519730944,1.2025851338159,1.20377600893323,1.21264577414565,1.23121240570165,1.22995969409929,1.22839257969903,1.22696858032406,1.22622586988541,1.22672794323956,1.24536307000191,1.24462778465226,1.24409258992241,1.24459429940253,1.24590354717286,1.23190434527299,1.23051061363966,1.23203577038345,1.23291555014896,1.23429776864146,1.23637508060259,1.23835033784509,1.24034588134714,1.24257322242092,1.24524634336495,1.24883332592199,1.25005757348119,1.25217269623924,1.25408521633008,1.25580982434811,1.25703362182219,1.25614003118831,1.24752742361036,1.23779363244032,1.23773904485422,1.23821405324575,1.23913765216253,1.24039419206878,1.24132569417085,1.24197469091046,1.24264798913767,1.2435497504413,1.24647087830031,1.24844071433128,1.24988128874375,1.25092264435663,1.25331597791732,1.25361362782836,1.25196600539085,1.24929038617971,1.24768455647408,1.2471392386274,1.24667784235921,1.24597347571398,1.2448503924706,1.24322465025124,1.24114235158396,1.23871991295665,1.23615297302627,1.23365679175964,1.23236016363287,1.23231696215673,1.23257622713305,1.2470701574929,1.25674528151515,1.2585314713042,1.26150258141147,1.26500559680323,1.27631304311112,1.29760577410544,1.30931862814397,1.31017403877635,1.31078704568147,1.3129113410007,1.31490491054388,1.31612265728156,1.31672254861104,1.31687529542501,1.31668507005329,1.31723507393591,1.31721338339047,1.31722269883292,1.31819527058933,1.31838511382489,1.33424872040531,1.33331967775033,1.33403951123257,1.33347633061733,1.3353548978081,1.33786911191204,1.33963008661818,1.34073006966845,1.34098138619242,1.346137124307,1.35523156216469,1.35671783215329,1.35913842830014,1.3623430768414,1.36728390753428,1.38269166367135,1.39978411072705,1.40114820096391,1.4024812770581,1.42782919362329,1.43743764191751,1.44902905647957,1.4616283893753,1.47383260263762,1.48789848781272,1.47796535673874,1.47647938853608,1.47833532355228,1.47875715755569,1.47864493814882,1.47816822903173,1.47756833163465,1.47717816870313,1.47734586345543,1.4783570348288,1.47775696571256,1.47760308236262,1.47855305032842,1.48199092584401,1.48669311003812,1.49039525271447,1.49118760232731,1.50302376712534,1.51007681894679,1.56158461625629,1.53774999376739,1.51568633477313,1.47081232838312,1.45983217888913,1.46049281101665,1.46063540082527,1.46120339486561,1.46112124892132,1.46175329361918,1.46221010643932,1.46283257314089,1.4634445567767,1.46430113044281,1.46495876302473,1.46453717180557,1.46371082194837,1.46369166497835,1.46360566080289,1.46406994570739,1.46413144787852,0.78570205525136,0.785737127300733,0.785894276998876,0.289584993981654
1.1795120436688,1.17994202819393,1.19764901231631,1.28819999999815,1.22004222513696,1.22033752714063,1.21336422534269,1.20485453579405,1.20549549586049,1.20600357824236,1.20884269620604,1.21160182489971,1.20675658060347,1.20142612087236,1.20754714520457,1.2184480206342,1.2104186614216,1.20024421158698,1.21905641939259,1.23297910357003,1.2313068157867,1.25221004735141,1.22752304867597,1.21519852704169,1.22417811447495,1.24676971583,1.24417148647959,1.24055271973813,1.24277887353112,1.25540428556294,1.23014634021938,1.23007597657329,1.2273357926247,1.21379046748155,1.23243451391078,1.26481511795623,1.26319781596016,1.2614254899827,1.26054046659678,1.25905149072237,1.25442339216827,1.24538202686571,1.25008773900261,1.24743883217483,1.25670351467984,1.26008343670315,1.2555287167005,1.23684018991207,1.23805214994247,1.23740139304191,1.23815024715191,1.23885719392913,1.23935825422543,1.23965282775254,1.24105532980034,1.24159554227738,1.24420682554207,1.24729908931597,1.2501854750818,1.25435077218693,1.2531183836087,1.25483917234304,1.25537721084147,1.26417505165025,1.24774810383296,1.24637147007274,1.24681348911062,1.25668179888687,1.24842923397089,1.24418333278517,1.24912720258723,1.27203999364762,1.24435196175529,1.23953493937164,1.23541759901084,1.23305066387958,1.23277278365599,1.2329628000352,1.25009940800169,1.25493346729464,1.26097035237714,1.27740113975795,1.27307219132464,1.2677639452436,1.30336487272914,1.30808135678468,1.30995642930532,1.30877293827654,1.31243339301927,1.33234022158955,1.32964607431658,1.36499000006758,1.35208451330281,1.36507000006358,1.31858983397627,1.31845187404237,1.31668224450722,1.31409287927136,1.31836524642221,1.34252440975628,1.33533618517465,1.33690228122883,1.33411999615758,1.3356690936502,1.33907580714029,1.34191975661273,1.34174345379731,1.34206209033475,1.3458023981199,1.35518334427199,1.3535076734934,1.35506417488689,1.35613543236552,1.35869999121607,1.37573443274545,1.42702938436368,1.42011167135724,1.37794999992029,1.41703454522346,1.40445421184839,1.41327505182783,1.40478002427361,1.46284205674258,1.50940000006736,1.47242704231278,1.46199263155385,1.46296006517799,1.46174929495188,1.46123632690779,1.46099121713911,1.4603846366358,1.45959242336114,1.47587059520857,1.48094878455238,1.47872164323804,1.47858081007974,1.47461382488994,1.46667657547923,1.46690013884674,1.46261235536966,1.47911010601512,1.50261858896834,1.50965017204107,1.61755999999917,1.51128173364102,1.47352059880378,1.47260773555221,1.45714905178759,1.45909077672131,1.45920076507643,1.46078134850317,1.46040956222795,1.46166844241355,1.4615282873309,1.46325708923553,1.46426536768763,1.46486569564237,1.46506837493404,1.46497470786449,1.46414992199841,1.46417882661247,1.46303435655838,1.46425443627143,1.46405620860383,1.46536228767479,1.50377999999781,0.786248826856635,0.00344280000000005
1.20986343080365,1.21119806714629,1.21519848252481,1.22045049019845,1.21969378498614,1.21890281200055,1.21854091758972,1.2182534312826,1.21802626268435,1.21786685378814,1.21784829474204,1.21802320900062,1.21832689028773,1.21861607982547,1.21877963343639,1.21884597230368,1.22266223849461,1.22512353007535,1.2265720826298,1.23304176922881,1.23149775155506,1.23000423086173,1.22863454617493,1.21947027907697,1.22184062866558,1.22202315668324,1.22221664505867,1.22286864746098,1.22370015883457,1.22551414310675,1.22657397630158,1.22582546050174,1.22273872575816,1.21717913233413,1.23015274901316,1.24356769192009,1.26351971820842,1.26205528682637,1.2609616946488,1.25811371929778,1.25673432533104,1.2550472310498,1.25338347962622,1.25360689029407,1.25518352155391,1.25534608841598,1.25524724243125,1.2401926381607,1.24007813855928,1.23870347255666,1.23822479863839,1.2378979315731,1.23860810305334,1.23945360114506,1.24104995252872,1.24268117172485,1.24453101824315,1.24696531351147,1.2494520281026,1.25192028240763,1.25266498874981,1.25367479057395,1.25394662332479,1.25068126548243,1.24739922044239,1.24612979531015,1.24684451705894,1.24935702137035,1.25152742080415,1.25255235003898,1.25439988982044,1.25529352319813,1.25074164866481,1.24810492228104,1.25022922646735,1.25249561375582,1.25490061346416,1.25745217467514,1.26006706255034,1.26262584782274,1.26270042719667,1.27494322006502,1.27385922109835,1.28770995124248,1.30791217777475,1.31041306784385,1.31258752630903,1.31407156890933,1.31535079337155,1.32563258182215,1.32706706645944,1.33179594186101,1.32628273636338,1.32354774935959,1.31942141202128,1.31780863621557,1.31664949340176,1.31592642974832,1.31963798974103,1.32248363618223,1.325726383655,1.32886803009983,1.33018688798779,1.33302779157258,1.34086500478036,1.3417015262501,1.34226330942975,1.3433123014682,1.34570168573318,1.34947574813388,1.35123336426495,1.35242619328736,1.35470095251465,1.35631174387088,1.36910627059158,1.42867300042808,1.4304904125624,1.43202028393821,1.43320037532189,1.43442906580787,1.43482846840956,1.43522435406638,1.44368909647521,1.44950393427777,1.45617151297375,1.4634966867226,1.46549797124407,1.46271616272144,1.4612541027638,1.46074868420778,1.46069534474456,1.46141521026593,1.46408130996482,1.46667564174679,1.46884911135409,1.47039633588241,1.47131523009111,1.4689422768957,1.46841912047618,1.46844925916364,1.47110298103026,1.46952453595284,1.47022194021223,1.4708846954724,1.47176836776674,1.47287154192031,1.47325521834632,1.47301556739964,1.47123357058246,1.4674022907324,1.4644774502787,1.46354766073656,1.46285209319887,1.46299200307922,1.46435006921456,1.4651556003376,1.46581991113177,1.46581568329223,1.46619224164397,1.46599569165727,1.46595511696715,1.46566633446338,1.46592778136679,1.46607795500096,1.46662151981209,1.46729529876052,0.786478491263708,0.159913105792085
1.20940207682653,1.21026232863734,1.21773522705443,1.22121840467516,1.21929312021494,1.21701791879955,1.22282680526408,1.23248742101796,1.23258594579833,1.23260094990793,1.22936685977001,1.22609936477319,1.22845922107444,1.23071716738295,1.22287835151245,1.21598569113226,1.22437909128528,1.22627095712264,1.22958986705723,1.23610516249648,1.23224435984076,1.23062063942279,1.22922756246894,1.21743398938915,1.22189775734157,1.22181094801126,1.22194075483104,1.22192571756449,1.22270009347574,1.21074955681143,1.21759333265806,1.20872395435769,1.21897466484913,1.21476762908173,1.22735740856651,1.22418394646979,1.26553496539221,1.27453783103419,1.26475459424441,1.25550059914356,1.25909409220815,1.27096709566155,1.25555109625246,1.25576263489148,1.25518426421994,1.25436422981385,1.25451302219779,1.24278335260249,1.24317920858801,1.24976990984095,1.23778965866268,1.23595584875864,1.23771693714679,1.23815439520914,1.24148087354691,1.24365288985936,1.2597918190787,1.26694631014725,1.26702302202633,1.26840271243641,1.26833853177241,1.27017849817855,1.25515369794941,1.24174241071433,1.24503155888671,1.24336443483376,1.24501045392765,1.24227566902938,1.25551200853678,1.25780913360808,1.25675802531466,1.2571100637691,1.25375949363852,1.24354346422639,1.25786580132142,1.27129301928895,1.27154282180924,1.27128788168971,1.26816844402977,1.26512541762243,1.26447999245255,1.27358169776046,1.27363521348827,1.31920997849254,1.31225014112941,1.3188642518321,1.31576366212374,1.32180124144956,1.31912990449136,1.3236641633088,1.32532620232879,1.33724595768306,1.32425626575292,1.32249250594434,1.32196529716515,1.31515607784981,1.31593050654595,1.31508116235067,1.32004569526509,1.32097491226077,1.32330478366138,1.32118916258687,1.324820574585,1.32153308942976,1.3417114687882,1.41915999999704,1.34230284816509,1.34327098445634,1.34342978453455,1.34166942745359,1.34870676840229,1.34867387376362,1.35397824920105,1.35556933289124,1.36272592363759,1.43180549802558,1.43080778742448,1.43180513058392,1.43249110006051,1.43501151135485,1.43420610557243,1.43519774097774,1.43473791210455,1.43654022963122,1.44704871612069,1.47690178192124,1.47321817657033,1.4774518303975,1.46062923949092,1.46026467558534,1.46041319065935,1.4809399605811,1.46028996858495,1.42700800658031,1.42813933695086,1.42796329408214,1.45069809741335,1.5037800000469,1.46876723698837,1.46840398688737,1.46882240112655,1.46599417453622,1.46337388865004,1.45211091825517,1.46009022539892,1.62956,1.47413535480087,1.47538183359368,1.47354532116818,1.47556715013264,1.47676081738298,1.61701999999955,1.50663720215422,1.46298277555943,1.4654762972749,1.46592819124445,1.46679286097741,1.46596838696099,1.46737504026008,1.46767434167274,1.4675498502839,1.46791156603528,1.46740745432125,1.46787675122895,1.46755383751876,1.46797497529804,1.46703697269609,1.46567019628563
1.21346793134397,1.21524524982152,1.21741823728602,1.22004420223212,1.22264752464914,1.2255119979864,1.22837460374629,1.23115575719414,1.23258088733287,1.2341052462417,1.23583421112525,1.23769478245934,1.23939133413199,1.24051729066758,1.24073572596549,1.23995284872127,1.2384081149727,1.2366015470384,1.23506959774598,1.2341680850705,1.23295781724041,1.23220310204726,1.23183373014638,1.23211043949781,1.23324980413028,1.2350641771139,1.23703556540028,1.23864414091804,1.24074498487902,1.24226080543188,1.24292752633505,1.24297974707417,1.25283915043232,1.25749607969894,1.26080991104154,1.26352717896607,1.2677297417818,1.26992144344474,1.26728601301007,1.26647570287426,1.26455683480583,1.26155869474566,1.25751142588081,1.25715036777074,1.25559524723307,1.25419912576237,1.25428795869036,1.2423838289628,1.24192931502947,1.24057930348284,1.23917444025968,1.23809213614541,1.24582108853898,1.25019475343283,1.25348701140325,1.25684692238002,1.26034744470664,1.26483099446044,1.26605783414933,1.2672778868576,1.26770255495475,1.26324043202646,1.25615794431374,1.24749726353249,1.24711124604819,1.24698877712206,1.24598014670298,1.24429682607769,1.25687817368201,1.25782527092175,1.25858179847174,1.26111558464762,1.26376144053784,1.2667143496874,1.269973228835,1.27159488768967,1.27168734887465,1.27040207356727,1.26776970552378,1.26580222283526,1.26568263368768,1.26951170203675,1.2736451770505,1.30518623870891,1.30963009949799,1.3134214933423,1.31640935180418,1.31868571516795,1.32006274459843,1.32098808269197,1.32118345854715,1.32091638257346,1.32039339599471,1.32357850205174,1.32511953900877,1.32858808776875,1.33067627140243,1.33225856056267,1.33336159304245,1.33418776813707,1.33499561951293,1.33605331918471,1.33761866684578,1.3398189988153,1.34239467648635,1.34180218021678,1.34162179487203,1.34254753137802,1.34304980467592,1.34377304465876,1.34627963545193,1.34885721049522,1.35167016523744,1.35265855254518,1.35782376915842,1.42941848950842,1.42927778810182,1.42957929560297,1.43033098131832,1.43114046916371,1.43165374689912,1.43209938951657,1.43247568294323,1.43898356672841,1.44167721926971,1.44455973381669,1.44726128130428,1.44933553814446,1.4506560608853,1.45143087478396,1.4519429981626,1.45234737681867,1.45257312654447,1.44359281353717,1.42962851718096,1.42996507744732,1.43746325053696,1.4419939487048,1.44668549997936,1.45292609774305,1.45508561567084,1.45873335198813,1.45996646082944,1.45738370143869,1.4598419634217,1.46197934384593,1.46552538593975,1.4695028034106,1.47284403044059,1.47533172333986,1.47675082226635,1.54890976734676,1.52841797009487,1.50633014196625,1.46795723811563,1.46736258862181,1.46873326340601,1.46840190970943,1.46918805157362,1.46876129907847,1.46864111003762,1.46835896483365,1.4681541274318,1.46795146181718,1.46797856121637,1.46797789754371,1.46765718353982,1.46654053107431
1.24632184996894,1.24344592649522,1.24205583446344,1.24072501015675,1.24387894486091,1.24708890346854,1.24874786563493,1.25041129262086,1.2477903631101,1.24511895108651,1.2456882205394,1.24619721186766,1.25659746370634,1.26775300293563,1.25875698574768,1.25061717584896,1.24978992662174,1.24900372329443,1.25018585625333,1.25125039212395,1.25542529884859,1.25942874049356,1.26084080976436,1.26163166103072,1.25116143813633,1.24317610359228,1.2405032060698,1.23762707298899,1.24059758160369,1.2430056813532,1.24300680595209,1.24276788315726,1.25407537044062,1.29318997245108,1.27535100294012,1.2725662528422,1.27447492414615,1.30558000013472,1.27532435476662,1.27510630551776,1.2697781314757,1.25009920834079,1.25588563196586,1.26034681367774,1.25560723720171,1.25276746227595,1.25453365549446,1.23130374659521,1.24009406572316,1.23799510697324,1.23840620611149,1.23810420416033,1.25022529176438,1.25595175336736,1.26102453026584,1.28232110870235,1.2834937108305,1.28284672470556,1.28437466384942,1.28621189046586,1.2719692290281,1.2558180900857,1.25677233130132,1.24809464893998,1.24883157239906,1.25229667171892,1.24800023083574,1.24305744204688,1.2591833713391,1.32352000000975,1.28280468130197,1.29606577383689,1.26984467524788,1.27146676255221,1.27169494816174,1.27325732380787,1.27272362973746,1.25343819477419,1.26632996645366,1.26454232412795,1.26369155902842,1.25828941506035,1.27404183246533,1.30032688698618,1.2876167683285,1.26781288525829,1.26870886980593,1.26783941148185,1.28344422915391,1.28391731300906,1.29098812073914,1.29358978586662,1.31658851171298,1.32627167891323,1.32727836384557,1.32969579879209,1.33132985794895,1.36434998721804,1.34448442074109,1.34149212851859,1.34481851429851,1.3480781891924,1.34945608113423,1.35083014974854,1.34631512017833,1.3381650492078,1.34050611006651,1.38922000015255,1.34254659540733,1.34403828409312,1.34386397334809,1.40106000007481,1.35118431342177,1.3507289880469,1.35436154453426,1.42742099578636,1.42759131351865,1.42706169067387,1.42807160276589,1.42763689054523,1.42915730404673,1.42870319152312,1.43063975398154,1.45389831690467,1.43347060186705,1.41578649758988,1.41845908522193,1.41966763146146,1.4214489775042,1.42337552220303,1.44058842353537,1.45238418210149,1.4525578768439,1.45261403559607,1.43078488548719,1.4321394021192,1.43302634136965,1.43341851149279,1.44427149036493,1.45193780817223,1.45378888015805,1.46153201345416,1.45226016072477,1.42272997989709,1.45736780361673,1.46057185586921,1.46369612352211,1.46952050203731,1.47163719881142,1.44295999989911,1.47695448926437,1.6039299999982,1.55205141500055,1.60248999999893,1.4702597404061,1.46352230742297,1.4707021148242,1.60397,1.47078799523627,1.46899895263347,1.46904823531606,1.46877651042857,1.46839601179421,1.46811070648711,1.46814999983057,1.4686197866609,1.46911063046798,1.47139144493405
1.24937516422603,1.25042117515076,1.25206123280295,1.25427943465904,1.25690401413584,1.2596680150492,1.26230773726416,1.26463272847322,1.26653617229582,1.26796352080994,1.26887701315137,1.26923922348484,1.26902545463595,1.2682902417556,1.26778992472971,1.26703748726326,1.26618965890845,1.2653895074167,1.26469337927821,1.26406669128265,1.26340925701483,1.26260372373594,1.26164180384556,1.26103621228394,1.25976897367667,1.25845685935647,1.25729780100796,1.25648222976161,1.25601478043101,1.2556293603724,1.25442350332148,1.25065306321281,1.25733371394435,1.27993256601559,1.2783426102577,1.27770945352027,1.2762259009388,1.27437496208208,1.27542045349118,1.27530979508261,1.27377058783693,1.25072749612557,1.25393129621197,1.2561239521777,1.25635781214477,1.25595185239463,1.25676380904546,1.25754807795313,1.25800440219076,1.25719482669465,1.25706237947338,1.25689977488623,1.25956117947026,1.26258673139625,1.26760220522876,1.28389948498348,1.28493963283294,1.28401951568157,1.28394698089373,1.2837977399033,1.27920771507456,1.27605262451812,1.27462225972197,1.27340622632837,1.27236853471019,1.27132947194751,1.27014931850351,1.26877443522001,1.26798191241138,1.26735887699016,1.26673061931518,1.26699899194848,1.26810288221596,1.26936991844864,1.27174848906541,1.27367783338915,1.27562130846858,1.27744255787247,1.27771754276812,1.27746383506209,1.27672854061609,1.27575409473938,1.27499322441567,1.27161863876829,1.26893140480614,1.26822039988633,1.26996978834861,1.27605791679026,1.28369532826245,1.28514648777828,1.28798033170294,1.29098855984854,1.31294609057562,1.32651234093132,1.32771157844454,1.33195478690463,1.33297893094264,1.34875880551956,1.3475505043954,1.34862298412354,1.3494104718562,1.34961552361929,1.34927250753084,1.34851482219951,1.34561148935041,1.34250254413192,1.34062933349291,1.3401808402204,1.34073282973727,1.34197643716897,1.34142771605838,1.36134685815643,1.35110166886974,1.35094218404986,1.35207400190109,1.42692233839408,1.42697168289454,1.42699613220374,1.42747952108814,1.42781802251318,1.42855799444402,1.42865044846386,1.42823487576763,1.42678369841053,1.42403173924603,1.42011236103683,1.4198677983316,1.42052889805074,1.42119735023945,1.42189446416111,1.42298363134143,1.42451727846893,1.42637253531761,1.42834693422126,1.43025437388993,1.43196471495087,1.43340063451065,1.4349493812106,1.43771586203256,1.44001322328768,1.44177603567817,1.44303932932348,1.44514344870886,1.44676759548852,1.4542308791828,1.45650212435663,1.45853690803495,1.47176293047901,1.47316987971406,1.47495439580282,1.47612387215714,1.48663371463911,1.48452573973415,1.47998023460033,1.47272088789531,1.47326463478719,1.47575066820748,1.47563481520758,1.47273235687222,1.46970529490956,1.46942497061876,1.46919507745382,1.46870561008872,1.46815000702375,1.46822946699494,1.46840172572631,1.4690692228178,1.47008918773987
1.28696174327256,1.30476641857295,1.29545403486788,1.28909796700535,1.28121804177554,1.27143769199839,1.27097090687219,1.27058746972958,1.27015824996973,1.2698479419739,1.27814494033521,1.28593064668666,1.28331927591323,1.28052549659658,1.28051140053994,1.27966007817818,1.27990423208397,1.28002454834008,1.28088561163913,1.29112784772947,1.28724303402263,1.28479005198943,1.28528134392982,1.28637542524599,1.27917638595864,1.27231236433023,1.26690559515935,1.26167544644604,1.26125473922526,1.26097880946168,1.25766668211099,1.24586892240901,1.26794916292189,1.2820170832367,1.28038210265159,1.28263354250227,1.27897167913691,1.26774630735929,1.27717919573576,1.27980802481867,1.27494642863756,1.24765940237238,1.25388928758951,1.25457356210201,1.25669120555233,1.25802949147707,1.25906641782763,1.26025099999129,1.25873151664907,1.25580705404413,1.25600469842307,1.25458515040284,1.26192627311417,1.27433910157921,1.27181359862019,1.29010847114278,1.28781100240376,1.2661136317713,1.29286343516119,1.30506799344836,1.29014767857223,1.27447728399097,1.28204309282297,1.2893798336986,1.29186212523142,1.29402737483808,1.28044163996269,1.2681087761511,1.26790287231892,1.26766808041096,1.26648858296026,1.26522710969579,1.26643702892863,1.26584120579773,1.27533169732458,1.30459002036693,1.27830685629586,1.27871510389747,1.2821976667847,1.28496588260693,1.28544371979057,1.28560803726423,1.27886143569172,1.26385908278111,1.2674218757721,1.2653977075775,1.27228499061898,1.29786552869232,1.28366512350311,1.28573098079143,1.28510845275864,1.27875543594921,1.30918621218027,1.32526007491975,1.32897667027417,1.33855114922698,1.33520986650935,1.35015291148054,1.348417462159,1.42070999999636,1.36433174196303,1.38600002330712,1.35436933096749,1.35888798766399,1.36322972088219,1.39362001498859,1.3634006487132,1.33843950520653,1.33900965740902,1.33623891090403,1.33884212485391,1.38140004045654,1.34236087148492,1.3365120403372,1.34794885923356,1.44882999999804,1.37666132529254,1.33373949550061,1.37970737397333,1.43602546224802,1.38270581621074,1.35589685664876,1.35520950994309,1.35519491046092,1.36243287079395,1.37503001866006,1.38590297555383,1.40247362445059,1.40304250981409,1.40359372910279,1.39373300969946,1.38509925338415,1.38462984954931,1.38414197821137,1.38416932176384,1.38417436536186,1.37523530842048,1.36982549648055,1.37011749625329,1.37153087461782,1.41866351035279,1.44179223513457,1.44462873042788,1.44716724388728,1.44205118068885,1.42653204409649,1.45402642682215,1.47332856331358,1.47397284361225,1.47514389692981,1.47583677739707,1.48958295843414,1.46502832795048,1.46156568617333,1.46763029905073,1.47922185205534,1.48171958118421,0.00360910000000004,1.31199349945504,1.46674832087193,1.46877749566359,1.4696880729029,1.46840411800621,1.46777275820906,1.46772515923514,1.4680271583807,1.46842519064524,1.46941517020584
1.29741216107813,1.30109051208104,1.30039623047058,1.2997489162036,1.29905579808466,1.29815810825528,1.29686209229113,1.29511160179524,1.29304051708773,1.29084326351741,1.28867371902826,1.28656172509607,1.2850297050979,1.28330315920408,1.28125144010816,1.27974339986784,1.28014405524625,1.28108569019827,1.28254135403537,1.28640434335804,1.28610712766229,1.28515717838437,1.28500737244396,1.28505756187714,1.28420380449406,1.28378090721331,1.2836881366999,1.28375740917526,1.28378325750228,1.283566588488,1.28298147342824,1.28179219549124,1.28035907723199,1.27956326873878,1.27942424048382,1.27969543928881,1.27880984246692,1.27790151955654,1.27731480064756,1.27740012475162,1.2760237100194,1.26534617400134,1.26521710852685,1.26336285224609,1.26167764395999,1.26103745473397,1.2612358582061,1.26163686848353,1.260471887904,1.25947757960522,1.26155167474984,1.26447486433889,1.26742007593061,1.27038887055823,1.26990653586862,1.29440633143749,1.29800086758753,1.30063480974998,1.3023946989129,1.30353214700833,1.30284105258564,1.30189804479916,1.30068403685079,1.29918526268098,1.29759004641372,1.29608985732173,1.29543481503656,1.29414804738409,1.29272639422864,1.2905981246069,1.287797112806,1.2847300835739,1.28198386432955,1.28010104278866,1.27893156212306,1.27772032068479,1.27808303489482,1.27931432677531,1.28274730717724,1.28461684824822,1.28599858992233,1.28474678311891,1.28287730188265,1.2723510237986,1.27152548440279,1.27324068756067,1.27390404824679,1.27814168983158,1.28280805782631,1.2843702521662,1.28457623458663,1.28472172834198,1.30495881824909,1.31265370600255,1.3301382065644,1.33522422713545,1.33503334750242,1.34880610764944,1.34777886826618,1.34722145099979,1.34732290278944,1.34834839521569,1.35062511690371,1.36238426156905,1.36850172048763,1.37455170621242,1.37153176797028,1.3648757023581,1.35748679087037,1.35005764325537,1.3370957734755,1.33639195947994,1.33652128289625,1.33700988800958,1.33788013914121,1.33821700492196,1.33785331682078,1.33685482825918,1.33859285327791,1.34007284754132,1.34161661170727,1.34364391028936,1.34646129202758,1.34941958734848,1.35099323405671,1.35281891550215,1.35535602788481,1.35892511403517,1.36328544176669,1.3680133290324,1.36720693102413,1.36627476969516,1.36545019294306,1.36510819153766,1.36532205452311,1.36586415633922,1.36613801810891,1.36839590630415,1.36877789108793,1.37028188465604,1.40586839656278,1.41317542886747,1.42008287682112,1.42609887021011,1.43694938140992,1.43726885087338,1.45108634450643,1.45067082687813,1.45226109501232,1.45415973397201,1.45663191660394,1.45941399076362,1.46182408007927,1.46343850450022,1.46579628969096,1.48503264428343,1.48634413382355,1.31199349945504,1.31199346173633,1.31199341934991,1.31199339941303,1.4677105238655,1.4674239920736,1.46691624844799,1.46708669368789,1.46712655536952,1.46753777862041,1.46796643539441
1.30170125681033,1.30184275677831,1.31030968843614,1.32310798525856,1.31270700860957,1.31044453667091,1.31087448802599,1.31010116706765,1.31056113874696,1.31103006531985,1.30995360412526,1.30761973785168,1.30005350753757,1.29323988748764,1.28791649777719,1.27785217148554,1.27997551385252,1.28196899752042,1.30035745657149,1.31085084484285,1.31337856776738,1.31879615689391,1.3137760933882,1.31017938172302,1.31021898875963,1.31032451270243,1.31501090311708,1.33422432042682,1.29970622219621,1.28478050443617,1.28324927649551,1.28179200697896,1.27957497805198,1.2764691265714,1.27816606845152,1.27864343018194,1.29371041732518,1.30890848729729,1.29602460584798,1.28928853094367,1.28381791344337,1.26508456289387,1.26655613229158,1.2691195772285,1.26598269558868,1.26363517123222,1.26313989791578,1.26448896824488,1.26193743757151,1.25954061481736,1.26088710960916,1.27979618694686,1.26846999069615,1.26839781465,1.26879597887619,1.30490116442786,1.30355771416483,1.30860469373743,1.30753347206069,1.31685339596349,1.31546362359148,1.31725846906579,1.31617205074137,1.39255999999922,1.29761103728412,1.2973887602348,1.29589625326283,1.2939141377887,1.29548089038013,1.31685384742301,1.31107002816715,1.31630808752477,1.29783406827893,1.29851331993555,1.28457731833092,1.2763215698666,1.27729821550212,1.27772410791736,1.28478990323415,1.31676000017435,1.28902307169009,1.29349179886927,1.28499739476532,1.273054782414,1.27289479020551,1.27391644305444,1.27262169852681,1.26972151908481,1.28360735403836,1.28477316056073,1.28479230215715,1.28493613701746,1.30044291415769,1.29257317958759,1.33160306822401,1.33304976160359,1.33487890053038,1.38079000012723,1.34711420691518,1.34675159827151,1.3462800206361,1.34633071081945,1.34777280497872,1.40252000007653,1.3751987023374,1.38814862635349,1.38003822053831,1.38826179219447,1.37860674562735,1.38881000523271,1.332542427753,1.32579377552198,1.32617034768873,1.32611021442113,1.32575290622515,1.32535833526494,1.32436945945021,1.3220342284177,1.32988347213213,1.331516667163,1.33573595269974,1.33844272744556,1.34238090914393,1.34970147101769,1.35048231730827,1.35346985490205,1.350660504122,1.35026957333672,1.3582123599382,1.37355697025943,1.35694860360618,1.35030637610345,1.35759025282865,1.36292045076941,1.36283651526137,1.36285094515967,1.36372573470681,1.36140666241635,1.36638205578827,1.36438748410168,1.39240096880942,1.38409738837223,1.39521608334906,1.38431998635879,1.4329800896555,1.47666000008784,1.45007874705298,1.44818686222671,1.43881425312817,1.42612305390418,1.42948611354834,1.42980961371362,1.43437204797147,1.43593361605222,1.44421469757257,1.56868999999993,1.4938197351013,1.55892999999945,1.31199341934991,0.00367178000000013,1.31199341637427,1.46578872199642,1.46604139862597,1.46536563574669,1.46588191397995,1.4660312533066,1.46618224840773,1.46607350898939
1.31759616089399,1.31818556037666,1.31871648639376,1.31869159916112,1.31518059983895,1.31354839267827,1.31215557573946,1.31130129640099,1.31081137114199,1.31088467734166,1.31105336600351,1.31272706477524,1.31382034911765,1.31464349811894,1.31486261288324,1.31403940917254,1.31216128132956,1.30962768981448,1.31041564148994,1.31146677094872,1.3134642347813,1.31532676915493,1.31418387870615,1.3118802210306,1.31316177600998,1.31477819152789,1.31687836982334,1.31954282133925,1.32177923848384,1.32352415908936,1.3241930674267,1.32345696363586,1.32281569535705,1.32085275800905,1.31750953644595,1.31308170493035,1.31038692003517,1.30719206299825,1.30195565712423,1.29640822321813,1.29073897503991,1.28531133653715,1.28071911129449,1.27701576767681,1.27433778775755,1.27235029098693,1.26948707973641,1.26473741601342,1.26315055081562,1.26080735831083,1.26172344658505,1.26412796102626,1.26785369403894,1.26877023357286,1.26900599740628,1.28463531798723,1.30142747051985,1.30259840171107,1.30548583013292,1.30982214813828,1.31202111651981,1.31366906668005,1.31521659026872,1.31616082815986,1.29810737252099,1.29791171678433,1.29685314633094,1.29621907857331,1.29695886197042,1.29846598079873,1.29896756771137,1.29855458597132,1.29728725106409,1.29593089338426,1.29353479261901,1.29183261025323,1.28994982006007,1.28826143159424,1.28671062060587,1.28712449400225,1.28773788271559,1.28729046186456,1.28717478483313,1.29116451840188,1.2950448781951,1.30005218501515,1.30441247886142,1.30796511052934,1.311147296009,1.31499141279362,1.31977426408692,1.32400143859191,1.32744370736066,1.32988142087847,1.33235690996977,1.3338404754369,1.33504786696947,1.33733805670421,1.34019432521507,1.34546804956491,1.34575024414769,1.34477247036375,1.3423845000831,1.33963120271974,1.3345481206284,1.33049469978512,1.32767783838378,1.32607544812966,1.32547964982553,1.32554494150352,1.32586353316374,1.32607809260016,1.32627542394788,1.32609545387066,1.32534376874807,1.32534581605169,1.32463452545779,1.32567427972011,1.32920305586864,1.33223313815197,1.33532787380884,1.3378766442239,1.33963242279564,1.34189982614473,1.34517498245787,1.34767016921777,1.34881797596045,1.3487015369248,1.34736887383788,1.34740924455972,1.34785296733344,1.34885826051725,1.35271821335572,1.3628631013953,1.36303193481299,1.36347226807394,1.36394793920752,1.36466887677446,1.38237863542663,1.39208676306293,1.39908139309616,1.40543852172831,1.41121781407096,1.41638802936103,1.42762715679496,1.42690087757202,1.42692939826931,1.42913534640567,1.43126899920087,1.4315747446539,1.43148370876927,1.43219004163025,1.43363922441278,1.43475256124159,1.43525514959524,1.43632125799403,1.43722734976456,1.43837526155778,1.31199339941303,1.31199341637427,1.31199345649458,1.31199349257211,1.46535242175904,1.46490870935445,1.46488352250171,1.46460388658288,1.46521836844924,1.4656384897884
1.31857862501807,1.32069196296872,1.3191170980945,1.31777440409211,1.31619860222414,1.31577816526145,1.3133686506195,1.31236837555476,1.31914189086362,1.32886319387685,1.32010647813603,1.31355973418838,1.31408395783881,1.31452893010938,1.31922621857187,1.32370592819255,1.31517561106316,1.30619157257845,1.31508985211818,1.32619515873753,1.32651930148742,1.32720352414642,1.32142618420135,1.30935083602514,1.32579186678783,1.34557119994865,1.32874934748107,1.31997831105361,1.32470610719751,1.32981679254018,1.32587877169252,1.32185762732205,1.32848755950113,1.33446946768635,1.32353961797458,1.31075239163959,1.3219032467032,1.33068088850185,1.32953225146057,1.32857887339207,1.32918301444492,1.33022040207868,1.30946611572907,1.30395462362548,1.30332893125571,1.30344342683229,1.28678558510178,1.26648124088084,1.26495058086936,1.25831675987223,1.2616626614136,1.26311790659874,1.26905975891147,1.27038641646706,1.27034439667287,1.27213391985229,1.29845094008121,1.29439201769795,1.30438951494284,1.31034251197453,1.30887116416364,1.29225087590751,1.30760042839792,1.31726024456329,1.29907133037056,1.29951138883617,1.29751120497363,1.29718497845842,1.29763066654594,1.29868155149704,1.29880625336185,1.2986955270132,1.29693718972212,1.29565571405662,1.29482552412677,1.29283811764926,1.29820080286007,1.32319002950929,1.29039065063267,1.26960600588758,1.27896793434907,1.26224999099736,1.28529169478712,1.29855666550272,1.29369850366604,1.3205749841927,1.30971676253108,1.35031000004894,1.32059735038114,1.33026605294091,1.33081422311379,1.3398929719412,1.33582757469114,1.35514002170251,1.33301278747223,1.33559101659961,1.33473290497368,1.33486129376042,1.33776467883468,1.34907484939962,1.34650045426948,1.34471484161652,1.34313947151732,1.34255121339401,1.32199339338349,1.30862813293263,1.30974400890196,1.30910346053625,1.31453020208454,1.32291540104267,1.31484744573864,1.30823262782663,1.31196067639134,1.30185511548914,1.32354134980161,1.32553782651523,1.32256127709911,1.30122265785742,1.30377763386275,1.30192207656888,1.32641430761718,1.33038387721029,1.33788010308243,1.34103209366088,1.34433174525417,1.3480971466702,1.34768456568761,1.34835298419817,1.34611899801138,1.34435265910867,1.34311043737131,1.34355276165833,1.34798867292501,1.4339799999963,1.37511101782623,1.39592441497212,1.37794716265099,1.36538934745354,1.39416183868903,1.41821113995809,1.41973692093722,1.43557002442579,1.42303081368124,1.42304603702809,1.425607657761,1.42369275271474,1.42491273843053,1.4223418022837,1.43345249051535,1.43516379956248,1.43314227487379,1.43339558627524,1.43345549668255,1.43411519789953,1.43458514438039,1.43399468950961,1.43677864743992,1.43932922303482,1.44062692012445,1.44917740282906,1.31199349257211,0.00288116000000005,1.46440995191358,1.46364245475128,1.46319953026941,1.46201199165362,1.46389899032294,1.46418597372035
