0.674799,0.675603,0.676946,0.677394,0.00375174,1.01247,0.00392924,0.00385953,0.0041983,0.0104971,0.00360551,0.00360018,0.741718,0.743025,0.74306,0.744529,0.747156,0.750391,0.750987,0.749608,0.750797,0.751454,0.751417,0.748993,0.749676,0.750213,0.7575,0.760585,0.763187,0.76164,0.762482,0.76252,0.762945,0.760899,0.762465,0.763434,0.767874,0.768554,0.770763,0.772786,0.770645,0.774044,0.776405,0.773361,0.773216,0.774268,0.774245,0.774433,0.771452,0.77701,0.779172,0.7748,0.776532,0.776969,0.777395,0.0038136,1.09877,0.00416207,1.40579,0.787969,0.791277,0.793617,0.792542,0.792339,0.798569,0.800779,0.798706,0.801538,0.803605,0.805832,0.805749,0.807606,0.805241,0.805661,0.807404,0.803825,0.804145,0.804492,0.810132,0.813686,0.828707,0.828869,0.800054,0.798303,0.81836,0.818367,0.817729,0.818291,0.733206,0.757306,0.761502,0.798351,0.790166,0.790331,0.790869,0.781198,0.74663,0.742565,0.768047,0.767983,0.76293,0.769647,0.769579,0.779876,0.780637,0.784962,0.791439,0.789381,0.801104,0.820129,0.821823,0.830627,0.843814,0.836606,0.841947,0.843183,0.84313,0.892603,0.876525,0.877316,0.89624,0.901347,0.935981,0.929534,0.929938,0.936159,0.941553,0.96385,0.963739,0.958027,0.974591,0.975178,1.0024,0.999762,1.03331,1.01839,1.04902,1.05283,1.0754,1.08158,1.07037,1.06721,1.07368,1.07595,1.07278,1.08677,1.09513,1.11133,1.11259,1.11254,1.14737,1.15342,1.15434,1.14696,1.14764,1.12014,1.14259,1.13571,1.14443,1.1482,1.17419,1.17564,1.1765,1.18482,1.18655,1.17054,1.16739,1.18343,1.15711,1.14961,1.17775,1.15731,1.16051,1.16958,1.17849,1.16488,1.17078,1.18105,1.19184,1.18905,1.18603,1.19131,1.19262,1.17703,1.19161,1.19619,1.19821,1.19245,1.20172,1.2088,1.21661,1.21841,1.22742,1.26726,1.26858,1.25859,1.3092,1.31932,1.3116,1.3534,1.23972,1.23906,1.24248,1.23916,1.23993,1.25059,1.33525,1.32998,1.32465,1.38151,1.39854,1.37497,1.37735,1.3923,1.44084,1.41405,1.40724,1.40272,1.39839,1.44061,1.40905,1.53148,1.52082,1.41687,1.41469,1.48522,0.00379797,1.42061,0.00332605,0.00341541,0.00360054,1.45111,1.49571,0.00369295,1.47177,0.00358158,0.00350745,1.47908,0.00375757,1.45892,0.00379535,0.00406451,0.00366588,0.00333904,0.0034615,1.43645,0.00393587,1.45831,0.00354103,1.77883,0.00364336,1.40819,1.63324,1.63269,1.58501,1.63925,0.00374894,0.00362077,1.62682,1.42643,1.62263,1.73059,0.00378754,1.63539,1.50166,0.00402366,0.00374083,1.56814,0.00396147,0.00378961,1.53836,1.55093,0.00359154,0.00344462,0.00372598,1.53343,1.51061,1.56188,0.00375151,1.57212,0.00350739,1.52739,0.00384793,1.74837,0.00370216,0.00371992,0.00387686,0.00365385,0.00378944,1.51821,0.00393748,0.00388006,0.00365706,1.55079,1.55386,1.552,1.54382,1.55124,1.56874,1.56164
1.01472,0.00358197,0.0110781,0.003316,0.00358935,0.00348104,0.00405272,0.00359551,0.733523,0.735238,0.738034,0.739193,0.740399,0.741516,0.743436,0.744874,0.745096,0.744934,0.747099,0.747922,0.748401,0.748617,0.74643,0.748662,0.747701,0.748492,0.748718,0.750221,0.745499,0.747312,0.748297,0.75606,0.753086,0.758606,0.759469,0.760524,0.761067,0.761414,0.762673,0.767109,0.764962,0.765604,0.764122,0.760164,0.760797,0.762618,0.762765,0.764585,0.767523,0.768511,0.769428,0.772932,0.773543,0.775939,0.776177,0.773263,0.774518,0.775134,0.779778,0.783508,0.785955,0.791201,0.793189,0.794749,0.796354,0.796909,0.798974,0.800342,0.801937,0.802159,0.804696,0.810885,0.795615,0.798487,0.802139,0.803226,0.8062,0.804937,0.805502,0.801797,0.836659,0.8004,0.802166,0.804892,0.798706,0.780551,0.753229,0.753302,0.739745,0.763792,0.757764,0.767175,0.767402,0.770996,0.777121,0.763178,0.724783,0.725401,0.750627,0.759971,0.757715,0.759146,0.766712,0.773295,0.767098,0.787935,0.798852,0.805458,0.81187,0.81115,0.825107,0.828001,0.829628,0.854485,0.873377,0.850928,0.867711,0.890637,0.871133,0.872463,0.906652,0.907361,0.932051,0.938796,0.956709,0.964643,0.960468,0.958766,0.980668,0.978347,0.994645,0.974124,0.990028,1.06649,1.01456,1.02525,1.03043,1.07026,1.08155,1.07742,1.08196,1.07099,1.07472,1.08097,1.08526,1.0878,1.09618,1.10814,1.13308,1.1338,1.13149,1.13548,1.13543,1.1599,1.15715,1.17998,1.14906,1.15285,1.15104,1.14653,1.16066,1.18155,1.18649,1.18779,1.18718,1.15965,1.22373,1.22543,1.22424,1.22481,1.22472,1.22759,1.26711,1.25759,1.26977,1.21964,1.22022,1.21526,1.20849,1.20941,1.20925,1.3171,1.2597,1.26044,1.18896,1.19073,1.19404,1.19149,1.19163,1.19134,1.20936,1.22137,1.2402,1.25016,1.26486,1.31107,1.31286,1.31203,1.3223,1.31208,1.31106,1.36813,1.36524,1.36766,1.36813,1.2566,1.25304,1.25017,1.2818,1.28283,1.31887,1.31534,1.31636,1.31809,1.39196,1.39094,1.40007,1.41297,1.4039,1.40552,1.45088,0.00374681,1.45029,0.00359272,1.41925,0.00385919,1.47521,1.42344,1.42686,1.42677,1.42688,1.43315,1.4344,0.00388341,1.4825,0.00360857,1.5331,0.00383511,1.49594,0.00396679,0.00402785,0.00370682,0.00355967,0.00350069,1.55311,0.00380976,1.49667,1.5445,0.00429311,0.00366634,0.00370483,0.0034365,1.49343,0.00382054,0.00407291,0.00330774,1.63673,0.00369278,1.62675,0.00361612,0.00424422,0.00400963,0.00372012,1.57268,0.00344746,0.00348862,1.56116,0.00342591,1.57639,0.00350713,1.56529,0.00373905,1.55953,0.00352267,1.56938,0.0035399,1.54928,1.54401,0.00390926,0.00353782,1.53467,0.00375149,1.52987,0.00331862,1.56806,0.00355238,1.53944,0.00355208,1.5623,0.00345512,1.57609,0.00353687,1.53503,0.00340349,1.53543,0.00388229,0.0114551,0.00335473,0.00362729,0.00369883
0.00358608,0.00385658,0.00376945,0.0036572,0.00375075,0.00391299,0.00368414,1.32102,1.32199,0.732342,0.733193,0.734245,0.737073,0.738719,0.739893,0.738844,0.739677,0.740411,0.738728,0.739451,0.739147,0.740278,0.743072,0.74451,0.742509,0.74297,0.743937,0.74404,0.744825,0.747127,0.74827,0.748886,0.752192,0.754681,0.755498,0.750277,0.750831,0.759368,0.760446,0.759256,0.76368,0.762502,0.759708,0.761315,0.761024,0.761642,0.76307,0.766129,0.765962,0.766801,0.76701,0.760716,0.754712,0.769813,0.769643,0.771623,0.771066,0.772316,0.78115,0.782482,0.782498,0.784575,0.786915,0.788131,0.790767,0.791955,0.789398,0.791291,0.791475,0.792733,0.798523,0.800255,0.797026,0.797462,0.798217,0.801789,0.801658,0.800411,0.798523,0.790315,0.791142,0.767294,0.787575,0.739872,0.74975,0.751103,0.749872,0.730078,0.730025,0.778896,0.743647,0.807254,0.711856,0.724631,0.720608,0.739284,0.737333,0.724954,0.780121,0.760503,0.768138,0.766509,0.773556,0.794653,0.773535,0.766468,0.8048,0.805153,0.79896,0.832212,0.835426,0.836355,0.870771,0.868578,0.843985,0.850971,0.872186,0.893967,0.862441,0.865201,0.922269,0.945168,0.930764,0.937381,0.946549,0.968515,0.985502,1.00783,1.0079,0.980621,1.02225,1.05634,1.05791,1.10888,1.06123,1.04665,1.08589,1.08264,1.08079,1.08156,1.06986,1.08461,1.09212,1.14156,1.08367,1.1149,1.11502,1.09593,1.12439,1.11531,1.14625,1.14186,1.13344,1.17091,1.15085,1.1437,1.15784,1.17292,1.14168,1.17828,1.16408,1.19756,1.22408,1.22553,1.18252,1.1728,1.1745,1.17873,1.21368,1.22327,1.23646,1.23565,1.25742,1.27894,1.30669,1.31276,1.2298,1.23002,1.22174,1.22287,1.22413,1.2273,1.20746,1.2024,1.19924,1.25337,1.23008,1.25337,1.22235,1.20155,1.20304,1.20264,1.27795,1.26369,1.26359,1.25372,1.22959,1.31162,1.31302,1.31749,1.2217,1.21451,1.21562,1.22646,1.22923,1.23846,1.23939,1.23572,1.24365,1.285,1.28838,1.30955,1.29823,1.34703,1.33082,1.42306,1.39232,1.41202,1.38436,1.40364,1.40004,1.4,1.42765,1.41636,0.00357721,0.00367142,1.42569,1.42403,1.42446,1.42537,1.55236,1.48471,0.00339714,1.55369,0.0040253,1.54502,1.56505,1.51008,1.47133,1.53299,1.53135,1.53998,1.5278,1.52815,0.00383796,1.49185,0.00404526,0.00400804,0.00351529,1.63082,0.00377339,1.5369,0.00347827,1.54223,0.00371963,1.54097,0.00350819,0.00407142,0.00357015,0.00399782,0.00370584,0.00424154,0.003483,0.00362443,0.00369056,0.00356301,0.00374669,1.55801,0.00330985,1.56697,0.00377913,1.56212,1.59283,1.58893,1.8412,1.65519,0.00363531,0.00370368,0.0040828,1.58094,0.00361183,0.00407183,1.54048,1.54149,0.00375775,0.00392816,1.58794,1.59003,1.54656,1.54987,0.00336297,0.00365774,0.00367341,0.00368182,0.00366055,0.00350959,1.73417,0.00393007,1.58143,0.0040859
0.00374801,0.00378853,0.705422,0.0037316,0.711241,0.710541,0.714494,0.716694,0.723504,0.723349,0.72535,0.726293,0.726262,0.726499,1.44516,0.736176,0.734905,0.734938,0.734497,0.734954,0.736099,0.735944,0.736082,0.73528,0.736948,0.740189,0.742427,0.737301,0.737602,0.745194,0.745321,0.747377,0.746226,0.746527,0.749445,0.750286,0.751783,0.752345,0.752477,0.753474,0.757667,0.757777,0.758366,0.758739,0.75748,0.757168,0.758912,0.758289,0.760019,0.76261,0.76316,0.764249,0.763676,0.76342,0.765563,0.767583,0.770047,0.771692,0.772005,0.775101,0.779773,0.780095,0.781376,0.783582,0.783593,0.78481,0.787088,0.788481,0.788704,0.790715,0.791107,0.789033,0.790992,0.788166,0.790396,0.789373,0.755969,0.756968,0.736709,0.737566,0.743751,0.764809,0.747524,0.736242,0.760725,0.750334,0.738363,0.777929,0.725424,0.736402,0.738438,0.713821,0.717442,0.718767,0.715489,0.747316,0.72194,0.754175,0.771918,0.771645,0.773642,0.779577,0.791067,0.766706,0.797147,0.803319,0.798845,0.804819,0.832741,0.842561,0.842312,0.843213,0.828768,0.827213,0.849771,0.873891,0.870584,0.894227,0.870226,0.914712,0.928276,0.916679,0.93097,0.933218,0.967769,0.981057,1.00224,1.00801,1.02205,1.01663,1.03039,1.04503,1.06124,1.08854,1.10072,1.09113,1.0847,1.09638,1.12222,1.11221,1.08954,1.11648,1.0993,1.12934,1.17003,1.14737,1.11857,1.12002,1.14595,1.14717,1.13718,1.13923,1.15634,1.15663,1.16276,1.16505,1.16524,1.15238,1.20326,1.2048,1.19964,1.18714,1.18688,1.22597,1.24088,1.1739,1.20112,1.19085,1.19583,1.20682,1.19011,1.25391,1.25448,1.26016,1.23071,1.24741,1.23971,1.23532,1.23429,1.21989,1.22037,1.2821,1.21286,1.21521,1.21318,1.22411,1.22799,1.23812,1.2377,1.28454,1.26812,1.27769,1.21678,1.21625,1.27524,1.26761,1.20992,1.21199,1.20713,1.22427,1.22265,1.20945,1.21271,1.21217,1.21227,1.24741,1.25323,1.25195,1.25463,1.29918,1.28461,1.35011,1.30021,1.30297,1.30973,1.3891,1.3672,1.37845,1.38421,1.38303,1.38165,1.39237,1.42311,1.41075,1.41294,1.45474,0.00368184,0.00391945,1.46458,1.53506,1.4316,1.49603,1.49027,1.52262,1.51703,1.5041,1.52084,1.48225,1.49273,1.48607,0.00359443,1.48126,1.48225,1.48258,1.48311,0.00381005,1.49102,1.49263,1.4904,0.00370307,1.56877,1.53041,1.60703,0.0035136,1.51881,0.00342698,1.55093,1.5268,1.54825,1.54515,1.54345,0.00322891,1.55058,1.54467,1.55891,0.00399405,1.55633,1.5539,1.55187,1.60004,1.59718,1.59849,1.60195,1.58194,1.57635,1.63991,0.00383218,0.00357186,0.00355571,0.00366479,0.00399295,1.61722,1.58952,1.57776,1.57749,0.00377686,0.00367097,0.00385084,0.0038861,0.00363309,0.00409809,0.00410843,0.0037199,0.00378123,0.00365665,1.73325,1.73731,0.00350976,0.00425288,0.00398073
0.00368838,0.928177,0.0038361,0.0101828,0.00315606,0.00361571,1.10909,0.00379775,0.00376665,0.00383381,0.00377921,0.721291,0.724083,0.00375294,0.724086,1.34684,1.35011,0.725111,0.73118,0.731268,1.36345,0.00429015,0.725227,0.725367,0.727727,0.728513,0.733788,0.735957,0.737338,0.739955,0.740806,0.740959,0.740991,0.740991,0.00389062,0.745657,0.746059,0.746638,0.744641,0.745772,0.747046,0.748419,0.747913,0.747623,0.750374,0.751675,0.750331,0.750684,0.758444,0.761135,0.761159,0.758539,0.762467,0.763153,0.759201,0.760738,0.766509,0.768013,0.769718,0.769445,0.768954,0.770543,0.778223,0.778677,0.778415,0.777679,0.776378,0.776673,0.776789,0.776816,0.773441,0.77371,0.742452,0.759448,0.746157,0.720233,0.714052,0.750119,0.709527,0.7354,0.73638,0.735497,0.739437,0.733176,0.735578,0.732283,0.715381,0.728764,0.749394,0.767766,0.75729,0.705675,0.707401,0.756112,0.755941,0.728962,0.755921,0.767886,0.790709,0.766643,0.800461,0.782749,0.772826,0.793591,0.79413,0.822378,0.836245,0.823986,0.840353,0.854336,0.855857,0.856578,0.867452,0.875515,0.86458,0.859279,0.877592,0.891533,0.907983,0.894622,0.917444,0.936645,0.968434,0.978618,0.988283,1.01275,1.01377,1.06739,1.04543,1.03621,1.0427,1.07146,1.06498,1.06829,1.08211,1.07982,1.08069,1.10103,1.12263,1.12225,1.10527,1.09093,1.1225,1.12481,1.11581,1.13917,1.14601,1.14786,1.14042,1.15378,1.15283,1.14619,1.16284,1.16335,1.18561,1.19079,1.19836,1.20194,1.2025,1.19634,1.1994,1.17875,1.18815,1.18969,1.23929,1.21889,1.21381,1.21261,1.20158,1.18263,1.18511,1.18907,1.21654,1.18099,1.19638,1.23022,1.23031,1.21243,1.2362,1.21968,1.21918,1.21804,1.21184,1.20214,1.22569,1.21002,1.20944,1.20321,1.23125,1.23092,1.20104,1.29576,1.19105,1.19707,1.19786,1.18112,1.1932,1.19211,1.22102,1.2086,1.22483,1.2246,1.22367,1.24955,1.23589,1.25771,1.25439,1.24675,1.25459,1.25672,1.31999,1.28978,1.28856,1.29363,1.2919,1.32247,1.36788,1.37189,1.37469,1.37779,1.38234,1.38384,1.39595,1.40275,1.40831,1.48632,0.00385712,1.49704,0.00362204,1.49509,0.00365789,1.43529,1.43889,1.44744,1.44838,1.47523,0.00342689,1.46988,1.4796,1.47085,1.46829,1.46945,0.00383048,1.47834,0.00352576,1.47583,1.48687,1.49691,1.49899,0.00409477,1.50151,1.51421,0.003778,0.0041045,0.00366398,1.51703,0.00386997,1.52253,0.00372031,1.53674,0.00350961,0.00418488,0.00368516,1.55435,0.00344756,0.00386495,0.00354777,1.55255,0.00366158,0.00344698,0.00326983,1.56906,1.5683,1.57142,1.57565,1.57517,1.58009,0.00399672,0.00369336,1.58354,0.0038352,1.63476,1.59348,0.00379247,0.0032649,1.6021,0.0036057,0.00359453,0.0037977,0.00375532,0.00376786,0.0034783,0.00391295,0.00419662,0.00367711,0.00398321,0.00409346,0.00394176,0.0037489,0.00355292
0.00374561,0.00413001,0.0042485,0.00366504,0.00379354,0.00392352,0.00364116,0.00376036,1.3411,1.3298,1.32925,1.32898,0.71385,1.33817,1.34351,1.28426,0.00367043,0.00372834,0.00358922,0.00389695,0.722329,0.720878,0.722905,0.72205,0.722938,0.722137,0.720736,0.721474,0.733326,0.734528,0.734553,0.733091,0.734244,0.732134,0.73601,0.00347902,0.737552,0.739317,0.740285,0.743999,0.745681,0.747159,0.747834,0.749579,0.748893,0.748605,0.749308,0.751461,0.755329,0.757377,0.758931,0.759769,0.759947,0.759078,0.760046,0.761614,0.764752,0.764956,0.766285,0.768271,0.772724,0.773269,0.7734,0.775102,0.777372,0.778763,0.776744,0.753533,0.794784,0.8155,0.794542,0.716616,0.721791,0.724492,0.725796,0.733962,0.705744,0.704446,0.736418,0.70176,0.711718,0.729934,0.72233,0.696495,0.736756,0.714522,0.714549,0.703955,0.740235,0.694678,0.697135,0.742251,0.742273,0.738791,0.738627,0.758336,0.787492,0.756551,0.755111,0.777533,0.770164,0.787684,0.795116,0.786817,0.811273,0.804647,0.843346,0.822357,0.825579,0.825512,0.852166,0.863118,0.8536,0.864067,0.870547,0.884079,0.884785,0.868787,0.896274,0.904326,0.994988,1.02534,1.01163,1.00665,1.01234,1.00176,1.02088,1.03334,1.03674,1.04973,1.07038,1.0668,1.06564,1.07156,1.08918,1.0869,1.11992,1.12551,1.12592,1.10211,1.1168,1.11735,1.11665,1.1216,1.12177,1.14436,1.14167,1.13897,1.13948,1.16771,1.14672,1.16508,1.17696,1.16347,1.20231,1.19629,1.20293,1.20124,1.20381,1.19106,1.21546,1.32598,1.29952,1.2215,1.23712,1.23677,1.24073,1.20902,1.19884,1.18364,1.18563,1.18619,1.18472,1.17874,1.1807,1.18225,1.21669,1.21943,1.28439,1.18674,1.18776,1.18921,1.18734,1.21389,1.25549,1.20951,1.169,1.16974,1.18178,1.17994,1.19738,1.19782,1.17483,1.19465,1.17559,1.1791,1.18194,1.18401,1.20131,1.21177,1.23325,1.25317,1.24759,1.24296,1.23736,1.22989,1.25534,1.26496,1.24687,1.24689,1.29137,1.29715,1.2996,1.2856,1.28637,1.32109,1.32294,1.36425,1.388,1.38601,1.37253,1.38234,1.41332,1.41384,1.41365,1.48954,1.45294,0.00363262,1.48457,1.48376,1.48161,0.00380017,1.4768,1.46423,1.46782,1.44509,1.44755,0.00350031,1.45254,1.45319,0.00410013,0.00384173,1.60314,0.00362147,0.00413369,0.00385969,1.70222,1.57217,0.00424339,1.48941,1.67034,0.00385069,0.00347665,0.00373604,0.00346521,0.00384236,0.00365007,1.55465,0.00373424,0.00374317,1.71432,0.00365235,0.00392282,1.572,0.00393057,0.00319194,0.00370537,0.00336555,0.00365514,1.5762,1.57523,0.00352625,0.00405436,1.57451,1.57672,1.57746,1.57948,1.5938,1.59559,0.00368852,1.59992,0.00288889,1.5983,1.60124,1.6067,1.60628,1.6116,1.61353,1.65484,0.00366987,1.61403,0.00343052,0.00357059,0.00378728,1.73671,0.00384277,0.00380859,0.0037505,1.6244,0.00360172
0.901951,1.30385,0.00411107,1.20998,1.31601,1.21565,0.00408556,0.00399715,0.0042819,1.32967,1.32987,1.33265,1.33753,1.34159,0.00371268,0.00405262,0.721723,0.00368006,0.00348565,0.71603,0.716158,0.71662,0.717744,0.720099,0.721456,0.720954,0.721256,0.722624,0.72206,0.718288,0.717881,0.718244,0.718206,0.718271,0.726894,0.728376,0.730232,0.73561,0.736473,0.00344575,0.747039,0.748511,0.750176,0.749308,0.748829,0.749822,0.749265,0.748628,0.748768,0.750254,0.755481,0.755532,0.755585,1.05594,0.759111,0.760339,0.764787,0.766214,0.76898,0.766429,0.767841,0.769912,0.767394,1.18421,0.759566,0.755969,0.753883,0.753032,0.743465,0.734828,0.719139,0.710479,0.712302,0.712141,0.721745,0.714517,0.701035,0.70765,0.718122,0.699482,0.698773,0.712525,0.693994,0.70406,0.700183,0.715801,0.712426,0.701605,0.690546,0.694358,0.70867,0.689044,0.698067,0.697823,0.76431,0.774387,0.734106,0.742202,0.744208,0.746071,0.748366,0.754724,0.784159,0.806398,0.805057,0.808106,0.829692,0.822545,0.826424,0.812591,0.898551,0.857516,0.854956,0.870898,0.870422,0.881928,0.877731,0.883247,0.910224,0.961138,0.98765,1.00759,0.995401,1.07393,1.03449,1.0233,1.04698,1.0463,1.04711,1.06069,1.0668,1.06398,1.12256,1.0771,1.1195,1.12236,1.12652,1.12535,1.14388,1.14987,1.17068,1.16368,1.16302,1.15285,1.17214,1.16235,1.16355,1.15372,1.16295,1.16381,1.16399,1.1843,1.2777,1.23371,1.23644,1.21066,1.21285,1.21328,1.22707,1.30159,1.30379,1.30179,1.30327,1.25264,1.2415,1.23733,1.23974,1.23773,1.23988,1.18788,1.18125,1.17687,1.16407,1.17366,1.20862,1.22324,1.21848,1.24216,1.22004,1.22955,1.23018,1.21908,1.21544,1.21595,1.21911,1.21212,1.21194,1.20429,1.20355,1.18675,1.18571,1.18609,1.17864,1.17063,1.19293,1.19476,1.19162,1.19956,1.219,1.20964,1.22088,1.23144,1.23359,1.23729,1.25916,1.24803,1.26406,1.26639,1.26758,1.24746,1.24683,1.28554,1.29956,1.28617,1.28114,1.28812,1.31783,1.30945,1.34886,1.34846,1.37809,1.37157,1.39502,1.48494,1.41407,1.39458,1.50049,1.46518,1.45791,1.49287,1.45857,0.00360337,0.00398599,1.4967,1.4974,1.43846,0.00382801,1.44043,1.4542,1.49614,0.00374823,1.45195,0.00366418,0.00388028,0.00380957,0.00343328,0.00392298,1.47421,0.00361038,0.00360314,0.0037299,0.00358243,0.00368886,1.50683,1.5084,1.55168,1.4981,1.49796,0.00376332,0.00377587,0.00385307,1.51589,0.00364509,0.00395658,0.00389575,0.00404866,0.00351194,1.53069,0.00364737,1.5646,0.00380471,0.00348436,0.00400588,1.56815,0.00361774,1.57494,1.57332,1.57669,0.00370145,0.00369754,0.00362964,1.59394,0.00360677,1.6024,0.00408758,1.61346,1.61443,1.61965,1.62052,1.61802,1.62691,1.62603,1.62434,0.00366296,0.00371075,0.00391042,1.63356,1.63404,1.63403,1.63206
0.0041911,0.00354307,0.00389025,0.00349859,0.00395614,0.00325187,0.00386278,0.00368096,0.0040867,0.00342732,0.00386652,0.00377207,0.00374036,0.00365923,0.00389094,0.00362243,0.00404654,0.00392672,0.994185,0.00366125,0.00381431,0.711331,0.71264,0.714746,0.715983,0.716857,0.717112,0.718431,0.716429,0.717221,0.717132,0.717214,0.717472,0.717839,0.717789,1.09376,1.06856,1.13362,1.14119,0.742084,0.747102,0.747718,0.748056,0.747806,0.74861,0.748974,0.748626,0.748987,0.748761,0.74948,1.40431,1.40594,1.07889,0.00347597,1.09598,0.00337629,0.00381932,0.761664,0.76418,0.766757,0.755933,0.759489,0.762136,0.759462,0.756037,0.755392,0.750921,0.752434,0.787338,0.718218,0.717785,0.788437,0.697615,0.695473,0.670922,0.701766,0.673781,0.710713,0.712699,0.713777,0.684429,0.688651,0.697614,0.733469,0.669154,0.679844,0.680213,0.687525,0.683382,0.684724,0.690706,0.683774,0.697629,0.696936,0.698671,0.808145,0.784003,0.714837,0.71773,0.717697,0.750558,0.743837,0.752632,0.819433,0.805587,0.834163,0.843945,0.859802,0.843253,0.826933,0.842334,0.851909,0.858395,0.978036,0.87066,0.875337,0.888402,0.909955,0.956611,0.945136,0.978631,0.980114,1.01763,1.02272,1.02947,1.04673,1.06745,1.05716,1.06534,1.06738,1.05734,1.10118,1.07423,1.12032,1.13907,1.13677,1.14696,1.15068,1.11841,1.19072,1.17539,1.16161,1.16501,1.16438,1.21167,1.20327,1.21528,1.21503,1.20907,1.22616,1.21514,1.18985,1.21537,1.22006,1.22715,1.22697,1.2203,1.24692,1.31196,1.24092,1.23729,1.28385,1.27623,1.26722,1.25048,1.23809,1.2329,1.20401,1.1938,1.18417,1.18173,1.19826,1.17479,1.1913,1.18936,1.2152,1.2367,1.24781,1.20724,1.1797,1.19685,1.19834,1.19464,1.19651,1.19787,1.18119,1.17823,1.20312,1.18804,1.19502,1.20953,1.18365,1.26778,1.27151,1.25195,1.25348,1.24936,1.24991,1.18345,1.19565,1.20539,1.2063,1.21239,1.23979,1.22906,1.197,1.25324,1.21976,1.25417,1.24532,1.24421,1.26709,1.2671,1.29789,1.28542,1.28408,1.29932,1.29958,1.31334,1.38505,1.35133,1.37447,1.41653,1.43861,1.52788,1.42066,1.42048,1.48793,1.54449,1.52771,1.99402,0.00391823,1.46737,0.00346477,1.485,0.00360553,1.4508,1.43017,1.42948,0.00350024,0.00397322,0.00370386,1.45854,0.00361045,1.45885,0.00355238,0.00359914,0.00355291,1.50334,0.00413463,1.60635,0.00395669,1.50227,1.50363,1.50576,0.00337859,0.00392102,0.00354981,0.00375586,1.50166,1.50368,0.00349285,0.00391418,0.00388226,0.00383715,0.00325177,1.57926,0.00340895,0.00385095,0.00376707,1.65482,0.00368671,1.56941,0.0038324,0.00389734,1.57102,1.57152,0.00346064,0.00388061,0.00348479,0.00370959,0.00356913,0.0038385,1.59942,0.00383677,0.00356266,1.6168,0.00381101,1.6216,1.62179,1.62452,1.62705,1.63006,0.00362542,1.62691,1.63352,1.63251,1.63383,1.6342,1.6376
0.00345258,1.2707,1.1858,1.18596,0.00366231,0.00388116,0.00347409,0.0040974,0.00377331,0.00414396,0.00361298,0.0031345,0.0036652,0.00375849,0.0039182,1.00894,0.00333182,0.00413376,0.00359309,0.00325839,0.709473,0.711693,0.00377057,0.00358798,0.00373377,0.00358591,0.00336538,0.710931,0.711843,0.712369,0.712356,0.713993,0.715117,0.716094,0.721381,0.00375966,0.00352151,0.734889,0.73591,0.740445,0.740935,0.743869,0.745937,0.747091,0.748462,0.749609,0.749126,0.750086,0.73377,0.735266,0.732795,0.733382,0.733983,0.73518,1.08133,1.07835,0.749306,0.753929,0.755115,0.756191,0.758417,0.759106,0.759013,0.753058,0.752112,0.743986,0.745041,0.740424,0.742122,0.742325,0.731336,0.683293,0.684866,0.648483,0.702281,0.677396,0.676209,0.673485,0.667756,0.703745,0.704911,0.704928,0.693114,0.722834,0.704463,0.689127,0.689645,0.694349,0.69773,0.681556,0.680881,0.687037,0.683484,0.695175,0.747288,0.748569,0.729785,0.710347,0.718925,0.729598,0.722662,0.753627,0.707744,0.708489,0.7989,0.825029,0.8319,0.832333,0.858555,0.891195,0.894995,0.882077,0.89377,0.892015,0.877328,0.880707,0.902905,0.916948,0.94108,0.999147,0.998909,0.985143,1.03878,1.03113,1.03196,1.05001,1.12283,1.06328,1.06061,1.07764,1.06005,1.07948,1.08272,1.10478,1.12337,1.12741,1.13974,1.15447,1.18245,1.19416,1.16341,1.1706,1.16697,1.24357,1.24808,1.2492,1.27496,1.26772,1.24092,1.23886,1.23925,1.25064,1.25107,1.24841,1.23616,1.24493,1.24021,1.25097,1.2718,1.26846,1.27348,1.25319,1.24825,1.25123,1.24825,1.24957,1.23161,1.22319,1.19853,1.20125,1.23731,1.22098,1.18604,1.19254,1.19541,1.21114,1.18716,1.19454,1.19567,1.16728,1.16756,1.16504,1.18055,1.1809,1.17276,1.17733,1.1857,1.18796,1.18087,1.1953,1.19637,1.20448,1.19825,1.19961,1.19398,1.19788,1.20239,1.211,1.21009,1.19398,1.16638,1.18048,1.18069,1.21294,1.21022,1.20869,1.20271,1.20234,1.21483,1.24503,1.25818,1.24757,1.25301,1.25097,1.28739,1.27301,1.28314,1.28443,1.3163,1.32436,1.35726,1.37285,1.37237,1.37467,1.37971,1.38238,1.38559,1.44304,1.44106,1.43705,0.00355424,0.00385679,0.00360286,1.44427,1.4475,1.42495,1.44683,1.47872,1.43255,1.44227,1.44691,1.44754,1.44657,1.44031,0.00350599,1.46878,0.00388723,1.45433,0.00366979,1.47492,1.48645,1.49849,0.00351923,1.46395,1.49072,0.00376505,0.00351484,0.00393794,0.00352376,0.00413722,0.00348838,0.00393114,1.49684,1.49867,1.49935,1.50041,0.0030867,1.6758,0.00332589,0.00394629,0.00369795,1.63628,0.00356977,1.56916,0.0038394,0.00359682,0.00384728,0.00343321,0.00386623,0.00415149,0.00384582,0.00342817,1.63421,0.00330103,0.0037656,0.00341978,1.62508,1.63072,0.00371649,0.00364431,0.00359484,0.00397137,1.62332,0.00380284,1.62801,0.00375947,1.62572,1.62589,1.62798,0.00397948
1.30281,0.00362179,0.0118176,0.00405159,0.00396558,0.00384034,0.00358222,0.00408623,0.00353004,0.00368563,0.00375597,0.00359865,0.00380499,0.003622,0.00367284,0.00367602,0.0037527,0.00351522,0.00349739,0.00370726,0.00386447,0.00375997,0.00399354,0.00362833,0.690004,0.00358545,0.711253,0.704695,0.00383396,0.709259,0.709133,0.711392,0.711676,1.3922,1.35429,0.00368923,0.0035112,0.00369376,0.736459,0.738614,0.741573,0.745727,0.746322,0.746063,0.00342626,0.737396,0.738539,0.736796,0.734449,0.734561,0.732363,0.732222,0.733077,0.731944,1.06849,1.06729,1.07117,1.07144,0.754398,0.756181,0.758694,0.757271,0.757437,0.749015,0.748452,0.742773,0.742645,0.741668,0.740749,0.731791,0.731795,0.732555,0.648485,0.647126,0.691048,0.676861,0.677281,0.651801,0.672979,0.680757,0.685364,0.683953,0.684821,0.701184,0.701002,0.691849,0.692437,0.689195,0.684577,0.686618,0.683758,0.693255,0.709338,0.683336,0.683536,0.705891,0.732412,0.713278,0.725395,0.708237,0.711924,0.712205,0.756889,0.758207,0.804884,0.842052,0.845434,0.857677,0.859295,0.861516,0.863855,0.87397,0.873792,0.887491,0.904571,0.904464,0.969241,0.955718,0.956748,0.959381,1.01162,1.01263,1.01646,1.05343,1.03974,1.12913,1.05979,1.05279,1.05351,1.09157,1.09351,1.12089,1.12191,1.15966,1.15845,1.16424,1.1665,1.16895,1.21404,1.21866,1.24593,1.24019,1.23539,1.23987,1.25099,1.25117,1.27425,1.26864,1.26793,1.24523,1.24966,1.25657,1.26882,1.27969,1.26872,1.27394,1.28078,1.25554,1.2653,1.26481,1.3069,1.27011,1.24075,1.23335,1.23302,1.25097,1.2434,1.23154,1.24911,1.2,1.23294,1.20549,1.20592,1.16634,1.19254,1.19404,1.19872,1.20074,1.19864,1.19829,1.15971,1.15851,1.25274,1.25101,1.15693,1.15829,1.18891,1.19582,1.20275,1.20624,1.19765,1.19928,1.20744,1.20886,1.19618,1.20954,1.21359,1.2084,1.19426,1.17978,1.18429,1.18578,1.18149,1.16669,1.17959,1.24253,1.1909,1.23584,1.27384,1.22103,1.24332,1.24835,1.24796,1.24496,1.24771,1.28529,1.28067,1.28213,1.31112,1.36717,1.3622,1.36372,1.36745,1.37412,1.37408,1.37541,1.37742,1.38747,1.39832,1.39976,1.42842,1.65604,1.43419,1.43023,1.5553,1.44291,1.43819,1.45743,1.43458,0.00373097,1.43505,1.44087,0.00393736,0.00350949,1.93774,1.45539,0.00387563,1.46562,0.00366257,1.58017,1.59371,0.00362086,0.00354256,0.00353658,1.67774,0.00361353,1.64424,1.499,1.62324,0.00358657,0.00354055,0.00398237,0.00350837,1.49382,1.49764,1.49542,0.00369671,1.52009,1.50507,0.00337369,0.00382863,0.00378121,1.65128,0.00371818,0.00410956,0.00373161,1.57626,0.00350908,0.00365062,0.00390812,0.00365825,0.00380837,0.00374947,0.00379368,0.0038192,0.00399693,1.71947,0.00376251,0.00386701,0.00387652,0.00326388,0.00388848,0.00383539,0.00377313,0.003955,0.00386074,1.62173,0.00388102,0.00396692,1.72138
0.00402681,0.00408175,0.00332017,0.00359518,0.00342751,0.660063,0.00351042,0.00382817,0.00361327,0.0109451,0.0036968,0.00405106,0.00341165,0.645245,0.00402086,0.00346285,0.00372035,0.673172,0.00352347,0.00384715,0.00366157,0.00365646,0.00372766,1.37983,1.37875,0.68877,1.37987,1.37935,1.3799,1.38261,0.699333,0.70264,0.705666,0.70804,0.712616,0.71348,0.00379915,1.38173,0.00341813,1.38356,0.0036242,0.00371713,1.37467,0.00399804,0.00378489,0.00384739,0.733801,0.733131,0.731783,0.725102,0.727153,0.727182,0.725318,0.725996,0.726407,0.00378817,0.00339412,0.751342,0.752972,0.760609,0.745392,0.745294,0.760724,0.742464,0.745796,0.744751,0.741822,0.738372,0.728809,0.730309,0.730989,0.739354,0.635275,0.638112,0.635062,0.633959,0.634756,0.632688,0.673411,0.724575,0.752562,0.754041,0.671576,0.673101,0.672943,0.67358,0.674493,0.67646,0.737278,0.739803,0.741328,0.71449,0.715248,0.714534,0.713987,0.710308,0.729712,0.71447,0.714487,0.794257,0.8003,0.767918,0.764484,0.766895,0.767203,0.795109,0.826963,0.83875,0.861177,0.879909,0.880904,0.906683,0.89471,0.887722,0.898046,0.936198,0.974122,0.947713,0.948623,0.957853,0.968749,1.03068,1.03283,1.12978,1.04971,1.0483,1.06108,1.05667,1.07716,1.06352,1.10124,1.11601,1.1137,1.17124,1.1772,1.17742,1.22642,1.22604,1.22869,1.22642,1.22206,1.21364,1.22206,1.22509,1.2248,1.26225,1.27028,1.26536,1.26697,1.26214,1.25753,1.24452,1.2402,1.23923,1.23901,1.2396,1.24956,1.23563,1.22569,1.25096,1.22529,1.25772,1.24666,1.24324,1.23613,1.2323,1.22074,1.22839,1.23885,1.21304,1.2141,1.21652,1.19516,1.19426,1.18881,1.20392,1.21171,1.17959,1.18118,1.1807,1.18129,1.16536,1.16974,1.15755,1.15801,1.15994,1.16134,1.19835,1.17643,1.17796,1.19462,1.18163,1.19305,1.22265,1.21421,1.19782,1.19884,1.16408,1.18897,1.19517,1.18761,1.16059,1.17004,1.18537,1.188,1.18898,1.19467,1.19233,1.19127,1.19845,1.25402,1.26185,1.26761,1.26719,1.28577,1.32985,1.33025,1.31952,1.3374,1.37106,1.37459,1.37238,1.36475,1.36552,1.37089,1.37877,1.37877,1.40619,1.40936,1.42283,1.43342,1.42711,1.43065,1.43035,0.00329178,1.43333,1.42378,0.00397719,1.40012,1.40771,1.40027,1.40284,0.00356917,0.00355537,1.40618,1.407,1.46751,0.00340694,1.4758,1.48465,1.48453,1.60588,0.00372917,1.49522,1.44222,1.49721,1.58248,1.55026,1.49964,1.60996,0.0037871,1.5406,0.00366346,1.51691,0.00387789,1.49565,1.49476,1.49448,0.00317518,0.00393974,0.003624,1.71265,0.00350483,1.65178,1.56113,1.58167,0.00354541,1.57112,0.00329957,1.58003,0.0037042,0.00392263,0.0037521,0.0041695,0.00363844,0.00396089,0.00342871,0.00381983,0.00350065,1.64923,0.00353795,0.00400114,0.00373972,0.00378138,0.00330498,0.00373741,1.60722,0.00382342,0.00346095,0.00348225
0.00386179,0.00377153,0.00412107,0.00391381,0.00356495,0.00386934,0.00367296,0.00364199,0.00349028,0.00381558,0.62963,0.00360417,0.00392309,0.00333632,1.25369,0.00379702,0.00343351,0.00351022,0.00361136,0.00356543,0.00365759,1.36759,1.36878,0.00361597,0.681828,0.682846,1.37736,1.37819,1.37921,1.4546,0.697927,0.701155,0.00365548,0.00348916,0.708046,1.37715,1.24434,1.2436,1.37411,0.00332524,0.719377,0.706088,0.707399,1.37411,1.37617,1.16531,0.00344384,0.00351338,1.21037,0.721734,0.722412,0.719122,0.721508,0.721333,0.72595,0.00359663,0.003808,0.00388929,0.00344806,0.741782,0.739462,0.738982,0.734223,0.736174,0.737154,0.738169,0.738359,0.739803,0.73924,0.817753,0.734155,0.738185,0.757273,0.62994,0.631436,0.764866,0.764695,0.62782,0.626631,0.77114,0.77379,0.656636,0.65903,0.657503,0.658483,0.668039,0.674753,0.71814,0.714388,0.740224,0.687832,0.707598,0.709321,0.727265,0.702577,0.719803,0.721427,0.746269,0.746261,0.747385,0.729818,0.749285,0.750029,0.757312,0.767007,0.787445,0.807403,0.836795,0.894619,0.887684,0.887961,0.988094,0.912442,0.957566,0.970734,0.94372,0.96487,0.991264,0.991662,0.976878,0.972866,1.00521,1.01267,1.04444,1.05013,1.05024,1.03721,1.0667,1.07358,1.13575,1.18082,1.18242,1.20654,1.24238,1.22607,1.22966,1.24105,1.28668,1.23863,1.23987,1.23577,1.23637,1.23696,1.2383,1.23783,1.23911,1.22308,1.38245,1.31277,1.31153,1.23242,1.25506,1.20881,1.22801,1.22704,1.23556,1.23657,1.22516,1.24097,1.24392,1.23829,1.24304,1.24953,1.23649,1.21958,1.2076,1.20823,1.20793,1.21916,1.21498,1.21123,1.21217,1.20926,1.21559,1.18192,1.19199,1.19256,1.20867,1.21521,1.23323,1.2026,1.1864,1.17423,1.1916,1.18904,1.19483,1.19594,1.19617,1.20657,1.20812,1.16372,1.15201,1.16737,1.16174,1.17877,1.17921,1.18643,1.17378,1.18522,1.18446,1.16356,1.19623,1.19707,1.18823,1.17745,1.18157,1.20577,1.1931,1.19753,1.20711,1.26046,1.26168,1.27697,1.27727,1.27401,1.27097,1.27111,1.27425,1.29257,1.29341,1.34406,1.34543,1.34445,1.34217,1.34198,1.42005,1.41247,1.41351,1.42496,1.3848,1.38525,0.00368525,1.4356,0.00324676,1.40288,0.00360467,0.00345497,0.00359225,1.39873,1.39989,1.38342,1.39486,1.46872,1.63835,1.46561,1.47253,1.5036,1.57093,1.53102,0.00384813,1.49701,0.00378228,1.50258,1.50423,1.50528,0.00366413,1.4982,1.49899,1.49836,0.00368194,0.00352862,0.00373197,0.00356384,0.00357128,1.51069,0.00347165,0.00439941,1.55053,0.00373926,1.53737,1.53728,0.00388226,0.00390658,0.00392362,0.00412825,0.00365455,1.74582,0.0035466,1.72373,0.00365089,1.69036,0.00351087,1.56556,0.00348002,0.00389008,0.00355986,1.57125,1.55785,0.00360171,0.00400653,0.00394622,0.00372299,1.58438,0.0040013,0.00365919,0.0040241,1.59391,0.00374171,0.00380695,0.00396855
0.00322969,0.595932,0.595853,0.00394363,0.00340365,1.05734,0.00410672,0.00366804,0.622358,0.623419,0.6236,0.623759,0.00393804,1.06388,0.00358606,0.00386909,0.00354678,0.00370517,0.652792,1.36058,0.00333118,0.00350377,0.00370432,0.00375651,0.00362721,0.00370055,1.36546,0.00348208,0.00338729,0.00381588,0.00381512,0.0037934,0.00395153,1.23784,1.36726,0.00381608,0.700664,0.00367906,0.707682,0.705818,0.704405,0.7051,0.706635,0.703054,0.703726,0.705643,0.707663,0.709142,0.70969,0.708754,0.710408,0.714645,0.715557,0.717036,0.719534,0.753355,0.00353861,0.732492,0.730979,0.733025,0.738609,0.738437,0.742702,0.738538,0.739569,0.740333,0.747125,0.748893,0.749871,0.750143,0.750234,0.740017,0.74141,0.722051,0.723381,0.646886,0.679975,0.671728,0.653004,0.651548,0.671625,0.681165,0.683548,0.695169,0.685824,0.689151,0.670394,0.67181,0.685451,0.716376,0.707385,0.736061,0.70907,0.771253,0.719975,0.742878,0.744003,0.752142,0.762872,0.756714,0.76271,0.747537,0.759987,0.776618,0.76436,0.792279,0.835573,0.837373,0.897922,0.876942,0.874734,0.939319,0.920589,0.913603,0.997772,1.00185,0.974774,0.970625,0.966484,0.98161,0.971148,0.972078,1.0193,1.08144,1.06826,1.10999,1.11223,1.17215,1.19416,1.19192,1.17152,1.17793,1.17545,1.22296,1.21212,1.2098,1.23339,1.23322,1.24546,1.3464,1.25497,1.2512,1.21206,1.21365,1.23444,1.24381,1.24438,1.23407,1.23172,1.23308,1.20934,1.21263,1.20403,1.20538,1.23684,1.23629,1.23974,1.23347,1.25337,1.2334,1.23426,1.26392,1.2693,1.27555,1.26025,1.23812,1.23781,1.22243,1.22267,1.23302,1.22234,1.23385,1.23021,1.21308,1.21459,1.22653,1.20104,1.21891,1.21512,1.20474,1.19871,1.19131,1.19923,1.1889,1.16686,1.16836,1.19464,1.19344,1.19666,1.18156,1.18805,1.17209,1.20313,1.22663,1.17842,1.17744,1.17847,1.18829,1.1811,1.1792,1.18183,1.18187,1.17521,1.1926,1.19507,1.19465,1.19768,1.19947,1.20142,1.22504,1.24399,1.24616,1.23664,1.22428,1.22821,1.271,1.3162,1.30755,1.30832,1.30162,1.30189,1.29797,1.32698,1.32732,1.33228,1.34147,1.39981,1.37876,0.00359362,1.36123,1.36605,0.0035978,0.00401887,1.47382,0.00391031,1.38514,0.00346067,0.00365749,1.52028,1.57213,0.00354181,1.76878,1.47521,0.00378449,1.55837,1.5589,1.48546,0.00392016,1.55412,1.49079,1.46202,1.5091,1.52106,1.51454,1.50671,0.00374214,0.00412197,0.00376506,0.00389551,0.00370117,0.00381257,1.63276,1.48652,1.49185,0.00310702,1.51555,0.00348608,0.00364707,1.52018,0.00389368,0.00341629,0.00384342,0.00339547,0.00396353,0.00362893,1.72709,0.00368931,0.00401375,0.0036881,1.53705,0.00357821,0.00336166,0.00351511,1.62392,0.00341754,0.00389128,0.0038079,0.00364095,0.00357011,0.0037505,0.00374891,0.0042161,0.00339263,0.00384003,0.00381189,1.5823,0.00368291,0.00374213,0.00358756,1.60946
0.0036831,0.0034174,0.00362888,0.00376418,0.003759,0.00361128,0.00387682,0.00357598,0.620441,0.621347,0.623095,0.623535,0.62763,0.629233,0.00390598,0.00347838,0.00317304,0.649236,0.653203,0.652815,0.0036637,0.00362032,0.663573,0.00351343,0.00352991,0.00365489,0.00342581,0.00374145,0.00394703,0.00340109,0.00369147,0.0036069,0.678981,1.2745,0.00388433,0.00348476,1.35964,1.28894,1.28873,0.699313,0.703166,0.703653,0.703213,0.703728,0.70253,0.700204,0.702131,0.705129,0.705855,0.708563,0.709885,0.711048,0.713906,0.714748,0.715619,0.00375893,0.727378,0.728229,1.01578,0.732093,0.734163,0.736151,0.737058,0.739461,0.740169,0.740872,0.748324,0.749319,0.749487,0.750209,0.75262,0.752508,0.766919,0.69246,0.686869,0.66747,0.668134,0.670728,0.672717,0.662793,0.67237,0.652281,0.68387,0.67658,0.684226,0.686137,0.676497,0.676724,0.682759,0.749922,0.728466,0.697642,0.787101,0.787904,0.788616,0.766734,0.757944,0.785065,0.768541,0.772563,0.782854,0.786908,0.811015,0.804887,0.809367,0.843872,0.876655,0.85781,0.881101,1.0055,1.02165,0.914652,0.923012,1.17107,1.18907,0.973043,0.969219,0.966532,0.959075,0.98928,0.991173,1.01373,1.01521,1.03748,1.17001,1.17169,1.18785,1.19609,1.19366,1.21516,1.21417,1.18704,1.20463,1.19889,1.18802,1.21556,1.22524,1.20737,1.23929,1.21917,1.21167,1.21051,1.20976,1.20792,1.21684,1.22687,1.21231,1.204,1.21396,1.1971,1.19703,1.18512,1.21377,1.21934,1.21977,1.222,1.22647,1.23778,1.22592,1.22789,1.24493,1.24588,1.26679,1.25658,1.26209,1.2648,1.24482,1.22289,1.22265,1.24076,1.24007,1.31344,1.22945,1.21592,1.21243,1.23263,1.22924,1.19295,1.19371,1.20291,1.20172,1.19928,1.20222,1.17822,1.21098,1.21636,1.21787,1.20391,1.21234,1.22307,1.29316,1.19131,1.19588,1.19562,1.18852,1.18367,1.19168,1.18819,1.19445,1.19354,1.21603,1.21543,1.1924,1.19888,1.21404,1.22601,1.19565,1.24862,1.24962,1.24967,1.23484,1.23094,1.23654,1.24086,1.22661,1.23061,1.26088,1.28545,1.30442,1.31102,1.32344,1.3593,1.32255,1.3377,1.32663,1.34143,1.33607,1.35431,1.34471,1.34844,1.43299,0.00361458,1.37926,0.00340242,1.47155,1.47677,1.46122,0.00362215,1.34727,0.00355869,1.48778,0.00355489,0.00423808,0.00375777,1.49624,0.00358669,1.371,0.00361723,1.50947,0.00354929,1.50257,0.00356176,1.53404,0.0035915,1.45648,0.00354893,1.44396,0.00333845,0.00392846,0.00347158,1.47687,1.45157,1.45145,0.00366311,0.0039651,0.00342271,0.00398975,0.0036111,0.00377319,0.0037551,0.00360989,0.00346833,0.00424767,1.64576,1.65061,0.00378548,0.00368364,0.00378252,0.00381028,0.00348134,1.51493,0.00389316,0.00368419,0.00341792,0.00409446,0.0037771,0.00361171,0.00357875,0.00404939,0.00346941,1.55683,0.00391777,0.00361816,1.56602,0.00384139,0.00352079,1.58041,0.00380718,1.59189,0.00346558
0.00374282,0.00404797,0.00363535,0.00343664,0.00345486,0.00375465,0.00343747,0.00355243,0.00356755,0.00386414,0.00379009,0.00389243,0.628251,0.628648,0.00357479,0.00369195,0.00336808,0.00366154,0.00358579,0.00349983,0.00357424,0.00365402,0.00373721,0.00375817,0.00380189,0.0038943,0.00361388,0.00374011,0.00356423,0.673422,0.672881,0.675987,0.677089,0.677516,1.25012,0.675241,0.00357981,0.00407566,0.00333261,0.695421,0.698739,0.699625,0.700334,0.695937,0.696416,0.698363,0.697012,0.696574,1.11968,1.14305,0.00348549,0.00393578,0.00364547,0.71179,0.00361036,0.00378399,1.34382,0.991458,0.730106,0.00356729,0.73542,0.743044,0.743876,0.743027,0.738539,0.739062,0.738416,0.739891,0.748522,0.747746,0.750821,0.74981,0.750017,0.687395,0.695688,0.697228,0.747674,0.748219,0.707495,0.708349,0.697163,0.665893,0.710256,0.70803,0.661244,0.662732,0.68176,0.669971,0.673087,0.68601,0.712657,0.69532,0.69475,0.816714,0.81886,0.827835,0.745851,0.759959,0.830538,0.814544,0.812183,0.811193,0.812804,0.798415,0.831383,0.835218,0.857525,0.878727,0.907329,0.906111,0.910133,0.947686,0.926066,1.0059,0.972467,0.974454,0.977819,0.974234,0.993057,0.980896,1.01272,1.01234,1.0421,1.04232,1.17947,1.16465,1.20056,1.20047,1.20233,1.19909,1.18763,1.18703,1.21221,1.18613,1.18922,1.18387,1.2141,1.21271,1.23645,1.21461,1.22961,1.23673,1.22186,1.23714,1.3035,1.30421,1.20584,1.19988,1.31313,1.19242,1.19104,1.20196,1.19599,1.20283,1.21631,1.22279,1.22336,1.21812,1.2025,1.21492,1.23427,1.23854,1.23907,1.22604,1.22668,1.22842,1.2296,1.24443,1.23924,1.21402,1.22301,1.22011,1.20898,1.20776,1.20282,1.20137,1.21741,1.21858,1.22911,1.21969,1.20146,1.1878,1.20054,1.18388,1.18516,1.18766,1.23987,1.21645,1.23322,1.20344,1.21036,1.20185,1.19493,1.19577,1.2229,1.19887,1.20626,1.20408,1.20443,1.22965,1.22432,1.2019,1.31416,1.21155,1.21067,1.21714,1.22399,1.23619,1.23437,1.21761,1.24693,1.25389,1.32571,1.24081,1.23384,1.23387,1.22082,1.27146,1.27711,1.30029,1.33729,1.30775,1.30822,1.3128,1.33257,1.33407,1.33621,1.3382,1.34506,1.33656,1.34367,1.44032,1.43711,0.00364835,1.83125,1.34069,1.34542,1.33938,1.35206,1.36107,1.35691,1.35859,0.00353975,1.48157,1.48222,0.00362536,1.36797,0.0037391,0.00330714,1.49227,0.00366722,1.48693,1.48249,1.48232,0.00352925,0.00378484,1.46833,0.00377007,0.00359982,1.45268,1.44941,1.44721,1.44446,1.44624,1.44724,1.4485,1.44997,1.45331,0.00351334,0.00400288,0.00391421,1.47503,0.00387823,0.00391499,1.51304,1.48861,0.0036872,0.0040821,0.0038051,1.50411,0.0034584,0.00359757,0.00365847,0.00399237,0.00361459,1.60049,0.00362491,1.53619,0.00390975,0.00395604,0.00365341,0.00350928,0.00360925,0.00377793,0.00339351,1.57683,1.57939,1.58234,1.58576,1.59158
0.00383063,0.00345614,0.00358417,0.00343896,0.00327487,0.00362651,0.00390342,0.00387275,0.00363557,0.00346588,0.00377764,0.0036146,0.0034417,0.00367577,0.00362859,0.00374246,0.00358774,0.0037086,0.00410244,0.00361009,0.00373873,0.00380267,0.00364808,0.00353508,1.37093,0.00347451,0.00318173,0.00405996,0.0039043,0.00346965,0.00396807,0.00407101,0.66931,0.670099,0.672637,0.672135,0.674787,0.0034158,0.00313908,0.00361718,0.00363723,0.00368608,1.34296,0.689465,0.688426,0.691137,0.69289,0.690869,0.691951,1.34355,0.69328,0.00354445,0.00382324,0.00399762,0.00385955,1.29856,0.00357333,0.00361821,0.728947,0.936263,0.741661,0.74186,0.743406,0.743917,0.743176,0.742615,0.742366,0.73884,0.739016,0.739837,0.736086,0.749638,0.749513,0.749773,0.694809,0.69412,0.66781,0.750134,0.751885,0.680624,0.661324,0.657707,0.69445,0.657501,0.653396,0.650842,0.64705,0.657741,0.689057,0.697569,0.716416,0.712099,0.850774,0.851384,0.811035,0.756802,0.758705,0.756171,0.77662,0.826395,0.784064,0.786327,0.80189,0.830252,0.82863,0.839551,0.909551,0.911435,0.938839,0.933539,0.939022,0.936733,0.949292,0.953417,0.966597,0.974077,0.984052,0.97442,0.970945,0.971414,1.036,1.06735,1.18304,1.18552,1.17617,1.17925,1.17963,1.19056,1.28864,1.219,1.17403,1.17401,1.19332,1.19519,1.19903,1.20788,1.20265,1.20707,1.19955,1.19844,1.20289,1.20213,1.18412,1.18837,1.1924,1.19112,1.18586,1.22347,1.22344,1.17361,1.18073,1.1747,1.17616,1.20666,1.18336,1.1823,1.20119,1.21268,1.20717,1.20992,1.21171,1.23411,1.23629,1.28856,1.21946,1.22641,1.22112,1.19861,1.19921,1.21065,1.19332,1.21403,1.21548,1.2157,1.22002,1.22425,1.22583,1.23414,1.18277,1.20557,1.19096,1.19087,1.2007,1.21045,1.22738,1.23364,1.20066,1.22143,1.18844,1.19104,1.22632,1.21502,1.19998,1.26196,1.26658,1.21919,1.22969,1.22014,1.23539,1.21074,1.30441,1.20922,1.21581,1.23383,1.21628,1.20274,1.20399,1.21128,1.2142,1.21098,1.2449,1.26024,1.26064,1.26328,1.22584,1.2722,1.24852,1.2474,1.24778,1.30164,1.30125,1.30005,1.29891,1.31779,1.31571,1.31542,1.31675,1.34821,1.31412,1.31802,1.31899,1.32072,1.32011,1.32706,1.32478,1.32499,1.32418,1.32419,1.34585,1.35402,1.35489,1.38016,1.37974,1.48364,1.38252,1.48483,1.47935,1.47977,0.00354149,1.48186,1.48184,1.4782,1.53417,1.47353,1.46752,0.00371223,0.00338687,1.43118,1.43515,1.43736,1.44003,1.4379,1.4412,1.44212,1.44432,1.44716,1.44795,1.44952,1.45006,1.45844,0.00351414,0.00356891,1.46814,1.50735,0.00361968,1.48205,0.00370123,0.00376415,1.49413,1.49488,0.00375819,1.50337,1.50278,0.00349467,0.00385869,0.00388235,1.52412,0.00375725,1.53479,0.00322017,0.00395335,0.003643,0.00393378,0.00357886,1.56815,1.56956,1.57516,0.00369867,1.58885,1.58918
0.00372404,0.00375831,0.00375991,1.25698,0.00349682,0.00375948,0.00364234,0.00387525,0.00355316,0.00410223,0.00343528,0.00395436,0.00366092,0.00368081,0.00340611,0.00361336,0.00362833,0.00351775,0.00378126,0.00398033,0.00356389,0.00351321,0.0033445,0.642234,0.64252,0.642546,0.00351165,0.00381627,0.0034075,0.00360308,0.0037909,0.00374949,0.00354598,0.667969,0.669092,0.669242,1.37498,0.00372972,0.00344676,0.00369871,0.00387479,0.00352388,0.684412,0.686522,0.687692,0.687898,0.687402,0.688825,0.690174,0.689998,0.0034404,1.32337,1.32421,1.26233,0.00380865,0.00343879,0.954051,0.00386436,0.936292,0.934251,0.935987,0.737582,0.740581,0.741875,0.741951,0.74145,0.739004,0.736576,0.729749,0.728533,0.732556,0.741349,0.704935,0.705063,0.667021,0.667436,0.675658,0.678405,0.635063,0.629263,0.638053,0.694564,0.694423,0.69127,0.681215,0.671479,0.660636,0.661028,0.697907,0.700658,0.693387,0.721733,0.714783,0.734994,0.735189,0.756377,0.769876,0.822744,0.808884,0.811915,0.811399,0.795291,0.804291,0.811107,0.813166,0.813595,0.903088,0.906995,0.931959,0.932628,0.908666,0.909456,0.922675,0.96262,0.940572,0.972372,0.992277,1.01164,1.06706,1.06779,1.14423,1.15648,1.17827,1.15125,1.16692,1.20489,1.20729,1.35838,1.1667,1.36693,1.27086,1.19879,1.20507,1.18498,1.1866,1.19777,1.20816,1.22148,1.22329,1.21236,1.18764,1.18164,1.19483,1.18897,1.20623,1.18622,1.16184,1.1638,1.17089,1.15113,1.16845,1.17441,1.14339,1.16827,1.16915,1.16843,1.19507,1.19526,1.20281,1.16642,1.16978,1.21243,1.21871,1.22428,1.21403,1.19731,1.19454,1.21331,1.19986,1.20088,1.23716,1.20279,1.20142,1.2115,1.20388,1.20314,1.24027,1.20792,1.20988,1.20587,1.2234,1.20872,1.21275,1.21317,1.18608,1.23208,1.23259,1.22489,1.22578,1.2198,1.23334,1.24021,1.23468,1.25369,1.24272,1.2183,1.23214,1.21951,1.23118,1.23551,1.22011,1.19613,1.19887,1.20558,1.19757,1.19885,1.18787,1.18852,1.19769,1.19285,1.17656,1.17255,1.17517,1.19065,1.26365,1.25901,1.26031,1.25934,1.29483,1.28587,1.28727,1.2814,1.28759,1.28854,1.31777,1.3204,1.33298,1.30675,1.30789,1.30611,1.30906,1.34087,0.00340176,1.31984,0.00355224,1.32117,1.32028,1.32244,1.32434,1.32197,1.32535,1.32994,1.33049,1.39786,1.39213,1.38436,0.00366725,1.47522,1.47543,1.47322,1.47528,1.40841,1.43557,1.43683,1.45914,1.4432,0.00356756,0.00384684,1.43447,1.43507,1.43699,1.43921,1.43859,1.44006,1.43964,1.44167,1.4443,1.44512,1.45002,1.45161,1.45403,1.46163,0.00346624,0.00363517,1.47929,1.48082,1.48539,1.48847,1.4918,1.49567,1.49627,1.5023,1.50212,0.00395382,0.00355418,0.00397938,0.003505,0.00349378,1.53176,1.54074,0.00384631,1.5492,1.55288,0.0036743,1.56595,0.00366952,0.0036218,1.57861,1.5787,0.00395398
0.00350424,0.00356244,0.00382697,0.00379648,0.00379203,0.00347097,0.00361967,0.00360584,0.00392304,0.00370124,0.00375001,0.00384341,0.00374695,0.00383481,0.00357731,0.00386556,0.00362591,0.00351597,0.00368964,0.00360131,0.00367161,0.00340234,0.0035979,0.00364159,0.00382364,0.003469,0.0038785,0.00365781,1.29657,0.00365904,0.00366399,0.0035198,0.00374161,0.00363574,0.00374496,0.00353038,0.00379691,0.658177,1.3469,0.00386897,0.00379554,0.0033545,1.34488,0.00364976,0.00330845,0.00370537,0.00356359,0.684666,0.685286,0.685798,0.686835,0.688791,0.688407,0.939992,0.942559,0.00355616,0.970987,0.00373499,0.00361405,1.02971,0.731918,0.00348891,0.73621,0.736513,0.737988,0.737701,0.736437,0.736144,0.732182,0.711402,0.713183,0.712404,0.703353,0.730228,0.653049,0.652705,0.680014,0.680872,0.683001,0.683173,0.666024,0.662054,0.678105,0.70703,0.690476,0.664155,0.681898,0.668275,0.683378,0.681699,0.715833,0.725367,0.821823,0.822891,0.762753,0.76325,0.780548,0.799081,0.802119,0.792404,0.793477,0.807646,0.806137,0.831002,0.835588,0.845167,0.874568,0.891241,0.902763,0.953757,0.915007,0.925594,0.962292,0.965234,0.96124,0.957033,1.06306,1.11205,1.19415,1.18179,1.18445,1.23738,1.23998,1.24269,1.17964,1.17811,1.16369,1.17075,1.23904,1.34419,1.24793,1.24958,1.19482,1.17573,1.17459,1.17454,1.19094,1.18962,1.18864,1.18075,1.18332,1.2745,1.27619,1.17055,1.168,1.1679,1.16174,1.16318,1.1635,1.18469,1.13068,1.12837,1.14367,1.13077,1.12989,1.18058,1.18045,1.18556,1.17332,1.20039,1.17368,1.20444,1.22608,1.22765,1.23455,1.22513,1.23361,1.19558,1.18802,1.18241,1.19079,1.19224,1.25423,1.25416,1.24522,1.18557,1.18912,1.21034,1.23033,1.1987,1.19899,1.22022,1.18714,1.19123,1.20935,1.19851,1.22259,1.22883,1.22768,1.23724,1.23099,1.23188,1.2302,1.22977,1.23663,1.23747,1.24734,1.24024,1.23615,1.2237,1.22528,1.20154,1.21974,1.20377,1.21651,1.19095,1.20969,1.2131,1.21963,1.2056,1.21737,1.22545,1.2295,1.30442,1.30173,1.28764,1.29436,1.26917,1.25384,1.28277,1.28601,1.28059,1.28103,1.28082,1.28103,1.30685,1.29525,1.2951,1.30196,1.30049,1.30632,1.30738,1.31167,1.31143,1.31268,0.00346447,0.00341198,1.31756,1.32282,1.34575,1.34781,1.328,1.33314,1.36455,1.33983,1.40128,1.40401,1.39936,1.38678,1.46797,1.47295,0.00329575,1.40341,1.40944,1.43128,1.44406,0.00359814,0.00366518,0.00369976,1.4348,1.43771,1.43963,1.44168,1.44401,1.44437,1.44589,1.44705,1.45013,1.44763,1.45369,1.4643,1.46028,1.46624,0.00402172,0.00382297,0.00340443,1.48381,0.00346268,1.49191,1.49219,1.49373,1.50016,0.00374173,0.00369912,0.00357143,0.003668,0.00368062,0.00353033,0.00376982,1.5443,1.54309,1.54898,1.54822,1.5616,1.56094,0.0034675,1.57494,0.00373301,1.57879,0.00338645
0.00355532,0.00374974,0.00355191,0.524766,1.05903,1.23409,1.23554,1.23603,0.00371307,0.00374041,0.003439,0.00399564,0.00355097,0.00354689,0.584948,0.585937,1.24991,0.00376183,0.00340732,0.00340726,0.00363041,1.47242,0.00360232,0.00377259,0.00359001,0.00377159,0.00349476,0.00347886,0.00358221,0.00354667,1.28108,1.28131,0.00338976,0.00390792,0.00358471,0.00340176,0.00367636,0.00341786,0.00367465,1.29581,0.00352987,1.3508,1.36438,0.00365948,1.35528,1.35661,0.0037428,0.00344905,0.00349616,0.00359679,0.00347249,0.00370994,0.00328901,0.00359312,0.949523,0.00334681,0.00369374,1.30793,0.00352732,0.00382597,0.721277,0.00345202,0.747422,0.734306,0.743558,0.732153,0.734617,0.735351,0.716421,0.720934,0.72086,0.719745,0.700246,0.71777,0.718116,0.652256,0.736701,0.732109,0.683336,0.678452,0.700415,0.711312,0.711568,0.712816,0.705465,0.70846,0.687982,0.676729,0.680336,0.738707,0.853156,0.855612,0.781156,0.778211,0.779965,0.810564,0.809353,0.815785,0.825995,0.79759,0.828809,0.841847,0.842052,0.839807,0.840144,0.895306,0.897699,0.900872,0.916147,0.925743,0.934774,0.960848,0.971832,0.993384,1.05968,1.07954,1.12731,1.12895,1.13875,1.14004,1.1712,1.23407,1.19526,1.23258,1.22747,1.18137,1.18452,1.16475,1.17668,1.19144,1.17278,1.18358,1.18478,1.15987,1.17541,1.15623,1.16011,1.15848,1.15196,1.18387,1.18678,1.13607,1.14437,1.15998,1.16948,1.12488,1.1335,1.16841,1.12583,1.12667,1.14042,1.1543,1.1545,1.16045,1.17859,1.13673,1.15601,1.15699,1.18908,1.17471,1.19738,1.20749,1.18719,1.20589,1.2032,1.21326,1.23704,1.27167,1.26813,1.19239,1.22684,1.17444,1.17724,1.18442,1.20381,1.20623,1.20621,1.18705,1.18916,1.20417,1.28057,1.28156,1.20312,1.20688,1.24847,1.2588,1.20886,1.21927,1.22137,1.21656,1.23735,1.25584,1.2267,1.22761,1.23379,1.22951,1.24427,1.26902,1.21553,1.29269,1.29717,1.27354,1.2165,1.20835,1.20083,1.20025,1.21282,1.19727,1.20099,1.22167,1.23978,1.23005,1.23742,1.27458,1.27908,1.26516,1.24372,1.24161,1.24356,1.25194,1.25117,1.24997,1.29145,1.30125,1.27346,1.27325,1.27794,1.2818,1.38769,1.29665,1.29688,1.41265,1.30305,1.3071,1.3064,1.30971,1.31211,1.31622,1.31947,1.3399,1.33966,1.33216,1.33367,1.36368,1.34045,1.34518,1.39709,1.41156,1.4109,2.06849,0.00362873,1.46854,1.4663,0.00369229,1.42003,1.46197,1.43253,0.00332209,0.00360833,1.42976,0.00377637,1.43961,1.43641,1.44302,1.44335,1.4461,1.44673,1.44766,1.45196,1.46451,1.4589,1.4593,1.4648,0.0034702,0.00373046,0.00340377,0.00355456,1.4896,1.49049,1.49494,1.49861,1.50624,0.00373353,1.58295,0.00346384,0.00336887,1.59886,0.00336682,0.00394999,0.00350409,1.55067,1.54916,1.55179,1.56439,1.55986,1.5698,1.56986,0.00346121,1.577,0.00347985
0.00397591,0.00362848,0.522578,0.00382731,1.05017,0.0032957,0.0036409,0.0035193,0.00382552,0.00347679,0.00393969,0.00359599,0.00359131,0.00317213,0.00424293,1.24436,1.24693,1.24687,1.24799,0.00351472,0.00411125,0.00363622,0.00401768,0.00349002,0.0039597,0.00356016,0.612989,0.616613,0.617265,0.617342,0.617606,0.00369606,0.00360343,0.00375327,0.00373849,0.00344973,0.643612,0.00355839,0.644029,1.28187,1.28153,0.00357389,0.00392206,0.00355594,0.663096,0.00341294,1.29853,0.00369248,0.00346321,0.00385282,0.00375038,0.00353408,1.18809,0.00354212,0.00360344,0.00343313,0.00353644,0.00351887,0.00363525,0.00367022,0.718622,0.00340343,0.722189,0.719863,0.749826,0.00330638,0.730019,0.709257,0.710801,0.713928,0.722027,0.735419,0.737413,0.733916,0.726188,0.726759,0.714497,0.694023,0.673489,0.676033,0.676216,0.699119,0.697777,0.695371,0.703779,0.703953,0.703776,0.697562,0.712301,0.695372,0.722768,0.740479,0.775668,0.790428,0.794095,0.80123,0.802579,0.832882,0.84728,0.824198,0.840427,0.850681,0.850371,0.867474,0.877614,0.881166,0.928806,0.930353,0.944082,0.960903,0.967217,1.00123,1.00578,1.07933,1.07487,1.11595,1.13793,1.13451,1.13568,1.12238,1.14291,1.14801,1.15444,1.15787,1.19124,1.17147,1.22082,1.18222,1.197,1.17755,1.18579,1.15296,1.17544,1.12679,1.12765,1.11546,1.11539,1.1105,1.12451,1.18218,1.14441,1.12659,1.11647,1.11522,1.11353,1.14007,1.10498,1.15328,1.11094,1.15696,1.12867,1.16481,1.17513,1.15684,1.18525,1.13988,1.1617,1.15596,1.18078,1.17781,1.19096,1.19135,1.19216,1.18627,1.20485,1.24083,1.29084,1.29062,1.3313,1.34425,1.16822,1.17336,1.17464,1.19886,1.19892,1.19889,1.19207,1.1941,1.19426,1.19611,1.19486,1.20543,1.21286,1.23303,1.24432,1.21005,1.2369,1.23597,1.238,1.23872,1.23242,1.23858,1.23973,1.24095,1.26199,1.21134,1.23171,1.22944,1.21886,1.20944,1.20436,1.20464,1.2116,1.19629,1.19811,1.18842,1.18337,1.21769,1.21984,1.21349,1.21523,1.21771,1.21902,1.23738,1.24475,1.26461,1.26313,1.26109,1.20908,1.28969,1.28956,1.2254,1.25277,1.25551,1.25657,1.26474,1.26392,1.29143,1.37981,1.29225,1.29585,1.29753,1.41023,1.4107,1.30849,0.00354279,1.31358,1.31956,0.004092,1.32922,1.34574,0.00344842,1.36706,1.37951,1.36436,1.36452,1.46816,1.41283,1.41705,1.42083,1.46435,1.45859,1.46477,1.4625,1.46431,1.41314,1.43409,1.44649,1.46118,1.42998,1.49593,0.00351183,1.44441,1.44352,1.44461,1.44663,1.45057,1.44891,1.45517,1.45921,1.46254,0.00387116,0.00384682,0.00363261,0.00357947,0.00336283,1.48685,1.48907,1.49589,1.49528,1.49698,0.00357579,0.00374972,0.00326835,1.61952,0.00336864,0.00399424,0.00357683,0.00381029,1.54944,1.55222,1.55091,0.00349017,0.00345313,0.0039788,0.00353353,0.00369877,0.00331295,0.00383432,0.00346749
0.00354141,0.507823,0.00341685,0.003881,0.00363287,0.515572,0.00372547,0.00344254,0.00357405,0.00316885,0.00359819,0.00376953,0.00363094,0.00379414,0.00345347,0.00341752,0.00326305,0.00340673,0.00317085,0.00339722,1.24079,0.00366465,1.24424,0.00400166,0.00327189,0.610634,0.613663,0.614724,0.61563,0.615846,0.00371126,0.0039026,0.0038483,0.00418554,0.00376756,0.00323822,0.641902,0.642343,0.642734,0.00366926,0.00353013,0.00381055,0.00339609,0.00372395,0.00350636,0.00409204,0.00346377,0.661065,1.2782,0.663062,0.663017,1.29152,1.17568,1.28457,0.00383456,0.00330921,0.0035313,0.69088,0.00356831,0.695348,0.703426,0.701984,0.706885,0.709272,0.714205,0.712428,0.717492,0.715734,0.712219,0.712371,0.734635,0.73489,0.7377,0.735977,0.735973,0.681425,0.715973,0.697698,0.704048,0.702468,0.721257,0.668146,0.652975,0.652993,0.691571,0.660331,0.712219,0.699888,0.672879,0.673877,0.731551,0.769516,0.779253,0.777841,0.78072,0.761629,0.784255,0.784212,0.81151,0.822948,0.878397,0.858781,0.873149,0.885411,0.887638,0.943133,0.932457,0.955376,0.958796,0.978235,0.967089,1.02564,1.053,1.05376,1.053,1.09449,1.11856,1.12908,1.1235,1.13574,1.13871,1.14872,1.14126,1.15851,1.1512,1.14685,1.2236,1.21516,1.14629,1.14858,1.14868,1.10843,1.1034,1.10936,1.11574,1.11143,1.08102,1.12708,1.09741,1.10093,1.09453,1.09496,1.11623,1.12036,1.12167,1.1417,1.10971,1.1519,1.15237,1.17018,1.18077,1.13114,1.12786,1.17489,1.16538,1.13806,1.15835,1.15685,1.15047,1.15726,1.17713,1.18053,1.18253,1.1837,1.18174,1.27773,1.27936,1.28095,1.27883,1.28059,1.25559,1.15288,1.15466,1.18853,1.19377,1.1939,1.19474,1.19799,1.19765,1.24049,1.21024,1.20684,1.20796,1.21015,1.20446,1.20633,1.23446,1.21751,1.23939,1.24731,1.26813,1.25966,1.23043,1.23257,1.23599,1.22399,1.2286,1.22824,1.25179,1.24035,1.29649,1.2448,1.22055,1.19059,1.19868,1.18611,1.18184,1.16482,1.17875,1.17911,1.22384,1.23031,1.22657,1.21567,1.18763,1.21835,1.21163,1.20949,1.21243,1.2015,1.20857,1.20545,1.24382,1.24401,1.25766,1.25961,1.40251,1.40191,1.34645,1.28889,1.29654,1.29719,1.29985,0.00359769,1.4108,0.00381825,0.00360248,1.32053,0.0035824,1.42455,0.00358177,0.00375833,0.00370697,0.00375956,0.00364225,1.38242,0.00346099,0.00339233,0.00359133,1.4337,1.4344,1.43482,1.46022,0.00372109,0.00362355,1.4124,1.46194,1.46564,1.46312,1.46272,0.00348922,1.4408,0.00322246,1.44995,1.45136,1.4513,1.45508,1.4553,1.45914,1.46378,0.00340454,0.00372403,1.47172,0.00380665,0.00372896,1.48236,1.4885,1.48864,0.00367068,0.00361076,0.00349722,1.56837,0.00369236,1.54506,0.00350077,0.00368559,0.0036378,0.00380586,0.00366326,1.55637,1.55502,0.00356744,0.00362898,0.00349674,0.00369699,1.5817,1.58915,1.59119,0.00393669,0.00339466
0.00390616,0.00397235,0.00346936,0.00370531,0.00372708,0.00328025,0.00374976,0.00357036,0.00418332,0.00342846,0.00379111,0.00339382,0.0038021,0.00362159,0.0038154,0.00355851,0.00355675,0.00342447,0.00319189,0.0032987,0.00373602,0.00380333,0.00349766,0.00352947,0.600859,0.00347955,0.00366231,0.00371995,0.0037055,0.00343651,1.24746,0.00321325,0.00402917,0.00376677,0.00369693,0.00355362,0.00391482,1.26398,1.26094,0.635701,0.00362723,0.00371581,0.641281,0.639963,0.00358602,0.00385739,0.00381209,1.26892,1.26742,1.2681,0.00380229,0.00368382,0.00410629,0.00377695,0.00357193,0.00347311,0.00367465,0.00336384,0.691531,0.698047,0.69782,0.702814,0.703529,0.704193,0.706187,0.709846,0.709943,0.710847,0.702064,0.702973,0.70239,0.73404,0.739036,0.738099,0.707754,0.707511,0.677585,0.668821,0.695314,0.704875,0.705589,0.71867,0.653327,0.654348,0.653805,0.65875,0.65316,0.647758,0.707181,0.691329,0.707287,0.736399,0.756572,0.771693,0.777115,0.763474,0.783395,0.798336,0.818958,0.862644,0.891063,0.885263,0.861732,0.863557,0.92244,0.923109,0.897335,0.945707,0.970675,0.974625,0.996694,1.03786,1.05657,1.07936,1.09106,1.09196,1.08585,1.09122,1.11973,1.12833,1.16175,1.16242,1.10827,1.10926,1.12934,1.11733,1.13545,1.1332,1.13341,1.11543,1.11654,1.10958,1.14518,1.10634,1.10718,1.11412,1.11627,1.11574,1.11472,1.09286,1.11575,1.11927,1.10483,1.13669,1.13813,1.10628,1.1083,1.14849,1.17333,1.16471,1.13734,1.13782,1.1198,1.1222,1.14235,1.13521,1.17842,1.15367,1.16693,1.16083,1.16461,1.17189,1.17872,1.18338,1.1639,1.16642,1.29229,1.39866,1.25935,1.25766,1.17744,1.1749,1.17237,1.17542,1.19407,1.16949,1.19908,1.19227,1.19932,1.19743,1.19588,1.18793,1.19943,1.20341,1.20139,1.20278,1.2148,1.21671,1.24436,1.25397,1.2549,1.23098,1.24283,1.24265,1.24396,1.22537,1.20926,1.21127,1.22826,1.28056,1.18436,1.18401,1.18441,1.18412,1.17892,1.199,1.18406,1.17969,1.17987,1.28763,1.21928,1.23019,1.19195,1.17936,1.20232,1.21219,1.23148,1.20992,1.22248,1.21564,1.28244,1.28237,1.21554,1.25187,1.25547,1.25561,1.26303,1.26464,1.27342,1.35756,1.32375,1.40105,1.29975,1.30495,1.41129,1.31308,1.31517,1.32138,1.60117,1.60678,0.00356896,0.00350192,1.34747,1.43121,1.43443,1.43704,1.44081,1.44073,0.00338586,1.38478,0.00378024,1.43313,1.44738,1.44959,0.00326946,0.00369214,1.41929,1.44378,1.44737,1.44871,0.00325473,1.46246,0.00295838,0.00392128,1.45537,1.45662,1.4576,0.00364691,1.46331,1.46904,1.46839,0.00351865,1.47506,1.47795,0.00374653,1.48449,0.00361503,0.00375626,0.00372414,0.0038731,0.00358373,0.0037101,0.00418696,0.00374497,0.00364699,0.00381476,0.00343536,0.00332332,0.00388162,0.00348851,0.00364634,0.00365561,0.00360635,0.00360455,0.00396902,0.00379457,0.00379378,0.00339495,1.60615,0.00373862
0.00326894,0.00347938,0.0035828,0.00359473,0.00332133,0.0037072,0.00350517,0.00366079,0.00360202,0.00324159,0.00336909,0.00395217,0.00342312,0.00384501,0.00375668,1.19722,0.00342595,0.00354804,0.00357614,0.0035655,0.00339445,0.00364424,0.00367402,0.00382964,0.00322077,0.00397144,0.00354258,0.00408172,0.00361014,0.592771,0.00350779,0.00382381,0.00367352,0.00371283,0.00343032,0.00377054,0.00339293,0.00367153,0.00361776,0.627961,0.00324349,0.00374792,0.00362825,1.19111,0.0034119,0.00316102,1.21261,1.2643,0.00334939,0.0040296,0.00320644,0.00378594,0.00349832,0.832989,0.834026,0.832869,0.00369475,0.00315349,0.00346302,0.69177,0.697941,0.70061,0.70391,0.705223,0.705943,0.707015,0.70723,0.697711,0.701045,0.70272,0.715996,0.715177,0.744784,0.745108,0.746348,0.674192,0.697006,0.678523,0.668159,0.6937,0.738406,0.642893,0.674195,0.714543,0.676797,0.661958,0.661959,0.652643,0.65379,0.707947,0.718464,0.720142,0.836141,0.835942,0.839884,0.827383,0.840379,0.854484,0.855692,0.869961,0.871547,0.870362,0.866376,0.935805,0.937025,0.903126,0.905307,0.915586,0.941863,0.964857,1.05411,1.08784,1.08517,1.08893,1.10778,1.08789,1.07313,1.09686,1.08056,1.08544,1.10117,1.09808,1.1195,1.12242,1.08661,1.10453,1.11446,1.11642,1.11767,1.10237,1.08284,1.08422,1.09759,1.11617,1.08444,1.09135,1.0915,1.09222,1.09169,1.08802,1.0882,1.08921,1.10981,1.11433,1.11598,1.11791,1.12279,1.13062,1.14987,1.14246,1.13692,1.14499,1.12986,1.19099,1.18336,1.17923,1.15884,1.17007,1.15134,1.1505,1.15742,1.16329,1.14974,1.15441,1.15465,1.15057,1.152,1.23602,1.18423,1.1652,1.16505,1.15063,1.15257,1.15859,1.17787,1.1845,1.17541,1.19577,1.21962,1.21201,1.20016,1.20143,1.19624,1.19481,1.20554,1.21827,1.22011,1.22465,1.20999,1.21564,1.22888,1.2203,1.22909,1.20211,1.20121,1.20199,1.19595,1.18918,1.1905,1.18503,1.17656,1.17791,1.16923,1.16913,1.17439,1.1541,1.12872,1.12793,1.13302,1.14084,1.14266,1.14355,1.18754,1.15017,1.15716,1.20059,1.20954,1.21134,1.2248,1.26753,1.23159,1.231,1.2463,1.25008,1.25088,1.2564,1.25599,1.34055,1.34087,1.32054,1.30227,1.29216,0.00340629,1.43384,1.30892,1.31012,0.00348216,1.62245,0.00368487,1.33328,1.33485,1.42674,0.00345009,0.00363078,0.00369189,1.39141,0.00351653,0.00402476,0.00351653,1.67111,0.00331739,1.50325,1.4336,1.43493,1.45463,1.45471,1.43003,1.44069,0.00386088,1.45962,0.00355725,0.00381791,0.00357937,1.46521,1.45642,1.45759,1.46379,1.46187,1.46712,1.47233,0.00332227,1.4759,0.00370239,1.47963,0.00335652,0.00359805,0.00335692,0.0033798,0.00357803,0.00421257,0.00343729,0.00366774,0.00326741,0.00370129,0.0036334,1.57232,0.0037766,1.55771,0.0035345,0.0034727,0.00357568,0.00350584,1.5758,0.00366055,1.58964,1.5901,1.59627,1.59638,1.60255,0.00394798
0.00369833,0.00346899,0.00375238,0.00354359,0.00360027,0.00370112,0.00334599,0.00356745,0.0040754,0.00341931,0.00372232,0.00372735,0.0036142,0.00362947,0.00351815,0.00315627,0.00371636,0.0037567,0.00360129,0.00380137,0.00365476,0.00370459,0.00388149,0.00362,0.00336068,0.00356209,0.00362808,0.00343101,0.0036183,0.00350923,0.00343035,0.003446,0.00384125,0.00394083,0.00365593,0.00334224,0.00371663,0.00365605,0.00393643,0.00373005,0.00400679,0.00371157,0.00388282,0.00339007,1.25075,0.00349387,0.00342787,0.00351251,1.2579,0.00374888,0.00355348,0.0036817,0.0036476,0.00386794,0.00388794,0.00338617,0.00372461,0.00369459,1.23447,0.00354138,1.22336,1.22574,0.705007,0.704647,0.70434,0.704571,0.703818,0.697176,0.69737,0.697103,0.754711,0.738245,0.744319,0.745041,0.660661,0.667749,0.668072,0.643807,0.645346,0.646345,0.64522,0.640792,0.639942,0.637383,0.653268,0.654536,0.648903,0.652947,0.691011,0.693669,0.727781,0.752892,0.760171,0.860543,0.804733,0.837196,0.836125,0.843383,0.858732,0.90225,0.903733,0.947601,0.874324,0.891459,0.884688,0.901437,0.918619,0.922051,0.926326,0.941879,0.945577,0.995963,0.998145,1.09639,1.09499,1.09189,1.27153,1.23273,1.10515,1.16591,1.16747,1.1641,1.1193,1.12165,1.12911,1.11673,1.11904,1.11355,1.10608,1.08588,1.08745,1.06814,1.04705,1.12934,1.13019,1.16023,1.16161,1.09241,1.10026,1.10508,1.1085,1.13058,1.10898,1.11974,1.11807,1.13622,1.13402,1.13739,1.12796,1.13659,1.15032,1.15146,1.17803,1.14916,1.1512,1.15326,1.25655,1.14642,1.16034,1.15306,1.1547,1.14881,1.15267,1.154,1.16645,1.16742,1.231,1.16813,1.1878,1.17244,1.17435,1.15506,1.1566,1.16745,1.186,1.18052,1.19377,1.26193,1.26269,1.18722,1.18762,1.2083,1.1922,1.20869,1.21868,1.21964,1.23818,1.25573,1.2202,1.22216,1.2237,1.21941,1.20632,1.20814,1.2044,1.17775,1.177,1.18788,1.18992,1.18065,1.18027,1.1826,1.17482,1.17777,1.17637,1.16656,1.12857,1.12819,1.13189,1.18556,1.20143,1.13175,1.13029,1.13963,1.13883,1.19352,1.19295,1.18481,1.17877,1.2132,1.1856,1.19833,1.19915,1.25352,1.25464,1.25373,1.25347,1.27021,1.26911,1.27145,1.4143,0.0034067,1.44505,0.00355924,0.00382262,0.00343401,1.3155,1.41967,0.00339153,1.43264,1.43033,1.34058,0.00345898,0.00347032,1.434,0.00364394,1.59755,0.00367687,0.00371074,0.00329476,0.00355756,1.4471,0.00351787,1.45173,1.41777,1.44019,1.43805,1.44805,1.46108,1.4421,1.44115,1.44658,1.45363,1.45423,1.45668,0.00369993,1.46982,1.46602,1.4703,1.47432,1.47413,0.0035177,0.00373161,0.00360616,0.00381384,1.49983,1.4983,1.5086,0.00326924,0.00363764,0.00372778,0.00345421,0.00385474,0.00383407,0.00325699,0.00333514,1.55226,0.00364026,0.00409589,1.56326,0.00371336,0.00349724,1.57898,0.00329056,1.59042,0.0035314,1.59552,1.5967,0.00385324,0.00327589
0.0037884,0.00339891,0.00366265,0.00370335,0.0036379,0.00335773,0.00385181,0.00368357,0.00374203,0.00373834,0.00339824,0.0036749,0.00368897,0.00362615,0.00355209,0.00377648,0.00357424,0.00368411,0.00380044,0.00331703,0.0037501,0.003549,0.00362645,0.00410048,0.00366003,0.00374472,0.00365448,0.00352072,0.0036276,0.00357279,0.00345109,0.00323583,0.00359851,0.00336971,0.00352898,0.00369665,0.00355732,0.00349181,0.00345232,0.00366882,0.00370432,0.00391276,0.00359396,0.00358463,0.00343659,0.00391087,0.00353433,0.00347583,0.00358646,1.15141,0.00374917,0.00356856,0.00370639,0.00338099,0.00345096,0.00394397,0.00360745,0.00359094,0.0033781,0.00337502,0.00366522,0.693613,0.695051,0.697094,0.69714,0.704048,0.706074,0.706721,0.699114,0.69922,0.700682,0.736737,0.76406,0.757454,0.758121,0.760661,0.76099,0.652763,0.653586,0.648814,0.649906,0.650379,0.767369,0.768115,0.663658,0.65263,0.6911,0.742275,0.740624,0.742641,0.721797,0.726494,0.766706,0.752666,0.774409,0.818914,0.790245,0.82837,0.83292,0.833826,0.888729,0.876702,0.864691,0.884498,0.876716,0.895303,0.895448,0.9083,0.914398,0.901546,0.918535,1.00337,0.993965,0.991413,0.992934,1.08139,1.09751,1.09766,1.09952,1.1092,1.10123,1.10924,1.11485,1.08088,1.09941,1.12201,1.14737,1.14595,1.17697,1.17447,1.08321,1.08131,1.04915,1.04651,1.10183,1.10546,1.09519,1.09549,1.11149,1.11365,1.12663,1.12783,1.12748,1.12486,1.12497,1.13286,1.12269,1.12158,1.19678,1.21205,1.18857,1.15743,1.14476,1.1601,1.15764,1.15907,1.16023,1.19848,1.20561,1.14693,1.14172,1.16731,1.16802,1.17298,1.25082,1.24666,1.24784,1.20417,1.19178,1.19111,1.24296,1.24071,1.23777,1.2082,1.21013,1.20098,1.20183,1.20953,1.23015,1.21156,1.20867,1.20017,1.22602,1.25913,1.22193,1.21969,1.22036,1.23613,1.23338,1.19338,1.19343,1.18528,1.1858,1.19967,1.17616,1.17615,1.17929,1.17471,1.17882,1.16307,1.16708,1.16549,1.14319,1.16947,1.15409,1.13392,1.14032,1.12258,1.12353,1.12989,1.15092,1.17037,1.14904,1.14552,1.17842,1.16374,1.17172,1.17474,1.1589,1.17516,1.18295,1.18558,1.1963,1.25487,1.2583,1.26084,1.26345,1.26882,1.27129,1.35055,0.00378778,1.41027,1.2991,1.29962,1.30653,1.30958,1.31389,1.31633,0.00343126,1.33083,1.33107,1.33944,1.43674,1.43685,1.437,0.00355438,0.00381555,0.00355242,0.00369576,1.44764,0.00385899,0.00343031,0.0036207,0.00374653,0.0036837,1.52928,0.00358995,1.4651,0.00366249,0.00368351,0.00368773,1.4524,1.45437,1.45554,1.45571,1.46096,1.46513,1.46501,1.471,1.47135,0.00364842,0.00360183,0.00332849,0.00334681,0.00352916,0.00361299,0.00353791,0.00388736,0.0034872,0.0033762,0.00361501,0.00364069,1.5419,0.00358726,0.00334604,1.54809,1.55365,0.00362832,0.00371177,0.00354589,0.00348249,1.57858,1.57842,1.58522,1.58981,1.58867,1.60011,1.59878,1.60642,1.61257
0.00370175,0.00348671,0.00358958,0.00355137,0.00365721,0.00360942,0.00372379,0.00361988,0.00416451,0.00365673,0.00345099,0.00362444,0.00363082,0.00350433,0.00349332,0.00341732,0.00361476,0.00387596,0.00405626,0.527955,0.52891,0.524772,0.524702,0.529212,0.00356735,0.00355461,0.00401638,0.00351693,0.00369456,0.0038398,0.003514,0.00309169,0.00378335,0.00377941,0.00347329,0.00353937,1.21512,1.21535,1.22035,0.00354707,0.00385963,0.00350583,1.21351,0.00352921,0.00372809,0.00357772,0.00356295,0.617079,0.623095,0.003727,0.00386198,0.00366507,0.00383412,0.00355493,0.00394921,0.00352582,0.0033683,0.00365137,0.676478,0.676314,0.676858,0.00349026,0.00409423,0.00347158,0.704618,0.704578,0.706966,0.707962,0.69953,0.700247,0.70727,0.702141,0.704271,0.705717,0.648205,0.648918,0.635724,0.642116,0.644421,0.645365,0.791063,0.655626,0.655414,0.656615,0.781706,0.781876,0.69923,0.679653,0.676814,0.680928,0.745774,0.735828,0.689525,0.7228,0.821987,0.817706,0.797337,0.795221,0.827311,0.849636,0.850829,0.851965,0.966756,0.956337,0.887086,0.895103,0.898184,0.877553,0.912473,0.924915,0.926754,0.960346,1.00539,1.00568,1.05503,1.08119,1.09487,1.07365,1.09057,1.08169,1.14554,1.07413,1.0741,1.0705,1.07322,1.18661,1.29805,1.17026,1.17065,1.17075,1.08758,1.06782,1.06932,1.08003,1.08961,1.07613,1.07196,1.0805,1.08267,1.09902,1.11639,1.12293,1.11958,1.13808,1.12301,1.12252,1.14894,1.12028,1.12137,1.14545,1.17289,1.14054,1.16775,1.14634,1.17403,1.15432,1.14848,1.15462,1.19896,1.16846,1.17187,1.16012,1.21437,1.18413,1.18535,1.21257,1.21328,1.20501,1.20702,1.21169,1.21202,1.18857,1.19772,1.19138,1.19497,1.2301,1.18273,1.21577,1.2121,1.19973,1.20578,1.29368,1.22601,1.22601,1.24764,1.22415,1.20896,1.2095,1.19817,1.20185,1.21434,1.17892,1.19906,1.18847,1.18215,1.27906,1.2844,1.16008,1.16091,1.15741,1.16234,1.14237,1.14632,1.16386,1.13955,1.14111,1.11688,1.11725,1.13283,1.1294,1.13654,1.14314,1.13763,1.17294,1.16235,1.1818,1.1683,1.17715,1.1801,1.17713,1.19005,1.18962,1.23117,1.23375,1.23643,1.26218,1.26422,1.26733,1.40564,1.40972,0.0039064,1.29372,0.00379624,0.00348407,1.30641,0.00355663,0.00355351,0.00380831,0.00376276,1.42654,1.42944,0.00358581,1.43432,1.4345,0.00369665,0.00339926,0.00351259,0.00369585,0.00387992,0.00364548,1.45457,0.00375305,0.0036716,0.0033087,1.45885,0.00365923,1.47583,1.47165,1.474,0.00354299,0.00352058,0.00347816,1.45674,1.45712,1.47667,1.46464,0.00366514,1.46846,1.47494,1.48176,1.47845,1.48252,1.48869,0.00347329,0.0033391,0.00317683,0.00378842,0.00323108,0.00390044,0.00349872,0.00367981,0.00364061,1.53867,1.54301,0.00368256,0.00365988,1.5531,0.00350181,1.56178,1.56442,0.00363057,0.00317755,1.57945,0.00352091,1.5933,0.0033287,0.00349369,0.00352,0.00350141,0.00344188
0.00360795,0.00364549,0.00366829,0.00408354,0.00336289,0.00380113,0.00369648,0.00353761,0.00343731,0.00344242,0.0035192,0.00386605,0.00349167,0.00340323,0.00359678,0.00337695,0.00371537,0.00345688,0.00365235,0.51523,0.513527,0.521117,0.503228,0.515805,0.00380176,0.00365227,0.0031787,0.00336377,0.00318153,0.00367452,0.00352527,0.00338012,0.00362135,1.02006,0.00344011,0.5661,0.56649,0.566704,0.00371862,0.00342563,0.00373334,0.00354666,0.00386506,0.00369344,0.00366492,0.00346022,0.00343659,0.00395676,0.00384919,0.00381818,0.00359062,0.00365259,0.00367083,0.00392363,0.00344678,0.00372193,0.00342482,0.672669,0.674561,0.674814,0.680051,0.00369495,0.0033178,0.757363,0.719047,0.711727,0.712182,0.711782,0.705878,0.704987,0.709157,0.70267,0.706426,0.704363,0.704328,0.635079,0.635745,0.629911,0.631677,0.630711,0.774522,0.775015,0.792495,0.655621,0.654423,0.685613,0.686403,0.693395,0.711135,0.713852,0.691345,0.701245,0.711343,0.768039,0.777074,0.885437,0.805477,0.8067,0.807787,0.807684,0.845478,0.842381,0.844204,0.865899,0.863061,0.870536,0.888459,0.889496,0.895385,0.893789,0.91066,0.888808,0.981182,0.997249,1.00836,1.03714,1.01859,1.05584,1.07024,1.1083,1.11122,1.1045,1.09094,1.05035,1.05743,1.04974,1.05234,1.07716,1.07451,1.06169,1.11602,1.09173,1.09658,1.08731,1.07966,1.0877,1.12649,1.17158,1.16804,1.09722,1.09833,1.11773,1.11509,1.11714,1.11753,1.11954,1.12355,1.13342,1.12566,1.14132,1.14737,1.14598,1.16819,1.17477,1.17992,1.17279,1.17063,1.22294,1.21372,1.22825,1.22925,1.23955,1.19116,1.19144,1.17519,1.19577,1.20908,1.21023,1.21039,1.19343,1.1889,1.20125,1.19174,1.18941,1.20886,1.25313,1.21601,1.22901,1.22429,1.22389,1.23004,1.22948,1.24382,1.22865,1.19934,1.19935,1.20078,1.19777,1.19668,1.19258,1.19604,1.1992,1.25128,1.16517,1.19285,1.15137,1.16083,1.15124,1.15728,1.16742,1.16837,1.15867,1.14585,1.15855,1.14045,1.14039,1.13906,1.12418,1.12456,1.13044,1.14054,1.14012,1.12903,1.12897,1.13084,1.14008,1.16288,1.16329,1.16498,1.16728,1.16921,1.17467,1.19859,1.2322,1.2459,1.23747,1.26394,1.2732,1.3518,1.37623,0.003603,1.41174,1.40781,1.40796,1.31036,1.31392,1.3135,1.33832,1.339,1.42554,1.33676,0.00329083,0.00361265,1.43373,0.00373712,1.36397,1.36373,1.38243,1.44721,1.38988,1.38626,1.3959,0.00352969,0.00388653,0.00381887,0.00357952,0.00370383,1.47081,0.00360438,1.47189,0.00341691,0.0036777,1.45773,0.00347306,0.00396266,1.46413,1.47299,1.64866,1.47902,1.47969,0.00343504,0.00333671,0.00360896,0.00356589,0.00337123,0.00336115,0.00321394,0.0039691,0.00367121,1.52873,0.00334915,0.00380725,1.53755,1.545,1.54509,0.00361912,1.55424,1.55779,1.55781,1.56844,0.00356635,0.00399474,0.00378188,1.58994,0.00354656,0.00342129,0.00370548,0.00315033,1.61504,0.00360343
0.00384511,0.00354327,0.00384587,0.00351992,0.00410424,0.00364933,0.00358371,0.00351405,0.00378601,0.0035396,0.443086,0.0036447,0.00354518,0.00377983,0.00365622,0.00377934,0.00379986,0.00337873,0.00364915,0.511049,0.511018,0.509314,0.00334809,0.00379739,0.003932,0.00370735,0.00341328,0.0036796,0.00372487,0.00358079,0.00416519,0.0034291,0.00329746,0.00370078,0.00344762,0.00375272,0.5635,0.563705,0.56461,0.00384225,0.573798,0.00345618,0.00347581,0.589755,0.00394442,0.00379008,0.00376115,0.00374707,0.00369494,0.0034219,0.0034103,0.00356462,0.00384258,0.00372571,0.00398045,0.00369837,0.00356148,0.00372355,0.666233,0.667016,0.668065,0.00350404,0.766398,0.694505,0.714449,0.705256,0.707654,0.705387,0.707048,0.707932,0.71023,0.718825,0.722101,0.724037,0.63461,0.63581,0.656729,0.644715,0.627815,0.644237,0.691053,0.785287,0.785258,0.666667,0.672093,0.698688,0.694633,0.68701,0.718062,0.690473,0.690129,0.724597,0.777346,0.770216,0.771168,0.768663,0.768055,0.801166,0.778654,0.801014,0.840343,0.83897,0.82869,0.837163,0.860617,0.845918,0.868635,0.860973,0.883109,0.991095,0.903982,0.90194,0.916265,1.04316,1.00864,1.00255,1.07556,1.0749,1.1187,1.09615,1.09895,1.08057,1.07031,1.07165,1.07404,1.0847,1.0817,1.0805,1.06293,1.06086,1.05749,1.06372,1.06227,1.08254,1.0856,1.10979,1.09743,1.11735,1.10858,1.14163,1.12945,1.1338,1.09839,1.10444,1.13396,1.13674,1.12205,1.16559,1.14325,1.15558,1.13876,1.15817,1.15971,1.14837,1.17407,1.19531,1.15185,1.15329,1.21914,1.30578,1.19678,1.18784,1.18673,1.19035,1.19101,1.19856,1.1937,1.20531,1.20191,1.235,1.20323,1.20643,1.20793,1.2035,1.20675,1.19873,1.21343,1.2144,1.19252,1.23046,1.24672,1.23429,1.2409,1.22616,1.19916,1.19118,1.18741,1.18996,1.19536,1.18366,1.16781,1.18517,1.17827,1.17424,1.17692,1.18218,1.1903,1.1941,1.15821,1.13886,1.13921,1.16823,1.1456,1.14037,1.13576,1.12287,1.1293,1.13996,1.12391,1.13425,1.12503,1.12227,1.10983,1.10912,1.10653,1.09474,1.09564,1.1059,1.13751,1.14057,1.14371,1.17032,1.17711,1.24681,1.24921,1.25748,1.30329,0.00337727,1.27985,0.00384847,0.00357044,0.00350085,0.00355376,0.00353946,1.41195,0.00343415,1.35003,0.00363903,0.00375638,1.33429,1.3342,1.34345,1.34453,0.00357114,1.35482,0.00340288,1.45374,1.45276,0.00360738,0.00347785,1.3832,1.38532,0.00391949,0.003445,0.00360457,0.00384525,1.40952,0.00356082,1.48174,1.4826,0.00356754,0.00338455,1.44802,1.4906,0.0036212,0.00379939,0.00344246,1.47726,0.00368893,0.00376388,1.48621,1.49344,1.49339,0.00364885,1.50117,0.00341684,0.00367023,0.00356082,0.00366245,0.003259,1.52992,0.00350714,0.00378946,0.00367826,0.00385136,1.55117,0.00337956,0.0035822,0.00361452,0.00353349,0.00368694,0.00382148,0.00378421,0.00358875,0.00397867,0.00381811,2.339,0.00366684,1.61851,0.00381385
0.00348847,0.00377487,0.00357083,0.00359085,0.00348789,0.00343354,0.00352189,0.00399199,0.00370754,0.00388622,0.453201,0.00370301,0.00357459,0.00385048,0.00371797,0.00418127,0.00332009,0.00402441,0.0037085,0.00353862,0.00372458,0.00364415,0.00320731,0.00359412,0.00339999,0.00359172,0.00341843,0.00371287,0.0034667,0.825893,0.00351662,0.00360986,0.00358036,0.00395676,0.00347674,0.550362,0.00353265,0.552708,1.17054,1.16995,0.00329841,1.17194,0.0031729,0.00371668,0.00344845,0.00376083,0.600253,0.00346915,0.0037654,0.00379526,0.00368199,0.0109196,0.00355605,0.00369933,0.0034929,0.00375932,0.00347874,0.0039592,0.00345582,0.662825,0.0037065,0.691407,0.00359807,0.687137,0.690284,0.693713,0.69306,0.693936,0.69508,0.70311,0.713983,0.714826,0.72724,0.728861,0.726938,0.658839,0.6592,0.647682,0.649809,0.658946,0.693341,0.693458,0.698839,0.680356,0.680447,0.692596,0.708971,0.695557,0.697607,0.692615,0.694726,0.713189,0.739343,0.726829,0.759592,0.758926,0.763076,0.820213,0.804669,0.790651,0.885002,0.82944,0.822488,0.830691,0.831202,0.855728,0.857118,0.857246,0.977542,0.977665,0.973781,0.906579,0.973632,0.97449,0.975148,1.04552,1.06911,1.06778,1.08443,1.11938,1.09748,1.06187,1.06778,1.07909,1.08006,1.08187,1.0829,1.07477,1.08178,1.08435,1.06959,1.08177,1.07755,1.07807,1.09403,1.09504,1.1287,1.13049,1.1392,1.14322,1.13155,1.12987,1.13183,1.10615,1.11551,1.12228,1.12558,1.14438,1.14593,1.14415,1.14264,1.13974,1.14618,1.23043,1.16365,1.20215,1.20279,1.17828,1.28745,1.28859,1.30906,1.18314,1.16332,1.19135,1.24439,1.2034,1.20487,1.21044,1.21405,1.23511,1.22181,1.21854,1.21814,1.27376,1.23578,1.23743,1.23715,1.22157,1.22121,1.22455,1.23224,1.22538,1.19753,1.20677,1.24717,1.23192,1.20679,1.25163,1.17416,1.17961,1.19411,1.19051,1.20782,1.15983,1.17394,1.16009,1.16212,1.17572,1.13674,1.14103,1.15071,1.16002,1.13873,1.12636,1.13075,1.132,1.17375,1.11694,1.12214,1.14823,1.12214,1.11963,1.12027,1.09064,1.09149,1.1617,1.16801,1.16338,1.0752,1.14048,1.14455,1.14533,1.15689,1.15496,1.20637,1.20635,1.21402,1.27678,0.00335863,1.28998,0.0034741,1.41203,0.00361421,1.41245,0.00372284,0.00344504,1.32076,0.00361048,1.32873,0.00401162,0.00343618,1.3425,0.00333406,0.00356999,0.00355315,1.40177,0.00356094,1.37157,1.37155,1.37833,1.38103,1.38446,1.38754,1.39166,1.39858,1.39845,1.62932,1.63279,0.00367498,0.00374067,0.00336456,1.44249,0.003448,0.00357768,0.00345617,0.00346943,0.00336453,1.50887,0.00335165,1.48824,0.00365257,1.49819,0.00367269,0.00387276,0.00324129,0.00360613,0.00370816,1.5214,0.00338833,0.00374275,0.00360876,1.53697,0.00378188,1.54733,0.00355781,1.55831,1.55903,0.00355537,0.00341822,0.00337097,0.00345812,0.0106646,0.00347493,0.00388191,0.00363225,0.00367726,0.00362636,0.0036299,1.62317,1.6224
0.00365974,0.00365277,0.00368591,0.00343383,0.00394224,0.00355517,0.00364321,0.00337477,0.0036321,0.00377848,0.00380461,0.00353414,0.0036982,0.00363787,0.00345713,0.00362136,0.00352756,0.00330459,0.00361282,0.00350546,0.00367968,0.00337,0.00363869,0.00354883,0.00355948,0.00358678,0.00385669,0.00326025,0.00369823,0.00374502,0.00330102,0.00362863,0.00367695,0.00360678,0.00360999,0.552626,0.552829,0.554905,0.003832,0.00368742,0.00363708,0.00324023,0.0038839,0.00293233,0.593632,0.594453,0.00356526,0.602822,0.605454,0.00367177,0.00365665,0.00351253,0.00391841,0.00354033,0.632458,0.00355756,0.00386034,0.00384123,0.0036429,0.00340501,0.664116,0.0036107,0.00350794,0.674751,0.687372,0.689769,0.693953,0.693832,0.694926,0.76556,0.721391,0.733714,0.733302,0.734739,0.735714,0.788337,0.738846,0.691032,0.691596,0.729703,0.738898,0.742899,0.742843,0.690472,0.688226,0.692126,0.729651,0.728913,0.69479,0.688685,0.688843,0.693556,0.735904,0.721641,0.723436,0.750547,0.761132,0.761197,0.802227,0.787211,0.814892,0.808381,0.824786,0.825399,0.840189,0.854355,0.852828,0.865916,0.864884,0.918884,0.930106,0.902028,0.925308,0.937641,0.953119,0.989578,1.00257,1.05348,1.05272,1.05435,1.06664,1.07393,1.07474,1.07032,1.0698,1.07231,1.06173,1.06478,1.07266,1.07325,1.07385,1.07388,1.09788,1.09625,1.09544,1.09654,1.12641,1.12413,1.10464,1.10511,1.1127,1.13137,1.1325,1.11575,1.12236,1.11672,1.11687,1.11867,1.12159,1.13923,1.13024,1.26428,1.26531,1.17155,1.17469,1.17451,1.1883,1.18069,1.19926,1.18005,1.18083,1.17481,1.19131,1.19236,1.19438,1.2181,1.21875,1.22647,1.21243,1.21641,1.22582,1.29566,1.28029,1.27924,1.20908,1.22194,1.22544,1.23587,1.21615,1.20582,1.20757,1.25219,1.29631,1.2687,1.18439,1.21576,1.19482,1.19377,1.20172,1.17868,1.19809,1.15458,1.16399,1.17175,1.13269,1.13684,1.13648,1.14743,1.14816,1.14778,1.14944,1.14876,1.15657,1.16254,1.16184,1.15502,1.15099,1.13348,1.13092,1.13198,1.13364,1.14267,1.14067,1.09657,1.09509,1.08225,1.06385,1.05817,1.06789,1.0691,1.11863,1.15474,1.18877,1.25046,1.21984,1.2096,1.2549,1.30112,1.30332,0.00327461,0.00347106,0.0036826,1.4221,0.00348885,1.31287,0.00365519,0.00332686,0.00361048,0.00354637,0.00334166,1.43666,0.00358933,0.0033904,0.00349954,0.00366556,0.00344289,1.37205,1.3726,1.37589,1.37792,0.00348058,0.0035616,1.38987,0.00366089,0.00377429,0.00332589,0.00351497,0.00353281,0.00361316,0.00362593,0.00395911,1.50313,1.50618,1.50616,0.00360128,0.00349235,0.00404394,0.00353561,0.00358976,0.00351169,0.00362095,0.00373478,0.00371587,0.00348012,0.00382848,0.00367535,0.00344101,0.00338799,0.00335299,0.00356672,2.24494,0.00339164,1.55172,1.55145,0.00362407,0.00352206,0.00362577,0.00352393,0.0034954,0.00340686,0.00354365,0.0034695,0.00359686,2.29207,0.00354456,0.00335963,0.00372643,0.00346137,0.00384972,0.00352544
0.00316887,0.0109243,0.00343088,0.00377928,0.0036327,0.00359623,0.00361121,0.00366546,0.00337181,0.00340462,0.00365041,0.00355948,0.00381572,0.00402291,0.00335873,0.0036993,0.00332505,0.003781,0.00365981,0.00348719,0.00354973,0.00368225,0.00377957,0.00360366,0.00377649,0.00352339,0.0033646,0.00362951,0.00320562,0.00369465,0.00370863,0.00351887,0.00366397,0.00359825,0.00378259,0.00371289,0.00334235,0.00361305,0.00329205,0.00361614,0.00348468,0.00356318,0.00366454,0.00389629,0.00337753,0.00368721,0.00387857,0.60098,0.601481,0.00362833,0.00344522,0.00354048,0.00357655,0.627761,0.628377,0.630448,0.00348807,0.00373533,0.00357485,0.00362829,0.00351782,0.00354471,0.674338,0.676658,0.677025,0.688691,0.691363,0.692798,0.71775,0.719382,0.721571,0.00346937,0.727431,0.777081,0.736496,0.752432,0.739144,0.748572,0.791978,0.750468,0.75179,0.710074,0.766386,0.718358,0.712698,0.721986,0.70443,0.706121,0.736282,0.685538,0.687463,0.688667,0.692709,0.7251,0.728141,0.734542,0.804947,0.760333,0.757455,0.754394,0.775105,0.777832,0.816531,0.811209,0.861998,0.840532,0.85042,0.835519,0.84902,0.836552,0.882252,0.901214,0.90141,0.950613,0.963009,0.960263,0.959565,1.03448,1.03955,1.0514,1.05423,1.05605,1.06727,1.07401,1.06149,1.06853,1.09068,1.09764,1.11754,1.1176,1.1185,1.09952,1.10133,1.07846,1.08643,1.09684,1.11161,1.10649,1.10969,1.12058,1.1174,1.11505,1.11701,1.11816,1.12094,1.11749,1.11894,1.1217,1.12383,1.13366,1.13939,1.22455,1.22377,1.15162,1.15278,1.17802,1.18176,1.18817,1.17442,1.21385,1.24168,1.24374,1.23986,1.23592,1.23295,1.22447,1.22736,1.24102,1.20766,1.21698,1.22423,1.22376,1.22221,1.22299,1.21315,1.21637,1.22957,1.22349,1.21991,1.22275,1.21343,1.20698,1.21695,1.19818,1.2228,1.22547,1.16012,1.22348,1.24321,1.15638,1.14254,1.13791,1.12781,1.1332,1.11989,1.12408,1.13771,1.10701,1.13619,1.13897,1.17127,1.17817,1.16083,1.1678,1.1189,1.12278,1.12864,1.11655,1.10258,1.14331,1.13383,1.12609,1.12887,1.14071,1.11224,1.09666,1.09841,1.17401,1.1721,1.07968,1.13645,1.25661,1.25822,1.23952,1.23979,1.2569,1.2327,1.23503,1.23024,1.23595,1.2668,0.00347304,1.33374,1.33434,0.00370061,1.43018,0.00340631,0.00374193,0.0035524,0.00358645,0.00326332,0.00376047,0.00339226,0.003479,0.0035972,0.00358399,0.00376476,0.00363747,0.00355539,1.41081,0.00348206,0.00369685,0.00362718,1.40076,1.40162,1.554,0.00366784,0.00341688,0.00340884,0.00397027,0.00336499,1.4448,0.00359327,0.00351952,0.00326163,0.00349802,0.00349121,0.00375272,0.00329327,0.00368033,0.00343538,0.00373877,0.00351,0.0034608,0.00346442,0.00332958,2.19829,1.5342,0.00356382,0.00355275,0.00347012,0.00381191,0.00347077,0.00399237,1.56166,0.00350845,0.00349067,0.00394836,0.00328574,0.00356966,0.00340217,0.0036765,0.00346615,0.00343848,0.00359171,1.78221,1.80733,0.00363157,0.00380198,0.0037639
0.00400456,0.00353585,0.003802,0.00337965,0.00340953,0.00337786,0.00360821,0.00367839,0.00383181,0.0034467,0.00336648,0.0036927,0.00346939,0.00366716,0.00375837,0.00333707,0.00360621,0.00318222,0.00354327,0.00350577,0.00368078,0.00354951,0.00344287,0.00357029,0.00337003,0.00372199,0.00366528,0.0038093,0.00335368,0.00333693,0.00391974,0.00346844,0.00360465,0.00348128,0.00385511,0.00351389,0.00378951,0.00343431,0.0037915,0.00364324,0.00376398,0.00371857,0.00353488,0.00346422,0.00358788,0.00340437,0.00359306,0.00333321,0.596761,0.595983,0.595971,0.598038,0.00392702,0.00349459,0.00319574,0.00305761,0.00398067,0.00334215,1.10191,1.10962,0.00355077,0.00367214,0.00359983,0.00364974,0.00357146,0.00349759,0.700647,0.70156,0.728145,0.722739,0.729768,0.733931,0.748915,0.00362488,0.749526,0.749428,0.75504,0.757121,0.7549,0.76608,0.774772,0.765113,0.764997,0.767394,0.75766,0.7175,0.714849,0.726917,0.683247,0.718478,0.68487,0.68894,0.691273,0.697802,0.696409,0.694828,0.804188,0.804831,0.742538,0.731995,0.774494,0.785702,0.794924,0.788314,0.800068,0.841848,0.846857,0.82475,0.832516,0.849799,0.844462,0.852166,0.867925,0.869942,0.889027,0.907533,0.928631,0.937709,0.974032,1.04238,1.04296,1.04982,1.05087,1.05108,1.04971,1.06139,1.06257,1.06623,1.05698,1.22263,1.22169,1.23981,1.09906,1.09636,1.09765,1.09979,1.10067,1.11923,1.12084,1.12284,1.12198,1.12583,1.12111,1.12289,1.12601,1.1269,1.1456,1.1475,1.14351,1.14712,1.15853,1.195,1.18364,1.17546,1.17209,1.15854,1.16335,1.15913,1.18876,1.19039,1.16989,1.21315,1.21446,1.20106,1.20889,1.24531,1.24616,1.25394,1.23301,1.2187,1.22711,1.22891,1.23138,1.21918,1.20658,1.20402,1.228,1.23671,1.22328,1.22652,1.19556,1.20661,1.18287,1.2122,1.19242,1.1929,1.18418,1.16783,1.13521,1.14069,1.13356,1.13711,1.1305,1.12919,1.11898,1.10502,1.13262,1.11678,1.12977,1.13008,1.12561,1.12677,1.15039,1.15061,1.11436,1.10979,1.08493,1.09613,1.09726,1.10425,1.12269,1.13961,1.11804,1.11044,1.11173,1.0948,1.09777,1.09299,1.23508,1.23907,1.24689,1.26479,1.25332,1.25347,1.24205,1.24482,1.25022,1.24675,1.26551,1.24046,1.24118,0.00328865,1.35031,1.43623,1.43353,1.43578,1.43306,1.4313,1.43264,0.0036867,0.00345179,0.00356464,1.35023,1.43669,0.0039224,0.00349855,0.00344003,0.00352909,0.0036367,0.00381304,0.00396839,0.0034196,0.00381059,0.00367069,0.00348486,0.00365018,0.00370605,0.00334271,0.00374663,0.00353026,1.45415,0.0036817,0.00387391,0.00357529,1.47165,0.00366228,0.00404929,0.00355891,0.00356019,0.00359328,1.54073,0.00363435,0.0034447,0.00350368,0.00374196,0.00371649,0.00391301,0.00343439,0.00410738,0.00358556,0.00381376,0.00377488,0.00389906,0.00339909,0.00347512,0.00349614,0.00383052,0.00354673,0.00372379,0.0035055,0.00359643,0.00345573,0.00369256,0.00359674,0.0035819,0.00363362,0.00395147,0.00376011,0.00374363,0.00334396
0.00356415,0.00345042,0.00353987,0.00383378,0.00357426,0.00359572,0.0035271,0.00366463,0.0031867,0.00359903,0.00351187,0.00375515,0.00342866,0.00364684,0.00373357,0.00374845,0.00348078,0.00374709,0.00359399,0.003894,0.00346114,0.00346399,0.0037364,0.00367429,0.00329422,0.00354056,0.00376694,0.00355837,0.00347624,0.00378167,0.00322901,0.00378174,0.00325865,0.00387093,0.00318779,0.00381742,0.00357487,0.00376387,0.00334569,0.00368145,0.00368575,0.00381254,0.00350738,0.00365529,0.00356506,0.00347044,0.00369918,0.590868,0.593899,0.594449,0.59589,0.598562,0.00347948,0.00380176,0.00348351,0.0037827,0.00381226,0.0038496,0.00342013,0.00367053,0.00371824,0.00350035,0.00359566,0.00351381,0.0034046,0.00351528,0.697122,0.704667,0.718757,0.72125,0.00316132,0.738799,0.742173,0.742991,0.752861,0.766284,0.764012,0.758808,0.743943,0.745367,0.763045,0.704745,0.707031,0.72185,0.722365,0.723998,0.739384,0.766335,0.769264,0.689315,0.689944,0.690385,0.679669,0.674703,0.69467,0.680821,0.694491,0.730093,0.698389,0.698473,0.78431,0.759542,0.73782,0.840483,0.840231,0.839839,0.779241,0.838942,0.836562,0.83506,0.88319,0.859847,0.826378,0.863826,0.923698,0.912117,0.913101,1.00255,1.00863,1.02559,1.04333,1.05734,1.05846,1.07157,1.05351,1.05279,1.0559,1.05637,1.06102,1.0491,1.06518,1.06839,1.07111,1.08059,1.09566,1.10063,1.11298,1.10108,1.08362,1.18175,1.1807,1.12791,1.13455,1.14671,1.14532,1.1444,1.14822,1.16118,1.15884,1.15258,1.17134,1.17141,1.17823,1.17426,1.28838,1.15649,1.15902,1.16683,1.16907,1.16866,1.19609,1.20983,1.2155,1.20893,1.22922,1.23199,1.23379,1.23746,1.27471,1.2088,1.22473,1.22631,1.21148,1.21861,1.21939,1.21015,1.21802,1.20553,1.20777,1.19002,1.16758,1.19024,1.1911,1.17922,1.17547,1.15101,1.1612,1.15325,1.1873,1.25126,1.11994,1.11519,1.11624,1.11624,1.10441,1.09489,1.12683,1.12751,1.12618,1.11169,1.13237,1.13343,1.08717,1.08649,1.09525,1.08727,1.0885,1.09224,1.0992,1.10623,1.10807,1.10631,1.11254,1.09749,1.12179,1.13634,1.13885,1.25297,1.20196,1.26848,1.27241,1.26251,1.26127,1.26117,1.28534,1.28453,1.24922,1.24788,1.23538,1.23862,1.2426,0.00382753,1.44443,0.00327094,1.43902,1.44082,1.43965,0.00381258,0.00333252,0.00386322,0.00353864,1.48104,1.48298,0.00357676,0.0035218,0.00349593,1.42782,1.37752,0.00352897,1.38735,1.38887,1.39384,1.40019,0.00339361,0.0033333,0.00347653,0.00332232,1.49924,0.00360646,0.00362879,0.00362414,1.49176,0.00354793,0.00393406,0.00348613,0.00388861,0.00352117,0.00371605,0.00367358,0.00359546,0.00333608,0.00356024,0.00383777,0.00358023,0.00366596,0.00367487,0.00374605,0.00390785,0.00372943,0.00400281,0.00359186,0.00359093,0.00357225,0.0035211,0.00344292,0.00363029,0.0032418,0.00375455,0.00349739,0.00402971,0.00348697,0.00344974,0.00364819,1.61831,0.00346112,0.00383983,0.00379988,0.00342805,0.00337523,0.00345839
0.003665,0.00334171,0.00306786,0.00346258,0.00371793,0.00340393,0.00363048,0.00351842,0.00381752,0.00352446,0.00374821,0.00326772,0.0036785,0.00348391,0.00346152,0.00365804,0.00369305,0.00341316,0.00365813,0.00329882,0.0035693,0.00390385,0.00334455,0.00352342,0.00350221,0.0037684,0.00366311,0.003523,0.00402424,0.00361681,0.00356492,0.00325586,0.00383774,0.00353911,0.00356511,0.00331838,0.00334205,0.00324709,0.00370839,0.00335314,0.00355164,0.00342127,0.562167,0.562333,0.00380031,0.00343645,0.003773,0.00318505,0.592129,0.593821,0.595197,0.595986,0.597398,0.00349828,0.00350037,0.00345956,0.00355157,0.00317832,0.00375563,0.00342477,0.00367573,0.00363962,0.00378729,0.00366758,0.00373809,0.00366879,0.699422,0.69998,0.712019,0.00317332,0.00362456,0.730785,0.742348,0.745371,0.746125,0.748101,0.741649,0.742962,0.743018,0.751867,0.756167,0.707923,0.701361,0.7052,0.71376,0.763353,0.740093,0.738872,0.73444,0.693432,0.693935,0.694879,0.68306,0.69238,0.694265,0.698399,0.691346,0.691511,0.693593,0.695354,0.733442,0.733302,0.773792,0.760517,0.75884,0.759515,0.815623,0.78704,0.850199,0.853729,0.853314,0.842868,0.815096,0.880699,0.816275,0.89107,0.911536,0.945308,0.94627,1.01694,1.03039,1.03455,1.09694,1.09571,1.09744,1.0302,1.05625,1.05982,1.07066,1.07126,1.0672,1.07093,1.0968,1.07776,1.07902,1.08385,1.10026,1.10524,1.10457,1.16575,1.14342,1.11582,1.14373,1.153,1.14672,1.16132,1.15992,1.18132,1.19934,1.19981,1.19111,1.1893,1.19015,1.18858,1.18054,1.19929,1.16996,1.16799,1.19316,1.18545,1.19537,1.20831,1.21202,1.21913,1.21728,1.21029,1.21646,1.21476,1.23928,1.21654,1.23578,1.20392,1.20537,1.20922,1.22312,1.2722,1.21914,1.20187,1.18821,1.18763,1.19476,1.19765,1.18405,1.17428,1.16081,1.16681,1.15137,1.13782,1.13639,1.10652,1.11587,1.11373,1.10319,1.08459,1.0877,1.10765,1.09201,1.09845,1.09567,1.10226,1.07525,1.08025,1.08069,1.08639,1.07965,1.07447,1.0763,1.07541,1.09239,1.10725,1.12332,1.10085,1.12144,1.09752,1.1253,1.14489,1.19617,1.19069,1.20694,1.27559,1.25507,1.25642,1.25929,1.26182,1.27551,1.2578,1.25281,1.2527,1.23936,1.23979,1.44224,1.44456,0.00343596,0.00358793,0.00367721,1.44878,1.35369,0.00339145,1.37429,0.00335472,0.00373697,0.00346156,0.00364353,0.00337454,0.0036279,0.00367394,0.00354854,0.00370801,1.37934,0.00363343,0.00347296,0.00365848,0.00343726,1.44483,1.41184,1.41353,0.00327759,0.00350815,0.00360283,1.43731,0.00364479,0.00375756,0.00368385,0.00326584,0.0036044,0.00354652,0.00359498,0.00340935,0.0033612,0.00358268,0.00348416,0.00350681,0.00351783,0.00337069,0.00370845,0.00344602,0.00344184,0.00348195,0.00349342,0.003741,0.00372251,0.00357792,0.00360983,0.00378372,0.00351564,0.00367261,0.00360627,0.0035167,0.00401988,0.00344212,1.61743,0.00371168,0.00380173,0.00372609,0.00379403,0.00329671,0.00342713,0.00336679,0.00349376,0.00341853
0.00343967,0.00369581,0.00342364,0.00352733,0.00337139,0.00380708,0.00352682,0.00376085,0.00365159,0.00354403,0.00328502,0.00384189,0.00369303,0.00399536,0.00359342,0.00389973,0.0032793,0.00380341,0.00359473,0.00316828,0.00345002,0.00429826,0.00341096,0.00409356,0.00334231,0.00370221,0.00326805,0.00379439,0.00373318,0.00395967,0.00365061,0.00370961,0.00346257,0.00401545,0.00349906,0.00365508,0.00330714,0.00363027,0.0037554,0.00368123,0.00360411,0.00359352,0.00334585,0.00369646,0.00379662,0.00370521,0.00323584,0.00336059,0.579788,0.00360496,0.0033641,0.596643,0.597578,0.00401447,0.00348129,0.00366628,0.00328285,0.00386419,0.00347819,0.00354884,0.00358891,0.00356104,0.0037575,0.00401885,0.00356312,0.00386304,0.00381627,0.691933,0.00332222,0.721139,0.00336932,0.728798,0.731553,0.728533,0.734288,0.735254,0.729386,0.731247,0.731023,0.734239,0.735048,0.734719,0.725461,0.727366,0.732452,0.732958,0.739533,0.735068,0.743131,0.694504,0.696652,0.701453,0.718947,0.715645,0.686541,0.697408,0.703009,0.701365,0.698305,0.729932,0.744611,0.746458,0.746442,0.799982,0.771729,0.760184,0.750805,0.753512,0.791137,0.792349,0.792078,0.795208,0.795139,0.829342,0.881199,0.855965,0.916564,0.927535,0.901942,0.975259,0.992677,1.01627,1.0454,1.06415,1.06071,1.04797,1.04964,1.06665,1.15341,1.15282,1.06065,1.07536,1.10331,1.07738,1.08385,1.08648,1.10258,1.10612,1.10727,1.12139,1.13248,1.13979,1.14734,1.16129,1.15411,1.1601,1.16417,1.17699,1.17566,1.18824,1.17497,1.18382,1.18174,1.18247,1.18231,1.19511,1.19195,1.19496,1.19841,1.18386,1.20254,1.20596,1.20781,1.20905,1.21184,1.21242,1.21924,1.2223,1.21955,1.22565,1.22039,1.19573,1.1989,1.1951,1.1952,1.20819,1.21039,1.19966,1.16645,1.16735,1.18963,1.16845,1.16524,1.2205,1.15977,1.13984,1.13289,1.1394,1.10552,1.10969,1.1095,1.12028,1.12558,1.10903,1.0884,1.08768,1.10178,1.11222,1.11324,1.08815,1.09275,1.08165,1.07306,1.08681,1.08491,1.08798,1.09542,1.09006,1.1131,1.10446,1.12284,1.11492,1.12249,1.1303,1.13316,1.18657,1.19429,1.19156,1.23109,1.25079,1.26964,1.26964,1.24862,1.26089,1.2613,1.25506,1.25147,1.23027,1.23433,1.29826,0.00352902,0.00394141,0.00354902,0.00368973,0.00344302,1.45054,0.00354254,0.00351424,1.44898,1.45338,0.00346157,1.37914,0.00363933,0.00385062,0.00374164,0.00439404,0.00334838,0.00348947,0.00355405,1.38487,0.00342838,1.39244,0.0037577,0.00396304,0.00365868,0.00352867,0.00320401,0.00385219,0.00369133,1.44002,0.00344464,0.00383504,0.0036187,0.00354167,0.00352851,0.00381687,0.00366171,0.00361395,0.00324504,0.00315363,0.00352041,0.00373718,0.00345456,0.00400582,0.00362819,0.00382985,0.00378044,0.00394985,0.00365309,0.00363426,0.00350963,0.00368716,0.00342574,0.00354906,0.00346769,0.00373512,0.00364087,0.0040611,0.00358531,1.75247,0.00352775,0.00381441,0.00357443,0.00353933,0.00346218,0.00396625,0.00331305,0.00346677,0.00366299,0.00373895
