1.115770279719,1.1084620995519,1.10724009576438,1.10604031904121,1.10669046526495,1.10723325084415,1.1112955373262,1.11547104165033,1.12191957042524,1.13474956972347,1.11879544847639,1.10831501127994,1.10911538781391,1.11021923225599,1.12839770997789,1.13487705090629,1.13306643074949,1.13133189546289,1.1301487761202,1.12984231519421,1.12954814468812,1.13038664164106,1.14337478298336,1.14416101340439,1.14487343941068,1.14653286550717,1.14721929422448,1.1487167902121,1.16001563275776,1.17003413737951,1.17049250717353,1.17137431752242,1.17270439298161,1.1740817799039,1.17248412688392,1.17094176181995,1.17761943823894,1.1903806999639,1.18883064352472,1.20190999491385,1.18804289023832,1.18779962670945,1.18068743572912,1.15501622052356,1.18170556680863,1.1928331369286,1.193765117451,1.22575999993905,1.1892739717409,1.16832625759247,1.16886862435711,1.16836466433527,1.16957241889051,1.17039409188202,1.17788156024901,1.18068405890236,1.18769040839444,1.19918658041303,1.19066817840659,1.18403317649294,1.18475596262837,1.18462135814663,1.18543941293775,1.18256381346551,1.19330814508018,1.19481054754734,1.19450164540189,1.19449723002319,1.19580349655382,1.19879233109277,1.19710443066029,1.19597027572122,1.19004578453342,1.18456347446353,1.18538419846607,1.18510425286552,1.18529497709588,1.18600921965401,1.18736004248835,1.19035428303393,1.19756828300799,1.20489586607737,1.20367367857734,1.20240728895025,1.18589086520146,1.17632484990009,1.17722535946494,1.1777199329115,1.18759576651411,1.18973986869043,1.186471819711,1.18443244408258,1.18182182820453,1.17856484788173,1.19714419865024,1.23180999023359,1.20623878271599,1.20216701634887,1.21169252765753,1.22114175299749,1.22048328958823,1.20279968192466,1.2130242698144,1.20495549812053,1.23912013161258,1.26778320134748,1.26282893159503,1.27266430722515,1.27117914276584,1.29243999851899,1.25764983446761,1.2551152669949,1.25862651574928,1.28586803481449,1.27707140267748,1.27524727819611,1.27380197199674,1.27063162505997,1.27132513735543,1.27020518804633,1.2952875809649,1.29546661086092,1.29303238087385,1.28750138960458,1.28852637548445,1.28738330618428,1.29496939989107,1.29576113959155,1.29800177950651,1.28861478926307,1.31846085416229,1.33293424254527,1.31904293195672,1.31215533581333,1.31924560458087,1.38168046142417,1.38206943911596,1.33699000003631,1.35671088018766,1.33666000003761,1.37866589008745,1.36745049554094,1.39089757874081,1.38996302840929,1.42503864045227,1.45902029494476,1.43016038832875,1.42144262904259,1.42243544807743,1.42251535339732,1.42157782402785,1.41893158034161,1.4289948980932,1.43015276254867,1.43340709761009,1.43664995310018,1.43488237865485,1.43379043251308,1.43228922095692,1.42593912466485,1.4282470416158,1.4289332533031,1.43129759294009,1.43433377944807,1.43490307648371,1.43673164338992,1.43675982783856,1.43715057018116,1.43461374556937
1.12322105146951,1.12399686952769,1.12442281004748,1.12453631332715,1.12549315439474,1.12690824025322,1.12951547878752,1.13142125000324,1.13250233653772,1.13294794651983,1.13142444571224,1.1302090870754,1.12981384846095,1.13060649209323,1.13259859668254,1.13539056796901,1.13885309185101,1.14185543887543,1.14454033944968,1.14662322959577,1.14852489809845,1.15033403236064,1.15300980711603,1.15498570011405,1.15638360115048,1.15757992168736,1.15906588630201,1.16124383851456,1.16427655583257,1.1680398309331,1.17018775345219,1.17225884994255,1.17449136602658,1.17684744935859,1.17933429229726,1.18198484147421,1.18479991714039,1.18674298123603,1.18730393307229,1.18778998278563,1.1883464253139,1.18884582058231,1.19005566572982,1.1910216561261,1.19248680295934,1.19335708008489,1.19421348191781,1.19348652115884,1.19208237436858,1.19252697361116,1.1926343360878,1.19257243233633,1.1933071320932,1.19412467708874,1.19501528030443,1.1959131167044,1.19674543945691,1.19747762044059,1.19643691627851,1.19538561777821,1.19444725150648,1.19377044019768,1.19346374543349,1.19355957798776,1.19401101064437,1.19455058447786,1.19458524230402,1.1946591587339,1.19428950520453,1.19588588359228,1.19602270612881,1.19549123304643,1.19549239774212,1.19516108486061,1.19529085024691,1.19603132528858,1.19728592184997,1.19878750805901,1.20036096427729,1.20216055111731,1.2044742778293,1.20481736958463,1.20335752411988,1.20039026240685,1.19326478744108,1.1920655654558,1.19013816414007,1.18827818881215,1.1879994508528,1.1888621378802,1.19121703306813,1.19375940632364,1.19664356866661,1.19980745504838,1.20312614741133,1.20728591247919,1.21165023902239,1.21588658986299,1.22059672810601,1.22543144574773,1.22890045029216,1.23461419317629,1.23840775251549,1.24074895771689,1.24294741087533,1.25638493793228,1.25833620027653,1.27098729099555,1.26905030858984,1.26470743213489,1.26088485093726,1.26186543336937,1.26069389786775,1.27403243995397,1.27451289397304,1.27455492069259,1.2746119795111,1.27699410232813,1.27908011378805,1.28114364930847,1.29511436113376,1.29436062233152,1.29242228884557,1.28869012259969,1.28834444538281,1.2877409416752,1.2952274468517,1.29781669956177,1.29970042871179,1.3007851867289,1.30200478510573,1.30299857652261,1.30514098262363,1.30829121174919,1.31375521671049,1.38329879265578,1.38531708206119,1.3867386186565,1.38829055954811,1.38938907694668,1.39022225704893,1.39099353939636,1.39172792247379,1.39265945529182,1.40458618074796,1.40624560821115,1.40957367617798,1.41497343459198,1.42327688408749,1.42462508260712,1.42458276734985,1.42607913183931,1.42684605108336,1.42853844404793,1.42922649296468,1.43071997509025,1.43286823021812,1.43337039421199,1.42998553513363,1.42731103960143,1.42742881396862,1.42784463908692,1.4295560682064,1.43156590452186,1.43409359672886,1.43587962313209,1.43665717652824,1.43720306961111,1.43747171591443
1.14032450817852,1.13932413825696,1.13053185166521,1.12350075946779,1.12482068892762,1.12536063444352,1.14099198665895,1.16294122976822,1.16296444436404,1.16472143484069,1.15755563391613,1.15514330468882,1.15792630316363,1.16703470690586,1.15448608901151,1.14265605041615,1.14236076535983,1.14144229756759,1.14423217301587,1.14604996984804,1.14796208628997,1.14887921197813,1.15367635721614,1.15930780518385,1.16474343792665,1.17500252069278,1.17517009485981,1.17473067373965,1.17850859768405,1.18820361499902,1.1878269840806,1.18716117494028,1.18662370447124,1.185791421399,1.18673677390527,1.18767845059836,1.18574847528532,1.18452824497734,1.18589941771341,1.16446000755749,1.18874577072347,1.18921163281517,1.19013412607912,1.19011450730838,1.19245079081331,1.19781067318968,1.1957382051604,1.16026000002031,1.19251809642015,1.19550842103918,1.19271233702852,1.19178792166411,1.19814479988425,1.21842352494326,1.21791336394796,1.21825874247572,1.21831670466384,1.22522811644437,1.22407410817034,1.22655068532906,1.21616436800049,1.2193405102268,1.21003037720066,1.20915794533966,1.20885260236519,1.20866253576574,1.19863732556755,1.18012015906533,1.1901738680065,1.18566056202139,1.19539681557074,1.19406352412649,1.19560264187786,1.22867999639978,1.20205536399085,1.20460678259231,1.20359485487125,1.20997586874215,1.20826464690816,1.20567013521345,1.20629974944571,1.20760082837321,1.20428484876912,1.19508426626729,1.19508606803633,1.19331321599799,1.1899941594052,1.1863696578401,1.18696791812486,1.18630776759968,1.20025533652462,1.21100494121478,1.21225541570188,1.21816779062529,1.20865869461209,1.20174275157572,1.21462324207516,1.23298373636898,1.23156622999623,1.22926670275565,1.2307269682533,1.24525267678291,1.24224448081404,1.27503999936311,1.24880423853482,1.25487221736998,1.2563844871343,1.27460323911722,1.25559217758814,1.24878679243831,1.25578743919091,1.26544373248294,1.26280678488023,1.27330119605381,1.27387950766198,1.27363805683078,1.27257949536891,1.30873879419542,1.30825469367949,1.3089012956653,1.30673820068823,1.380749999984,1.29367170784511,1.28671830530795,1.288541195105,1.27208998997226,1.29560684083378,1.3033604722949,1.3018451361371,1.3016026804595,1.30188716931925,1.30188804921191,1.30503337162599,1.3061166057594,1.30990826103184,1.38970200272162,1.38752398275213,1.38877930925472,1.38882993343356,1.39029840927907,1.39018014191576,1.39094711043299,1.39224425571341,1.39610683032372,1.40001817580633,1.38409964476517,1.40099692292594,1.39107266147714,1.4226557378805,1.42827104405669,1.42646509148129,1.42968680741225,1.42421163578124,1.38678999381122,1.39762627813578,1.38769987083016,1.42982012545714,1.43711554859896,1.42721176452575,1.42620093505989,1.4262698904659,1.42545137884869,1.42755333405503,1.42816100816794,1.43379586258977,1.58492,1.51311853748675,1.58402,1.43820091497214
1.14125253892487,1.14038132234666,1.14062972134842,1.14134429454835,1.14312088942062,1.14652057868902,1.15176740046667,1.15844910129956,1.16114083333337,1.16231544790486,1.16046407824076,1.16067196769709,1.16100339520825,1.16408348069952,1.16553928048169,1.16686426844986,1.16783655411558,1.16831006276217,1.16870723547245,1.16935007223197,1.17111920289776,1.1727114162976,1.17400416464661,1.17488496425681,1.17533166060257,1.17541378403869,1.1757905573947,1.17711497842454,1.18020494658233,1.18825897239915,1.18792359560148,1.18737243153548,1.1868580916852,1.18647862560656,1.18674244882149,1.18706316568706,1.18702513509467,1.18788838175497,1.18957024315473,1.19198446923956,1.19138202966792,1.19116466534503,1.19110623443445,1.19206119130467,1.19355177752298,1.19537097821333,1.19495022811905,1.19395885292886,1.19282562975897,1.19156043767712,1.19076768284264,1.19006677986639,1.20441755563951,1.21709889970989,1.21716996220509,1.21745551963428,1.21878996067871,1.22128784377043,1.22047065809382,1.21662051577344,1.21324021276304,1.21172837778733,1.21076162077662,1.21002477100639,1.20873839405671,1.20665670636188,1.20203717360807,1.19897658733091,1.19673183108751,1.19496284793515,1.19583659711591,1.19676308410131,1.1968190254963,1.19805844523018,1.19959775416899,1.20170462522585,1.20265230656309,1.20725822639676,1.20878928313555,1.20736535244025,1.20744540145036,1.2062722021731,1.20465670685515,1.20268656381992,1.19891811865081,1.19604955600091,1.19787048494633,1.20023803840414,1.20367493720843,1.20623345558171,1.20796040403333,1.21231889324254,1.21311174199117,1.21457904584685,1.21356821965277,1.213185516241,1.21768986403979,1.23047971402333,1.23221274220385,1.2328381684189,1.23403193371322,1.23659470269457,1.23919364474147,1.239871327927,1.24084789548577,1.24235972509504,1.24432670497381,1.24652069455326,1.24872309014238,1.25073880981373,1.2546641745332,1.25732493407812,1.25993058123917,1.26240724701469,1.26473269097435,1.26697345617357,1.26899788890845,1.30783251046802,1.30748884162263,1.30692143102556,1.30468969459244,1.30276104360936,1.29495579290743,1.29271718593817,1.29060653624346,1.28731445222306,1.29617254584784,1.30311093855287,1.30250341464918,1.30218412502307,1.30228206021028,1.30285510118016,1.30427635738781,1.30515317231455,1.30765262751908,1.35079052964598,1.38670866948422,1.38740376716402,1.38814877579661,1.38899265918581,1.38931345989917,1.3894766629789,1.3901729753769,1.39977082880235,1.40286215533388,1.40614467143977,1.40909638697156,1.41721770007482,1.42186300937664,1.42196152499312,1.42365949518449,1.42348892993336,1.42193547651374,1.41586735957639,1.41616905971292,1.42038290237354,1.42133834807726,1.42331483039589,1.42554830658061,1.42568875923393,1.42578229039764,1.42578063743372,1.42700274819699,1.42978405087076,1.43305511818815,1.43445360000122,1.43558965315588,1.43641325248945,1.4366275887926
1.2074732121104,1.31953999998645,1.27981916168553,1.26087121728989,1.26331048162673,1.26573591978452,1.21494505003551,1.17285396559873,1.16623321660982,1.16303635637809,1.16135356184804,1.16059272117871,1.16144475082499,1.16272014046396,1.16549349473761,1.16816341871711,1.16812058025977,1.16827538549902,1.16838630018884,1.16813942953036,1.17547335379681,1.18526607429555,1.18749897254582,1.1897674328789,1.18689393707655,1.18415445880446,1.18126141492221,1.1785948598085,1.20184079074477,1.21734034702382,1.21773711384816,1.21811627908266,1.22706125321062,1.24724680151302,1.23435904272133,1.23335207448996,1.23297345147634,1.23298357494899,1.21342887829205,1.19543362032132,1.19843268637356,1.20142881522683,1.19705624110095,1.19317831900492,1.19391212078095,1.19465866360535,1.19461229349693,1.19417301154982,1.19339681103673,1.18729493593346,1.18854376404299,1.18753990841889,1.21127959896506,1.21576514629716,1.21633736606375,1.2157865081378,1.21838550265787,1.22082094377882,1.22012136020637,1.20299248757149,1.20648428121497,1.20250156422036,1.21140641150032,1.21146373215854,1.20952333244501,1.20747863066501,1.21228031391131,1.21588843829814,1.20346027838749,1.1924486360218,1.20350859877334,1.21107713323542,1.20353394750064,1.19393765964532,1.1962999796521,1.19540890985638,1.19783914971456,1.19531558825992,1.21195431956047,1.2185884864176,1.20991258136111,1.20533291722125,1.20477716561261,1.20399043936516,1.20164824777893,1.19387340003359,1.19687918250705,1.19860539895457,1.20933384064648,1.34051,1.23638295299602,1.23874457508921,1.22481445348664,1.21364187309718,1.2134685690029,1.21392256927816,1.22129174283644,1.22602117729102,1.23360807796303,1.23450487465075,1.23570763289321,1.23657956846071,1.23792560093679,1.21643000965672,1.23323979260578,1.23240336806915,1.23562656853744,1.23805678854029,1.23681620791192,1.23500133758557,1.23533479829203,1.23549727212052,1.24537895846336,1.2448385293127,1.2502890845819,1.2527352197711,1.26687885132903,1.32630957364636,1.31994089931304,1.32706047339165,1.30239871508109,1.30077714107591,1.29847639047669,1.30016815534077,1.29376936557867,1.28404323176116,1.29678626190532,1.3412026966121,1.34247021479852,1.34757167427174,1.34707427846334,1.38439999995398,1.32379872122678,1.29797000360861,1.30673062245142,1.3063711071085,1.38602695661941,1.38648720793318,1.38781830039288,1.38847966623042,1.38880331188268,1.38765920770348,1.38904584991102,1.40597783977999,1.40474484737489,1.41553239068656,1.41219664264681,1.42066106177119,1.42100041732174,1.42054801850951,1.42303226026169,1.42509817692808,1.41837118641013,1.41489242088375,1.41586327144162,1.42492707670111,1.42087794169461,1.4165585450654,1.42205007011801,1.43581180392683,1.42528859640328,1.42467405519592,1.42587207135771,1.45111000975139,1.43388555184427,1.43441730616684,1.43579045362642,1.43718441890538,1.43112153259334
1.24313929856635,1.30248992564465,1.29561005481722,1.28945898202783,1.28304691554729,1.27554011458181,1.24582097578265,1.23252951769221,1.2233060647133,1.20785607946991,1.2072756620055,1.20712350681612,1.20738454955076,1.20786799762,1.20825489703578,1.2082111733589,1.20751595413352,1.20613981874381,1.20423771744858,1.20207136659923,1.19990833892174,1.19794354350586,1.19924154280794,1.20105058868773,1.20347466555017,1.20650310224411,1.21003592105683,1.21391510811736,1.21795420070604,1.22197086574908,1.22582860194512,1.22934928813679,1.23222622324212,1.23612446158541,1.23556504866964,1.23381342413103,1.23284163209552,1.23210399381399,1.23072882267349,1.22944644773126,1.22803192547272,1.22576766645737,1.22325618990567,1.22067929971296,1.21870623275947,1.21718145382704,1.21742840034581,1.21798971004274,1.21867212160837,1.21911221806506,1.21914037735851,1.21862345657451,1.21770913418758,1.21646025322187,1.21671288407332,1.21743853657392,1.2183335968988,1.219391714978,1.21922437204238,1.21812298627746,1.21629955775533,1.2128517248274,1.21193125498451,1.21143477475625,1.21116504895474,1.21219097154926,1.21325691603031,1.2140252928363,1.21273939730262,1.21152708012923,1.21199950273144,1.21240141663607,1.21233520961545,1.21250646549225,1.21278341389205,1.21312683358615,1.21357070954517,1.21418363536212,1.21488543903801,1.21627614774576,1.21549259822778,1.21747162754398,1.2195692537849,1.22146900093284,1.2232019706898,1.22502188815755,1.22624258315635,1.22731966051771,1.2277877946825,1.23219659848829,1.23406153987172,1.2354824955394,1.23683887277179,1.23796795074324,1.23862977585686,1.23879795904834,1.23865327995198,1.23846595178501,1.23832493295774,1.23801880981835,1.23725781763379,1.23733635145499,1.23729057509387,1.23602281381488,1.23354374023834,1.23417668201712,1.23591255460752,1.23723058980629,1.23730978231276,1.23677220750858,1.23579400857824,1.2351031943572,1.24563520226126,1.24598758775405,1.24807535397592,1.24956332455899,1.26391309433855,1.28947250230863,1.31536441855911,1.31784434593213,1.30157813042348,1.29955703550644,1.29784620741111,1.29732708165865,1.29629300054637,1.29706552274103,1.29727489606484,1.34312746653406,1.34393340002317,1.34587460647619,1.34696226972392,1.34809262347707,1.34265734746014,1.34231168397545,1.34255226870912,1.35158954191809,1.38580124973965,1.38669444010923,1.38861103887844,1.38993003367193,1.38995824175378,1.3897495167592,1.38962300189046,1.39040805114264,1.39150145817911,1.39279966425417,1.39415286845978,1.39540422227431,1.39645685070638,1.39733379217119,1.39817847373254,1.39918418029068,1.40049702958475,1.40215285205019,1.4040786833783,1.40614402295513,1.40821980920626,1.4102095248963,1.41204604988386,1.41367451028591,1.41504623846857,1.41613218227151,1.41694862314718,1.41760469158135,1.41897948582489,1.42117025582757,1.42373430946707,1.4262144969998,1.42781703007269
1.25861401584191,1.31352999787898,1.29725357347963,1.33632999995257,1.30414403422166,1.32037999506944,1.26903242513971,1.26848407531338,1.22738863018214,1.20872691774798,1.22849949516082,1.24582179936562,1.23860869973873,1.22921041223963,1.24106922645566,1.24623539526311,1.24629011267512,1.24613763237883,1.23947555317007,1.22538000352728,1.21145710474983,1.19496842078746,1.21956590328427,1.23937983421617,1.25048391697118,1.26039282733203,1.25407020597411,1.24523704916414,1.25423483830383,1.26055331929196,1.24687948081511,1.23447692869997,1.23469916932977,1.23700335892487,1.2381948678141,1.2421120244826,1.24245564213861,1.24230849869588,1.23661973201994,1.23343907331523,1.22969341111941,1.22581625893735,1.22299392597414,1.21979911209359,1.21794187392146,1.21509137090537,1.21675901180612,1.21752101162336,1.21849512705663,1.21905734555462,1.21969622812794,1.22027506922147,1.21789576139719,1.2156537373167,1.22450736690554,1.24309276472844,1.23341248781366,1.23205390832261,1.22700844414212,1.2233723613365,1.22098701186271,1.20971352978286,1.2184397940953,1.22572273399872,1.22329416423258,1.22083556587242,1.2167909542929,1.21393321326953,1.21211559792501,1.20935132039463,1.21182488423312,1.21385129912315,1.21521039211008,1.21634151056148,1.21970793412071,1.22291478005973,1.22156739471198,1.22021837912291,1.21724676823762,1.203399709407,1.22139829338127,1.23213814446002,1.23246590620064,1.23408534900859,1.22549659083428,1.22592933737449,1.22691775914749,1.22845662475356,1.22875557143004,1.23039568438164,1.23221764380421,1.23223124127423,1.24000347691946,1.2574467702169,1.25536548922977,1.25780471334071,1.24726274015192,1.24633097118028,1.24607710155043,1.29106000001556,1.26364598053443,1.29434999995339,1.24427994566242,1.25109712481252,1.22997023608284,1.21954411661743,1.22293566902055,1.22484920742965,1.23839960565359,1.23917344823206,1.23632125764975,1.23434620238676,1.24549825518945,1.24545875533816,1.24664207664691,1.2465266301154,1.26018086082715,1.25602206351993,1.31086010878114,1.34678999995315,1.30044526454747,1.29334569177297,1.29561168412925,1.29459935139748,1.29639790950638,1.29718476337002,1.29768605584992,1.34438537012353,1.34448000048523,1.34528063473442,1.34719662846662,1.34961421372132,1.34219116327709,1.34105614961973,1.34208607042649,1.40720999998836,1.40176858526041,1.41055999997833,1.39056271629579,1.39297337062135,1.39157971163148,1.39196425009081,1.3526537967495,1.32484259536133,1.32526395248051,1.32597300675907,1.32841306143466,1.33160445096214,1.35041824989118,1.37100884218113,1.37046037036582,1.36982697042823,1.36374277644759,1.35746213046696,1.35731080282188,1.35726439677808,1.34203286332225,1.33306804398557,1.33199362421556,1.33279821077439,1.34374930293212,1.33481085361714,1.40396962808168,1.41692305790632,1.41688462037093,1.41602416968981,1.41626002162021,1.41619969388245,1.42113852851878
1.26455297256484,1.28378939245537,1.28488164231259,1.28601114354081,1.28688379697521,1.28734809781533,1.26946097089254,1.25122881215047,1.2350442727208,1.23579153339142,1.23930163975293,1.24581599161307,1.24663809323266,1.24664904558549,1.24647083769369,1.24638878277899,1.24667202915815,1.24759784986491,1.24867874296276,1.25017240534094,1.25206186824836,1.25261808997798,1.25333259912957,1.25465206534657,1.25779726510931,1.25924532272683,1.25918745316378,1.25894238558556,1.25865586449551,1.25841590112572,1.2569881950803,1.25542622252257,1.25366972703111,1.25176413700216,1.2490621495451,1.24633985784209,1.24368136919062,1.24152031010338,1.23844154320125,1.23704821315081,1.23579707346031,1.23487834727328,1.23434879880732,1.23421352340429,1.23405763149599,1.23412590386031,1.23431182751932,1.23457796153726,1.23493410776788,1.23534998350959,1.23571139457844,1.23582027824107,1.2354295924488,1.2341914323027,1.23477052286673,1.23807455687218,1.23505963379072,1.23398734005701,1.23277009933788,1.23130249108341,1.22980575628101,1.22861227284008,1.22795982417585,1.22786480938813,1.22814329513753,1.22853174396693,1.22882214943198,1.22893329764786,1.22888189053847,1.22867790940174,1.22824423864171,1.22743862201147,1.22715276995089,1.2266348131558,1.22594867926947,1.22484472416323,1.22486216673305,1.22530820462017,1.22624258830985,1.22759638366289,1.22918616284129,1.2308331776794,1.23115874293945,1.23017917863875,1.22536944196192,1.22562475252573,1.22752155939544,1.22875915961535,1.23111046621672,1.23436119158301,1.23825087498159,1.24218380071973,1.24587326540129,1.24811770647433,1.25075024411642,1.24950609548312,1.24797984288501,1.24565314926701,1.24581965782254,1.2464123139807,1.24026612816902,1.23595764360691,1.23280096207283,1.22945723148888,1.22612064204905,1.22179917577707,1.22191198653534,1.22328276187124,1.23903450730426,1.24028516410879,1.2431391336622,1.24620743966325,1.2489212487395,1.25100218669534,1.2574461763838,1.26102490155292,1.26199164778139,1.28657814873713,1.30060604210213,1.29988648359344,1.29919419140789,1.2971138824017,1.29643362320435,1.29612576545669,1.29695753049152,1.29766371710758,1.29822566196218,1.29877446470921,1.29885779774464,1.29863805222789,1.29827567478543,1.29792808671244,1.29776837926696,1.297978054494,1.29871957402074,1.30010565922907,1.3021707132825,1.30484925298076,1.30797523953264,1.31131665291836,1.3146425322017,1.31779040821475,1.32066763878067,1.32322486485134,1.3249340607382,1.32620246774252,1.32762489031059,1.32814861814618,1.32846355570106,1.32855712656106,1.32825134525003,1.32739445080024,1.32405095062382,1.32153677557276,1.31994415108336,1.32168801924644,1.32491863905647,1.32926902695747,1.33052261780888,1.33137398982705,1.34992659317053,1.35482634223459,1.39632777745312,1.40012979688804,1.40372807464665,1.40733786455272,1.41131783537611,1.41324847411007,1.41013379277982
1.27326546885301,1.28238485399055,1.28445816914655,1.28585581982633,1.28680960047929,1.28736961438041,1.26976676456457,1.23389280304135,1.2338986057247,1.23255012098391,1.24224961856571,1.24459287762524,1.24708949976388,1.24974381108494,1.25154220048796,1.25307695432814,1.25374790638554,1.25402078864845,1.25536576449258,1.25651084688456,1.2537279540609,1.25276772514308,1.25296991327753,1.25306847415824,1.25958472775931,1.26151627663932,1.2665398122685,1.27217648414737,1.26443702358639,1.2574001143304,1.26518728242776,1.32392999995379,1.26523381740523,1.2525036164135,1.25605515039718,1.25963403598688,1.26884391380438,1.27461153124407,1.27476430952085,1.27552439693837,1.27223260117809,1.26909140265226,1.25179746824,1.23443307023727,1.24066617130708,1.24708586792761,1.24278047955845,1.23877208264196,1.23914745759774,1.23951518793972,1.24047131907198,1.2416007583586,1.23651384201217,1.23159424348668,1.23432239809997,1.23608232407072,1.24087795226708,1.25424674781188,1.25545233520394,1.25680193897987,1.24791742854436,1.24018702731649,1.24078054512825,1.24139331643585,1.24102357666969,1.24064392138931,1.24004534570674,1.24025183575223,1.23288126474482,1.23037364265281,1.22834273896178,1.22635096995364,1.22672831980795,1.22644118777006,1.22605113056071,1.22574509126564,1.23123492917471,1.24354980199048,1.24383549949739,1.28221999996702,1.26168045017854,1.27253033503499,1.23758435187324,1.21764047221098,1.22035043419635,1.21818723443548,1.23769134916199,1.25755139889799,1.25509443267654,1.25695472252943,1.25337910372738,1.27223998858742,1.24710250880612,1.247573390508,1.24994595433823,1.25015108644542,1.24951018374097,1.24292596752388,1.24542638518648,1.24766046124703,1.23304016786112,1.22895069549793,1.22652826829852,1.22266841081962,1.22321159751311,1.2198379713853,1.21991341616039,1.21813818383432,1.24841189965002,1.26155292751822,1.25907477115696,1.25419605386096,1.2531815707461,1.2527716699965,1.26127644212257,1.26795410323691,1.26927333707643,1.3079171537656,1.300664455028,1.29971794300832,1.29936138014631,1.29954665684854,1.296885607078,1.28144683912634,1.28053539733819,1.28082909830595,1.28015605429692,1.26544820700529,1.28060120153121,1.28163480109581,1.28146494807089,1.28144096246132,1.2813450766417,1.28131639929659,1.27920066827941,1.27851993186371,1.27768377828205,1.27658745598515,1.27802382682582,1.27981274158485,1.28059579303911,1.28140717104373,1.2948476525107,1.30736014203091,1.30781602174934,1.30834999634685,1.30851555975346,1.30892003629565,1.31469612305087,1.32891431715209,1.3289833258117,1.32968365992888,1.32308690154194,1.31500994897603,1.3169135522593,1.31509000648933,1.32348259426082,1.32018215442508,1.32580380780921,1.32152725309797,1.35037725274005,1.36427780089802,1.38667862179183,1.38782307131125,1.38943942025335,1.39183103591627,1.39959699903877,1.43696999714847,1.40516761830426
1.25439224283318,1.25649884197729,1.25953830735425,1.26315101108487,1.26740724489348,1.26962230935397,1.27003492018602,1.25259926586245,1.25345122353028,1.25471358633376,1.25628543386581,1.25793401095222,1.25941945707983,1.2606022273323,1.26147641619398,1.26213150259218,1.26269244162881,1.26328326187742,1.26401752567685,1.26498804881292,1.26623757391542,1.26772544595669,1.26932937327988,1.2708893151778,1.272224243945,1.27313954880328,1.27431280599066,1.2746327967519,1.27663452271036,1.27787667076185,1.27837634820176,1.27818997881399,1.27771528409236,1.27708232349018,1.27628157675427,1.27537454559772,1.27479207482929,1.27444306878635,1.2743115607147,1.27393999973606,1.27217336932368,1.27055785034872,1.26929272866121,1.26851782852291,1.26826160036518,1.26834918173518,1.26841783073057,1.26803791377971,1.26687286438872,1.26480286362756,1.2619615768127,1.25867445604906,1.25765690922131,1.25685106660592,1.25634025029701,1.25603192097488,1.25579540491407,1.25557207394152,1.2552513339877,1.2546370173046,1.25176935339114,1.24883833475826,1.2459867631127,1.24343373520014,1.24142028619571,1.24018335468188,1.23943190585807,1.23860576013383,1.23584392180445,1.23529206586341,1.23411984328762,1.23293264534105,1.23191785611969,1.23053120230653,1.2340199419966,1.23736206546635,1.24026706448633,1.24278713393378,1.24414394897227,1.24935729168896,1.25037506540472,1.25122926481352,1.25126718577759,1.25113426459662,1.25105125010576,1.2509360162255,1.25038168114785,1.25061503296539,1.25085049153073,1.2502621085971,1.24962163383125,1.24889275936143,1.24767067680419,1.25004271743243,1.25120450046163,1.25152422227645,1.25004798720245,1.24632349358748,1.24058917743955,1.23673630965276,1.23236009156722,1.22834995319249,1.2255504214431,1.22407560398437,1.22432873929987,1.23329928584005,1.24008371271899,1.24642953848114,1.25227004369384,1.26149894994058,1.26142873066403,1.26405276692607,1.26650565337926,1.26952279577834,1.27253122656657,1.27516287589775,1.27823677419981,1.29176847399999,1.29516512831209,1.30031303394219,1.29913516330194,1.29867813426834,1.29784450721306,1.2896652691759,1.27984079701415,1.28000860409021,1.27991995025881,1.27986496679223,1.27970578828095,1.27866449441532,1.2779556571491,1.2776780161628,1.27768152587086,1.27774496919907,1.27777591040191,1.27783584220426,1.2781089117001,1.27831440966433,1.27756750041298,1.27931839146588,1.28039296604065,1.28101310131682,1.29210499364528,1.29304935586523,1.29631763458219,1.29936882919231,1.30218320830744,1.30460339324018,1.3065694537278,1.30879873788917,1.31182427830741,1.31558334822205,1.31950763396756,1.32165634826374,1.32680130310945,1.33126913888676,1.33627980237553,1.33868395023793,1.3414078018338,1.34564841393491,1.3510291455204,1.35728183362592,1.38653258349899,1.38753240349281,1.38877450347388,1.39088491348107,1.39184040531931,1.39235535101404,1.39254780830284
1.25298940133843,1.25249437621865,1.25959310777006,1.25290983566605,1.26983767897698,1.27163181892175,1.27079976059273,1.2520662013219,1.26223270074026,1.27096758076872,1.27004019902776,1.26894952778949,1.27338416948358,1.27779977869586,1.27770096023604,1.27787548644443,1.274796060422,1.27184890461417,1.27436381710626,1.27703147423734,1.27561728244976,1.27443364787916,1.27327794011486,1.2721412159449,1.27231043003758,1.27234865668686,1.27464796028316,1.27681566501672,1.27816367884221,1.27964807835193,1.27880634421176,1.27834803424971,1.28645774284041,1.29530805604515,1.28581491068865,1.27505571831895,1.27465446830323,1.27418409215351,1.28026017172596,1.28837718317088,1.28561300448849,1.28276835814049,1.28669351202542,1.29056315836619,1.28207949781787,1.27357885605684,1.27260961590648,1.27151434343984,1.27605155952819,1.28072429635759,1.26468236818631,1.25634832376965,1.25917370084124,1.26202411970522,1.26362434382722,1.26526634282453,1.27226716049605,1.27876855950221,1.27877586530848,1.27864487870966,1.28214693457974,1.28710185808993,1.267921015258,1.26078887723488,1.25878263315755,1.25691239863594,1.24771505502793,1.23927778614774,1.23694384180267,1.23613503229819,1.23582740969104,1.23609857834445,1.23229029653106,1.22836421635864,1.23631101267599,1.27398999667684,1.2449537374965,1.24307939445295,1.24576289735226,1.24792573293819,1.25006795557634,1.2516327375022,1.25098039767843,1.25077195603416,1.25079429792339,1.25209276633996,1.24950870894266,1.25075595852297,1.24754594993913,1.24147051926489,1.24359939644258,1.24179244768103,1.24432659641485,1.25353811573792,1.25323360752553,1.25480645372104,1.2529755975103,1.25424593338468,1.23117217463292,1.21627648094282,1.21735621228983,1.21882669726152,1.22116555975658,1.21364710899535,1.22572643381496,1.26185047559513,1.25219382490685,1.27535999457812,1.25865134173856,1.26136667866686,1.26090054296303,1.26790350950444,1.26588645173997,1.42724,1.27563943320962,1.28925204376691,1.28166239124682,1.28602709733349,1.29176729129236,1.30602141038116,1.29857861336492,1.2985951311628,1.29822089936253,1.2986280632019,1.26271804537117,1.24334955512558,1.26002489646649,1.30015999687033,1.26941434510385,1.26397561443212,1.26573368892238,1.26926216302224,1.27224297068074,1.25798017198367,1.27637947877956,1.27708423031488,1.27887176603027,1.28128280438078,1.27455719633227,1.25660948435298,1.26490134841914,1.26011117941595,1.29071477313244,1.2901701764276,1.28882430401701,1.287682781952,1.2878115505361,1.28830839663931,1.29672629707056,1.30192969376476,1.3037969500852,1.30532588003116,1.31002832397444,1.37402711309065,1.37295265300165,1.37307894585637,1.37166382584228,1.3768202703326,1.37323837126512,1.39083597781175,1.37184252773591,1.33775000001181,1.38642461580554,1.40893999069213,1.38734830623192,1.38268934708872,1.38329680324596,1.38383638341996,1.38947708342731
1.26512224043788,1.26807010617154,1.26946132634458,1.27027844180297,1.2705440351268,1.27126598167162,1.271518405477,1.27177521491045,1.27219822524401,1.27293484684793,1.2740359930283,1.27538890581057,1.27672308225546,1.27774210339429,1.27821009801188,1.27835976161366,1.27892433633169,1.2794654985703,1.27994221828981,1.27843871451373,1.28046003011302,1.28049119679301,1.28091550976093,1.28158105556323,1.28237977621634,1.283217768872,1.28409128173489,1.28507333307639,1.28623259448849,1.28758221346094,1.28908287789983,1.29067754148271,1.29232930164722,1.29404452676853,1.2945890493181,1.29532637509228,1.2962790201387,1.29736248151775,1.2983899380977,1.29913065435959,1.29939468550432,1.29910463958737,1.29831880377547,1.29719722470607,1.29593496378277,1.29469744048072,1.29358177988101,1.29261058897563,1.29175120991621,1.29094617785886,1.29013993101926,1.28929218524245,1.28837907664613,1.28739397448984,1.28635931218828,1.28534274316607,1.28445157606418,1.28379000575533,1.28340173659521,1.28322688331649,1.28304694862362,1.28354339083108,1.27324345791843,1.2678105401737,1.26292036535349,1.25290282649595,1.25243961994761,1.25176524078477,1.25093717667403,1.25016125043236,1.24978903844404,1.24955023244398,1.24932188849715,1.24898509521873,1.24841067048081,1.24556812650818,1.24669761954126,1.24729832498763,1.24787814538555,1.24865301522111,1.24991926245475,1.25069185845282,1.2497907660934,1.2499687430423,1.249257324413,1.24677327511496,1.24504396660544,1.24392787674798,1.24350027069376,1.24214634957614,1.2428491677035,1.24336242481051,1.2433497458251,1.24245387275553,1.23747991561506,1.23301766707966,1.22962925603102,1.22505224052867,1.21990734570821,1.21627747786865,1.21743830056873,1.21951946779247,1.22161454621121,1.22541529611992,1.22696290437248,1.23834761673188,1.24451914675744,1.25267754855615,1.25536603544614,1.25929949668469,1.25975512371076,1.26565551261356,1.26327786181921,1.26116537146152,1.25937116936053,1.25811258478497,1.25469229414836,1.25191784034143,1.24989570261334,1.24862174495501,1.24800633746289,1.24789003567042,1.24806674736068,1.24831540105931,1.24840885842586,1.24814679732931,1.25293798033984,1.25659114497456,1.25953913335874,1.26186621033437,1.26385209275547,1.27285461685979,1.27439501515531,1.27542968950087,1.2740859704644,1.27382675394632,1.2718149396826,1.27129826043488,1.27148004904653,1.26972575723844,1.26826540707486,1.27707617608259,1.28942463373081,1.28960440833664,1.2883050244759,1.28686061127882,1.28720837638927,1.28908984336373,1.29426602629207,1.29833959320838,1.30119411873902,1.30340037356957,1.30625395575554,1.37275967353565,1.372241442221,1.37180050718539,1.37080496027359,1.36974867602715,1.37016515594182,1.38961292735273,1.38885147668119,1.3883561936935,1.38737095658823,1.38712389295307,1.38595492426202,1.38369948728664,1.38343972356798,1.38373100343894,1.38667833083435
1.26995840329928,1.26930772006239,1.28317547877964,1.32910999565399,1.30956020119406,1.31968980035298,1.29569892256019,1.29360709826439,1.29348020963685,1.29338846952231,1.29275171926562,1.29231840948748,1.30088773200935,1.30600644191515,1.2958670194354,1.28568843571797,1.28615781441013,1.28666538664485,1.28180377775552,1.27671772404707,1.28274922847582,1.2854527531345,1.29327054127165,1.30162707488737,1.30214118827612,1.30275492720138,1.30850403752241,1.32132464895759,1.31984627715045,1.33278043447052,1.31648988782833,1.31586600936713,1.31047566605038,1.30783012323019,1.30697048197501,1.30600063434377,1.30444462657227,1.30285125470106,1.30316731107695,1.30359773366552,1.30966690270149,1.31553984184109,1.31327773203983,1.31089575142385,1.3233227599406,1.32851772211429,1.32733959603949,1.3260855621586,1.32692267038046,1.32666124657722,1.32879436295719,1.3311661368811,1.32901753748287,1.35612999997026,1.33251408709565,1.34122957898816,1.32065979482705,1.32025146802556,1.3088784863053,1.30067966448705,1.29266093216534,1.28034080628238,1.280220779044,1.28002517236373,1.2695940793799,1.24925808770152,1.25954411861293,1.27688996209584,1.2623817141015,1.24980449663246,1.25583997852847,1.26350192484457,1.2567063326162,1.25182440867868,1.25033928140195,1.24140435012275,1.24883932726473,1.25068170733103,1.24978815560847,1.23081999284908,1.24997341761243,1.25844304613076,1.24708157466229,1.23388533989592,1.23613638280581,1.23603984182982,1.24038172731745,1.23826023361575,1.24076419496741,1.24066166965406,1.24159290749618,1.25297271168858,1.24340793759376,1.24373554072954,1.23723259116321,1.21763413553126,1.21725621092347,1.21829238365318,1.21679394283181,1.21301202835668,1.21711483410004,1.22054007738784,1.22049912814352,1.23111552417776,1.22952949427208,1.23147053484315,1.23889722475746,1.24945843866586,1.25267785464187,1.25814613432258,1.25903381749089,1.28202000815587,1.26048137561733,1.2577811818104,1.25921205772782,1.26069759880368,1.24863055396866,1.23714250894017,1.23997125470685,1.24285486964776,1.22908437528474,1.22292130994028,1.22415110373259,1.22830765119823,1.22489574227661,1.21874588306675,1.2183108743046,1.21880203921144,1.23889004434021,1.24319994784058,1.25158832194728,1.27653981907375,1.27621246242093,1.27713268535213,1.26993009797576,1.26696752902905,1.26931112836053,1.26970008767418,1.27006070052381,1.26958985061847,1.26905959448555,1.28513718244793,1.28746558565532,1.29015304228601,1.28756476931683,1.28397317557654,1.28473994785607,1.28604983793372,1.28348094333434,1.28268053055244,1.28832292769348,1.29028606403624,1.30431753038207,1.39200999996782,1.33509858236454,1.31286938451338,1.34178049463153,1.36680882934074,1.36821862772602,1.3894686200679,1.38912865126492,1.38944400477393,1.38828386294282,1.38848155135462,1.38586928565512,1.38281016344433,1.3831449336132,1.38114779211474,1.38357424912243
1.29508293493947,1.2960326540473,1.29677170214627,1.29651556644844,1.2961796646361,1.29643437569366,1.2974026337634,1.29879699192387,1.30044104377408,1.30216273720107,1.30368432533752,1.30496352390301,1.30577539197689,1.30597138870947,1.30571774369902,1.30478775598532,1.30430826653369,1.30422809383468,1.30539609344231,1.30690564713764,1.30869285975912,1.3102471866974,1.31161947425778,1.3128901842234,1.31409294022301,1.31516678804566,1.31634107234922,1.31791379756269,1.31850996639535,1.31812721062877,1.31730442804652,1.31621497407641,1.31315808621248,1.310037828966,1.31098933093748,1.3116344767997,1.31261682977725,1.31362234384372,1.31459253656803,1.31561648186918,1.31682022696993,1.31828496358803,1.3200319944439,1.3220625346219,1.32436268322741,1.32687553672722,1.32746371162129,1.32771647310508,1.32803938589497,1.32837031954842,1.3286083654659,1.32861518729691,1.32709639048781,1.32403626885949,1.32144880527574,1.32108807478151,1.32083375373382,1.32142603497845,1.31589790276481,1.31304179713742,1.31064214349999,1.30775765939043,1.30467892342243,1.30147591212225,1.2977110308594,1.29370912890455,1.28961190048925,1.28546020375633,1.28127879465928,1.27709776064244,1.27297924305829,1.2690332292853,1.26538205285615,1.2620867951924,1.25909939094455,1.25628853340788,1.25348865317858,1.25050301123326,1.25092924959659,1.2503829847284,1.25008024741275,1.24697624220876,1.24386622317428,1.23990059617744,1.23860056433993,1.23869321521517,1.23995960678595,1.24072996360692,1.24089995028566,1.24095765772241,1.24107961715111,1.23944092290982,1.23756010419999,1.23216291378159,1.22500530060389,1.21674162930339,1.21616993781231,1.21621708971872,1.21581652449376,1.21542803673677,1.21644669696743,1.21792472452651,1.21926334366148,1.2284067086994,1.22859621491713,1.22840142397886,1.2282076047266,1.22772772766457,1.22700986930189,1.22617011234904,1.22530129083612,1.22443556749243,1.2235361243845,1.22253703597076,1.22142297249673,1.22030068192673,1.21948417178998,1.21907364453818,1.21878096922322,1.21946255318012,1.22042359949663,1.22151004040738,1.22132251203167,1.22060181714268,1.22116527419745,1.21919265267433,1.21760976750546,1.21805697799196,1.23466103586331,1.24132375725343,1.24623292789831,1.25011872215408,1.25436108136674,1.26664773863743,1.26729415876389,1.26701482936407,1.26810222870253,1.26867339811502,1.26923826497882,1.26950521086374,1.26939144563455,1.27200698364335,1.27413824417351,1.27603699808237,1.27807231847633,1.28033560485672,1.28166406207477,1.28213583778563,1.28193317236094,1.28243534482981,1.28617333049886,1.2879733664163,1.30322133363027,1.31106018478814,1.31251190053067,1.3130131045118,1.32258467595015,1.33026927780304,1.34086406091571,1.35133118247107,1.36136787466852,1.37055659727102,1.37887428769516,1.38731027663246,1.38640954879743,1.38558811883344,1.38536150740832,1.38581329637165,1.38676894566529
1.3009226166312,1.30019061142447,1.29795878405418,1.29709066129332,1.29635713457502,1.29635671505024,1.31567345205471,1.35034999221528,1.31407056671221,1.30232299399275,1.30371230016904,1.30501444534151,1.30705674223745,1.30886549848551,1.30637300372977,1.30420745398591,1.3038211957225,1.30289744838785,1.30492708418229,1.30644745077154,1.31251090377332,1.31858483841608,1.31877040218904,1.3191778448368,1.31700655406494,1.31483106836782,1.3155867271737,1.31553076524734,1.31824804172578,1.31870512933766,1.31858926921827,1.31857759731871,1.31592067980181,1.30820423717202,1.31131367827246,1.31491466975007,1.32766626270964,1.33657590547652,1.33646706698177,1.33638007854025,1.34383719239875,1.36762001181685,1.34022319983852,1.331913401766,1.32962180701719,1.32725259492767,1.32799864283182,1.32932567142379,1.32920253042012,1.3302185227795,1.32873792736267,1.32772627454641,1.32702225633148,1.30607998798659,1.31934419432232,1.31533199963796,1.32001516247412,1.32301058706849,1.31772845591154,1.31767708454419,1.31775549403244,1.31916332443457,1.31812156602087,1.32009615411462,1.30681843533915,1.30777367989251,1.29206233586254,1.28947796849769,1.28890542106377,1.28902612282263,1.28836914344381,1.28699188979461,1.2828053005374,1.27869451555696,1.27592964831115,1.2732042006588,1.26321719918895,1.24715629565838,1.25337634005034,1.25636531410612,1.25309582131699,1.22896987477185,1.24136356864066,1.23887280398465,1.23913764457546,1.23975387389369,1.24736356912596,1.25345276467871,1.25737008415313,1.26151528602226,1.2420357136902,1.23422507676838,1.23567630508765,1.21428549120996,1.21444108260968,1.21379366517918,1.21488003796375,1.21496423191433,1.21535092844187,1.23447081558326,1.2155409034245,1.21542224196174,1.21649490242337,1.22900357607774,1.22184693985325,1.19830356772096,1.20528127711585,1.21960071904995,1.20723692752405,1.19681482017104,1.19694485867389,1.19682295425941,1.19564670367988,1.19456079772631,1.19756958067312,1.19908094298079,1.22012076660221,1.22016685671906,1.21844500039351,1.20303000538567,1.20962134781071,1.20123000234518,1.21921808549105,1.21944965301615,1.21983535802006,1.21254268182691,1.21513286404613,1.21419345555829,1.23002029205688,1.23927354941608,1.24262672668001,1.24639040240691,1.25206284096757,1.26522896761023,1.26611239522133,1.26535683123629,1.26686823978417,1.26728863582373,1.2684105639849,1.3023800000081,1.26668049465676,1.26348641526709,1.26506433242255,1.26373929197345,1.27803280643465,1.27773976490772,1.27963419014807,1.27912571466147,1.28002665484534,1.27911777617253,1.28591272977122,1.2873694372961,1.30235433994447,1.30888035633644,1.30381240410304,1.2991118959553,1.31989226287154,1.33000969921055,1.32315004923674,1.31658557189857,1.31886199204304,1.3220558226335,1.35157904206509,1.40608999604338,1.38708142806523,1.38790799460154,1.38698916749873,1.38779881692328,1.3869684438487
1.30672451984793,1.30820629001007,1.30940648525926,1.31096187476555,1.32166630780447,1.32588659660761,1.32927137981883,1.33829167142027,1.3378476519166,1.33711415231698,1.3361885157912,1.33442779205331,1.3319501873718,1.32839743868471,1.32810135104204,1.32723507441287,1.32577690107061,1.32390415080052,1.32195850103758,1.3203144910372,1.31922833261733,1.31871895591702,1.31871795228274,1.31902827576238,1.31952045110701,1.32027570669266,1.32107595777205,1.32161573487212,1.32057670786873,1.32036565046039,1.31988198726249,1.31993646792735,1.32377656768066,1.32741132570009,1.33058916612823,1.33320100277506,1.33543112944961,1.33762302848622,1.34011618529598,1.34312770692153,1.34669335824896,1.35067834867606,1.34565845399158,1.3432033746211,1.34044302444789,1.33725346887909,1.33353024446708,1.32938502463505,1.32927461610477,1.32928858823884,1.32847358533873,1.32750688158363,1.32642025384104,1.32484122108478,1.32327845871917,1.32204371230106,1.32066093117187,1.31987201818125,1.31810582859574,1.31710763471175,1.31663508114155,1.31629947197611,1.3157187730546,1.31062489499308,1.30521963109056,1.30496494377137,1.29489778505453,1.28795808336802,1.28866112992536,1.28954366728991,1.2891073184816,1.28685108298539,1.28418156624733,1.28240332598029,1.27982987663551,1.27709266500206,1.27463415852078,1.27250275495608,1.27057151247416,1.26870045626687,1.26678395539176,1.26474499985074,1.2625350802619,1.26015324998801,1.25905510744554,1.25870895415485,1.26004780569324,1.26056775670143,1.2599270701855,1.26100981567543,1.24270589996964,1.23475696870075,1.23544371539713,1.21561407011088,1.21526768846654,1.21492022359767,1.21496897702411,1.2151586705305,1.21561915106133,1.21537834525316,1.21494671835938,1.21441289620686,1.21471149304756,1.21442851612041,1.21290058085609,1.19750984508726,1.19706545554915,1.19714750293076,1.19780538486069,1.1988542390567,1.19717863431184,1.1961075970296,1.19557632016651,1.19529919017581,1.19607468832018,1.20901319313538,1.22029943065867,1.21901018800192,1.21688107485883,1.21406330267075,1.21287010153874,1.2143929174523,1.21719200013831,1.21846771752589,1.21876162630439,1.21774366983252,1.21652784868512,1.21490676431331,1.22555953864571,1.23148976894568,1.23738709401327,1.24252077126727,1.24739201817574,1.25198706731346,1.25635087701398,1.26646943869961,1.26645096281412,1.26581120237484,1.2654237454507,1.26545308648142,1.26562237128273,1.26551184551037,1.26794011111813,1.27015586059545,1.27834593163021,1.27991064918677,1.2801849902329,1.27972987583121,1.28034304512088,1.28195048041326,1.28424302252765,1.28522206901386,1.30107213496701,1.30038703272923,1.30159672177832,1.30261643054503,1.31243134139102,1.31335026746171,1.31538250864647,1.31672098111993,1.3178467857481,1.32344450719165,1.33348470868142,1.3423050835633,1.35272662726692,1.36378053415555,1.37457016463048,1.38665475325093,1.38655160114044
1.31971781370679,1.31854803930833,1.31576603932514,1.31303428779539,1.32325980250689,1.32722714185443,1.33161739449604,1.33862423768177,1.33796258090394,1.33702111213583,1.33683034807989,1.33725254629056,1.33256199118922,1.32466184184097,1.33041704589791,1.35460055464289,1.35364721914834,1.35341567474364,1.34236997221479,1.33754572623176,1.33793004324404,1.33934969711588,1.33762837734828,1.36591999947636,1.33013422451715,1.32939103731441,1.3236183632748,1.32290899844583,1.32225652086821,1.32253820457831,1.32074223402941,1.31752560111942,1.32884950846007,1.34904636495191,1.35001937365732,1.35153265783443,1.35014495091083,1.3486965105448,1.35005665347477,1.36916053247277,1.35487767513604,1.35477999368596,1.34766192092512,1.34822104577925,1.34980170690174,1.35656085165421,1.34286828925184,1.3253059576008,1.33258549932292,1.37733999452314,1.36683664771509,1.37651999773312,1.34429459061379,1.34477590395744,1.3263700504859,1.32190946814692,1.32041689037916,1.31767169934132,1.31782112178567,1.31619598050889,1.31569654542643,1.31414721013383,1.31381225765606,1.28533000796158,1.30363861952045,1.30149009748221,1.29807948297708,1.28619614262489,1.28871471056891,1.29165023616875,1.29169535538461,1.29327721355994,1.29201071360584,1.29248965857036,1.29159597717965,1.30619998834724,1.29465017830552,1.29725407480284,1.2752315499723,1.27606590883558,1.27491646881664,1.28793987806258,1.26539708439134,1.2587692133686,1.25819728991278,1.25672438145102,1.26122005344371,1.30734000001169,1.28680649683757,1.30785999998736,1.24336394868863,1.23485907025157,1.23624721022905,1.21724724514814,1.21612756933951,1.21591009157349,1.21530276068946,1.21536567529306,1.21691918949025,1.21585379748239,1.21483993591306,1.2126759778539,1.21359686745521,1.21586970867529,1.21153973314571,1.19188372465451,1.19238911187019,1.19268022017653,1.19800857976211,1.20349130410719,1.196829397892,1.19472630617656,1.19522541234639,1.19495504323749,1.19536356700874,1.22287056023835,1.22175109591271,1.26999999327564,1.2574473490547,1.26681551058291,1.26175292998013,1.26394412715868,1.26516064264877,1.32940999997022,1.28694207512811,1.28957889104885,1.2183562221419,1.21424696858484,1.21432221866853,1.21566955359175,1.21713599193861,1.20866234186039,1.2382422474982,1.24286981133711,1.25051332364852,1.26731995900321,1.25713226348368,1.25075803129727,1.25319352402656,1.25590589688608,1.25189593340865,1.25009649011599,1.27011142195857,1.27655005412249,1.27706574459262,1.28342988486509,1.2817098926247,1.30393029881083,1.29409593614955,1.302096419068,1.28419045561008,1.28417202451531,1.29965266508922,1.2981444784222,1.29956717512115,1.30717780983713,1.31053735650564,1.31144857362095,1.3083227884402,1.30493609597844,1.30991732040978,1.32461923547038,1.32092745513699,1.31697176705265,1.32374538471323,1.32426887123624,1.35406646975384,1.38568007671817,1.38608112362794
1.32098277067088,1.32301899977909,1.32504797844423,1.32761873116696,1.3303774460436,1.33320800290931,1.3364968632669,1.33818312787596,1.338386239183,1.33726343364999,1.33655394231879,1.33578039141738,1.33389329914345,1.33257257980098,1.33264182919026,1.34460299736291,1.35306446014199,1.35324713404989,1.3461290840996,1.33719204823258,1.33680974276498,1.33650214803925,1.33576845667887,1.334572291278,1.33026218952482,1.32666006833746,1.32440975946649,1.32331496301929,1.32319445822361,1.32353818523736,1.32310183287983,1.32382002218047,1.33204436156953,1.34874141718308,1.34952430814178,1.35037660876896,1.35023346903093,1.35014117747434,1.35112469624203,1.35608623412395,1.35485146244187,1.35145481176002,1.34897591697381,1.34891077406012,1.35054199306716,1.35242839406823,1.35005904470194,1.34801418098447,1.34597411942353,1.34573117192957,1.34528398730899,1.34476723515954,1.34349280358448,1.34031901299438,1.32963509682242,1.32540910808373,1.32243463388769,1.32122795722836,1.3196619061594,1.31853999737879,1.31604092027489,1.31405963406243,1.31233624563589,1.30972470360511,1.30743736434257,1.30532934937207,1.30330911746243,1.30119161183242,1.29863669095976,1.294295798413,1.29264110293982,1.29058117575693,1.29009196280869,1.29028098151585,1.29067047576158,1.29142314448888,1.29193192353084,1.29092295520194,1.27484135253092,1.27494037818168,1.27421520174506,1.27480777358709,1.27493733188382,1.27531349837728,1.27557303371419,1.27482066780674,1.27338511963106,1.27299878718624,1.27146807650019,1.25667764987494,1.24430536777109,1.24132231723642,1.23870357103565,1.23593881341818,1.23349195750274,1.23076969682504,1.22821571131452,1.22500420568974,1.22102098102209,1.21754115294888,1.21621853091873,1.21091817796619,1.21110590256735,1.21023857715082,1.21027613592576,1.19294951456891,1.19269489902746,1.19306056351343,1.19505262535853,1.19570944326831,1.19631917862438,1.19606314658591,1.19551085154104,1.19496254322595,1.19497653107355,1.22199205879423,1.22190679418378,1.24525381101857,1.24935022452235,1.2534503538851,1.25692251920966,1.26516284623297,1.26694367034211,1.28173238710096,1.28433277407056,1.28694207135176,1.22032517752773,1.21362073798719,1.21302736286869,1.21569376877198,1.21809964495364,1.22002156299523,1.22245412361756,1.22744256880374,1.23264514494093,1.23672481942342,1.24054646280937,1.24374431923166,1.24618133574804,1.24808750901084,1.24988781173283,1.26022251136671,1.27200805116389,1.27312485312126,1.27627329088314,1.27868103523463,1.28094177750869,1.28276232475169,1.28392237227955,1.28440162927829,1.2843763471483,1.28429340958425,1.29893958560411,1.29848326628114,1.2988244535392,1.30090039383443,1.30269455493451,1.30426589258964,1.30553361040669,1.30623491652444,1.30965786476336,1.31315553318087,1.31582585037572,1.32018589171226,1.32343624814949,1.32674328357873,1.342434304522,1.35230321985421,1.36093633599945
1.32131283344764,1.32371214408918,1.33085422130158,1.33712223175736,1.33861188276839,1.33930853543795,1.33926848747672,1.33961449633394,1.34041615999028,1.35088501457682,1.35117290490985,1.35302497387551,1.34352777128332,1.33162633770004,1.3331375799781,1.33534681791781,1.35263724332382,1.35966052057456,1.34612837489209,1.31915000297581,1.33551540221925,1.33404999270851,1.33437667820141,1.33330531002826,1.33204965185404,1.32374912807915,1.32367002526752,1.32252188316151,1.32369181090754,1.32536195874081,1.32433851044996,1.32457813495799,1.33879435736905,1.347690172529,1.34897390335151,1.35033441028847,1.35020858892255,1.35044923226517,1.35150576699341,1.35906658672953,1.35713176008006,1.34653709863757,1.34769118859889,1.34744346640236,1.36005498461232,1.41075999996552,1.38966633181564,1.41332999996542,1.34407467859925,1.32769999086007,1.34516933762534,1.34528442837498,1.34411556679328,1.3347313086995,1.3348569680605,1.33661266105245,1.33122052049437,1.32185219264973,1.32134256793397,1.3227175900208,1.3304165356445,1.34990877397596,1.32870863636678,1.32120849633694,1.32281561621313,1.33693017788473,1.31088318655296,1.30941395657225,1.29980388490615,1.30080481403705,1.29400026373043,1.28634867392517,1.28778601241822,1.2880800760095,1.28926617437665,1.27381975148705,1.29047557682065,1.28964876395392,1.27498976780943,1.26870131989429,1.27260853571783,1.27557805013381,1.27485007400434,1.29114026937766,1.27618082936761,1.27946846301071,1.27172193997047,1.27351397321801,1.2690652405074,1.25296053102199,1.24572234591642,1.24384372167228,1.24146353133787,1.23987960675445,1.23385589412247,1.23041426413303,1.22812089126568,1.22532811064859,1.22469957416635,1.22708158795935,1.21760032034714,1.2082056655059,1.20948670661134,1.20916317972693,1.20895472393254,1.19432621778727,1.1923603575557,1.19192875147066,1.19347262712061,1.19579011558118,1.19651319995901,1.19742579971007,1.19577685821279,1.19427895691385,1.19451631802469,1.22094840316577,1.22161783763856,1.24098733394454,1.24085816492079,1.24055263812971,1.24474423401947,1.27608244253331,1.27119974470702,1.2791303473006,1.28173237297417,1.32229999996656,1.22237718456019,1.20593350632935,1.20835079722521,1.20607685254978,1.22027206962713,1.23981001268982,1.22045448676339,1.21398779482825,1.22213349731034,1.22362174301901,1.22505673550532,1.22645145213593,1.2296933954279,1.23246471333703,1.23946808436257,1.27451714798845,1.27255511172547,1.27101001086583,1.26041462461904,1.23602976800161,1.25412642164679,1.25739018818871,1.26348086235289,1.26843722354644,1.26667306832852,1.2672029346322,1.29767525762856,1.29756130422768,1.29604335447057,1.29153023204257,1.29158799943353,1.29114110932085,1.2914631212089,1.29167748322315,1.29891188152091,1.30481040712817,1.30901988125198,1.32241120950404,1.32291153476125,1.33051449082721,1.31280044377291,1.30508955530247,1.34796196086884
1.32470735672833,1.32844286589316,1.33236797687918,1.33630018239843,1.33921192401421,1.34067110449808,1.34086784365342,1.34156040149002,1.34346828025364,1.34772954479812,1.34949788306056,1.35073945490025,1.35254160126244,1.35264843806319,1.35277180423635,1.35276941814312,1.35272846498435,1.35307112306144,1.34731059679585,1.34326945672334,1.34033247262137,1.33856733373098,1.33791110726705,1.33817964029644,1.33909285277055,1.34032695191669,1.34126106811959,1.34224393468283,1.34408056744744,1.34561627867215,1.34671828327913,1.34730153160934,1.34737992724962,1.34747342651868,1.34848604491024,1.34946997766471,1.34996060322139,1.35053476078244,1.35294063787769,1.3564932169245,1.35735892353822,1.35821647043905,1.35855861748256,1.36197920821685,1.36946371977389,1.37866569761125,1.37226535836916,1.36038690477736,1.34235426565863,1.34140499699947,1.34489786408344,1.34569222046587,1.34331119655683,1.34113600665702,1.33886534289986,1.3389757247986,1.34026308216866,1.34120545379084,1.34261676512291,1.34398133156289,1.34454123069096,1.34545920986568,1.33645088033364,1.33126686017537,1.32517552673656,1.32175984376028,1.31215089423591,1.30418487588093,1.29930107407653,1.29792433312585,1.29571104342688,1.28606148257635,1.2868076799344,1.287447033959,1.28884994501807,1.28935519861348,1.28934984178401,1.28678110369162,1.27600733186384,1.27089763660076,1.27224396375768,1.2734511815409,1.27413779267882,1.27449200173645,1.27331563249283,1.27063118521215,1.2679558328104,1.2654961416588,1.26588454685769,1.24948194048988,1.24739914066426,1.24590485974902,1.24341499305703,1.2393550291862,1.23490080929437,1.23150600157414,1.22920402489131,1.22666906673758,1.22525720500697,1.22538846228335,1.2195473697677,1.20801772902925,1.20895906235431,1.20873379875531,1.20715428027034,1.19231067008636,1.19054815949802,1.19115244375475,1.19106718368141,1.19437994208166,1.19644523455834,1.19650413457371,1.19599315155061,1.19401981242248,1.1942685359861,1.20887850066013,1.21337799719563,1.2228987032135,1.22962795307236,1.23246252984278,1.23413398534912,1.23707259672751,1.2399476795005,1.24138998642358,1.24234054254843,1.242620794831,1.22424216150559,1.22368769220416,1.22333854064239,1.22310880218663,1.22204659061094,1.22171933650866,1.21926442835772,1.21781897218692,1.22084844254303,1.22312180616938,1.22515623494983,1.22726696274746,1.23005595467839,1.23292564740412,1.23577135318372,1.23795529204071,1.23959744550601,1.24112123992997,1.24283427616754,1.24681712362158,1.2515695317906,1.25434349927835,1.26216673321678,1.26434678784866,1.26446412135442,1.27845903421812,1.29515446552526,1.2937367891656,1.29339359725622,1.29240862358962,1.2919360753185,1.2915841962681,1.29159859389009,1.29178929478833,1.29220914919146,1.29286223721536,1.29383310936804,1.29517730954075,1.29689848476178,1.29892552026759,1.301090714064,1.30279643717932,1.32551206408189
1.3463793884557,1.34655756428254,1.34609868330706,1.34520952275254,1.34498049465558,1.34334711528838,1.34216727128163,1.34253096350053,1.34431749273265,1.34702393004278,1.34818501193398,1.34798436589895,1.35433313533296,1.35610637256519,1.36147665298851,1.36966031591019,1.38394205947093,1.40222744402887,1.39934506279091,1.39675932376246,1.39638561805017,1.3957629915636,1.38185875893595,1.3679699988099,1.35774072091377,1.34064975865149,1.34106872579685,1.34117529603418,1.34404645614172,1.34672379365313,1.34705647369228,1.34730551896188,1.34705006809034,1.34631003391686,1.34809484249006,1.34932322972625,1.34973055718871,1.34888710785227,1.35324194478469,1.3565848049347,1.35741570534809,1.35851754498527,1.35868140577187,1.39484999747408,1.37744240182549,1.3899300773718,1.36746462069921,1.34254397605089,1.3421115873812,1.33719711922245,1.34753284646201,1.34912488739681,1.34221569410476,1.34152973903864,1.34044136745001,1.34003606430846,1.34043181176008,1.34042942669192,1.34218887062352,1.3441277525757,1.34355775570884,1.34580025025015,1.34269691448656,1.34602153420351,1.32771664789002,1.31620281074748,1.31332008937469,1.28851787320272,1.29775687837501,1.29577162905121,1.2954052597947,1.28542271582996,1.28605107443304,1.28594556212201,1.28910967599444,1.29754147444738,1.2902887539578,1.28166278194444,1.27772701372853,1.27206680293636,1.27217445952272,1.27194553758136,1.27376778849225,1.27601878112876,1.27202343630748,1.26199244487456,1.2638590365364,1.26246997052385,1.26260563640637,1.24808451201183,1.24863934108996,1.25153425399091,1.24732631233537,1.2642801011095,1.249416872465,1.26817999022583,1.2441689195262,1.26186000856962,1.22417621921221,1.22362077071754,1.22126701496274,1.20633085688931,1.2087686407974,1.19706332923002,1.20299941818412,1.17822042380736,1.18663125286687,1.18298955978104,1.18538323702782,1.18216184254248,1.19866481203687,1.20700905110024,1.19798334917525,1.19166914404064,1.1943847987903,1.19420830522839,1.20153083857396,1.20364561969338,1.22497380962966,1.23091434071023,1.2329445929786,1.23036889995803,1.24117867326967,1.24159785171092,1.2426416573985,1.24253643661913,1.22663682792568,1.23211685487015,1.22339201301862,1.22397776509324,1.22307558858033,1.22417980542341,1.21455072695542,1.19919535995659,1.19965442239439,1.20072436927156,1.20146165244597,1.20292250740795,1.21568467452317,1.21587356476552,1.21888203622975,1.22148501648401,1.22851864868332,1.23858355315801,1.24074472932786,1.26079033231117,1.24725807927515,1.24212007569051,1.24039729389987,1.24186293356583,1.2626788503071,1.29148086119341,1.29304180681483,1.29195353293691,1.28280518089609,1.26805727369582,1.26846464721177,1.26947816346626,1.27072919413137,1.27293829712208,1.27248291466598,1.26971975176169,1.27550431676262,1.27263687477349,1.29248196674784,1.290797281852,1.30142923906306,1.30211518749646,1.30317258733424
1.3457514666573,1.34620912885943,1.34647266557025,1.34672246227551,1.34823157861398,1.35182194824154,1.35449301882273,1.35580796815313,1.36055847994872,1.36484557683017,1.36933995138756,1.37488567286946,1.38035777897205,1.38645865352874,1.39147040640889,1.39412976391926,1.39574314936702,1.40067839224706,1.39913260366322,1.39749335500982,1.39667491366298,1.39620423184707,1.38452392407782,1.37815793493307,1.37106850499617,1.36194263388216,1.35915222001771,1.35012374966586,1.35123485025442,1.35208474086475,1.35206823186885,1.3511655652595,1.34989790639438,1.3488992830836,1.34860211204098,1.34945146365185,1.35090672090035,1.34947105283272,1.35276857007777,1.35503883965464,1.35710416971831,1.35825903464369,1.35886692670559,1.35987439249277,1.36070629129237,1.3606055482879,1.36032363050954,1.35615940933962,1.3547073084194,1.35175677697453,1.34879217125075,1.34620098035361,1.34224535608497,1.34086418635011,1.34101792621481,1.34084081252779,1.34081334079734,1.34088531877616,1.34151668849877,1.34165837077767,1.33942359801726,1.338750057507,1.33746655856603,1.33462522287878,1.33036290365653,1.31627727552118,1.31447132206964,1.30056630336861,1.29831581853679,1.29650807467821,1.29534171541512,1.2947859890755,1.29461854334074,1.29409999160701,1.29266866672316,1.29350873244367,1.29085917229891,1.28593220728326,1.27620903045685,1.27220683713261,1.27240552525948,1.27248962964694,1.27297890962405,1.27337290945383,1.27109507814803,1.26330252759757,1.26291303562929,1.2625089626125,1.25905251214143,1.24903253619465,1.24762800624197,1.24357578534883,1.23942900103546,1.23584293370259,1.23238032195985,1.22946657805314,1.2271853836271,1.2252322809652,1.22362655431604,1.2215906713754,1.22203915543412,1.21118376292313,1.21051380349503,1.20391528019552,1.20430692131398,1.19824396209248,1.19752115103089,1.19720090959029,1.19996042358022,1.20073139185779,1.20113931166571,1.20233762161384,1.20017267480471,1.19948278479477,1.19739845738662,1.19696587612811,1.19931545923608,1.20153565992616,1.21851074695698,1.23361148316367,1.236452872112,1.23912776567218,1.24185047317618,1.24327634759562,1.24388414516523,1.24422623363664,1.22362467671524,1.22251068164449,1.22298903875496,1.22299766573028,1.22185788357741,1.22195120865788,1.21073957162057,1.19918998186657,1.19899407098881,1.19958085966193,1.20081279018548,1.20177441037015,1.21498726158352,1.21582202319422,1.21890433122818,1.22149755089003,1.22384203657699,1.22612119687263,1.2283988874,1.23054376440448,1.23257405498252,1.23473638007036,1.23719110829524,1.25296689440545,1.26134645485117,1.26273946071844,1.26480554252046,1.26574522279188,1.26694283947059,1.26778440560881,1.26808027544311,1.26859507724852,1.26987773598213,1.27164409506958,1.27475401878604,1.27755038868573,1.27800130038993,1.27926136241341,1.29406539106552,1.29385956589336,1.3007723111262,1.30104415448355,1.30383055526178
1.34500641005057,1.34591085606449,1.34665813625499,1.34684005798898,1.34916354709924,1.35213123492184,1.35487567027428,1.35649218609607,1.36110309428576,1.38224763839296,1.38384512583917,1.39428872266304,1.39319014428152,1.39417837019049,1.39453516417523,1.40883556932994,1.40983761477494,1.417641077393,1.41794195561549,1.41914716544627,1.4199255249136,1.42154467583331,1.41964367939703,1.4263535059159,1.3761501985009,1.36607376608399,1.36199153198431,1.34922435402593,1.35825904667311,1.36958905206404,1.36924765926911,1.36883784361687,1.36523838482776,1.36122189698537,1.36040037974432,1.35944778735251,1.35515818424839,1.34535041180344,1.35328973244504,1.35365912421855,1.35750644769891,1.35849242078131,1.35850749329441,1.35501455986162,1.36141693739062,1.36112036233875,1.36094508931932,1.35726187805152,1.35567151422436,1.35557751650738,1.35012210945319,1.33829504736396,1.33953505506653,1.33823171666067,1.34786932511617,1.35677596777081,1.35629526005829,1.35555967961642,1.34934770573387,1.33044102347102,1.33357662793819,1.33079160933907,1.33325940540588,1.33145286199997,1.33239080598329,1.31615357981391,1.31576816241132,1.30307841757822,1.3061138276251,1.30914145031576,1.30946062663472,1.30857104368103,1.29517088705911,1.29485783163787,1.29385666543248,1.29271105565677,1.29232042010174,1.29492026142788,1.27576476674207,1.27197102631718,1.27262601531059,1.33083999994575,1.27245078942541,1.27325408089244,1.26783411261775,1.26514400910787,1.26201831321042,1.26193576066985,1.25506654265204,1.25159848516176,1.2493190362159,1.23712613036929,1.239217456101,1.22477564637905,1.22821420303955,1.22753991695237,1.22719228833276,1.22252645483085,1.2235909704726,1.21701301749161,1.22255907890289,1.26613432401457,1.26349785707813,1.26846122197966,1.20589166263658,1.19860429549939,1.19668545014622,1.19358950772187,1.20151650158432,1.205050741588,1.20282218313795,1.20101650685903,1.20076512509379,1.20079904340674,1.19885005436082,1.18042000462746,1.197227764518,1.19461472039937,1.21055875071583,1.24420349118844,1.24025604826593,1.25345984227959,1.24377295274761,1.24569336051514,1.24526445034073,1.24615349120826,1.22196562004053,1.22046083548699,1.21754650902106,1.21355828089819,1.21902737414415,1.22133058076287,1.20731801111146,1.19484269627755,1.19749765261091,1.19776221040594,1.20054392401436,1.18614962966914,1.2129498808633,1.21314491596039,1.21187462197,1.20492634972007,1.20671551482118,1.20618089652608,1.21222481507325,1.21299280685056,1.22560900684444,1.22343270475787,1.23634946287211,1.27828003437485,1.2592096885564,1.2576667347798,1.26645129091091,1.26597642885378,1.26776759195591,1.26836884852709,1.26777787429634,1.26711743245512,1.26864841708112,1.2690332690424,1.27727507064894,1.27966842934626,1.27940013654034,1.28031686932727,1.29579140974403,1.29670924473422,1.29950045646843,1.29992751415731,1.30378060237436
1.34632175032286,1.34700907385739,1.3483391209891,1.35026253820989,1.35213388337779,1.35394111585448,1.35582301912125,1.35659396051081,1.37027184540441,1.38437681140611,1.38486736862538,1.39071375466012,1.39172653110338,1.39310045723415,1.39497410511649,1.40534976019638,1.41127456728531,1.41624442407647,1.41700144101826,1.41842775162163,1.41936545151083,1.42022604396241,1.41796727426965,1.4068808077833,1.387908436672,1.38685088854565,1.38533792008731,1.38287416951961,1.38046734181079,1.37777503037957,1.37454653690367,1.37085294174435,1.36900187801665,1.36688111470552,1.36521726955746,1.36360158362524,1.36223129387494,1.36134665293835,1.36082386943181,1.3606485472236,1.36063023931675,1.36026536569045,1.36139863380434,1.36219129182759,1.36185464951983,1.36165198890341,1.36154323068295,1.35944481873621,1.35494708834199,1.3535495776907,1.35184430205985,1.35185947599978,1.3523416481369,1.35296222598341,1.35495459040965,1.35692453829767,1.3567799160499,1.35406775946561,1.35012297683961,1.34653872365707,1.34332390245809,1.34043750984266,1.33805307101589,1.33628858493905,1.3351394376641,1.32186617915546,1.31662924760638,1.31498675635979,1.3130750110942,1.31133493125238,1.31029514860307,1.30976117720946,1.29641497700129,1.29616894143198,1.2951278617717,1.29389711351584,1.29077577321688,1.28620657840697,1.27641622995249,1.27521227922063,1.27334666748403,1.27179819385483,1.27115013248843,1.26945857212491,1.26727156282777,1.26597583133636,1.25832641593656,1.25601833469109,1.25422049939444,1.25156642994121,1.24877573772171,1.24492722029612,1.24127454513939,1.23663195329556,1.23083568602932,1.2297181475544,1.2268693118935,1.22464692508569,1.22538454185162,1.22772799283407,1.22966111312572,1.25976605303707,1.26073867679406,1.26001628931599,1.20698234325438,1.20696816295032,1.20787563355574,1.20768900202498,1.20684364507545,1.20576261245384,1.20397215899178,1.20241444148723,1.20095381836871,1.20002472696245,1.19865610730109,1.19784302438213,1.19802904153814,1.19696438192826,1.19686708264648,1.1964437146759,1.19660642844018,1.1977101210569,1.19962988225422,1.20120146377949,1.20095312130471,1.2003648806981,1.20034854812117,1.20022719026169,1.20052596236479,1.20059570136822,1.20056594875695,1.20019496841057,1.1999654724625,1.19607310540293,1.19817483597402,1.19994144442628,1.20301622312957,1.20723535918092,1.2103694305692,1.2113594630909,1.21069061651065,1.20866630137346,1.20893961192136,1.20917059117732,1.21095469779679,1.21125773953225,1.22750436927443,1.22861584038487,1.23524571518382,1.24870965770492,1.25906936518027,1.25935404040174,1.26883126574793,1.26858267146941,1.2701207805585,1.27432386010744,1.27860970931328,1.28266564365785,1.28638407259807,1.28948753982025,1.29196832216172,1.2938637009178,1.29521564946791,1.2960739336197,1.29662083501925,1.29795184526262,1.30063895945559,1.30187614374187,1.30314346783546
1.36173124383293,1.37676171476169,1.37710520295339,1.37688766961006,1.36518286732145,1.35975066017836,1.35764614473466,1.35724654312821,1.38026782136251,1.38558725532266,1.38624978942601,1.38640460406282,1.39062155835469,1.39195507806785,1.39718878742867,1.4016713928383,1.41299079472477,1.4139990442502,1.41534264125429,1.43877011883681,1.43262474086373,1.43945021064142,1.4162044412002,1.39225661362354,1.38919572386224,1.38755615958102,1.38653691727085,1.38690995461211,1.38638260926588,1.38449470578515,1.38195273122957,1.39236629642446,1.37054688479624,1.3664507800337,1.37094221697184,1.42998999995639,1.37230476529799,1.37297664407509,1.36751850324561,1.36583399827978,1.36396012438249,1.34840734008571,1.36409674829109,1.37381767743524,1.37161741551516,1.3714185108759,1.36930360221564,1.37018251063772,1.35551363435551,1.35162501412243,1.35181718856071,1.3512786200746,1.35193690673331,1.3517757892229,1.35512948220518,1.35934520130539,1.36016595538215,1.36253975764959,1.36287779617879,1.3623011155126,1.35918884995201,1.35610184292553,1.34200778741518,1.34049141364957,1.33694117575807,1.34096901696578,1.31889758120945,1.32031885518665,1.31241544215497,1.3124738562275,1.31016985800588,1.31003315237434,1.29859991386539,1.29857942952605,1.29679623095005,1.29699945672866,1.2906529210474,1.28175925149817,1.27897542715291,1.27921772075578,1.27379693880386,1.27109514505032,1.27102442370847,1.26344365970689,1.26531832474203,1.26505048253679,1.25483312516307,1.23448077493421,1.24146454680418,1.23769246711136,1.24934916705864,1.26126992619818,1.24200057273597,1.24366294028798,1.23328497292094,1.23348235269148,1.22525338331734,1.21478652317861,1.22547262055004,1.23211735074425,1.23055801657882,1.25895789171211,1.25969393300993,1.25946606865762,1.20752273520613,1.2053603405522,1.20835770318929,1.21462675932483,1.21161375806791,1.20709386372905,1.20492684182935,1.20381440871,1.20729326769485,1.21427363568971,1.21467298555609,1.2150786456612,1.20070883601133,1.19873490987843,1.19772721315357,1.19652686791473,1.19527297500868,1.19394974066655,1.2004191127526,1.203282370538,1.2016362866827,1.19973400245989,1.2009741525814,1.20025092346423,1.20130012103663,1.20123408201229,1.20079067034096,1.19991042955871,1.20017468744297,1.19534930271543,1.19879893206823,1.20055040180937,1.20430870375101,1.20808398374297,1.20978598728467,1.21113248697306,1.21103005236804,1.21007897486891,1.21088309461274,1.21024247711353,1.21054051738255,1.2092658912706,1.22810338505845,1.23258851459339,1.23376765682061,1.22225999124072,1.25914405498531,1.2617864158786,1.27141836409117,1.29283472986089,1.28959859037546,1.28902407382474,1.28856516157218,1.28743287776006,1.28988713974266,1.29631605736921,1.29604830401176,1.31202052577235,1.30925732797902,1.31175837371301,1.31046943795106,1.30617328909407,1.30347422762253,1.30396928214094,1.30372234395321
1.3753771598504,1.37658493436397,1.37744160609031,1.37833030269782,1.38035115097117,1.38215418999629,1.38395767302926,1.3859984922786,1.38838910295899,1.38847943633611,1.38807269450722,1.38762391609743,1.38896832790662,1.38999136312535,1.39947093405152,1.40665691551733,1.41398698385798,1.41465182285344,1.41487477258867,1.41443533606402,1.41413350188683,1.41434684185996,1.41450787599906,1.40599905447332,1.40259808524076,1.39864104080274,1.39155730714438,1.38926610468683,1.38785638555494,1.38328164109274,1.38019843992269,1.37869211828742,1.37951874595114,1.37739993486249,1.3753230553279,1.37207880491564,1.37179498882435,1.3718162788994,1.36931434091712,1.36644807308246,1.36530969365199,1.36559331763768,1.36653601759277,1.36939950047066,1.36940184425868,1.36900258860413,1.36930853046314,1.37114535763216,1.3556772686506,1.35470035222673,1.35253088198925,1.35174607525025,1.35225404732544,1.35417552543442,1.35786324764443,1.36086821641621,1.36192048233198,1.36300387327483,1.3633932422464,1.36309891982542,1.3615059739852,1.35936172956837,1.34548201765218,1.34238095866103,1.33465760919168,1.32612579628771,1.319662034987,1.31915924066985,1.3114065267724,1.30932154587465,1.30759812010671,1.30552969873145,1.30133541401338,1.29934050867946,1.29652563234767,1.29451272511165,1.2902726830127,1.27993780902117,1.27884718118487,1.2779080542107,1.27658026338546,1.26976541631159,1.27026253308401,1.26076231084346,1.2581061768827,1.25518119819386,1.25199445127842,1.24612532375849,1.24560256667209,1.24809030427319,1.24984449228335,1.25196724891971,1.24186882406922,1.2423102345131,1.23482663856751,1.23533715241459,1.22418469722968,1.22435489677583,1.22562931075288,1.22835119454544,1.22909434119633,1.24034767564091,1.23128192700899,1.22793391071508,1.20978464828076,1.21092616482623,1.21128750641267,1.21316137597074,1.21302060065088,1.21353496355966,1.21280660743464,1.21249456473352,1.21281929486559,1.21382941276111,1.21438868099523,1.21414486616902,1.20563520483046,1.1993019881646,1.19884151574887,1.19697336202999,1.19553481404259,1.19579498164031,1.19854054407293,1.2004842282311,1.2026498457004,1.20346379824286,1.20356722378389,1.20208343626195,1.20264427227551,1.201956066589,1.20161085352721,1.20054362183696,1.20072685691676,1.20096831957245,1.20138395411196,1.20333714056465,1.20536888064622,1.20778778153322,1.20929795508438,1.21089296488571,1.21207733982819,1.21294727230425,1.21411980117762,1.21578991700297,1.2179979233441,1.21910589241204,1.22838121650786,1.23283603102224,1.23326260486894,1.24779421126462,1.25751130042885,1.25926386700847,1.27334082771408,1.28537896091257,1.28717748474033,1.28819799425516,1.2891027247122,1.29031258152871,1.29217023623513,1.29525298690461,1.2960385926864,1.30163141394435,1.30402069308211,1.31356926247928,1.31328684297865,1.31603324736539,1.31832792185903,1.31981165891911,1.32113417435322
1.39697104363622,1.42201999920737,1.41014071176686,1.4201600095342,1.40413291642263,1.45795999997537,1.39212372681046,1.39412003098118,1.39107155314435,1.39177227375801,1.38982395966809,1.40583947756692,1.3885202964634,1.3898061512454,1.40164344020454,1.44780999995228,1.41401377773064,1.41560945728248,1.41488382051942,1.41417909338702,1.41352033362125,1.39645990989082,1.41296349643728,1.42726001475688,1.4090514394703,1.40777250668276,1.39402591648653,1.39058509529903,1.38938202768049,1.37517553486307,1.37718225599922,1.37646266363116,1.38234023575839,1.38696574827913,1.37841195073066,1.36870840892583,1.37121553368641,1.37326406350596,1.37141664854976,1.36529555755944,1.36516123161218,1.36478973062311,1.36691955207991,1.36799377394099,1.36776381756764,1.36618689360818,1.36780811165704,1.37394193913712,1.3567762606571,1.35901687526644,1.35189869665789,1.3508535746641,1.3509494466574,1.40403999993806,1.36114406088115,1.36403482839458,1.36334804417686,1.36383654746782,1.36407469003045,1.36455826727865,1.36341897730329,1.39284999998602,1.37085872560446,1.39228000002856,1.33182894612152,1.32266656650507,1.32101926911636,1.31732676791886,1.31240788932884,1.30571001323607,1.30528993477133,1.30328872661523,1.30206309929547,1.30093692902144,1.29544340114096,1.29000433180009,1.28989284076814,1.27932949236286,1.27891014423911,1.27708485832474,1.27761574755934,1.2680968769483,1.2695052041965,1.24744517263386,1.24823610974517,1.24323532161836,1.24734015590983,1.2470520432468,1.24710120204627,1.24887036221887,1.2498186931611,1.25372455694417,1.24221720192121,1.24159511927265,1.23527567185547,1.23696829390487,1.22332762405994,1.22345795641581,1.22440623740956,1.2261668487293,1.22790352456592,1.25385016816522,1.22760416439289,1.22524026717557,1.21072291989441,1.21150780522969,1.21238027174514,1.21348634870129,1.21396082574585,1.2149660334266,1.21713283902368,1.22622965954344,1.22381863657229,1.23371906509882,1.21480678435059,1.21277449537934,1.21067860413829,1.20004299691748,1.20090854485147,1.18805189229581,1.19437706125769,1.19538459145173,1.19763557330939,1.19745374377175,1.20494255100079,1.20786976542154,1.2077218346396,1.21121284700304,1.20496421032143,1.19431783961703,1.20351508957642,1.22679999190627,1.20171452366013,1.20094105600919,1.20271036216419,1.205981617926,1.206296467729,1.20833202828071,1.20877273576157,1.18892000257802,1.21334917529939,1.21540713337032,1.21707292062438,1.2203791372829,1.22022636940447,1.22083337362608,1.22828834196597,1.23259140519627,1.23307586518406,1.29223999997426,1.25505366272577,1.25349758543572,1.2744345335756,1.28362172468511,1.28555399004668,1.28737340530487,1.28927400647204,1.29244256624643,1.29322884694902,1.29651837473854,1.29702755859382,1.29914609275867,1.30113585811555,1.31520811408278,1.31270526076346,1.31860782283044,1.31902751779763,1.31979749670103,1.3205738661182
1.39492446370757,1.39499736269885,1.39403593951614,1.39270764809237,1.39129875159197,1.39066487620774,1.39074381140117,1.38996321820425,1.3901984818413,1.38968687314216,1.38935917532283,1.38842295750025,1.3876150919018,1.3949376795845,1.40416845912301,1.41002787354841,1.41224609054753,1.41474713895349,1.41471197244563,1.41388117242483,1.41218028809108,1.41096099283325,1.4112883119932,1.41098326493328,1.40975944100401,1.40889458569864,1.39637474737739,1.39599312235148,1.39597265591811,1.39411296645359,1.39214598119272,1.38895179955983,1.38535242466268,1.38421795714192,1.3819551701241,1.37990850960986,1.37810654841541,1.37652047862143,1.3750451724598,1.37372677662749,1.37260219011618,1.37171023258556,1.37092034026239,1.36869193518762,1.36736356929819,1.36394357866058,1.3597314778572,1.3574260312628,1.35571581779818,1.35399190322368,1.35230028948763,1.35095697618861,1.34962479263007,1.34853753173273,1.34663797606914,1.3449042118192,1.34357790038457,1.34292884344408,1.34296356954629,1.34334727936674,1.34358634361251,1.34430832792668,1.34495183815449,1.33129527214716,1.3286971685229,1.32171737877397,1.32070779439149,1.31898970171761,1.31274959053748,1.30407239202566,1.30449070433752,1.30400135228133,1.30255699079542,1.29896284832698,1.29426453532048,1.29144171461045,1.28996284042208,1.28100043197756,1.28016500223383,1.27894122215789,1.27890850726616,1.26815018712346,1.26963606842592,1.25852350379487,1.2494360623513,1.24587776343873,1.24696322882776,1.24701228852207,1.24689199540876,1.24717086946553,1.24674072684023,1.24480572864959,1.2436308544975,1.24350222662234,1.23259216263635,1.23077244352398,1.22227840103291,1.22205647206117,1.22229763484665,1.22172961122552,1.21892117670322,1.21604713746657,1.21386352107903,1.21214101266912,1.21053332701649,1.21070840728776,1.21319757084657,1.2136257621289,1.21459833877802,1.21672799372655,1.21933142781989,1.22165659175988,1.22192163839855,1.22180668802142,1.21666637440722,1.21540444964539,1.21335869514249,1.21110021822683,1.20832216897714,1.19392165538557,1.1944190929236,1.19574741855724,1.19918801061494,1.2012241588627,1.20476794845607,1.20718851352366,1.20801925515292,1.20898424976498,1.20693957169932,1.20593815181104,1.20568536939756,1.20603221534802,1.20391006507565,1.20187042076737,1.20287634171522,1.20466802691581,1.20583480475358,1.20746354025716,1.20887043633724,1.2095892609486,1.21222130932534,1.21670277050596,1.21854583027894,1.22021288866628,1.22180718249554,1.22512350966188,1.22793368900949,1.2294012048125,1.23349869340412,1.25331380084442,1.25494705458124,1.26615318394144,1.27517763870865,1.28201329360369,1.28386800260183,1.28613000155066,1.28824569027802,1.29073291605478,1.29186844566631,1.29453324915593,1.29656325501964,1.29859788619003,1.30003680190344,1.3071398418086,1.30896224430859,1.31891473448298,1.31908311219767,1.31951092609508,1.32071104425783
1.39424882312706,1.39584033174109,1.39428467197925,1.39271513011128,1.3887736461058,1.37963004098264,1.37982208518034,1.3783263640324,1.37813592794258,1.37515897959409,1.38228623626129,1.38130620519949,1.38644087484621,1.40952188084086,1.40708679968251,1.40765791076,1.41001500523933,1.41625243982779,1.41514916918748,1.41436259216902,1.41032812089273,1.40936275409574,1.41010406558955,1.41157069821217,1.40967394130452,1.40889940444211,1.3993462957816,1.40144411179881,1.39739329788298,1.39954845061675,1.39311677162427,1.39459648201606,1.38572667457707,1.38258000501281,1.38549993236173,1.38859560400161,1.38886665637296,1.38778803339779,1.38792698340243,1.38787948580472,1.38698809319341,1.38709365158862,1.37424330047703,1.37575895613985,1.36734577770439,1.35285619168994,1.35645273625951,1.35208195685273,1.35472448863016,1.3386344157198,1.34023131876342,1.33905678314072,1.34797561953417,1.34930341679923,1.3464602176125,1.33375407206688,1.33578744629457,1.33658633345786,1.33848984938348,1.33947632437071,1.34260254459805,1.34363408510837,1.34455450930144,1.33068740413431,1.32639985082005,1.32207222240144,1.32117573298481,1.39187999997648,1.31201966337762,1.30205452356646,1.3044330115814,1.30543553365909,1.30364440148096,1.28925738160104,1.29128331758373,1.29196043380206,1.28921308298024,1.28360624409695,1.2812999619153,1.27914566019237,1.27956535992606,1.26632459564844,1.27071090499758,1.27211844410227,1.25091018695738,1.24743877852396,1.24752540003303,1.23390178727347,1.24609870877102,1.24612262098252,1.24518969267409,1.24420359888688,1.2443918469668,1.24542173837447,1.23056064186607,1.22008621739844,1.22160260497791,1.21994405508828,1.22081450951483,1.21955665618483,1.21930559970394,1.21087462115725,1.21391847675378,1.20671883771657,1.20823949069882,1.20715368779413,1.21594111203403,1.22801291201977,1.22662460797921,1.22619601100959,1.22192760965901,1.21940838924967,1.22093329345552,1.22204727382083,1.21950721934972,1.21990656790626,1.21969797637168,1.22012323533536,1.2102498892889,1.19368768764687,1.19399721697837,1.19415332726837,1.20217917727842,1.20329854503467,1.20555261484972,1.20804966557896,1.20835450964856,1.20936918132816,1.20754735883909,1.20503555198931,1.20723864451322,1.20850141814505,1.20621028525544,1.19995876289992,1.21450479610081,1.22217854719681,1.22106535053881,1.21980402622409,1.20990402137626,1.2076249089078,1.21336179119143,1.22459971678446,1.22061300017554,1.22014114137244,1.22174438931611,1.22843288626851,1.22882635297205,1.22758485148214,1.23443662869365,1.25015720922269,1.25539063578199,1.28623417604285,1.27629978759115,1.27844688364801,1.28163205519336,1.28486665001493,1.28688297895017,1.2903690655609,1.28934209632953,1.28783778692356,1.28746256630591,1.25538000079073,1.29332240606281,1.30564132077224,1.30714690104322,1.33974999735928,1.31878809925331,1.31822362571312,1.32015279126757
1.37611830015253,1.37713934925108,1.37906810867062,1.38151695567336,1.38317205794896,1.38216206890204,1.38151007447853,1.38121881629829,1.38125174776619,1.38271830780934,1.38343081208577,1.38338939516278,1.38565246094737,1.3873733102056,1.38919310977661,1.39104919509052,1.39347889772692,1.39485746377653,1.39703147944683,1.40068918430306,1.40496905212817,1.40661465108811,1.40841510468985,1.40917982537804,1.40843779728221,1.40741629653409,1.39973519616522,1.39931528858618,1.39656460144404,1.39478782638849,1.39227341949278,1.39179318034132,1.38934612358377,1.38947466164926,1.38898021592981,1.38997622866926,1.38986688792323,1.38881019666132,1.38786594856219,1.38632529847871,1.38564610229295,1.38512651427248,1.37574685160464,1.36912361235306,1.36658111933226,1.36141698478198,1.35851010353128,1.3563102578528,1.35600278619663,1.3448206400824,1.3433608708767,1.34280242301013,1.34477961470303,1.34432393969525,1.34453592458309,1.33575409866689,1.33675191636699,1.33777831234587,1.33942742847601,1.34130813192307,1.34343612971657,1.34455080654376,1.34433634431073,1.32787125101251,1.32601271594869,1.32149902833006,1.32095869977062,1.31425847625383,1.31029821624792,1.30830439661143,1.30575880130071,1.30493203069033,1.30418215840277,1.28825868956704,1.28945689521282,1.28976676542393,1.28881732421128,1.28463075378871,1.2819700331477,1.28034839713641,1.28028491013304,1.27655571224777,1.27416484181354,1.26353941180258,1.25231364723123,1.24854766147308,1.2479860467036,1.24559703865114,1.2450224755343,1.24456274661325,1.24354195615773,1.24045571911344,1.23700679276292,1.23299705412824,1.22884863956685,1.22628173952234,1.22401724507349,1.22268777604194,1.22128905331081,1.22017270858798,1.21943282781993,1.21855981314014,1.21720308199315,1.21810377035874,1.21864936053403,1.21865263538027,1.21793486373713,1.22659842124837,1.22560448940201,1.22490481811326,1.22271139145838,1.22127341036976,1.22054903531963,1.22024398627723,1.2191850283515,1.21883213887374,1.21880080693087,1.2187274120125,1.217105928754,1.21311699583175,1.20927838663575,1.20580149416138,1.20388222534418,1.20392855589154,1.20594632910235,1.20730786545258,1.20802600152585,1.20731584056813,1.20879487064204,1.21015604641802,1.20987693415525,1.21077125436949,1.21188185978719,1.213924998317,1.21685904772099,1.21992014882249,1.22056281612367,1.21807104751354,1.21334476850105,1.21221446156869,1.21352082359721,1.21502349046485,1.2187808304804,1.21948045939451,1.22314529040183,1.23087285407948,1.23339643695362,1.23561311100528,1.23592186195152,1.25479616060635,1.25649013275154,1.27006854103097,1.27586354153694,1.27772630723957,1.27965412513635,1.28171055433938,1.28393640773641,1.28569473700272,1.28742171387419,1.28738933725119,1.28674033827972,1.28115920290863,1.28540955763488,1.28900154631856,1.29313004217684,1.29728393171759,1.30124690828392,1.30493487950993,1.30851302531973
1.37365157389585,1.37435248771847,1.3788979560511,1.38231515225004,1.38328883128537,1.38402217584313,1.38258577438903,1.38369727375204,1.38296747786159,1.38471753782239,1.38559317508912,1.36958910217725,1.37916446887529,1.37227858720929,1.38346759409768,1.37271977301364,1.39511418440963,1.39466872594818,1.39632849024398,1.38064001159795,1.40286766643092,1.40074626345418,1.40817059177882,1.40868479371699,1.40771362000026,1.40615171445204,1.39896256661161,1.39865680186135,1.39429366536949,1.3841916798108,1.38882686593088,1.39088300575388,1.39033042976724,1.39002709438503,1.39098251165004,1.39293161467774,1.39144293326748,1.38951809269556,1.38801076003435,1.38352367342246,1.38371263222056,1.38226369104912,1.37775896703205,1.36494046279254,1.36529717596444,1.36432855488919,1.35984528462501,1.35829884507367,1.35583844038902,1.34659070902573,1.34582434089214,1.34409991955627,1.34405046597182,1.34224295983875,1.34310098519827,1.3367428287855,1.33733944859844,1.33822573118096,1.34015152984301,1.34285432304039,1.34510160491085,1.34655629831186,1.34339952358385,1.32177559824471,1.32474525371194,1.31513104953488,1.31990770965518,1.29888278935536,1.31063383179243,1.31043463804032,1.30505399213702,1.30395345061938,1.30342979339209,1.28574859029967,1.28823245138151,1.28889884965601,1.29212027956329,1.29550748544446,1.29603564327186,1.29550425980286,1.28083900130705,1.28077041899512,1.27651395029245,1.25457729826828,1.25351440416076,1.24988345173245,1.24987338791601,1.24347782902334,1.24361392449693,1.24334528758323,1.24365067418105,1.21934255250757,1.22346336573925,1.22320716108201,1.22579230111489,1.22593380451503,1.22548519384189,1.26278569595655,1.25049661442722,1.27874999399673,1.22672490823502,1.2188109091544,1.21835075434477,1.21900051255828,1.2193551868704,1.21937170370765,1.21894753001682,1.22568642390276,1.22429707125888,1.23979620673514,1.22914830965398,1.25046999729812,1.21967715251596,1.21899484397432,1.21799993550174,1.21729595469583,1.2178712530184,1.21877018090426,1.21914482757538,1.22022190469261,1.21085456751005,1.20443464785283,1.20360892217774,1.20249577768338,1.20945539338621,1.22121792752474,1.20946813049021,1.20318783580546,1.21022487850873,1.21171677399435,1.21153542271156,1.21317393605506,1.22258748465991,1.22934718424534,1.22677252320347,1.22455746529349,1.22274275641043,1.20398696354241,1.21286175701508,1.21197707283508,1.21283080683241,1.21246400461633,1.21929119132572,1.21905722473814,1.2246600694393,1.23708815817746,1.23595504530926,1.24082958173667,1.23803424948965,1.25950610303238,1.25793488164351,1.26460646870777,1.27371722516412,1.2772035339591,1.27769176002408,1.27837781165192,1.28147066625607,1.27967169265459,1.28696932529904,1.34763999995983,1.28496051190456,1.27358305800902,1.27385020678041,1.27311041876698,1.2716593476893,1.25214000693134,1.28029190764611,1.28123537768609,1.29663675742644
1.37321074687311,1.37626147874246,1.37816981100496,1.37922738041394,1.3799349800472,1.38050319704515,1.38101713411488,1.38151911524479,1.38244449231367,1.38532559891902,1.3888653167592,1.39186436505899,1.3943277916718,1.39636545018995,1.3973954488717,1.39766232271172,1.39782016471788,1.39839721515141,1.39810704121989,1.40029506222061,1.40291903034498,1.40541298753238,1.40797101068374,1.40732758965162,1.40768758653059,1.40313280202963,1.39746274776612,1.39496038922299,1.39151446952131,1.38728486044583,1.38767964478179,1.39002159106247,1.39111207917643,1.39128949067572,1.39211586772754,1.3927784079166,1.39328458112261,1.39196278843225,1.38989244763546,1.38549112622289,1.382928568579,1.38167520077554,1.37986163253796,1.37195880276539,1.36508007803087,1.36438511122281,1.36120170173868,1.3594673477665,1.35445199564305,1.35109639669689,1.3495491221462,1.34976749114771,1.34782749964102,1.34722345571052,1.3468330456227,1.34657576979431,1.34639396773119,1.3464204348713,1.34675043264147,1.34718294972867,1.34752641753552,1.34692763257961,1.34211285664572,1.32928239863813,1.32704992325503,1.32542324276371,1.32350743465259,1.31502243898395,1.31140569834787,1.30753601103435,1.30466552671568,1.30277044768603,1.3016738175007,1.29936601422393,1.29722973414786,1.29559124359928,1.29539136683574,1.29663100717679,1.29639707904288,1.2930805405472,1.28158195993206,1.27962519726112,1.27755615163789,1.26898998746118,1.25957441979432,1.25438316278903,1.25325167407562,1.242411438959,1.24266804164455,1.24324480287143,1.24391888160786,1.23673661583802,1.22408522072715,1.22339692014561,1.22548230021982,1.2258945604198,1.2269296689069,1.23794279242632,1.2417786188219,1.26418066559595,1.22974112591351,1.22501924929506,1.22523605435976,1.22303407078338,1.22092555186945,1.22000172781636,1.21932103084695,1.22217014299626,1.22171707557656,1.22063047987756,1.21996513399671,1.21962313276543,1.21921311404484,1.21822827138861,1.21637464673125,1.21670851408446,1.21643933903372,1.21857760879031,1.22013663336914,1.22086452973892,1.22007195299219,1.21892512019647,1.21728990783095,1.21365620285322,1.21280510062355,1.21498434585307,1.2115935809269,1.21084790172566,1.21340220634675,1.21557539470445,1.21750883904483,1.21967731503069,1.22248640625599,1.22595614426654,1.22643545521518,1.22681492524848,1.22708211068628,1.22707029794407,1.22679926988408,1.22641490865293,1.22602905423176,1.22541670122428,1.22406421288483,1.22102719286451,1.22678554924468,1.23778601296378,1.2373021228426,1.23838399273301,1.23745429562389,1.24619611362735,1.25183070544819,1.2684623171636,1.27199996613021,1.27375293791702,1.27561470170597,1.28119385126525,1.28367412714056,1.28339899564626,1.28599690839377,1.28578305443131,1.2835770037313,1.27529897240739,1.27469823602916,1.27185285709488,1.27062859975769,1.26930834178016,1.27893812758919,1.27876646946796,1.29499137843711
