1.29949, 1.30274, 1.3053, 1.30759, 1.31235, 1.31732, 1.87355, 1.32747, 1.32957, 1.3352, 1.33553, 1.33636, 1.33562, 1.33336, 1.33099, 1.33051, 1.32939, 1.32957, 1.32908, 1.32912, 1.33065, 1.333, 1.33366, 1.33356, 1.33318, 1.33275, 1.3347, 1.33771, 1.33793, 1.3393, 1.34008, 1.34373, 1.34688, 1.3486, 1.34995, 1.35247, 1.35648, 1.35939, 1.3589, 1.36075, 1.36218, 1.3652, 1.36409, 1.36482, 1.36463, 1.3671, 1.3645, 1.36452, 1.36198, 1.36004, 1.35895, 1.36382, 1.3634, 1.36343, 1.36346, 1.36453, 1.36092, 1.35837, 1.35703, 1.35694, 1.35493, 1.35547, 1.35697, 1.3573, 1.35728, 1.35672, 1.35568, 1.35359, 1.35107, 1.35159, 1.35073, 1.34833, 1.35312, 1.35253, 1.3536, 1.35787, 1.35743, 1.3563, 1.35949, 1.36341, 1.36386, 1.36576, 1.36666, 1.36628, 1.36815, 1.36715, 1.36975, 1.36945, 1.37371, 1.37248, 1.37671, 1.37896, 1.38436, 1.38558, 1.38946, 1.39219, 1.43778, 1.39875, 1.39997, 1.40296, 1.40332, 1.40606, 1.40525, 1.40539, 1.41181, 1.41591, 1.41554, 1.41662, 1.41899, 1.42786, 1.42736, 1.42966, 1.43135, 1.43929, 1.44133, 1.44501, 1.45191, 1.4627, 1.46114, 1.45894, 1.4645, 1.46805, 1.54882, 1.48655, 1.48826, 1.48753, 1.49553, 1.49879, 1.50145, 1.50956, 1.50986, 1.51351, 1.5186, 1.52508, 1.52581, 1.52913, 1.53702, 1.53601, 1.5482, 1.55359, 1.58257, 1.57307, 1.56756, 1.59013, 1.57306, 1.58023, 1.57872, 1.58112, 1.5811, 1.58457, 1.60956, 1.65153, 1.60945, 1.58336, 1.54744, 1.53878, 1.53493, 1.53312, 1.53157, 1.54484, 1.60394, 1.55567, 1.55735, 1.56131, 1.56809, 1.57094, 1.576, 1.5719, 1.56899, 1.56891, 1.57237, 1.55816, 1.55396, 1.55261, 1.55826, 1.62068, 1.62231, 1.55255, 1.54794, 1.54776, 1.54493, 1.54441, 1.54055, 1.54317, 1.54562, 1.55019, 1.66121, 1.57934, 1.53796, 1.54202, 1.59865, 1.9721, 1.54106, 1.54656, 1.52849, 1.54204, 1.54437, 1.54143, 1.52633, 1.52527, 1.54378, 1.54401, 1.53887, 1.54035, 1.5386, 1.53745, 1.54113, 1.53752, 1.54232, 1.54729, 1.54424, 1.55171, 1.5524, 1.55255, 1.55194, 1.55565, 1.55382, 1.55295, 1.55211, 1.54797, 1.55774, 1.5558, 1.55586, 1.55651, 1.55984, 1.55963, 1.56071, 1.55987, 1.55774, 1.56107, 1.55959, 1.55943, 1.56197, 1.56038, 1.56008, 1.55843, 1.5686, 1.56848, 1.56585, 1.57125, 1.55557, 1.54908, 1.54922, 1.54996, 1.55069, 1.54917, 1.55783, 1.55863, 1.5563, 1.55462, 1.55579, 1.55175, 1.54191, 1.53836, 1.53982, 1.52399, 1.52428, 1.52543, 1.52356, 1.52175, 1.52528, 1.52833, 1.53633, 1.54552, 1.5459, 1.54311, 1.54471, 1.54129, 1.54605, 1.54623, 1.54182, 1.53955, 1.5301, 1.52903, 1.5315, 1.53065, 1.52921, 1.52835, 1.52964, 1.52814, 1.53198, 1.53101, 1.53382, 1.53443, 1.53121, 1.53235, 1.53477, 1.54055, 1.53834, 1.53673, 1.53729, 1.53721, 1.54025, 1.54065, 1.54103, 1.5456, 1.54405, 1.54951, 1.55046, 1.55241
1.3003, 1.30375, 1.30545, 1.30769, 1.3147, 1.83768, 1.37184, 1.32808, 1.33025, 1.33393, 1.33739, 1.33619, 1.33378, 1.33584, 1.33351, 1.33331, 1.33247, 1.33181, 1.33294, 1.335, 1.3341, 1.33497, 1.33418, 1.33665, 1.33579, 1.33802, 1.33817, 1.33671, 1.33855, 1.34169, 1.34198, 1.34603, 1.3467, 1.34872, 1.35112, 1.35031, 1.35238, 1.35812, 1.35824, 1.36041, 1.36042, 1.36299, 1.36383, 1.36347, 1.3623, 1.36831, 1.3598, 1.357, 1.35543, 1.35506, 1.35367, 1.35316, 1.35516, 1.35674, 1.35742, 1.36388, 1.35335, 1.35335, 1.35573, 1.35372, 1.35696, 1.35875, 1.35884, 1.35991, 1.35867, 1.35826, 1.35146, 1.34995, 1.34925, 1.34993, 1.3508, 1.34945, 1.35062, 1.35451, 1.35415, 1.35672, 1.36011, 1.4777, 1.47003, 1.36697, 1.36704, 1.36785, 1.36811, 1.36848, 1.36698, 1.36664, 1.37377, 1.37243, 1.37348, 1.37503, 1.37865, 1.38223, 1.39074, 1.38839, 1.39408, 1.39556, 1.39655, 1.39509, 1.39636, 1.39914, 1.40378, 1.40192, 1.40265, 1.40421, 1.40906, 1.40815, 1.40707, 1.41964, 1.41739, 1.42049, 1.42391, 1.54251, 1.50978, 1.43897, 1.44185, 1.44371, 1.44473, 1.44925, 1.45886, 1.4597, 1.46324, 1.46783, 1.46891, 1.4788, 1.47977, 1.48843, 1.48954, 1.50539, 1.49769, 1.67234, 1.61516, 1.55416, 1.61067, 1.59609, 1.52709, 1.53297, 1.53762, 1.53596, 1.54235, 1.54482, 1.54819, 1.54959, 1.56031, 1.56442, 1.57922, 1.58241, 1.57182, 1.57428, 1.57054, 1.64674, 1.6161, 1.75173, 1.56642, 1.54485, 1.54684, 1.53002, 1.52731, 1.53364, 1.53624, 1.53679, 1.54969, 1.5497, 1.55208, 1.55036, 1.55119, 1.55887, 1.62183, 1.59517, 1.55657, 1.55828, 1.55765, 1.54827, 1.54778, 1.546, 1.54259, 1.54228, 1.53939, 1.53868, 1.54384, 1.53891, 1.54174, 1.54514, 1.5413, 1.54484, 1.53755, 1.53538, 1.52827, 1.53244, 1.53327, 1.53106, 1.53456, 1.52579, 1.52906, 1.53343, 1.52905, 1.52832, 1.52743, 1.53032, 1.52918, 1.52624, 1.52606, 1.52646, 1.53087, 1.53129, 1.53697, 1.5367, 1.5348, 1.54179, 1.54006, 1.54746, 1.54521, 1.54827, 1.54786, 1.54842, 1.54751, 1.55529, 1.55384, 1.55197, 1.55411, 1.55339, 1.55753, 1.5571, 1.56152, 1.5619, 1.56099, 1.56034, 1.56322, 1.56388, 1.5586, 1.56126, 1.56456, 1.56546, 1.56322, 1.56334, 1.5607, 1.55982, 1.56367, 1.56066, 1.56387, 1.55946, 1.55626, 1.55429, 1.5494, 1.54811, 1.55359, 1.55475, 1.55463, 1.55734, 1.5479, 1.55431, 1.55291, 1.60873, 1.53708, 1.5316, 1.52985, 1.52738, 1.52454, 1.52234, 1.52318, 1.52764, 1.52729, 1.52663, 1.52737, 1.5331, 1.53476, 1.53556, 1.54243, 1.53833, 1.538, 1.53632, 1.53244, 1.52484, 1.52171, 1.52649, 1.52572, 1.52302, 1.53006, 1.53194, 1.52786, 1.53293, 1.53229, 1.533, 1.53429, 1.53144, 1.53641, 1.53716, 1.53794, 1.53513, 1.53431, 1.53615, 1.53123, 1.53598, 1.53353, 1.53698, 1.54054, 1.53829, 1.54496, 1.54116, 1.54435, 1.54126
1.29926, 1.30391, 1.30499, 1.30824, 1.31288, 1.31974, 1.32017, 1.32341, 1.32477, 1.32808, 1.32989, 1.33033, 1.33132, 1.332, 1.33513, 1.33335, 1.33516, 1.33576, 1.3374, 1.33549, 1.33608, 1.33504, 1.33628, 1.33703, 1.33939, 1.33908, 1.3403, 1.33949, 1.37969, 1.34341, 1.34558, 1.34965, 1.34896, 1.35304, 1.35388, 1.35534, 1.35454, 1.35517, 1.35701, 1.35706, 1.35995, 1.35982, 1.35855, 1.35644, 1.3546, 1.35499, 1.35446, 1.35401, 1.35372, 1.35185, 1.35234, 1.35024, 1.35033, 1.35075, 1.34984, 1.3531, 1.35287, 1.35206, 1.35025, 1.35061, 1.35556, 1.36036, 1.35895, 1.35278, 1.35344, 1.35011, 1.34837, 1.34957, 1.34903, 1.34951, 1.34959, 1.35101, 1.34968, 1.35113, 1.35374, 1.35672, 1.35855, 1.36222, 1.3653, 1.36451, 1.3662, 1.36707, 1.36868, 1.37115, 1.37315, 1.37211, 1.37562, 1.37422, 1.37602, 1.37704, 1.38256, 1.38508, 1.38694, 1.38925, 1.38982, 1.39294, 1.39308, 1.39498, 1.39418, 1.39778, 1.4015, 1.40149, 1.40014, 1.40294, 1.40676, 1.40864, 1.41199, 1.41488, 1.41562, 1.41624, 1.42639, 1.42896, 1.43241, 1.43521, 1.43989, 1.44165, 1.4474, 1.447, 1.66165, 1.4577, 1.46228, 1.46308, 1.4756, 1.4733, 1.47823, 1.48021, 1.48634, 1.48876, 1.4919, 1.62335, 1.52968, 1.53013, 1.89749, 1.59705, 1.58764, 1.58482, 1.53248, 1.53474, 1.53882, 1.53966, 1.54538, 1.55069, 1.55695, 1.56008, 1.56716, 1.5623, 1.57803, 1.56809, 1.62059, 1.6504, 1.72669, 1.72798, 1.73327, 1.72533, 1.52381, 1.52499, 1.52724, 1.52916, 1.52794, 1.546, 1.54692, 1.54433, 1.54421, 1.54283, 1.5433, 1.54429, 1.54683, 1.54646, 1.54891, 1.5494, 1.54716, 1.54189, 1.54148, 1.53746, 1.53392, 1.53216, 1.52889, 1.52836, 1.53056, 1.52371, 1.52355, 1.52055, 1.54368, 1.52661, 1.52056, 1.52093, 1.52689, 1.52992, 1.52974, 1.53077, 1.52724, 1.52684, 1.52576, 1.52624, 1.52549, 1.52746, 1.52951, 1.53019, 1.53215, 1.52879, 1.53038, 1.52677, 1.52499, 1.52503, 1.53008, 1.53131, 1.53017, 1.54041, 1.53671, 1.543, 1.54693, 1.54866, 1.5495, 1.55134, 1.55223, 1.54881, 1.55172, 1.55028, 1.54873, 1.55319, 1.55871, 1.55713, 1.55819, 1.5595, 1.56486, 1.56444, 1.56892, 1.57152, 1.56979, 1.56564, 1.56902, 1.56549, 1.56328, 1.56393, 1.5644, 1.56633, 1.56485, 1.56472, 1.56204, 1.55894, 1.55793, 1.55404, 1.54714, 1.54345, 1.54606, 1.54471, 1.54809, 1.55033, 1.54925, 1.55047, 1.54379, 1.54335, 1.53903, 1.53305, 1.52773, 1.52709, 1.52691, 1.52093, 1.5199, 1.52943, 1.5277, 1.52432, 1.52355, 1.52287, 1.51849, 1.5206, 1.52634, 1.52817, 1.52853, 1.53138, 1.53019, 1.52153, 1.52254, 1.5161, 1.51512, 1.52314, 1.52679, 1.52762, 1.52753, 1.52793, 1.53049, 1.53171, 1.52969, 1.52551, 1.5308, 1.53127, 1.52806, 1.52927, 1.53192, 1.53339, 1.5313, 1.53063, 1.5363, 1.53194, 1.53356, 1.53959, 1.53749, 1.54195, 1.54182, 1.54408
1.3063, 1.30517, 1.30501, 1.30656, 1.31128, 1.31303, 1.31744, 1.32285, 1.32142, 1.32152, 1.32463, 1.32302, 1.32336, 1.32525, 1.32781, 1.33113, 1.33122, 1.336, 1.34056, 1.33999, 1.33786, 1.33969, 1.33941, 1.34318, 1.34344, 1.34368, 1.34561, 1.34695, 1.34657, 1.34628, 1.34764, 1.35175, 1.35523, 1.35512, 1.35906, 1.35944, 1.35948, 1.3582, 1.35771, 1.3562, 1.35569, 1.35461, 1.35407, 1.35454, 1.35151, 1.35071, 1.35135, 1.35237, 1.34848, 1.34704, 1.34722, 1.3478, 1.34937, 1.34947, 1.35041, 1.34997, 1.34847, 1.34975, 1.35143, 1.35083, 1.35364, 1.35106, 1.35297, 1.34703, 1.34827, 1.3475, 1.34737, 1.3468, 1.34734, 1.34876, 1.34854, 1.34937, 1.35216, 1.35352, 1.35474, 1.36104, 1.36311, 1.36397, 1.36418, 1.36582, 1.36765, 1.36959, 1.37, 1.37287, 1.37392, 1.37542, 1.37776, 1.37725, 1.38106, 1.38076, 1.38328, 1.38477, 1.38772, 1.38844, 1.38854, 1.38884, 1.39193, 1.39366, 1.3942, 1.39482, 1.39599, 1.40006, 1.40195, 1.40098, 1.40321, 1.40653, 1.40494, 1.4192, 1.41257, 1.41188, 1.41996, 1.55501, 1.55135, 1.43198, 1.43727, 1.43829, 1.44215, 1.44577, 1.45112, 1.46396, 1.46199, 1.46648, 1.46821, 1.47164, 1.47223, 1.47663, 1.52622, 1.48903, 1.56398, 1.48909, 1.49355, 1.67174, 1.67252, 1.70036, 1.72528, 1.71052, 1.52357, 1.63391, 1.53035, 1.54439, 1.54414, 1.72675, 1.72385, 1.733, 1.57647, 1.56142, 1.5617, 1.63137, 0.00430367, 1.82141, 1.60003, 1.59708, 1.48885, 1.71578, 1.71643, 1.53407, 1.52581, 1.52434, 1.53021, 1.5445, 1.54592, 1.54452, 1.5407, 1.53902, 1.53873, 1.54411, 1.54283, 1.54526, 1.54222, 1.54721, 1.54681, 1.54577, 1.53867, 1.53422, 1.53159, 1.52639, 1.52574, 1.51943, 1.51667, 1.51722, 1.50705, 1.51274, 1.50595, 1.50891, 1.51561, 1.51673, 1.51956, 1.51769, 1.52626, 1.52178, 1.52131, 1.52645, 1.52466, 1.5252, 1.52432, 1.52536, 1.52513, 1.52553, 1.5253, 1.52391, 1.52447, 1.52117, 1.52435, 1.52519, 1.53087, 1.52896, 1.5365, 1.5379, 1.53894, 1.5394, 1.546, 1.55216, 1.55441, 1.55315, 1.5594, 1.56022, 1.55502, 1.55343, 1.55268, 1.55727, 1.55844, 1.55741, 1.55845, 1.56132, 1.56142, 1.56056, 1.5655, 1.5701, 1.57057, 1.56498, 1.56664, 1.56578, 1.56545, 1.56549, 1.56165, 1.56052, 1.5622, 1.55882, 1.55804, 1.55801, 1.55368, 1.55337, 1.54181, 1.53448, 1.53504, 1.54479, 1.54975, 1.54682, 1.54575, 1.54925, 1.54943, 1.54334, 1.54102, 1.53745, 1.53628, 1.5322, 1.53039, 1.52138, 1.52002, 1.5192, 1.51428, 1.51297, 1.51625, 1.51465, 1.51899, 1.51866, 1.51702, 1.51903, 1.51719, 1.51591, 1.52107, 1.5203, 1.52611, 1.51175, 1.50936, 1.51011, 1.51641, 1.51355, 1.52358, 1.52359, 1.52036, 1.53047, 1.52701, 1.52645, 1.53124, 1.53022, 1.52668, 1.52635, 1.52655, 1.52783, 1.5328, 1.52721, 1.52534, 1.52453, 1.52501, 1.52819, 1.53107, 1.54051, 1.53949, 1.53917
1.29438, 1.29856, 1.30547, 1.31245, 1.3062, 1.30884, 1.30915, 1.31047, 1.90809, 1.3196, 1.31731, 1.3184, 1.32268, 1.32247, 1.32532, 1.32874, 1.32899, 1.33345, 1.33334, 1.33944, 1.3386, 1.3432, 1.3429, 1.34353, 1.34639, 1.34755, 1.34852, 1.34998, 1.3487, 1.34966, 1.35113, 1.35142, 1.35489, 1.35658, 1.35758, 1.36418, 1.34974, 1.33963, 1.34756, 1.34449, 1.35056, 1.35029, 1.34979, 1.34831, 1.34945, 1.34866, 1.34636, 1.3462, 1.34699, 1.3497, 1.34581, 1.34475, 1.34378, 1.34364, 1.34408, 1.34206, 1.34316, 1.34204, 1.34571, 1.34807, 1.34997, 1.34513, 1.34455, 1.34627, 1.34499, 1.34259, 1.34332, 1.34638, 1.34511, 1.34633, 1.34879, 1.34915, 1.35184, 1.35492, 1.35945, 1.36014, 1.36228, 1.36534, 1.36604, 1.37091, 1.37158, 1.37202, 1.37374, 1.37219, 1.3741, 1.37594, 1.37899, 1.38171, 1.38282, 1.38288, 1.38557, 1.38726, 1.3868, 1.38829, 1.38732, 1.38747, 1.3875, 1.39114, 1.39208, 1.39224, 1.3956, 1.39659, 1.39904, 1.40259, 1.40749, 1.40606, 1.4071, 1.40992, 1.41014, 1.41666, 1.42968, 1.42845, 1.42649, 1.43181, 1.56218, 1.43799, 1.44296, 1.60739, 1.45188, 1.45679, 1.46007, 1.46458, 1.46556, 1.46507, 1.46447, 1.4748, 1.47415, 1.76071, 1.48934, 1.64751, 1.55158, 1.55216, 1.52019, 1.54436, 1.54034, 1.51248, 1.51259, 1.57861, 1.5168, 1.59837, 1.55188, 1.54871, 1.54462, 1.59491, 1.69978, 0.00442079, 1.69674, 1.47783, 1.47482, 1.47918, 1.47528, 1.47561, 1.48136, 1.81136, 1.50276, 0.00477362, 1.52389, 1.52751, 1.64228, 1.539, 1.54421, 1.54378, 1.54079, 1.53975, 1.53668, 1.53575, 1.53675, 1.53906, 1.54332, 1.54231, 1.54375, 1.54355, 1.54322, 1.53757, 1.53459, 1.52751, 1.52356, 1.52201, 1.51348, 1.51021, 1.50865, 1.50888, 1.5074, 1.50838, 1.50846, 1.50886, 1.51884, 1.51321, 1.57714, 1.51473, 1.51307, 1.51466, 1.51655, 1.52089, 1.52479, 1.52536, 1.52443, 1.52411, 1.52536, 1.52443, 1.52422, 1.52487, 1.5253, 1.52811, 1.52866, 1.53027, 1.53167, 1.53951, 1.53703, 1.54312, 1.54673, 1.55159, 1.54988, 1.55048, 1.55432, 1.55298, 1.55398, 1.55952, 1.55713, 1.55819, 1.55806, 1.55775, 1.55635, 1.55694, 1.56597, 1.5633, 1.56154, 1.56718, 1.56368, 1.56184, 1.56382, 1.56164, 1.56264, 1.56075, 1.55884, 1.55802, 1.55648, 1.55207, 1.55061, 1.54542, 1.54119, 1.52933, 1.52815, 1.52752, 1.52443, 1.54266, 1.82712, 1.54005, 1.53535, 1.54907, 1.54233, 1.534, 1.53829, 1.53622, 1.53939, 1.52894, 1.52469, 1.52392, 1.52038, 1.51904, 1.51557, 1.50656, 1.50655, 1.5048, 1.50698, 1.52088, 1.52172, 1.5206, 1.52381, 1.52005, 1.51967, 1.51608, 1.51335, 1.51055, 1.50916, 1.51257, 1.51176, 1.51399, 1.51401, 1.5163, 1.51833, 1.51825, 1.52026, 1.51491, 1.52335, 1.52104, 1.5284, 1.5266, 1.52464, 1.52654, 1.52532, 1.53188, 1.53009, 1.52804, 1.52867, 1.53451, 1.53266, 1.54337, 1.54252, 1.54335
1.28762, 1.28874, 1.29334, 1.29938, 1.29891, 1.30088, 1.30106, 1.30401, 1.30575, 1.30714, 1.31636, 1.31608, 1.31552, 1.31684, 1.31964, 1.32257, 1.32494, 1.32738, 1.33116, 1.39821, 1.34066, 1.34087, 1.34254, 1.34358, 1.34651, 1.34753, 1.34765, 1.34867, 1.35036, 1.35176, 1.35336, 1.35389, 1.36281, 1.40247, 1.35102, 1.34537, 1.34383, 1.34334, 1.34181, 1.34286, 1.34463, 1.34333, 1.34422, 1.34366, 1.34359, 1.34534, 1.34304, 1.34262, 1.3404, 1.34372, 1.33852, 1.33887, 1.33874, 1.33866, 1.34145, 1.34001, 1.3398, 1.33874, 1.34148, 1.34129, 1.34173, 1.34113, 1.34027, 1.34182, 1.34249, 1.34172, 1.34382, 1.34549, 1.34381, 1.34395, 1.34845, 1.34988, 1.35155, 1.35645, 1.3601, 1.36193, 1.3653, 1.38207, 1.38133, 1.37154, 1.37216, 1.37348, 1.37405, 1.37345, 1.37446, 1.37675, 1.38019, 1.37931, 1.37944, 1.38102, 1.38934, 1.3884, 1.3885, 1.38793, 1.38651, 1.38675, 1.38745, 1.38907, 1.39119, 1.3932, 1.3954, 1.39772, 1.3961, 1.40254, 1.40495, 1.40847, 1.40662, 1.55806, 1.4135, 1.41865, 1.41648, 1.42189, 1.42318, 1.44378, 1.44214, 1.43714, 1.51085, 1.4469, 1.45707, 1.45393, 1.46104, 1.46262, 1.46299, 1.46612, 1.46646, 1.46478, 1.46288, 1.46506, 1.46825, 1.46768, 1.71706, 1.70797, 1.57253, 1.83785, 1.56868, 1.53125, 1.62041, 1.53336, 1.5562, 1.57168, 1.55445, 1.51397, 1.50401, 1.50239, 1.55844, 1.63703, 1.63788, 1.63886, 1.6092, 1.63362, 1.47515, 1.47444, 1.48256, 1.50553, 1.83553, 1.53439, 1.5901, 1.54686, 1.54569, 1.5362, 1.53549, 1.53655, 1.53642, 1.53323, 1.53045, 1.52833, 1.5308, 1.53767, 1.53658, 1.53768, 1.54413, 1.5464, 1.54535, 1.54301, 1.53829, 1.65534, 1.52003, 1.51922, 1.51154, 1.50882, 1.50551, 1.50232, 1.50257, 1.50229, 1.50014, 1.4987, 1.50387, 1.50325, 1.54975, 1.54484, 1.54628, 1.5471, 1.65335, 1.69357, 1.5066, 1.50813, 1.51762, 1.51672, 1.51692, 1.51327, 1.52043, 1.52755, 1.52053, 1.5228, 1.52325, 1.53614, 1.53295, 1.53095, 1.53787, 1.54198, 1.55051, 1.54722, 1.55075, 1.55296, 1.55505, 1.55773, 1.55787, 1.55865, 1.56182, 1.55933, 1.56091, 1.56217, 1.56033, 1.56075, 1.56535, 1.56451, 1.56437, 1.56473, 1.56766, 1.56147, 1.55838, 1.55799, 1.55852, 1.55616, 1.55647, 1.55772, 1.62727, 1.54473, 1.53965, 1.5345, 1.53513, 1.5316, 1.52918, 1.5242, 1.5187, 1.51987, 1.51839, 1.51594, 1.50808, 1.52087, 1.51803, 1.52423, 1.52847, 1.52687, 1.52556, 1.52439, 1.52421, 1.52335, 1.52393, 1.51978, 1.51931, 1.505, 1.50411, 1.50411, 1.51229, 1.51117, 1.52465, 1.52306, 1.52046, 1.51912, 1.51477, 1.5139, 1.51203, 1.51376, 1.50888, 1.51212, 1.50952, 1.50883, 1.51208, 1.50991, 1.51223, 1.51643, 1.51573, 1.50977, 1.51448, 1.52066, 1.52424, 1.52348, 1.52649, 1.52432, 1.52327, 1.52427, 1.52852, 1.5272, 1.52652, 1.53806, 1.53453, 1.54017, 1.53655, 1.54286
1.36308, 1.28118, 1.28307, 1.40507, 1.29792, 1.29809, 1.29989, 1.31283, 1.30162, 1.30451, 1.3051, 1.31731, 1.31105, 1.31617, 1.31523, 1.31828, 1.3205, 1.32349, 1.32601, 1.33, 1.32955, 1.33944, 1.33932, 1.34168, 1.34487, 1.34504, 1.34624, 1.34636, 1.34773, 1.35603, 1.35503, 1.33284, 1.33875, 1.33951, 1.33376, 1.3349, 1.33629, 1.33948, 1.33639, 1.33741, 1.33764, 1.34376, 1.3416, 1.34111, 1.33567, 1.33518, 1.33568, 1.33629, 1.33295, 1.33494, 1.33643, 1.33655, 1.34049, 1.33985, 1.335, 1.3363, 1.33547, 1.33534, 1.33694, 1.33612, 1.33713, 1.33643, 1.33736, 1.33643, 1.33729, 1.33768, 1.33656, 1.3429, 1.34304, 1.34261, 1.34598, 1.34846, 1.35215, 1.35436, 1.35715, 1.36155, 1.36405, 1.369, 1.37052, 1.37387, 1.37442, 1.3702, 1.37436, 1.3728, 1.37476, 1.37436, 1.37693, 1.37697, 1.38028, 1.38193, 1.38201, 1.38477, 1.38541, 1.38593, 1.38457, 1.38715, 1.38784, 1.38772, 1.39094, 1.38942, 1.39749, 1.40018, 1.40069, 1.40194, 1.40346, 1.40741, 1.40893, 1.41146, 1.41264, 1.41269, 1.41946, 2.11992, 1.42768, 2.11802, 1.46417, 1.44232, 1.44087, 1.45235, 1.45095, 1.45594, 1.46102, 1.46132, 1.46033, 1.46411, 1.46504, 1.46492, 1.46536, 1.46564, 1.46116, 1.46048, 1.46424, 1.70956, 1.4582, 1.47382, 1.47494, 1.46893, 1.63218, 1.47464, 1.65656, 1.53732, 1.62321, 1.4815, 1.5911, 1.58141, 1.47512, 1.57264, 1.56474, 1.46519, 1.46276, 1.47107, 1.47115, 1.4741, 1.55458, 1.51639, 1.52373, 1.49769, 1.629, 1.51439, 1.54679, 1.65843, 1.63961, 1.69283, 1.52936, 1.57237, 1.58341, 1.53416, 1.52698, 1.59377, 1.8151, 1.81395, 1.52419, 1.53232, 1.5341, 1.82327, 1.63437, 1.65463, 1.66229, 1.64714, 1.50393, 1.49961, 1.49578, 1.49751, 1.49892, 1.49627, 1.49692, 1.49573, 1.49206, 1.48507, 1.48223, 1.48173, 1.48884, 1.49546, 1.49592, 1.65176, 1.50586, 1.50226, 1.50919, 1.50662, 1.50601, 1.50595, 1.5097, 1.50941, 1.52154, 1.52225, 1.52281, 1.52289, 1.52933, 1.53355, 1.53199, 1.53682, 1.6722, 1.66243, 1.55504, 1.55231, 1.55318, 1.55702, 1.55969, 1.5602, 1.56426, 1.56416, 1.56399, 1.56279, 1.56129, 1.57019, 1.56961, 1.56849, 1.56902, 1.56736, 1.56708, 1.5669, 1.56442, 1.56236, 1.55978, 1.55358, 1.54433, 1.77534, 1.63397, 1.5247, 1.62362, 1.62366, 1.54421, 1.71944, 1.86341, 1.50347, 1.50451, 1.51298, 1.50898, 1.51278, 1.51343, 1.5142, 1.51746, 1.51328, 1.50965, 1.73753, 1.8842, 1.54408, 1.51028, 1.5101, 1.51621, 1.51349, 1.51478, 1.51264, 1.50941, 1.509, 1.50963, 1.51135, 1.51398, 1.51215, 1.51409, 1.518, 1.51533, 1.51969, 1.51041, 1.50991, 1.51163, 1.51011, 1.51219, 1.51145, 1.51258, 1.51204, 1.50908, 1.50771, 1.50552, 1.51065, 1.50447, 1.50631, 1.50781, 1.50992, 1.51776, 1.51977, 1.52013, 1.51735, 1.52078, 1.52311, 1.52692, 1.52577, 1.53527, 1.53627, 1.53604, 1.53436
1.32788, 1.27737, 1.28817, 1.302, 1.28798, 1.38794, 1.38791, 1.29293, 1.29292, 1.29373, 1.41666, 1.3105, 1.30261, 1.3051, 1.30914, 1.31307, 1.31395, 1.31784, 1.32281, 1.32294, 1.327, 1.33889, 1.3316, 1.34966, 1.35372, 1.33986, 1.33878, 1.34219, 1.34385, 1.33651, 1.33366, 1.33359, 1.33517, 1.33415, 1.33178, 1.33376, 1.33284, 1.33386, 1.33081, 1.33163, 1.32964, 1.33296, 1.33242, 1.32875, 1.33373, 1.33332, 1.33282, 1.33123, 1.33249, 1.33317, 1.33272, 1.33341, 1.3324, 1.33221, 1.33182, 1.3299, 1.33035, 1.33103, 1.33064, 1.3324, 1.33394, 1.33464, 1.33665, 1.33677, 1.3378, 1.33695, 1.33737, 1.33558, 1.33919, 1.33824, 1.34352, 1.34922, 1.36691, 1.36559, 1.36529, 1.36152, 1.36347, 1.3654, 1.36457, 1.3665, 1.36601, 1.368, 1.36736, 1.36905, 1.37264, 1.37275, 1.37648, 1.37763, 1.37716, 1.38115, 1.37971, 1.38465, 1.38575, 1.38591, 1.38758, 1.38717, 1.38878, 1.39315, 1.3928, 1.39348, 1.39905, 1.39962, 1.40006, 1.40035, 1.40275, 1.40617, 1.40522, 1.56603, 1.41581, 1.41677, 1.42021, 1.42649, 1.42563, 1.45853, 1.44531, 1.43954, 1.44745, 1.48197, 1.45139, 1.45716, 1.45918, 1.46064, 1.45975, 1.46505, 1.46757, 1.46808, 1.46746, 1.46811, 1.46181, 1.46109, 1.4595, 1.45851, 1.458, 1.46053, 1.46053, 1.46269, 1.45803, 1.62455, 1.46437, 1.4653, 1.46684, 1.46519, 1.46497, 1.47933, 1.46752, 1.46525, 1.46515, 1.46711, 1.46669, 1.46463, 1.46757, 1.4634, 1.46749, 1.46821, 1.91795, 1.5848, 1.58334, 1.60083, 1.6107, 1.54124, 1.55495, 1.51423, 1.51366, 1.5677, 1.5238, 1.50383, 1.55765, 1.52633, 1.5121, 1.50898, 1.51357, 1.52422, 1.51342, 1.51353, 1.51385, 1.50859, 1.55506, 1.49763, 1.49869, 1.49818, 1.49677, 1.49898, 1.49675, 1.49464, 1.50047, 1.51099, 1.49491, 1.4839, 1.47862, 1.47887, 1.48139, 1.48885, 1.48581, 1.54549, 1.49571, 1.52837, 1.52998, 1.50046, 1.50637, 1.50547, 1.50691, 1.50601, 1.52279, 1.5233, 1.52443, 1.52243, 1.5218, 1.52725, 1.53133, 1.53373, 1.53733, 1.53873, 1.81486, 1.54883, 1.55244, 1.55783, 1.56211, 1.56992, 1.56554, 1.56778, 1.56668, 1.56787, 1.57436, 1.57323, 1.57309, 1.57034, 1.56645, 1.56609, 1.56717, 1.56114, 1.56826, 1.55039, 1.54938, 1.67959, 1.55983, 1.53091, 1.5894, 1.72698, 1.50299, 1.71622, 1.48529, 1.48457, 1.48257, 1.48819, 1.48705, 1.49855, 1.49891, 1.49753, 1.50997, 1.50606, 1.50591, 1.492, 1.50068, 1.49608, 1.49262, 1.48704, 1.48687, 1.82363, 1.50714, 1.50342, 1.50958, 1.5158, 1.51651, 1.51261, 1.51126, 1.51447, 1.51277, 1.51602, 1.51617, 1.51605, 1.51455, 1.51913, 1.51892, 1.51958, 1.51657, 1.51655, 1.51481, 1.50853, 1.50653, 1.5134, 1.51254, 1.4997, 1.50571, 1.50434, 1.50605, 1.5051, 1.50771, 1.50826, 1.51223, 1.51217, 1.51556, 1.52193, 1.52416, 1.52472, 1.524, 1.52285, 1.52986, 1.52738, 1.53333, 1.53941
1.26437, 1.26674, 1.2671, 1.35722, 1.27458, 1.53328, 1.58315, 1.54024, 1.31472, 1.2882, 1.28952, 1.29541, 1.29701, 1.29919, 1.31948, 1.31256, 1.3102, 1.31894, 1.31282, 1.3189, 1.32181, 1.3228, 1.32468, 1.3403, 1.34685, 1.3313, 1.3301, 1.32682, 1.32229, 1.32402, 1.32803, 1.32829, 1.33028, 1.33156, 1.32801, 1.33027, 1.32839, 1.32776, 1.32879, 1.32806, 1.3266, 1.32738, 1.3268, 1.32492, 1.32605, 1.33255, 1.32918, 1.32858, 1.32758, 1.32963, 1.32911, 1.32641, 1.32598, 1.32724, 1.32654, 1.32604, 1.32604, 1.32564, 1.32973, 1.32964, 1.33363, 1.33384, 1.33389, 1.33742, 1.33759, 1.33742, 1.33887, 1.33917, 1.33838, 1.34027, 1.34144, 1.34701, 1.34813, 1.38844, 1.39165, 1.38771, 1.36217, 1.36332, 1.36466, 1.36242, 1.36457, 1.36468, 1.3634, 1.36598, 1.36504, 1.3677, 1.36963, 1.37305, 1.37429, 1.37826, 1.37889, 1.37878, 1.38482, 1.3849, 1.38625, 1.38576, 1.38921, 1.39461, 1.39303, 1.39856, 1.39865, 1.39605, 1.39944, 1.4013, 1.40247, 1.4055, 1.40715, 1.40903, 1.41274, 1.4168, 1.41807, 1.42414, 1.42413, 1.43193, 1.43381, 1.43839, 1.44472, 1.44494, 1.47641, 1.58088, 1.45923, 1.50897, 1.46662, 1.46507, 1.4694, 1.4678, 1.46718, 1.46715, 1.46317, 1.46294, 1.46197, 1.46253, 1.46124, 1.46164, 1.46001, 1.45996, 1.45886, 1.45758, 1.47836, 1.46099, 1.45856, 1.44908, 1.44995, 1.44589, 1.44626, 1.45825, 1.45662, 1.45327, 1.60284, 1.44922, 1.45035, 1.46859, 1.47432, 1.46346, 1.46191, 1.50914, 1.52669, 1.51387, 1.52566, 1.5508, 1.50383, 1.54791, 1.50014, 1.59541, 1.49597, 1.61389, 1.49997, 1.50249, 1.49822, 1.50403, 1.50381, 1.50373, 1.50441, 1.50115, 1.50628, 1.49356, 1.49195, 1.48978, 1.48853, 1.4879, 1.48731, 1.51223, 1.50899, 1.69001, 1.49637, 1.46163, 1.48582, 1.49198, 1.51588, 1.51438, 1.47445, 1.47438, 1.66483, 1.48152, 1.48686, 1.67066, 1.67158, 1.67178, 1.50539, 1.50543, 1.50941, 1.51252, 1.5157, 1.52051, 1.51926, 1.52121, 1.52603, 1.52731, 1.52687, 1.53059, 1.53302, 1.66783, 1.64673, 1.53919, 1.54055, 1.80363, 1.63056, 1.61432, 1.68362, 1.62788, 1.62273, 1.56948, 1.58185, 1.57301, 1.57193, 1.57064, 1.57016, 1.56643, 1.62352, 1.55489, 1.55298, 1.54712, 1.56512, 1.70208, 1.70041, 1.69256, 1.72687, 1.71618, 1.49917, 1.48813, 1.48758, 1.48511, 1.48719, 1.48615, 1.48994, 1.49574, 1.49398, 1.4922, 1.49027, 1.48232, 1.48372, 1.49188, 1.48437, 1.48187, 1.48077, 1.48194, 1.48786, 1.48937, 1.48686, 1.49884, 1.49683, 1.49659, 1.49866, 1.50175, 1.51612, 1.50993, 1.50992, 1.51257, 1.51689, 1.5143, 1.5161, 1.51591, 1.51765, 1.51951, 1.51698, 1.51576, 1.51649, 1.51211, 1.50573, 1.50345, 1.49723, 1.49981, 1.50045, 1.50179, 1.50558, 1.50479, 1.50395, 1.50821, 1.50934, 1.51135, 1.51595, 1.52416, 1.52489, 1.52478, 1.52109, 1.52202, 1.52706, 1.53007, 1.53276, 1.53515
1.25319, 1.51007, 1.25598, 1.2567, 1.26127, 1.27145, 1.27878, 1.44035, 1.27852, 1.28553, 1.37202, 1.35442, 1.35245, 1.29269, 1.29269, 1.29392, 1.31328, 1.30504, 1.31047, 1.30983, 1.31583, 1.32788, 1.31583, 1.31417, 1.31854, 1.31645, 1.3176, 1.31644, 1.31672, 1.32302, 1.32179, 1.32311, 1.32374, 1.32319, 1.32386, 1.32372, 1.32496, 1.32371, 1.32458, 1.32471, 1.32365, 1.3249, 1.32236, 1.32156, 1.32152, 1.32263, 1.32533, 1.32394, 1.32591, 1.3245, 1.32383, 1.32316, 1.3221, 1.32224, 1.31714, 1.31886, 1.32279, 1.32421, 1.32677, 1.32769, 1.33145, 1.3319, 1.33277, 1.33406, 1.34039, 1.34108, 1.34285, 1.34229, 1.3391, 1.33931, 1.34363, 1.44329, 1.3367, 1.34151, 1.33669, 1.56155, 1.35666, 1.48254, 1.35993, 1.36103, 1.35935, 1.36421, 1.36344, 1.36472, 1.36294, 1.36537, 1.36571, 1.37146, 1.36873, 1.37481, 1.37425, 1.37637, 1.37888, 1.38082, 1.43441, 1.38763, 1.38625, 1.39303, 1.39509, 1.39529, 1.39568, 1.39918, 1.40106, 1.40069, 1.404, 1.40557, 1.4078, 1.40632, 1.41122, 1.41419, 1.41721, 1.50948, 1.43435, 1.43248, 1.43584, 1.44177, 1.44235, 1.44777, 1.45191, 1.45486, 1.52849, 1.46292, 1.46587, 1.46854, 1.4682, 1.47043, 1.46972, 1.46985, 1.4702, 1.46755, 1.46604, 1.4648, 1.46188, 1.45957, 1.45481, 1.45056, 1.44734, 1.44884, 1.4492, 1.44987, 1.45076, 1.44883, 1.44835, 1.44617, 1.44537, 1.44693, 1.44749, 1.44859, 1.44513, 1.44352, 1.43912, 1.4366, 1.43545, 1.56908, 1.50322, 1.47454, 1.47396, 1.55323, 1.55664, 1.55585, 1.55571, 1.53511, 1.53908, 1.69377, 1.50308, 1.47865, 1.4815, 1.5722, 1.66581, 1.65905, 1.49975, 1.51262, 1.49978, 1.49748, 1.49549, 1.48859, 1.48343, 1.48853, 1.48732, 1.5016, 1.69552, 1.53924, 1.46837, 1.70683, 1.46459, 1.47028, 1.44116, 1.44393, 1.45543, 1.45597, 1.67099, 1.4722, 1.46928, 1.65545, 1.65896, 1.4846, 1.49615, 1.49539, 1.50244, 1.50289, 1.51865, 1.51767, 1.51656, 1.51987, 1.52261, 1.52224, 1.52293, 1.51932, 1.51898, 1.53097, 1.53013, 1.53092, 1.52778, 1.53756, 1.53789, 1.537, 1.55084, 1.54733, 1.54568, 1.60791, 1.60686, 1.55148, 1.59731, 1.68814, 1.57506, 1.55892, 1.65713, 1.67133, 1.67474, 1.56882, 1.56496, 1.56641, 1.54044, 1.54279, 1.52807, 1.54741, 1.53852, 1.63018, 1.49008, 1.49067, 1.48993, 1.49098, 1.4851, 1.48188, 1.48471, 1.48252, 1.45618, 1.47896, 1.68885, 1.68448, 1.48935, 1.47334, 1.47534, 1.47738, 1.47962, 1.47186, 1.47189, 1.47024, 1.47846, 1.79341, 1.50331, 1.49585, 1.4947, 1.9769, 1.48969, 1.50065, 1.99304, 1.50798, 1.50705, 1.5035, 1.51348, 1.51337, 1.52014, 1.5182, 1.51655, 1.51452, 1.51437, 1.5133, 1.50952, 1.50908, 1.50571, 1.50506, 1.50581, 1.50924, 1.51222, 1.51598, 1.51323, 1.51533, 1.51967, 1.52469, 1.52217, 1.52184, 1.52411, 1.53088, 1.53111, 1.53237, 1.52981, 1.5306, 1.5272, 1.5283
1.45666, 1.46358, 1.47919, 1.36545, 1.26403, 1.4886, 1.48667, 1.26892, 1.50331, 1.50607, 1.27531, 1.27843, 1.28408, 1.28192, 1.28557, 1.29004, 1.30934, 1.3003, 1.29341, 1.30181, 1.31021, 1.3049, 1.50874, 1.30615, 1.30683, 1.31092, 1.31711, 1.31685, 1.31548, 1.31561, 1.32242, 1.32051, 1.31704, 1.31551, 1.31481, 1.44322, 1.31735, 1.31665, 1.31601, 1.31307, 1.31946, 1.31959, 1.31941, 1.3202, 1.32051, 1.32118, 1.3214, 1.32209, 1.32025, 1.32111, 1.3186, 1.32055, 1.32003, 1.3158, 1.31602, 1.3175, 1.31892, 1.32066, 1.32561, 1.32609, 1.33097, 1.33216, 1.33369, 1.33604, 1.33592, 1.33863, 1.33788, 1.45808, 1.47084, 1.3194, 1.31928, 1.32274, 1.33038, 1.33031, 1.33087, 1.33288, 1.33908, 1.51277, 1.35805, 1.35583, 1.3594, 1.35788, 1.35824, 1.36218, 1.36395, 1.36154, 1.3641, 1.36453, 1.36704, 1.37053, 1.3708, 1.37386, 1.38174, 1.37847, 1.38174, 1.96134, 1.38825, 1.39478, 1.39389, 1.39805, 1.3986, 1.39796, 1.39859, 1.4009, 1.40149, 1.40037, 1.40297, 1.40481, 1.40522, 1.41066, 1.4135, 1.48574, 1.42676, 1.48843, 1.438, 1.43678, 1.44768, 1.45194, 1.45444, 1.45862, 1.45992, 1.53802, 1.48853, 1.47039, 1.47295, 1.47059, 1.47232, 1.47328, 1.47399, 1.46851, 1.46746, 1.46801, 1.58516, 1.45952, 1.45403, 1.4484, 1.44742, 1.44775, 1.44736, 1.44242, 1.44136, 1.44015, 1.43697, 1.4373, 1.4401, 1.44697, 1.44327, 1.44015, 1.44021, 1.43866, 1.43689, 1.43276, 1.43318, 1.43572, 1.43704, 1.45056, 1.44849, 1.4484, 1.53776, 1.57468, 1.59475, 1.52791, 1.5274, 1.49299, 1.46485, 1.49106, 1.46587, 1.46749, 1.50631, 1.47793, 1.49338, 1.49249, 1.66572, 1.48534, 1.48004, 1.48496, 1.48109, 1.51353, 1.66561, 1.64981, 1.61763, 1.9084, 1.73804, 1.4371, 1.44048, 1.43459, 1.43498, 1.43507, 1.44017, 1.45759, 1.45247, 1.55497, 1.6119, 1.46517, 1.47305, 1.47338, 1.65065, 1.48479, 1.49242, 1.66552, 1.50049, 1.66448, 1.65758, 1.95879, 1.64122, 1.64076, 1.51575, 1.51159, 1.51138, 1.64044, 1.7523, 1.66449, 1.60031, 1.67352, 1.59149, 1.53656, 1.53135, 1.57416, 1.63745, 1.6213, 1.57837, 1.59502, 1.57123, 1.55017, 1.5486, 1.59614, 1.67468, 1.67333, 1.67787, 1.52609, 1.67667, 1.67524, 1.50977, 1.67136, 1.53854, 1.69001, 1.64426, 1.64394, 1.48575, 1.6751, 1.64478, 1.68475, 1.47669, 1.67916, 1.6922, 1.63862, 1.4539, 1.46075, 1.45776, 1.46, 1.4577, 1.45702, 1.45737, 1.45985, 1.46241, 1.46471, 1.46234, 1.47235, 1.47321, 1.47583, 1.4879, 1.48568, 1.48353, 1.48323, 1.48457, 1.48343, 1.48179, 1.4828, 1.55081, 1.49985, 1.49708, 1.49814, 1.50573, 1.504, 1.50495, 1.5087, 1.50657, 1.50362, 1.50691, 1.50696, 1.51211, 1.51082, 1.50968, 1.51064, 1.51635, 1.51475, 1.52333, 1.52215, 1.53024, 1.52657, 1.52722, 1.52536, 1.52622, 1.53, 1.5305, 1.53296, 1.53332, 1.53434, 1.52844, 1.53209
1.3331, 1.22465, 1.3443, 1.49276, 1.29213, 1.38829, 1.39887, 1.24814, 1.25833, 1.26561, 1.27628, 1.26189, 1.3748, 1.45727, 1.37577, 1.45844, 1.37873, 1.26961, 1.30164, 1.29814, 1.30423, 1.30728, 1.32591, 1.45094, 1.29551, 1.29989, 1.30102, 1.30182, 1.30284, 1.30545, 1.3067, 1.30699, 1.30644, 1.30711, 1.31175, 1.31014, 1.30996, 1.30882, 1.30993, 1.30869, 1.30926, 1.30985, 1.31206, 1.31352, 1.31228, 1.31284, 1.31776, 1.31889, 1.31876, 1.31583, 1.31401, 1.31637, 1.31673, 1.31668, 1.31538, 1.31861, 1.32023, 1.31987, 1.32431, 1.32756, 1.32865, 1.33117, 1.33383, 1.33454, 1.33308, 1.37634, 1.32207, 1.31534, 1.31383, 1.31888, 1.3206, 1.32423, 1.32803, 1.32872, 1.33208, 1.33335, 1.33962, 1.34788, 1.35168, 1.35185, 1.35421, 1.35699, 1.35459, 1.35475, 1.35959, 1.35804, 1.35839, 1.36212, 1.36131, 1.3629, 1.36487, 1.36807, 1.373, 1.39914, 1.38199, 1.38269, 1.38682, 1.41286, 1.39512, 1.39797, 1.39813, 1.39749, 1.39759, 1.39815, 1.4009, 1.40256, 1.4031, 1.40431, 1.40534, 1.41345, 1.4229, 1.47902, 1.43323, 1.43226, 1.53626, 1.49787, 1.45041, 1.45172, 1.45225, 1.46161, 1.49601, 1.46599, 1.46787, 1.46997, 1.47061, 1.47136, 1.47272, 1.474, 1.47357, 1.47113, 1.46868, 1.46693, 1.46418, 1.4577, 1.45524, 1.44792, 1.44595, 1.44138, 1.43844, 1.43496, 1.43563, 1.43374, 1.43357, 1.42492, 1.42324, 1.4247, 1.42718, 1.6419, 1.43345, 1.43221, 1.43014, 1.43519, 1.43499, 1.43106, 1.43958, 1.43879, 1.43723, 1.54385, 1.44513, 1.45206, 1.50238, 1.77849, 1.457, 1.52623, 1.5162, 1.46425, 1.46128, 1.46235, 1.46436, 1.46506, 1.46678, 1.46356, 1.47173, 1.47099, 1.47266, 1.46481, 1.6827, 1.5585, 1.43652, 1.44151, 1.44168, 1.44059, 1.43512, 1.50862, 1.4155, 1.42256, 1.43009, 1.42865, 1.4327, 1.43744, 1.44295, 1.45111, 1.46142, 1.46189, 1.45965, 1.46764, 1.46572, 1.68528, 1.67896, 1.56786, 1.49726, 1.68606, 1.49561, 1.54305, 1.64733, 1.50783, 1.50645, 1.51227, 1.5101, 1.50451, 1.50326, 1.50437, 1.50054, 1.4986, 1.50565, 1.59364, 1.59177, 1.58891, 1.58719, 1.56026, 1.52791, 1.52856, 1.52996, 1.5157, 1.59251, 1.67179, 1.55465, 1.67741, 1.5073, 1.72813, 0.00469747, 1.46725, 1.46309, 1.55417, 1.46409, 1.55632, 1.60526, 1.6088, 1.50686, 1.4607, 1.61105, 1.61008, 1.68877, 1.50409, 1.67367, 1.6631, 1.45889, 1.45636, 1.45561, 1.45772, 1.45806, 1.45814, 1.45974, 1.45876, 1.45626, 1.45731, 1.45989, 1.46314, 1.46346, 1.46645, 1.4816, 1.48078, 1.48445, 1.48228, 1.48298, 1.48504, 1.48038, 1.47809, 1.48485, 1.47899, 1.49554, 1.49182, 1.49578, 1.49998, 1.5028, 1.50476, 1.50427, 1.50437, 1.5057, 1.50256, 1.50575, 1.50793, 1.51254, 1.51054, 1.51636, 1.51807, 1.52255, 1.52863, 1.52795, 1.53314, 1.53112, 1.53178, 1.53703, 1.53572, 1.53302, 1.53363, 1.53414, 1.53711, 1.53428, 1.5371
1.31978, 1.21256, 1.66174, 1.36777, 1.24012, 1.24329, 1.38061, 1.23452, 1.41241, 1.33389, 1.3412, 1.31713, 1.36817, 2.062, 2.06259, 1.25186, 1.25015, 1.31884, 1.25331, 1.26372, 1.26858, 1.39616, 1.37055, 1.28493, 1.28433, 1.28903, 1.29317, 1.29161, 1.29573, 1.29721, 1.29947, 1.29774, 1.29699, 1.2993, 1.30543, 1.30564, 1.30203, 1.30322, 1.30296, 1.30653, 1.30627, 1.30442, 1.30872, 1.30976, 1.30729, 1.30815, 1.30908, 1.31011, 1.30965, 1.30987, 1.30974, 1.31149, 1.3097, 1.31411, 1.31633, 1.31704, 1.31886, 1.32098, 1.32256, 1.32403, 1.32899, 1.32383, 1.3265, 1.32556, 1.32308, 1.32651, 1.31374, 1.31184, 1.31236, 1.3134, 1.31579, 1.32067, 1.3224, 1.32387, 1.33078, 1.33299, 1.33443, 1.34027, 1.42611, 1.35233, 1.35208, 1.35145, 1.35283, 1.3531, 1.3526, 1.35203, 1.3507, 1.35384, 1.35477, 1.36102, 1.36108, 1.36199, 1.36806, 1.36829, 1.38309, 1.38293, 1.3792, 1.39035, 1.38816, 1.38663, 1.39207, 1.39419, 1.39561, 1.39565, 1.39948, 1.40156, 1.40585, 1.40679, 1.40734, 1.41227, 1.41684, 1.48451, 1.42968, 1.4315, 1.55206, 1.44077, 1.52693, 1.45584, 1.45192, 1.54385, 1.46166, 1.46463, 1.46748, 1.46724, 1.47225, 1.4707, 1.47027, 1.47322, 1.47315, 1.47097, 1.47129, 1.48257, 1.4928, 1.45628, 1.45122, 1.44197, 1.43969, 1.43796, 1.43884, 1.43365, 1.43408, 1.43429, 1.43343, 1.42586, 1.42446, 1.4162, 1.42219, 1.4175, 1.40995, 1.52969, 1.55819, 1.42614, 1.42566, 1.43143, 1.43192, 1.42792, 1.43334, 1.5201, 1.53514, 1.43953, 1.44322, 1.49913, 1.95204, 1.4579, 1.45469, 1.45931, 1.5812, 1.49573, 1.4591, 1.45887, 1.45795, 1.46232, 1.46243, 1.45893, 1.54393, 1.45832, 1.44802, 1.44009, 1.43801, 1.4365, 1.43537, 1.43375, 1.42522, 1.42237, 1.41861, 1.41796, 1.42627, 1.42277, 1.71782, 1.44004, 1.51999, 1.45935, 1.45965, 1.46562, 1.46569, 1.46706, 1.46698, 1.46623, 1.45932, 1.46266, 1.46455, 1.5543, 1.6249, 1.48419, 1.49205, 1.49709, 1.66896, 1.50701, 1.50635, 1.50149, 1.49945, 1.50112, 1.49919, 1.49843, 1.48402, 1.48936, 1.48445, 1.48355, 1.48377, 1.48483, 1.4844, 1.49512, 1.49061, 1.53518, 1.49023, 1.47915, 1.67118, 1.57387, 1.6743, 1.67423, 1.67492, 1.45863, 1.44828, 1.44665, 1.44275, 1.44097, 1.43885, 1.43709, 1.43532, 1.43485, 1.4309, 1.42766, 1.42729, 1.42686, 1.4299, 1.43287, 1.66997, 1.66072, 1.6565, 1.65818, 1.66483, 1.45136, 1.45271, 1.45259, 1.45741, 1.45693, 1.45596, 1.4606, 1.46031, 1.45823, 1.45972, 1.47583, 1.47781, 1.48008, 1.47935, 1.47798, 1.47928, 1.47774, 1.47501, 1.47535, 1.48339, 1.48239, 1.48935, 1.49589, 1.50263, 1.50087, 1.50036, 1.50086, 1.50133, 1.50199, 1.50358, 1.50466, 1.50977, 1.50842, 1.5117, 1.51458, 1.51552, 1.52576, 1.52705, 1.52903, 1.52999, 1.53618, 1.53479, 1.5342, 1.53539, 1.53677, 1.53614, 1.53507, 1.54509, 1.54309
1.27398, 1.20663, 1.22653, 1.41036, 1.23002, 1.36203, 1.20986, 2.06615, 1.22849, 1.35419, 1.43136, 1.32168, 1.32275, 1.31962, 1.22625, 1.47431, 1.23998, 1.24011, 1.24801, 1.25785, 1.25827, 2.08067, 1.29206, 1.26846, 1.27562, 1.27594, 1.2799, 1.2819, 1.28316, 1.28616, 1.29106, 1.29361, 1.29402, 1.29617, 1.29932, 1.29781, 1.38415, 1.29302, 1.29548, 1.29768, 1.2991, 1.29958, 1.30195, 1.30288, 1.30237, 1.30422, 1.30505, 1.30583, 1.30682, 1.30623, 1.30697, 1.30798, 1.30805, 1.31108, 1.31655, 1.48132, 1.30962, 1.31983, 1.31332, 1.31426, 1.31823, 1.32249, 1.31823, 1.31931, 1.31764, 1.31458, 1.3158, 1.31105, 1.3123, 1.31247, 1.31597, 1.31607, 1.3195, 1.3201, 1.32441, 1.32909, 1.33681, 1.33749, 1.4074, 1.34549, 1.34627, 1.34553, 1.34464, 1.34565, 1.34704, 1.34592, 1.34578, 1.35138, 1.35127, 1.35288, 1.35773, 1.36037, 1.36173, 1.37035, 1.38912, 1.39075, 1.3854, 1.42017, 1.38351, 1.38344, 1.46873, 1.38671, 1.39029, 1.39077, 1.39748, 1.3986, 1.3986, 1.42993, 1.40745, 1.41647, 1.45363, 1.4224, 1.42078, 1.42733, 1.51749, 1.44638, 1.44606, 1.44528, 1.60097, 1.47403, 1.4571, 1.57557, 1.46541, 1.46381, 1.46787, 1.46923, 1.46968, 1.4707, 1.4696, 1.46909, 1.47101, 1.46044, 1.45531, 1.45664, 1.44682, 1.44523, 1.44514, 1.44179, 1.44344, 1.43875, 1.43787, 1.43716, 1.43804, 1.42724, 1.42381, 1.41601, 1.41202, 1.41203, 1.41186, 1.41008, 1.41304, 1.41928, 1.41592, 1.41457, 1.41918, 1.41369, 1.41387, 1.41561, 1.52495, 1.72393, 1.51442, 1.66796, 1.49539, 1.61298, 1.66176, 1.53127, 1.53799, 1.64039, 1.54495, 1.5751, 1.66618, 1.59267, 1.58938, 1.51005, 1.59191, 1.64304, 1.42642, 1.42549, 1.42443, 1.4318, 1.43049, 1.43223, 1.42249, 1.42249, 1.41671, 1.41623, 1.41672, 1.4436, 1.66845, 1.60136, 1.46135, 1.47039, 1.46804, 1.47033, 1.46868, 1.47469, 1.47095, 1.47148, 1.47676, 1.68705, 1.67604, 1.63402, 1.63477, 1.48842, 1.68799, 1.49928, 1.49506, 1.49654, 1.49315, 1.49213, 1.48929, 1.49029, 1.49214, 1.48194, 1.48217, 1.48236, 1.47906, 1.47915, 1.47925, 1.47542, 1.4766, 1.48026, 1.48082, 1.47372, 1.46624, 1.48969, 1.46391, 1.45349, 1.44156, 1.4422, 1.44302, 1.44072, 1.43414, 1.43664, 1.43303, 1.43335, 1.43258, 1.42649, 1.42583, 1.42321, 1.42344, 1.42174, 1.41966, 1.42384, 1.42008, 1.42354, 1.66729, 1.66219, 1.66906, 1.43723, 1.43774, 1.44642, 1.44484, 1.44809, 1.45148, 1.4568, 1.45733, 1.4578, 1.45718, 1.45345, 1.46022, 1.46012, 1.47785, 1.47847, 1.47905, 1.47962, 1.47806, 1.47236, 1.47166, 1.4737, 1.47896, 1.48644, 1.48914, 1.49157, 1.49705, 1.49706, 1.49575, 1.50179, 1.5008, 1.50253, 1.50431, 1.50468, 1.50769, 1.5074, 1.5104, 1.51631, 1.51659, 1.51902, 1.52467, 1.52785, 1.52733, 1.53132, 1.53846, 1.54024, 1.53995, 1.54434, 1.54242, 1.54052, 1.5442, 1.54271
1.21073, 1.48911, 1.45322, 1.46339, 1.77149, 1.42005, 1.48248, 1.7206, 1.48196, 1.50721, 1.43276, 1.27406, 1.23272, 1.23237, 1.23025, 1.22599, 1.23366, 1.23392, 1.24002, 1.23955, 1.24015, 1.34715, 1.25265, 1.25598, 1.34906, 1.41348, 1.26801, 1.27224, 1.37756, 1.87183, 1.35047, 1.2846, 1.34657, 1.28413, 1.3162, 1.75519, 1.28284, 1.28647, 1.28621, 1.31316, 1.29005, 1.29081, 1.29792, 1.29505, 1.29636, 1.29901, 1.29987, 1.29975, 1.30193, 1.30223, 1.30093, 1.30193, 1.29995, 1.30266, 1.30295, 1.30565, 1.30606, 1.30827, 1.30877, 1.31082, 1.30943, 1.31109, 1.31084, 1.31094, 1.31243, 1.31234, 1.31308, 1.31312, 1.31508, 1.31528, 1.31328, 1.31312, 1.31683, 1.3183, 1.32341, 1.32167, 1.32697, 1.32893, 1.32991, 1.33741, 1.33749, 1.3422, 1.34339, 1.34231, 1.34257, 1.34341, 1.3446, 1.34375, 1.34303, 1.34751, 1.34772, 1.35319, 1.3573, 1.35824, 1.3591, 1.36283, 1.36619, 1.36832, 1.37174, 1.38144, 1.37862, 1.38299, 1.38356, 1.38342, 1.3897, 1.39192, 1.39521, 1.396, 1.45406, 1.41617, 1.41084, 1.50906, 1.42074, 1.42224, 1.43492, 1.46414, 1.4755, 1.50266, 1.45121, 1.45078, 1.46628, 1.45721, 1.45981, 1.45963, 1.52456, 1.46783, 1.46733, 1.46931, 1.46719, 1.46611, 1.46744, 1.46141, 1.45598, 1.45364, 1.45427, 1.45309, 1.45195, 1.45215, 1.45108, 1.44626, 1.44636, 1.44526, 1.44328, 1.47735, 1.65271, 1.41755, 1.41516, 1.41246, 1.40711, 1.40765, 1.4076, 1.406, 1.40531, 1.41196, 1.4105, 1.40921, 1.41178, 1.4134, 1.41658, 1.41775, 1.41576, 1.41848, 1.42029, 1.41908, 1.41825, 1.62305, 1.64781, 1.66078, 1.63305, 1.52676, 1.59297, 1.42204, 1.59556, 1.40249, 1.41285, 1.40456, 1.42241, 1.42004, 1.42081, 1.42331, 1.4169, 1.4187, 1.41367, 1.4162, 1.41644, 1.41981, 1.54549, 0.00432946, 1.45947, 1.4691, 1.47129, 1.47115, 1.47395, 1.47663, 1.60087, 1.48364, 1.73469, 1.59079, 1.68603, 1.66846, 1.60586, 1.59424, 1.59571, 1.61409, 1.51178, 1.51296, 1.50673, 1.54705, 1.4899, 1.48727, 1.48476, 1.48188, 1.47807, 1.47679, 1.47641, 1.47074, 1.47221, 1.46872, 1.46652, 1.46817, 1.51461, 1.52393, 1.46529, 1.43692, 1.44739, 1.44366, 1.47561, 1.43587, 1.43454, 1.43193, 1.43007, 1.42888, 1.43168, 1.42731, 1.4281, 1.42523, 1.42286, 1.42393, 1.41635, 1.68175, 1.67977, 1.41369, 1.40879, 1.40582, 1.40911, 1.40843, 1.41713, 1.42418, 1.42275, 1.65672, 1.43358, 1.4335, 1.4342, 1.43426, 1.44054, 1.44417, 1.44934, 1.45178, 1.45185, 1.45556, 1.45564, 1.45421, 1.46762, 1.47501, 1.4781, 1.47599, 1.47713, 1.47681, 1.47717, 1.47241, 1.47648, 1.48592, 1.48937, 1.49918, 1.49854, 1.50095, 1.50151, 1.50098, 1.50251, 1.50689, 1.50653, 1.5066, 1.50677, 1.50618, 1.51042, 1.50899, 1.50937, 1.5142, 1.51679, 1.52343, 1.52286, 1.52987, 1.52985, 1.53393, 1.53431, 1.53735, 1.53802, 1.54445, 1.54611, 1.54774
1.1739, 1.29451, 1.16722, 1.18395, 1.17103, 1.78596, 1.19527, 1.54413, 1.18429, 1.18756, 1.18801, 1.93052, 1.22088, 1.20836, 1.92938, 1.21851, 1.22074, 1.31682, 1.22769, 1.22923, 1.31903, 1.23564, 1.23757, 1.24435, 1.39289, 1.24862, 1.24888, 1.43029, 1.25786, 1.33879, 1.29647, 1.26659, 1.26532, 1.26717, 1.26876, 1.27514, 1.27593, 1.28209, 1.28153, 1.28069, 1.2842, 1.29242, 1.28874, 1.29218, 1.2938, 1.29845, 1.29806, 1.30054, 1.2996, 1.38856, 1.2911, 1.29139, 1.29307, 1.29755, 1.2993, 1.29786, 1.29898, 1.3037, 1.30485, 1.30478, 1.30325, 1.30976, 1.31044, 1.30714, 1.30417, 1.30527, 1.30908, 1.31153, 1.31006, 1.30884, 1.31193, 1.31165, 1.31296, 1.31514, 1.31559, 1.31817, 1.32631, 1.32374, 1.32679, 1.32963, 1.33253, 1.33571, 1.33789, 1.33941, 1.33995, 1.34073, 1.34053, 1.33983, 1.34154, 1.34658, 1.34777, 1.34969, 1.35758, 1.3557, 1.3586, 1.3601, 1.36367, 1.36497, 1.36873, 1.36962, 1.37594, 1.37769, 1.38052, 1.3836, 1.38425, 1.38756, 1.38926, 1.39146, 0.00474716, 1.40197, 1.40179, 1.40932, 1.40954, 1.46449, 1.42102, 1.47131, 1.43453, 1.45843, 1.55785, 1.465, 1.53055, 1.45323, 1.46385, 1.48208, 1.51612, 1.4617, 1.46237, 1.46617, 1.46523, 1.46598, 1.4657, 1.46757, 1.46376, 1.46106, 1.46144, 1.46174, 1.45798, 1.45953, 1.45974, 1.45603, 1.45472, 1.47131, 1.44834, 1.44275, 1.43354, 1.51726, 1.42313, 1.41106, 1.40992, 1.40615, 1.40517, 1.40498, 1.39609, 1.39796, 1.40203, 1.40105, 1.39792, 1.39896, 1.40078, 1.51666, 1.67492, 1.62356, 1.67723, 1.64861, 1.63696, 1.64512, 1.62634, 1.63185, 1.39926, 1.39952, 1.39902, 1.40582, 1.40487, 1.40069, 1.40537, 1.40581, 1.40442, 1.40799, 1.41325, 1.4122, 1.41505, 1.41452, 1.41032, 1.40793, 1.40752, 1.49991, 1.50729, 1.57626, 1.4789, 1.48243, 1.47906, 1.48674, 1.69202, 1.65187, 1.67539, 1.51153, 1.59261, 1.5365, 1.52061, 1.53425, 1.52258, 1.52394, 1.52161, 1.51733, 1.51638, 1.51633, 1.51412, 1.51169, 1.50737, 1.50561, 1.49311, 1.64008, 1.55131, 1.4723, 1.47159, 1.4685, 1.46783, 1.45848, 1.45621, 1.45688, 1.45515, 1.44346, 1.43773, 1.43674, 1.43335, 1.42957, 1.42981, 1.42112, 1.41975, 1.42022, 1.4198, 1.41883, 1.41771, 1.41583, 1.4193, 1.42103, 1.67797, 1.4113, 1.41152, 1.40556, 1.40334, 1.40388, 1.40037, 1.39972, 1.4002, 1.40202, 1.40542, 1.41209, 1.41432, 1.41529, 1.41732, 1.42312, 1.4247, 1.42684, 1.43297, 1.43418, 1.44255, 1.443, 1.63697, 1.45078, 1.45595, 1.45806, 1.45896, 1.47065, 1.46814, 1.47299, 1.4773, 1.47552, 1.47441, 1.48068, 1.4822, 1.48175, 1.48809, 1.49209, 1.49126, 1.49514, 1.49866, 1.50175, 1.5009, 1.50388, 1.50343, 1.50425, 1.51073, 1.51091, 1.50904, 1.51351, 1.51984, 1.52164, 1.52136, 1.52579, 1.52443, 1.52986, 1.52715, 1.52351, 1.53006, 1.5351, 1.53378, 1.53798, 1.53903, 1.54685
1.53401, 1.39963, 1.16797, 1.18466, 1.64228, 1.16502, 1.17058, 1.17318, 1.40061, 1.42644, 1.42594, 1.45552, 1.43735, 1.84029, 1.1999, 1.381, 1.30444, 1.20787, 1.42305, 1.35092, 1.22191, 1.22669, 1.22865, 1.23342, 1.28003, 1.24635, 1.24168, 1.24306, 1.24627, 1.24918, 1.24992, 1.25499, 1.26394, 1.26499, 1.72647, 1.27747, 1.28117, 1.27475, 1.27137, 1.2741, 1.28528, 1.28378, 1.28463, 1.8509, 1.44333, 1.30099, 1.33058, 1.28696, 1.28769, 1.28633, 1.28727, 1.28492, 1.28847, 1.28652, 1.29288, 1.29257, 1.3332, 1.29004, 1.34327, 1.29726, 1.30293, 1.30275, 1.29897, 1.29874, 1.29979, 1.2992, 1.30307, 1.30366, 1.30402, 1.30507, 1.30486, 1.30633, 1.30877, 1.30997, 1.31349, 1.315, 1.31918, 1.31981, 1.32295, 1.32674, 1.3279, 1.32911, 1.33496, 1.33453, 1.33604, 1.3366, 1.33815, 1.34034, 1.34194, 1.34351, 1.34532, 1.34929, 1.35005, 1.35158, 1.35678, 1.36014, 1.35943, 1.36031, 1.36642, 1.36761, 1.37089, 1.37536, 1.37811, 1.37888, 1.38822, 1.38789, 1.39105, 1.39203, 1.39926, 1.39797, 1.40015, 1.40263, 1.40658, 1.45946, 1.41763, 1.97999, 1.43729, 1.61507, 1.55145, 1.55124, 1.50699, 1.5625, 1.46597, 1.4657, 1.47802, 1.48953, 1.4781, 1.46469, 1.46031, 1.46399, 1.46509, 1.46371, 1.46543, 1.46616, 1.46754, 1.46672, 1.46568, 1.46463, 1.46509, 1.46373, 1.46173, 1.46314, 1.6798, 1.67623, 1.58882, 1.43722, 1.42891, 1.42489, 1.44821, 1.40713, 1.40437, 1.39801, 1.39729, 1.39255, 1.38796, 1.39145, 1.38699, 1.38654, 1.38227, 1.38788, 1.38954, 1.38824, 1.38805, 1.37829, 1.37863, 1.38448, 1.38362, 1.38604, 1.38929, 1.39233, 1.39289, 1.39154, 1.38913, 1.38824, 1.3901, 1.40428, 1.40273, 1.40443, 1.40593, 1.40494, 1.40223, 1.40006, 1.40315, 1.40472, 1.55385, 1.51314, 1.51316, 0.00430895, 1.54073, 0.00445601, 1.6699, 1.53664, 1.72455, 0.00454803, 1.52438, 1.5293, 1.52682, 1.52595, 1.52781, 1.52761, 1.5275, 1.52716, 1.52564, 1.52144, 1.51502, 1.5162, 1.51279, 1.51227, 1.50978, 1.5616, 1.66798, 1.48996, 1.49174, 1.48666, 1.49208, 1.48128, 1.47104, 1.47124, 1.47105, 1.45202, 1.44995, 1.45082, 1.45031, 1.42919, 1.42262, 1.42153, 1.4203, 1.40178, 1.40849, 1.40848, 1.40934, 1.41009, 1.41011, 1.41238, 1.41288, 1.40674, 1.40494, 1.4023, 1.4041, 1.40241, 1.40305, 1.4019, 1.40074, 1.39963, 1.40355, 1.40098, 1.40012, 1.4026, 1.40669, 1.40756, 1.40819, 1.41051, 1.41149, 1.41315, 1.53121, 1.42772, 1.42826, 1.43478, 1.64128, 1.67971, 1.44811, 1.45295, 1.4562, 1.46065, 1.46853, 1.4706, 1.46435, 1.46913, 1.47045, 1.46838, 1.47271, 1.47049, 1.47919, 1.48302, 1.48876, 1.48864, 1.48746, 1.49857, 1.5052, 1.50505, 1.50591, 1.50859, 1.50677, 1.51094, 1.50923, 1.51612, 1.52001, 1.52454, 1.531, 1.5292, 1.52843, 1.53235, 1.529, 1.53031, 1.53383, 1.53222, 1.53487, 1.53352, 1.54169, 1.54444
1.1431, 1.14508, 1.14655, 1.14867, 1.15188, 1.57588, 1.16139, 1.16369, 1.79654, 1.79396, 1.16871, 1.17382, 1.1735, 1.17497, 1.20441, 1.42176, 1.23722, 1.44086, 1.3854, 1.35431, 1.41179, 1.38789, 1.2171, 1.21765, 1.22552, 1.26756, 1.23307, 1.36117, 1.25477, 1.25155, 1.24674, 1.24775, 1.24836, 1.25172, 1.25424, 1.25545, 1.25687, 1.25885, 1.86764, 1.26896, 1.27717, 1.28563, 1.44085, 1.29097, 1.371, 1.36721, 1.2788, 1.27822, 1.27732, 1.27806, 1.27892, 1.27944, 1.28054, 1.28227, 1.28127, 1.28029, 1.28264, 1.28381, 1.28676, 1.29173, 1.29086, 1.29759, 1.29486, 1.29517, 1.29524, 1.29454, 1.29762, 1.30074, 1.30265, 1.30367, 1.30335, 1.304, 1.30473, 1.30975, 1.31074, 1.31172, 1.31215, 1.3145, 1.32063, 1.32108, 1.32126, 1.3235, 1.32829, 1.32864, 1.33006, 1.33235, 1.33656, 1.33778, 1.34028, 1.34294, 1.34352, 1.34425, 1.34988, 1.35011, 1.35477, 1.35537, 1.3572, 1.36049, 1.36106, 1.36785, 1.36803, 1.37049, 1.37863, 1.37775, 1.37787, 1.37891, 1.38797, 1.3861, 1.3953, 1.39181, 1.39625, 1.39702, 1.40164, 1.40489, 1.40635, 1.42007, 1.43716, 1.56938, 1.63425, 1.49532, 1.55801, 1.48603, 1.44047, 1.47395, 1.53435, 1.46186, 1.45841, 1.46016, 1.45415, 1.46267, 1.46201, 1.47011, 1.46794, 1.46452, 1.46581, 1.46577, 1.46733, 1.46821, 1.46805, 1.46894, 1.4702, 1.59722, 1.56218, 1.4628, 1.51911, 1.51974, 1.43555, 1.43646, 1.43392, 1.43708, 1.42851, 1.52369, 1.4803, 1.43087, 1.39124, 1.38758, 1.38639, 1.387, 1.38795, 1.38623, 1.38625, 1.38409, 1.38405, 1.3827, 1.38328, 1.38337, 1.38538, 1.38574, 1.38444, 1.39198, 1.38928, 1.39164, 1.38561, 1.3841, 1.381, 1.38506, 1.39538, 1.39624, 1.39754, 1.39513, 1.39502, 1.3949, 1.39953, 1.39988, 1.47283, 1.62798, 1.62829, 1.60296, 0.00343102, 1.51579, 1.52087, 1.52053, 1.52488, 1.52309, 1.53114, 1.52899, 1.52821, 1.52874, 1.52996, 1.52595, 1.52508, 1.52364, 1.6208, 1.51909, 1.51136, 1.50431, 1.50306, 1.5015, 1.49786, 1.49571, 1.49396, 1.48976, 1.48787, 1.48495, 1.48641, 1.57204, 1.49391, 1.50794, 1.44762, 1.44005, 1.44026, 1.54866, 1.42564, 1.4208, 1.4174, 1.41522, 1.40978, 1.40369, 1.40357, 1.40587, 1.40435, 1.40376, 1.41034, 1.40847, 1.40892, 1.4018, 1.40004, 1.40169, 1.39881, 1.40171, 1.39745, 1.39804, 1.39454, 1.39546, 1.39423, 1.39865, 1.39843, 1.39297, 1.39295, 1.39257, 1.40373, 1.40536, 1.40228, 1.40729, 1.41169, 1.41361, 1.4146, 1.4298, 1.43246, 1.43266, 1.4448, 1.44508, 1.45214, 1.44998, 1.45664, 1.45505, 1.45994, 1.45841, 1.45582, 1.45516, 1.46148, 1.46097, 1.4707, 1.47029, 1.48524, 1.48615, 1.4925, 1.496, 1.49981, 1.49991, 1.501, 1.50333, 1.50774, 1.51163, 1.51694, 1.52177, 1.52204, 1.52429, 1.52704, 1.53203, 1.53431, 1.53473, 1.54024, 1.5366, 1.53537, 1.53516, 1.53742, 1.53844, 1.54433, 1.55281
1.13428, 1.15211, 1.14933, 1.42444, 1.76126, 1.14633, 1.16044, 1.15344, 1.79666, 1.79624, 1.79793, 1.16672, 1.16757, 1.16917, 1.17012, 1.17316, 1.87737, 1.87191, 1.20731, 1.4757, 1.42771, 1.2058, 1.22208, 1.41659, 1.21362, 1.22262, 1.22357, 1.22328, 1.23769, 1.28298, 1.27858, 1.23828, 1.85868, 1.85644, 1.85582, 1.85409, 1.2747, 1.26287, 1.35853, 1.43055, 1.43264, 1.36312, 1.25532, 1.25616, 1.26026, 1.34366, 1.2645, 1.26885, 1.26835, 1.27428, 1.27412, 1.27542, 1.27588, 1.27395, 1.27488, 1.27607, 1.27834, 1.27759, 1.28239, 1.28256, 1.28546, 1.28565, 1.28839, 1.28859, 1.28941, 1.29126, 1.29218, 1.29814, 1.29973, 1.30192, 1.30198, 1.30163, 1.30166, 1.30302, 1.30606, 1.30736, 1.30935, 1.31129, 1.31282, 1.3146, 1.3162, 1.32034, 1.32092, 1.32605, 1.32865, 1.32894, 1.33152, 1.33675, 1.33695, 1.34061, 1.34024, 1.34505, 1.34613, 1.34521, 1.35071, 1.35221, 1.35434, 1.35867, 1.36072, 1.36189, 1.36726, 1.36391, 1.36591, 1.36822, 1.46089, 1.37889, 1.37653, 1.38, 1.38625, 1.38951, 1.39094, 1.39457, 1.39559, 1.39724, 1.40235, 1.41002, 1.38338, 1.38361, 1.39187, 1.56615, 1.41992, 1.44701, 1.46749, 1.46957, 1.63237, 1.58184, 1.4419, 1.46047, 1.496, 1.52038, 1.57955, 1.46496, 1.46755, 1.46655, 1.46794, 1.4699, 1.46984, 1.47187, 1.47172, 1.47337, 1.47676, 1.47595, 1.47627, 1.54529, 1.62288, 1.6742, 1.54746, 1.67476, 1.44739, 0.00472799, 1.46748, 1.47066, 1.47687, 1.51446, 1.44809, 1.39941, 1.39013, 1.39011, 1.38613, 1.38613, 1.38755, 1.38707, 1.38563, 1.383, 1.38145, 1.38276, 1.3832, 1.38626, 1.3859, 1.38695, 1.3836, 1.38309, 1.37882, 1.37712, 1.3776, 1.37816, 1.38534, 1.38955, 1.38826, 1.38817, 1.39202, 1.39472, 1.3977, 1.66763, 1.51591, 1.54505, 1.54431, 1.51298, 1.63768, 1.51783, 1.52245, 1.52253, 1.52596, 1.52469, 1.52707, 1.52609, 1.67138, 1.71723, 1.6504, 1.67461, 1.51519, 1.65144, 1.62423, 1.50596, 1.51283, 1.50108, 1.50376, 1.50256, 1.49409, 1.49472, 1.49161, 1.48706, 1.49358, 1.51346, 1.53413, 1.51071, 1.50894, 1.43883, 1.51885, 1.46279, 1.42466, 1.41792, 1.41504, 1.41014, 1.40593, 1.40613, 1.39694, 1.4043, 1.40568, 1.40561, 1.40447, 1.39989, 1.40043, 1.39898, 1.40565, 1.40286, 1.40225, 1.40188, 1.39829, 1.39311, 1.39697, 1.39845, 1.39688, 1.39347, 1.39268, 1.39179, 1.39159, 1.39128, 1.38758, 1.39131, 1.39824, 1.39861, 1.40166, 1.40318, 1.40603, 1.41228, 1.41985, 1.41935, 1.42672, 1.4287, 1.49304, 1.4441, 1.44323, 1.45213, 1.45251, 1.45354, 1.45153, 1.45052, 1.45717, 1.45679, 1.46707, 1.46615, 1.46725, 1.56005, 1.48152, 1.54514, 1.49172, 1.49617, 1.49449, 1.4984, 1.49846, 1.50276, 1.50836, 1.51234, 1.51218, 1.51562, 1.51648, 1.52351, 1.52655, 1.53335, 1.53455, 1.54153, 1.54087, 1.53923, 1.53938, 1.53899, 1.53996, 1.54316, 1.55639, 1.55605
1.59949, 1.59277, 1.12715, 1.13048, 1.1313, 1.13339, 1.79923, 1.66603, 1.14978, 1.15247, 1.15167, 1.49843, 1.3679, 1.18297, 1.16335, 1.16733, 1.16959, 1.17134, 1.17461, 1.17805, 1.18268, 1.20569, 1.19122, 1.40245, 1.42152, 1.50395, 1.32576, 1.48621, 1.85873, 1.23065, 1.22606, 1.8544, 1.85123, 1.24383, 1.7876, 1.26181, 1.40619, 1.36023, 1.3194, 1.37449, 1.24261, 1.24407, 1.35245, 1.25147, 1.25232, 1.25219, 1.26376, 1.25898, 1.26466, 1.26473, 1.26617, 1.26739, 1.2672, 1.26802, 1.26998, 1.26986, 1.26989, 1.27256, 1.27187, 1.27509, 1.2779, 1.27857, 1.28174, 1.28667, 1.28761, 1.28687, 1.29056, 1.29185, 1.29504, 1.29297, 1.29558, 1.2968, 1.29559, 1.29838, 1.30079, 1.30264, 1.30445, 1.30431, 1.30737, 1.31031, 1.31185, 1.31965, 1.3202, 1.32433, 1.32515, 1.32688, 1.32828, 1.33066, 1.33332, 1.33701, 1.33878, 1.34125, 1.34281, 1.3442, 1.34956, 1.34747, 1.35705, 1.35522, 1.35663, 1.35422, 1.35726, 1.35814, 1.36227, 1.36474, 1.37139, 1.36773, 1.38565, 1.3861, 1.38803, 1.38631, 1.39246, 1.39568, 1.39565, 1.39556, 1.39553, 1.3792, 1.37518, 1.37844, 1.38226, 1.38948, 1.40688, 1.54067, 1.53793, 1.48685, 1.44276, 1.44104, 1.44416, 1.44484, 1.61075, 1.44819, 1.46153, 1.51774, 1.48472, 1.46772, 1.46703, 1.46956, 1.47041, 1.47266, 1.47566, 1.47285, 1.47537, 1.4765, 1.47626, 1.47662, 1.47549, 1.50323, 1.46921, 1.4687, 1.63848, 1.50663, 1.50354, 1.4735, 1.53396, 1.56622, 1.49527, 1.47361, 1.66926, 1.3942, 1.39282, 1.39113, 1.38844, 1.38832, 1.38537, 1.38309, 1.38241, 1.3792, 1.38429, 1.38399, 1.38661, 1.38448, 1.38197, 1.38285, 1.38022, 1.3737, 1.37736, 1.37965, 1.38183, 1.38522, 1.38422, 1.38629, 1.38857, 1.4032, 1.64228, 1.45371, 1.54434, 1.6801, 1.50917, 1.5119, 1.51299, 1.51765, 1.5182, 1.51894, 1.51798, 1.51967, 1.51888, 1.51933, 1.73105, 1.50665, 1.5054, 1.51322, 1.51383, 1.52529, 1.52591, 1.51767, 1.60335, 1.60217, 1.56468, 1.56792, 1.60007, 1.48229, 1.483, 1.4789, 1.51597, 1.65186, 1.60893, 1.51634, 1.42499, 1.64608, 1.64813, 1.64534, 1.50681, 1.40982, 1.40499, 1.40538, 1.40306, 1.39996, 1.39799, 1.39692, 1.40069, 1.39669, 1.39125, 1.39238, 1.39218, 1.39548, 1.39293, 1.39612, 1.39522, 1.39177, 1.39523, 1.38102, 1.38206, 1.39138, 1.3893, 1.38574, 1.38632, 1.39132, 1.38684, 1.38789, 1.38766, 1.38729, 1.38952, 1.38971, 1.39849, 1.40185, 1.40511, 1.40659, 1.40687, 1.41871, 1.41622, 1.42323, 1.43116, 1.43755, 1.43844, 1.44571, 1.44493, 1.45125, 1.44755, 1.45038, 1.45025, 1.45458, 1.46053, 1.46264, 1.46812, 1.47149, 1.48035, 1.48536, 1.48894, 1.49244, 1.50218, 1.50275, 1.50225, 1.50559, 1.50477, 1.50869, 1.50831, 1.51253, 1.5138, 1.51398, 1.52151, 1.52024, 1.52908, 1.53831, 1.54133, 1.54109, 1.5367, 1.53693, 1.54544, 1.54642, 1.55184, 1.55401
1.11524, 1.11576, 1.15753, 1.11828, 1.12674, 1.15107, 1.3363, 1.15671, 1.1435, 1.14039, 1.14185, 1.1432, 1.17544, 1.16004, 1.16148, 1.17872, 1.18156, 1.18398, 1.83344, 1.82648, 1.18064, 1.1822, 1.18469, 1.18785, 1.19048, 1.38634, 1.83166, 1.21482, 1.213, 1.21443, 1.21823, 1.2269, 1.23738, 0.00434164, 1.3851, 1.22594, 1.23272, 1.22941, 1.23598, 1.23114, 1.2329, 1.2338, 1.2392, 1.2426, 1.24881, 1.2492, 1.25104, 1.25371, 1.25583, 1.25642, 1.26639, 1.26224, 1.26223, 1.26147, 1.26186, 1.2662, 1.26683, 1.26701, 1.27126, 1.27037, 1.27077, 1.27464, 1.27836, 1.27794, 1.28019, 1.28136, 1.3208, 1.28824, 1.28942, 1.28809, 1.28842, 1.28809, 1.29027, 1.29464, 1.29596, 1.29568, 1.30284, 1.30293, 1.30587, 1.30645, 1.30967, 1.31864, 1.31568, 1.32123, 1.32188, 1.32493, 1.32555, 1.32863, 1.33613, 1.33268, 1.3342, 1.33975, 1.3394, 1.34132, 1.3442, 1.34492, 1.35087, 1.35104, 1.35167, 1.35251, 1.3523, 1.35692, 1.36069, 1.36252, 1.36577, 1.3715, 1.37283, 1.37559, 1.39614, 1.38462, 1.38944, 1.39193, 1.39549, 1.39517, 1.39183, 1.38527, 1.38083, 1.37872, 1.38142, 1.38806, 1.3903, 1.43477, 1.40167, 1.44536, 1.41052, 1.68275, 1.45885, 1.43773, 1.43997, 1.44702, 1.44638, 1.4655, 1.45866, 1.50865, 1.46292, 1.46487, 1.49585, 1.46947, 1.48023, 1.49877, 1.47708, 1.47802, 1.47833, 1.47954, 1.48046, 1.47768, 1.47349, 1.47122, 1.63604, 1.53357, 1.56552, 1.52618, 1.46234, 1.45224, 1.66849, 1.52373, 1.40487, 1.40386, 1.4974, 1.3954, 1.39066, 1.38674, 1.3863, 1.38471, 1.38295, 1.37503, 1.37721, 1.37572, 1.37598, 1.38038, 1.38024, 1.38097, 1.3774, 1.37636, 1.3813, 1.38274, 1.38446, 1.38477, 1.38817, 1.39111, 1.40354, 1.40192, 1.43437, 1.44705, 1.4957, 1.55643, 1.50791, 1.50949, 1.50966, 1.51122, 1.50961, 1.58863, 1.56787, 1.78238, 1.64782, 1.64576, 1.63841, 1.61294, 1.62064, 1.6138, 1.47667, 1.47353, 1.47268, 1.64035, 1.63937, 1.61309, 1.47041, 1.46994, 1.47016, 1.46824, 1.47189, 1.4953, 1.57192, 1.62142, 1.63572, 1.40909, 1.39542, 1.64712, 1.3954, 1.39185, 1.65577, 1.39217, 1.39004, 1.38849, 1.38696, 1.38993, 1.39209, 1.38492, 1.38458, 1.38576, 1.38222, 1.38429, 1.38646, 1.38402, 1.38298, 1.38179, 1.38008, 1.37491, 1.37266, 1.37423, 1.37333, 1.37504, 1.37724, 1.38452, 1.38314, 1.3832, 1.38032, 1.38184, 1.38271, 1.38557, 1.3888, 1.38749, 1.39302, 1.39786, 1.39874, 1.40257, 1.40248, 1.40665, 1.41227, 1.67719, 1.42682, 1.4335, 1.43151, 1.43614, 1.43779, 1.43962, 1.44138, 1.44388, 1.44808, 1.45497, 1.45474, 1.46108, 1.46684, 1.55691, 1.47902, 1.48503, 1.48491, 1.48743, 1.64951, 1.50325, 1.51039, 1.51072, 1.51126, 1.51137, 1.51343, 1.51433, 1.51481, 1.51265, 1.51982, 1.52261, 1.52984, 1.53639, 1.53949, 1.5397, 1.54032, 1.54091, 1.54699, 1.55019, 1.55484, 1.55402
1.1055, 1.59698, 1.10676, 1.794, 1.11222, 1.11257, 1.12231, 1.14387, 1.14634, 1.17905, 1.17414, 1.13709, 1.13983, 1.14773, 1.80264, 1.16862, 1.38368, 1.38649, 1.17896, 1.18473, 1.18679, 1.18412, 1.19942, 1.33639, 1.43686, 1.3992, 1.39862, 1.28618, 1.44492, 1.32124, 1.30506, 1.30991, 1.19944, 1.42712, 1.49976, 1.35776, 1.31867, 1.42981, 1.28872, 1.22102, 1.22236, 1.22354, 1.31546, 1.2357, 1.24024, 1.2429, 1.29776, 1.24696, 1.24982, 1.25018, 1.24779, 1.2542, 1.25477, 1.25558, 1.258, 1.25774, 1.25882, 1.26387, 1.26245, 1.26303, 1.26492, 1.26824, 1.2689, 1.27102, 1.2716, 1.27619, 1.27894, 1.28137, 1.28239, 1.2801, 1.28011, 1.28213, 1.28267, 1.28487, 1.28971, 1.29049, 1.29194, 1.29346, 1.29957, 1.30117, 1.304, 1.30658, 1.31884, 1.31923, 1.31828, 1.32347, 1.32405, 1.32352, 1.32566, 1.32683, 1.32835, 1.33085, 1.33085, 1.33793, 1.34057, 1.3416, 1.34418, 1.34759, 1.34769, 1.3509, 1.35133, 1.35706, 1.36008, 1.35941, 1.36204, 1.36848, 1.37125, 1.3745, 1.37586, 1.37872, 1.3815, 1.3867, 1.46107, 1.39062, 1.39131, 1.39115, 1.39145, 1.38846, 1.38715, 1.3905, 1.39155, 1.39771, 1.39752, 1.40076, 1.50002, 1.49632, 1.44849, 1.44564, 1.61216, 1.4966, 1.52001, 1.44429, 1.44489, 1.4648, 1.45481, 1.45628, 1.54356, 1.66301, 1.46601, 1.46442, 1.51672, 1.49423, 1.4847, 1.49828, 1.47657, 1.47807, 1.4768, 1.47507, 1.47456, 1.55256, 1.57612, 1.47244, 1.48285, 1.60279, 1.44567, 1.50217, 1.5102, 1.5135, 1.40711, 1.49735, 1.46451, 1.38642, 1.38575, 1.37902, 1.37831, 1.37841, 1.37332, 1.37398, 1.37502, 1.37461, 1.37909, 1.38086, 1.38074, 1.38121, 1.38114, 1.38649, 1.38747, 1.38999, 1.39462, 1.4753, 1.47284, 1.51971, 0.00448565, 1.54066, 0.00454708, 1.5169, 1.56113, 1.5991, 1.60594, 1.68335, 1.71636, 1.71217, 1.7098, 1.77862, 1.81243, 1.84741, 1.50046, 1.49299, 1.49485, 1.61836, 1.62766, 1.62276, 1.56844, 1.56744, 1.66808, 1.55546, 1.55533, 1.54261, 1.63043, 1.63296, 1.64177, 1.61711, 1.6607, 1.66678, 1.40174, 1.46131, 1.64225, 1.38626, 1.3826, 1.38408, 1.38623, 1.38319, 1.38058, 1.38088, 1.37965, 1.37727, 1.37736, 1.37761, 1.37769, 1.3786, 1.37937, 1.37655, 1.38004, 1.37807, 1.37534, 1.37094, 1.36816, 1.37096, 1.36997, 1.37177, 1.37237, 1.37136, 1.37396, 1.37279, 1.37567, 1.37585, 1.37677, 1.37848, 1.37822, 1.38054, 1.38358, 1.38895, 1.39199, 1.39324, 1.39387, 1.39853, 1.39956, 1.40507, 1.41362, 1.41914, 1.43312, 1.42289, 1.42706, 1.43166, 1.43163, 1.43657, 1.43734, 1.44813, 1.44691, 1.45014, 1.46441, 1.4664, 1.4658, 1.46967, 1.48322, 1.48251, 1.48835, 1.49245, 1.4961, 1.50279, 1.50728, 1.50751, 1.51253, 1.51498, 1.51262, 1.51645, 1.51631, 1.51517, 1.51285, 1.5134, 1.52805, 1.53798, 1.54085, 1.54176, 1.54558, 1.54579, 1.54758, 1.55363, 1.54936, 1.55689
1.42709, 1.56889, 1.10117, 1.35826, 1.09884, 1.16719, 1.18388, 1.19044, 1.18637, 1.19321, 1.18582, 1.15294, 1.17495, 1.16032, 1.17971, 1.1602, 1.16116, 1.47424, 1.2954, 1.30358, 1.15727, 1.46272, 1.46172, 1.16098, 1.1627, 1.16513, 1.16669, 1.33646, 1.41897, 1.27951, 1.18456, 1.18457, 1.186, 1.18893, 1.19368, 1.19556, 1.1973, 1.20237, 1.20828, 1.21577, 1.21299, 1.21405, 1.47671, 1.38889, 1.22733, 1.23183, 1.23282, 1.23653, 1.23478, 1.23759, 1.24067, 1.24076, 1.24665, 1.24361, 1.25493, 1.24801, 1.32099, 1.25255, 1.25414, 1.25401, 1.26082, 1.26009, 1.25883, 1.26314, 1.44786, 1.42067, 1.35467, 1.27182, 1.27049, 1.27254, 1.27339, 1.27634, 1.27421, 1.27381, 1.27743, 1.28497, 1.28202, 1.28403, 1.29536, 1.29413, 1.29795, 1.30272, 1.31615, 1.31167, 1.31209, 1.31713, 1.31624, 1.41243, 1.32136, 1.3228, 1.32378, 1.32449, 1.32704, 1.32897, 1.34043, 1.33601, 1.33607, 1.33989, 1.34308, 1.34594, 1.34853, 1.35052, 1.35162, 1.35853, 1.35734, 1.3642, 1.36319, 1.38965, 1.3742, 1.37217, 1.37501, 0.00393543, 1.4256, 1.40511, 1.38657, 1.38827, 1.38864, 1.3898, 1.39123, 1.39135, 1.39266, 1.39681, 1.39646, 1.4026, 1.40394, 1.41292, 1.74437, 1.44892, 1.53708, 1.43536, 1.43391, 1.43503, 1.43751, 1.44677, 1.44817, 1.44769, 1.44527, 1.54339, 1.44683, 1.64223, 1.6502, 1.45986, 1.67252, 1.47189, 1.46776, 1.49547, 1.49536, 1.47219, 1.47344, 1.47005, 1.46885, 1.53063, 1.46173, 1.46117, 1.46064, 0.00399402, 1.47505, 1.47564, 1.62794, 1.39918, 1.39993, 1.39102, 1.38431, 1.38188, 1.37949, 1.38011, 1.3771, 1.37972, 1.37602, 1.37415, 1.37673, 1.39563, 1.42942, 1.39061, 1.3967, 1.3946, 1.39572, 1.57141, 1.72164, 1.5368, 1.53724, 1.52774, 1.56869, 1.5368, 1.49238, 1.7561, 1.50351, 1.5502, 1.5434, 1.48693, 1.47863, 1.46626, 1.8155, 1.70677, 1.69114, 1.69091, 1.673, 1.64477, 1.64414, 1.64574, 1.64611, 1.62504, 1.62802, 1.64344, 1.64412, 1.64877, 1.64731, 1.64765, 1.64037, 1.64475, 1.63374, 1.63265, 1.63411, 1.37913, 1.37561, 1.37441, 1.37346, 1.37385, 1.37561, 1.37541, 1.37685, 1.3718, 1.38152, 1.6068, 1.37017, 1.3681, 1.36802, 1.37237, 1.37508, 1.37079, 1.37123, 1.371, 1.36917, 1.37292, 1.37004, 1.36822, 1.36131, 1.36072, 1.36598, 1.37096, 1.36764, 1.36671, 1.37008, 1.36856, 1.37644, 1.3741, 1.3739, 1.37769, 1.38173, 1.3822, 1.38449, 1.38422, 1.38869, 1.39233, 1.39479, 1.40099, 1.40025, 1.40667, 1.40833, 1.41241, 1.41329, 1.42272, 1.42326, 1.42836, 1.4334, 1.43346, 1.44115, 1.44171, 1.44861, 1.45047, 1.45867, 1.46504, 1.47161, 1.47118, 1.47268, 1.48171, 1.53433, 1.4935, 1.49968, 1.4998, 1.59571, 1.51816, 1.51731, 1.51688, 1.51826, 1.51862, 1.51653, 1.51604, 1.52022, 1.52275, 1.53721, 1.53803, 1.54308, 1.54487, 1.55008, 1.5592, 1.55561, 1.5584, 1.55834, 1.56331
1.41418, 1.41641, 1.15714, 1.1529, 1.08961, 1.09098, 1.09074, 1.1654, 1.1697, 1.15531, 1.17158, 1.1706, 1.10365, 1.14758, 1.1472, 1.82109, 1.47904, 1.14314, 1.14114, 1.14225, 1.14634, 1.83854, 1.64143, 1.15039, 1.85204, 1.16024, 1.16144, 1.16302, 1.30249, 1.42963, 1.33478, 1.1755, 1.17999, 1.18053, 1.18921, 1.18918, 1.19555, 1.19614, 1.29274, 1.20279, 1.20549, 1.20923, 1.21038, 1.21641, 1.22429, 1.21909, 1.22139, 1.22364, 1.22563, 1.22537, 1.41862, 1.23523, 1.2318, 1.23375, 1.23678, 1.23836, 1.24064, 1.24429, 1.24636, 1.24584, 1.25137, 1.25163, 1.25017, 1.25082, 1.26517, 1.3026, 1.25501, 1.26547, 1.26164, 1.26876, 1.26769, 1.26967, 1.2714, 1.27174, 1.27311, 1.27498, 1.2756, 1.27891, 1.28199, 1.38685, 1.28972, 1.29979, 1.29743, 1.30037, 1.30178, 1.30604, 1.30923, 1.30865, 1.31502, 1.31844, 1.31909, 1.31964, 1.32263, 1.32434, 1.32697, 1.3268, 1.33305, 1.33566, 1.34055, 1.34051, 1.34312, 1.34253, 1.3479, 1.34909, 1.35373, 1.35603, 1.35481, 1.363, 1.36252, 1.36592, 1.36837, 1.37238, 1.37161, 1.3749, 1.37535, 1.38141, 1.38614, 1.38633, 1.38994, 1.39319, 1.3938, 1.39546, 1.39568, 1.40372, 1.41486, 1.42787, 1.50995, 1.73284, 1.48938, 1.42907, 1.43178, 1.43441, 1.46895, 1.44804, 1.43738, 1.43666, 1.49729, 1.43591, 1.49382, 1.49394, 1.44809, 1.53728, 1.44828, 1.47508, 1.4663, 1.46509, 0.0040669, 1.47647, 1.46555, 1.46497, 1.46371, 1.46312, 1.51182, 1.49991, 1.49893, 1.52048, 1.49878, 1.49018, 1.4163, 1.61797, 1.39564, 1.38913, 1.38898, 1.38509, 1.38099, 1.38117, 1.38036, 1.3775, 1.38458, 1.39977, 0.00409594, 1.41104, 1.43076, 1.48814, 0.00463641, 1.43055, 0.00371539, 1.53463, 1.43771, 1.46482, 1.46504, 1.46416, 1.46581, 1.47022, 1.47201, 1.57288, 1.57145, 1.60015, 1.47959, 1.46822, 1.46184, 1.45478, 1.45345, 1.70302, 1.70337, 1.70722, 1.69653, 1.6976, 1.43402, 1.70867, 1.72085, 1.65782, 1.67219, 1.67593, 1.39168, 1.39807, 1.67095, 1.40124, 1.48149, 1.68496, 1.67555, 1.68418, 1.37414, 1.37113, 1.37131, 1.36848, 1.36727, 1.36658, 1.36424, 1.36304, 1.36903, 1.36292, 1.36371, 1.36225, 1.36001, 1.36347, 1.36039, 1.36178, 1.36257, 1.36161, 1.3614, 1.36254, 1.36162, 1.36396, 1.36652, 1.37007, 1.3616, 1.36053, 1.36353, 1.36331, 1.36338, 1.36117, 1.36164, 1.36447, 1.36478, 1.36721, 1.37213, 1.37143, 1.38535, 1.38656, 1.38778, 1.38889, 1.39135, 1.3926, 1.39549, 1.39802, 1.39956, 1.39981, 1.40359, 1.40337, 1.41005, 1.41497, 1.4128, 1.41862, 1.42598, 1.42718, 1.43192, 1.43759, 1.44748, 1.45123, 1.46037, 1.46888, 1.47021, 1.47025, 1.47857, 1.48456, 1.49046, 1.49035, 1.49765, 1.49974, 1.50268, 1.51286, 1.5158, 1.52037, 1.51776, 1.52099, 1.52158, 1.52585, 1.53302, 1.53493, 1.53792, 1.54443, 1.54568, 1.55025, 1.54998, 1.56181, 1.56453, 1.56535, 1.57099, 1.57191
1.35387, 1.07041, 1.35387, 1.19579, 1.2713, 1.27191, 1.10317, 1.08129, 1.08472, 1.08337, 1.08568, 1.08737, 1.34167, 1.30572, 1.12562, 1.5804, 1.27396, 1.27264, 1.15146, 1.13954, 1.16735, 1.1344, 1.85331, 1.85163, 1.85165, 1.84632, 1.15548, 1.15494, 1.15758, 1.16085, 1.16134, 1.27239, 1.30536, 1.17241, 1.24973, 1.19593, 1.18619, 1.18879, 1.33956, 1.1942, 1.19933, 1.20247, 1.29804, 1.20507, 1.20805, 1.33092, 1.2151, 1.21087, 1.21785, 1.21838, 1.21948, 1.22459, 1.22582, 1.22533, 1.22654, 1.23537, 1.23182, 1.23279, 1.2342, 1.23605, 1.24027, 1.24002, 1.24283, 1.23967, 1.2384, 1.24598, 1.24527, 1.24983, 1.25351, 1.26123, 1.25932, 1.26332, 1.26486, 1.26531, 1.26514, 1.2665, 1.26859, 1.27128, 1.27714, 1.35126, 1.28622, 1.28816, 1.28906, 1.29511, 1.29685, 1.30483, 1.30665, 1.30613, 1.32546, 1.31107, 1.31172, 1.31533, 1.37383, 1.31738, 1.32274, 1.32228, 1.32718, 1.32973, 1.32823, 1.33255, 1.33489, 1.33688, 1.33834, 1.34341, 1.35351, 1.35185, 1.35428, 1.35738, 1.36252, 1.36353, 1.36322, 1.36542, 1.36786, 1.36777, 1.3766, 1.37659, 1.37839, 1.38224, 1.38859, 1.38867, 1.39229, 1.39389, 1.39861, 1.40317, 1.46057, 1.50901, 1.41662, 1.50275, 1.49475, 1.42581, 1.42704, 1.42821, 1.60394, 1.74437, 1.4245, 1.42725, 1.42737, 1.42642, 1.42897, 1.47116, 1.5625, 0.00446695, 1.43973, 1.45006, 1.46875, 1.46199, 1.64748, 1.48117, 1.53058, 1.45723, 1.46898, 0.00360514, 1.45272, 1.4504, 1.44925, 0.00398391, 1.51749, 1.5005, 1.49188, 1.48942, 1.39858, 1.39493, 1.39587, 0.00386633, 1.51869, 1.66737, 1.6301, 1.62988, 1.63093, 1.57881, 1.6167, 1.60268, 1.44125, 1.4856, 1.42941, 1.43135, 1.50857, 1.68687, 1.5784, 1.73817, 1.45882, 1.45787, 1.46061, 1.47203, 1.5431, 1.4752, 1.46601, 1.53309, 1.5442, 1.54383, 1.53846, 1.50556, 1.5155, 1.59452, 1.43695, 1.87998, 1.52631, 1.40438, 1.39927, 1.49931, 1.51182, 1.39621, 1.39412, 1.39306, 1.39251, 1.3935, 1.47231, 1.49102, 1.37757, 1.37668, 1.43014, 1.36703, 1.36276, 1.36496, 1.36334, 1.36317, 1.35856, 1.35915, 1.35664, 1.35974, 1.35525, 1.3567, 1.35701, 1.3547, 1.35775, 1.35841, 1.35693, 1.35675, 1.35637, 1.35932, 1.36186, 1.36077, 1.35835, 1.35897, 1.48507, 1.35302, 1.35415, 1.35896, 1.35954, 1.35744, 1.35558, 1.3598, 1.36114, 1.35482, 1.35318, 1.35982, 1.36781, 1.37425, 1.37873, 1.38058, 1.38346, 1.38853, 1.39028, 1.39023, 1.39475, 1.39587, 1.39841, 1.39906, 1.40076, 1.40249, 1.41183, 1.41328, 1.41606, 1.42295, 1.42282, 1.42992, 1.43455, 1.4398, 1.44876, 1.44824, 1.45834, 1.4612, 1.47036, 1.46907, 1.6814, 1.4855, 1.48576, 1.48995, 1.4901, 1.49699, 1.49946, 1.50895, 1.51281, 1.52012, 1.51973, 1.52598, 1.52752, 1.53664, 1.53621, 1.53566, 1.68193, 1.5483, 1.54703, 1.55353, 1.56152, 1.56045, 1.56477, 1.57338, 1.57263, 1.57189
0.0042926, 1.13479, 1.44105, 1.44346, 1.13986, 1.07061, 1.06802, 1.06924, 1.07328, 1.0746, 1.08127, 1.08834, 1.08463, 1.21242, 1.09905, 1.10924, 1.10474, 1.14256, 1.4236, 1.43099, 1.24263, 1.12547, 1.12641, 1.32089, 1.13607, 1.34391, 1.35332, 1.14966, 1.23971, 1.24801, 1.16073, 1.99643, 1.16416, 1.28644, 1.2831, 1.28817, 1.18868, 1.17546, 1.91371, 1.28797, 1.31493, 1.30548, 1.19449, 1.23653, 1.25495, 1.21232, 1.2013, 1.20178, 1.20171, 1.37585, 1.37823, 1.20754, 1.21097, 1.2151, 1.21521, 1.31916, 1.21646, 1.30355, 1.22232, 1.22693, 1.22969, 1.22548, 1.22946, 1.2304, 1.23005, 1.23693, 1.23772, 1.24082, 1.24293, 1.24469, 1.25362, 1.25368, 1.25968, 1.26098, 1.26042, 1.26067, 1.26109, 1.2668, 1.26897, 1.27405, 1.33519, 1.27983, 1.28166, 1.2921, 1.29018, 1.29248, 1.29629, 1.29798, 1.30213, 1.30418, 1.30621, 1.30283, 1.30389, 1.30521, 1.33373, 1.38892, 1.31858, 1.31991, 1.32413, 1.32568, 1.33123, 1.33322, 1.33258, 1.33744, 1.33902, 1.35356, 1.41428, 1.4326, 0.00403237, 1.54427, 1.35996, 1.3586, 1.3666, 1.36763, 1.36906, 1.37368, 1.38157, 1.38319, 1.3885, 1.38918, 1.3922, 1.39617, 1.39521, 1.40352, 1.40636, 1.41031, 1.40961, 1.41767, 1.42127, 1.4206, 1.42939, 1.41756, 1.4193, 1.41928, 1.41718, 1.41593, 1.56902, 1.41878, 1.41994, 1.42097, 0.0038207, 1.43453, 0.00422905, 1.4374, 1.44644, 1.46335, 1.43994, 1.46876, 1.44613, 1.45788, 1.45752, 1.46916, 1.44585, 1.44697, 1.49688, 1.43778, 1.43397, 1.52376, 1.43103, 1.57754, 1.57386, 1.40718, 1.43938, 1.41361, 1.49096, 1.45734, 1.48902, 1.45263, 1.45027, 1.42733, 1.42546, 1.42514, 1.43282, 1.51992, 1.44319, 1.43989, 1.4435, 1.44502, 1.45477, 1.45428, 1.45306, 1.45543, 0.00405045, 1.54101, 1.45131, 1.52993, 1.4478, 1.6915, 1.43438, 1.43213, 1.43025, 1.41615, 1.47501, 1.51689, 1.62388, 1.51233, 1.51062, 1.51648, 1.3817, 1.37454, 1.37482, 1.37561, 1.37499, 1.50888, 1.59523, 1.36991, 1.369, 1.37194, 1.3463, 1.35011, 1.35115, 1.3582, 1.35869, 1.36032, 1.35551, 1.35253, 1.35183, 1.35083, 1.35278, 1.35146, 1.35126, 1.35403, 1.35089, 1.35396, 1.35436, 1.3519, 1.34854, 1.35062, 1.35226, 1.35341, 1.35475, 1.3506, 1.3522, 1.34694, 1.34646, 1.35068, 1.35104, 1.34837, 1.35137, 1.34657, 1.34698, 1.34756, 1.34634, 1.34402, 1.34635, 1.35477, 1.43718, 1.37513, 1.38172, 1.38425, 1.38553, 1.38373, 1.39031, 1.38947, 1.39353, 1.3926, 1.39934, 1.40061, 1.39829, 1.40522, 1.40998, 1.41435, 1.41912, 1.42091, 1.43018, 1.43089, 1.43688, 1.43832, 1.44784, 1.45723, 1.45583, 1.46085, 1.46505, 1.47131, 1.47034, 1.4794, 1.47881, 1.48196, 1.4905, 1.48783, 1.49439, 1.52796, 1.53722, 1.51859, 1.52377, 1.52602, 1.53306, 1.53723, 1.54019, 1.54303, 1.54626, 1.55698, 1.56069, 1.5596, 1.56018, 1.64811, 1.63924, 1.58904, 1.5808, 1.58204
1.12913, 1.0958, 1.12858, 1.06856, 1.05332, 1.05293, 1.06132, 1.06727, 1.06777, 1.19567, 1.24347, 1.6593, 1.75945, 1.28187, 1.29684, 1.56188, 1.16488, 1.22205, 1.12715, 1.20489, 1.11069, 0.00459932, 1.23042, 1.25059, 1.84584, 1.79282, 1.86311, 1.413, 1.41242, 1.43662, 1.43036, 1.14283, 1.25088, 1.1552, 1.33024, 1.15962, 1.32887, 1.17171, 1.90603, 1.903, 1.89785, 1.2557, 1.20863, 1.18186, 1.18339, 1.25396, 1.19492, 1.19264, 1.19398, 1.19497, 1.1968, 1.19775, 1.2, 1.20437, 1.20607, 1.20666, 1.20797, 1.65386, 1.21599, 1.21658, 1.2166, 1.2165, 1.22289, 1.2213, 1.22429, 1.22604, 1.22647, 1.22932, 1.26821, 1.23927, 1.24612, 1.24883, 1.24996, 1.25418, 1.2579, 1.25851, 1.2587, 1.25948, 1.26593, 1.26534, 1.26881, 1.27221, 1.27289, 1.27881, 1.28413, 1.29974, 1.29124, 1.29208, 1.29319, 1.29399, 1.3018, 1.29719, 1.29901, 1.29872, 1.30338, 1.31259, 1.35347, 1.33028, 1.31558, 1.35486, 1.35431, 1.87822, 1.32766, 1.32948, 1.33149, 1.3552, 1.34049, 1.34364, 1.34356, 1.34864, 1.35032, 1.35481, 1.35853, 1.36108, 1.50264, 1.37163, 1.39111, 1.43422, 1.38619, 1.39106, 1.39535, 1.39346, 1.39714, 1.40292, 1.40361, 1.4053, 1.41361, 1.41004, 1.43053, 1.58894, 1.65, 1.71644, 1.41128, 1.40997, 1.40861, 1.84295, 1.4063, 1.47414, 1.4409, 1.40764, 1.41621, 0.00426207, 1.41508, 1.4206, 1.42688, 1.42682, 1.42751, 1.42764, 1.43033, 1.43262, 1.43687, 1.46726, 1.46691, 1.43411, 1.43668, 1.43114, 1.43418, 1.42491, 1.42412, 1.41961, 1.41903, 1.42151, 1.41919, 1.41777, 1.41953, 1.42141, 1.42551, 1.42367, 1.42797, 1.42667, 1.431, 1.42974, 1.51248, 1.46929, 1.44155, 1.44064, 1.44339, 1.4482, 1.45066, 1.4956, 1.49537, 1.46456, 1.51147, 1.43054, 1.43073, 0.00435817, 1.54022, 1.44529, 1.43556, 1.42269, 1.4217, 1.41906, 1.51512, 1.51476, 1.61982, 1.61998, 1.39081, 1.36497, 1.37006, 1.36835, 1.36716, 1.36846, 1.3708, 1.36139, 1.61267, 1.35198, 1.35226, 1.3543, 1.34418, 1.34239, 1.34444, 1.3518, 1.34677, 1.34694, 1.34362, 1.349, 1.34414, 1.34425, 1.34241, 1.34163, 1.34769, 1.34626, 1.34556, 1.3503, 1.34617, 1.34753, 1.34724, 1.34584, 1.3472, 1.34576, 1.34663, 1.34594, 1.35085, 1.34083, 1.34092, 1.34394, 1.34393, 1.34575, 1.34295, 1.34385, 1.34352, 1.34319, 1.33773, 1.34103, 1.34353, 1.44614, 1.44758, 1.37638, 1.38372, 1.38603, 1.39339, 1.3939, 1.39454, 1.39738, 1.39682, 1.39897, 1.39864, 1.40285, 1.40463, 1.41566, 1.41338, 1.41936, 1.43, 1.43299, 1.43421, 1.43907, 1.43927, 1.44483, 1.44991, 1.45546, 1.4612, 1.46062, 1.46738, 1.46763, 1.47282, 1.47828, 1.47809, 1.48113, 1.48443, 1.49192, 1.49258, 1.50698, 1.51347, 1.51938, 1.52568, 1.53507, 1.53655, 1.53769, 1.54163, 1.54674, 1.54907, 1.55205, 1.55796, 1.55982, 1.56962, 1.57575, 1.58501, 1.58293, 1.58661, 1.58912
0.00367466, 1.34604, 1.25525, 1.3137, 1.32197, 1.1029, 1.53843, 1.53081, 1.32076, 1.05008, 1.60045, 1.61627, 1.55363, 1.54814, 1.16062, 1.15905, 1.21459, 1.11574, 1.45154, 1.23102, 1.11938, 1.1694, 1.18456, 1.16868, 1.17037, 1.60978, 1.11402, 1.16521, 1.11592, 1.13652, 1.12307, 1.24148, 1.27682, 1.39918, 1.1903, 1.16821, 1.58963, 1.32967, 1.22379, 1.36056, 1.89084, 1.17123, 1.23937, 1.24153, 1.1726, 1.19382, 1.19065, 1.17847, 1.17918, 1.18268, 1.18567, 1.19785, 1.19131, 1.192, 1.19821, 1.20478, 1.20306, 1.20249, 1.20421, 1.20422, 1.20729, 1.20907, 1.20921, 1.21184, 1.22099, 1.21922, 1.21936, 1.22189, 1.22599, 1.2322, 1.2392, 1.2401, 1.24639, 1.24721, 1.24714, 1.24924, 1.25114, 1.25555, 1.25996, 1.25902, 1.26212, 1.26444, 1.2694, 1.27191, 1.28051, 1.28059, 1.36108, 1.28851, 1.28835, 1.29143, 1.29101, 1.29267, 1.29372, 1.29678, 1.29925, 1.30154, 1.30936, 1.30732, 1.30899, 1.31047, 1.31024, 1.31527, 1.32989, 1.33038, 1.367, 1.33204, 1.38947, 1.33942, 1.33898, 1.34004, 1.34636, 1.42787, 1.37468, 1.35902, 1.37151, 1.54033, 1.38508, 1.37911, 1.38654, 1.39111, 1.39228, 1.39371, 1.39802, 1.40013, 1.39953, 1.40083, 1.40218, 1.40219, 1.40606, 1.40494, 1.4014, 1.40268, 1.40082, 1.40039, 1.56839, 1.39961, 1.39768, 1.39629, 1.40351, 1.3975, 1.40051, 1.40233, 1.41264, 1.41049, 1.41661, 1.41432, 1.40945, 1.66552, 1.43033, 1.55949, 1.44061, 1.43868, 1.44128, 1.42772, 1.4271, 1.42671, 1.42502, 1.42129, 1.42304, 1.41998, 1.41893, 1.41826, 1.41822, 1.42326, 1.423, 1.42315, 1.42602, 1.42525, 1.42549, 1.43002, 1.42938, 1.43058, 1.43311, 1.43465, 1.4828, 1.54452, 1.48008, 1.48201, 1.45712, 1.46407, 1.46441, 1.53337, 1.42684, 1.42647, 1.42379, 1.42041, 1.44401, 1.72842, 1.54066, 1.39173, 1.39263, 1.7138, 1.49613, 1.36779, 1.35211, 1.3499, 1.34415, 1.34731, 1.35051, 1.54962, 1.46898, 1.3514, 1.34802, 1.34386, 1.33737, 1.34032, 1.3415, 1.34354, 1.3383, 1.33576, 1.33532, 1.33836, 1.33781, 1.33937, 1.34117, 1.33718, 1.33922, 1.33898, 1.33648, 1.33708, 1.33959, 1.34102, 1.33809, 1.34001, 1.34142, 1.34064, 1.34036, 1.34284, 1.3406, 1.34105, 1.34294, 1.32684, 1.3325, 1.32971, 1.33575, 1.33534, 1.33705, 1.33699, 1.33915, 1.33663, 1.33605, 1.33653, 1.33536, 1.33931, 1.42233, 1.59589, 1.51598, 1.44797, 1.45887, 1.39861, 1.3974, 1.39607, 1.39669, 1.39506, 1.39312, 1.40241, 1.40017, 1.40209, 1.41044, 1.40944, 1.42216, 1.4251, 1.42864, 1.43089, 1.43902, 1.44322, 1.44537, 1.45112, 1.4508, 1.45365, 1.45366, 1.46177, 1.47899, 1.47978, 1.47719, 1.47336, 1.48125, 1.48177, 1.48989, 1.49365, 1.49359, 1.50287, 1.50575, 1.56507, 1.5233, 1.76933, 1.5414, 1.53882, 1.54455, 1.55026, 1.55274, 1.55887, 1.56498, 1.57477, 1.69339, 1.58067, 1.58684, 1.58811, 1.58363, 1.58887
1.2982, 1.1174, 1.19491, 1.19572, 1.02839, 1.06359, 1.02061, 1.03605, 1.13359, 0.00389255, 1.15148, 1.03424, 1.08866, 1.05068, 1.05442, 1.06098, 1.1689, 1.07493, 1.09945, 1.09868, 1.10485, 1.94118, 1.36161, 1.52054, 1.58852, 1.55463, 1.58297, 1.22428, 1.54852, 1.18544, 1.27103, 1.11234, 1.10922, 1.1879, 1.24312, 1.24987, 1.20233, 1.30582, 1.26728, 1.19669, 1.19632, 1.27136, 1.15213, 1.15876, 1.16092, 1.16679, 1.16286, 1.16382, 1.16408, 1.16804, 1.67315, 1.19871, 1.92319, 1.18587, 1.18937, 1.90423, 1.2008, 1.19315, 1.1931, 1.19552, 1.19859, 1.19908, 1.20176, 1.20374, 1.20621, 1.21204, 1.21539, 1.21793, 1.2224, 1.23044, 1.22984, 1.23281, 1.2361, 1.23823, 1.24134, 1.24757, 1.24972, 1.25338, 1.25455, 1.2565, 1.26029, 1.25979, 1.26347, 1.26888, 1.27482, 1.27397, 1.49556, 1.4798, 1.28594, 1.28749, 1.28794, 1.28856, 1.29299, 1.29313, 1.29489, 1.29711, 1.29909, 1.29903, 1.30325, 1.30581, 1.30555, 1.30575, 1.35819, 1.87259, 1.3213, 1.32968, 1.32772, 1.32875, 1.44135, 1.33874, 1.3426, 1.44063, 1.42508, 1.38698, 1.43805, 1.36949, 1.37822, 1.37609, 1.38877, 1.39187, 1.39235, 1.39264, 1.39624, 1.39461, 1.39926, 1.39847, 1.39692, 1.3957, 1.39528, 1.39904, 1.39574, 1.39631, 1.39533, 1.39592, 1.39102, 1.39182, 1.38697, 1.38975, 1.39062, 1.39692, 1.39246, 1.39181, 1.40312, 1.40084, 1.41191, 1.40639, 1.40356, 1.4031, 1.5252, 1.40873, 1.42963, 1.42877, 1.41387, 1.41975, 1.44384, 1.41452, 1.41552, 1.46837, 1.4184, 1.41506, 1.4151, 1.42149, 1.42152, 1.42113, 1.42314, 1.42251, 1.4222, 1.42598, 1.42407, 1.42348, 1.527, 1.52667, 1.52358, 1.47914, 1.52043, 1.52723, 1.58985, 1.41975, 1.50723, 1.55769, 1.41877, 1.42083, 1.42077, 1.42032, 1.41863, 1.46144, 1.65661, 1.56971, 1.60176, 1.62696, 1.37404, 1.50628, 1.35607, 1.35903, 1.34553, 1.34576, 1.34088, 1.33782, 1.33965, 1.33888, 1.34164, 1.35012, 1.34461, 1.33821, 1.33808, 1.32854, 1.32591, 1.32938, 1.33245, 1.33043, 1.32709, 1.3299, 1.42743, 1.32811, 1.32879, 1.3265, 1.32805, 1.3295, 1.3284, 1.32868, 1.32909, 1.32934, 1.33372, 1.33332, 1.3314, 1.33712, 1.33649, 1.33788, 1.33833, 1.34252, 1.33997, 1.32918, 1.32647, 1.32932, 1.33257, 1.33111, 1.3327, 1.33408, 1.33671, 1.33647, 1.33316, 1.33223, 1.33942, 1.41602, 1.42668, 1.38551, 1.39109, 1.39632, 1.39484, 1.39729, 1.39861, 1.40115, 1.39664, 1.39829, 1.40189, 1.40025, 1.40037, 1.40159, 1.41151, 1.41319, 1.41589, 1.42602, 1.42931, 1.42914, 1.44122, 1.44301, 1.44363, 1.44342, 1.45031, 1.44863, 1.45639, 1.45644, 1.45033, 1.47193, 1.47672, 1.47982, 1.47949, 1.48608, 1.49263, 1.49666, 1.50323, 1.50355, 1.50875, 1.69511, 1.52302, 1.52332, 1.6273, 1.54758, 1.5441, 1.55145, 1.5513, 1.55778, 1.56295, 1.57478, 1.58059, 1.58522, 1.58602, 1.58728, 1.58711, 1.59006
1.36094, 1.17984, 1.20126, 1.21443, 1.21239, 1.15066, 1.14948, 1.01798, 0.00375395, 1.14699, 1.05737, 1.33023, 1.34792, 1.24572, 1.18061, 1.18253, 1.04187, 1.04332, 1.05308, 1.05559, 1.75682, 1.87437, 1.06686, 1.08769, 1.12991, 1.23652, 1.11318, 1.25728, 1.23804, 1.17741, 1.25036, 1.13338, 1.20871, 1.44747, 1.11899, 1.2206, 1.20087, 1.28447, 1.36337, 1.34259, 1.20454, 1.14769, 1.18529, 1.17003, 1.18659, 1.15127, 1.15024, 1.15687, 1.70352, 1.15754, 1.67073, 1.66766, 1.93919, 1.43432, 1.17841, 1.18022, 1.18146, 1.18348, 1.18447, 1.19095, 1.19021, 1.19263, 1.19627, 1.19679, 1.19848, 1.20532, 1.20609, 1.21187, 1.21614, 1.2173, 1.62431, 1.22511, 1.23148, 1.23247, 1.23966, 1.24048, 1.26367, 1.24786, 1.25147, 1.25525, 1.25521, 1.25727, 1.25806, 1.25957, 1.26739, 1.26627, 1.26819, 1.27151, 1.27329, 1.27822, 1.28021, 1.28178, 1.28255, 1.28386, 1.289, 1.29105, 1.29158, 1.29378, 1.29442, 1.29801, 1.29951, 1.30333, 1.30632, 1.31045, 1.31396, 1.51849, 1.32016, 1.33436, 1.51308, 1.51988, 1.3435, 1.34813, 1.35157, 1.35342, 2.03473, 1.38889, 1.37177, 1.42348, 1.44508, 1.48141, 1.40602, 1.38811, 1.40311, 1.39138, 1.40048, 1.40953, 1.40521, 1.40962, 1.40809, 1.40584, 1.40274, 1.39078, 1.40857, 1.40566, 1.3858, 1.38584, 1.38408, 1.38438, 1.38982, 1.38932, 1.38965, 1.39035, 1.38874, 1.39328, 1.39579, 1.39228, 1.39204, 1.39872, 1.39127, 1.50232, 0.00419285, 1.41033, 1.55102, 1.43263, 0.00419647, 1.41621, 1.48519, 1.4961, 1.50336, 1.41179, 1.41256, 1.41388, 1.41533, 1.41545, 1.41588, 1.41965, 1.41696, 1.41148, 1.41266, 1.41986, 1.41637, 1.41678, 1.41656, 1.42345, 1.44408, 1.4133, 1.47147, 1.49448, 1.41049, 1.40953, 1.40927, 1.41472, 1.4148, 1.41409, 1.41049, 1.45785, 1.40676, 1.6715, 1.65759, 1.67921, 0.00391708, 1.832, 1.74837, 1.34413, 1.33976, 1.33896, 1.57449, 1.32703, 1.32529, 1.32806, 1.32828, 1.32731, 1.32663, 1.32607, 1.32687, 1.32777, 1.32415, 1.32669, 1.32599, 1.32431, 1.32225, 1.31897, 1.32202, 1.32029, 1.31858, 1.32252, 1.32257, 1.32677, 1.32957, 1.33212, 1.3254, 1.32206, 1.32332, 1.32889, 1.32826, 1.33234, 1.33338, 1.33326, 1.34135, 1.34617, 1.3336, 1.33267, 1.33196, 1.32793, 1.3288, 1.33095, 1.32752, 1.33004, 1.32913, 1.33253, 1.33339, 1.40003, 1.48263, 1.38067, 1.38926, 1.39195, 1.39164, 1.3927, 1.39282, 1.39186, 1.39359, 1.39512, 1.39757, 1.39754, 1.4001, 1.3986, 1.40348, 1.41034, 1.41072, 1.41956, 1.41782, 1.42426, 1.43363, 1.43783, 1.43722, 1.44084, 1.44617, 1.44542, 1.45057, 1.45015, 1.45749, 1.45741, 1.46705, 1.46553, 1.47498, 1.47466, 1.47837, 1.49147, 1.49549, 1.49349, 1.68594, 1.51097, 1.51461, 1.52343, 1.52164, 1.53639, 1.55489, 1.54192, 1.54499, 1.55, 1.67648, 1.56518, 1.56711, 1.57264, 1.58344, 1.58212, 1.58386, 1.5886, 1.5957, 1.59557
1.16712, 1.27662, 1.16416, 1.33981, 1.36818, 1.35726, 0.984454, 1.70735, 1.46108, 1.49562, 1.24162, 1.02583, 1.1122, 1.0954, 1.22236, 1.09513, 1.21376, 1.02164, 1.02953, 1.17564, 1.22733, 1.59241, 1.2411, 1.18107, 1.05663, 1.41319, 1.22698, 1.8657, 1.06588, 1.06852, 1.11957, 1.13043, 1.36081, 1.36064, 1.10807, 1.18211, 1.09483, 1.1458, 1.11979, 1.15467, 1.15681, 1.47852, 1.36499, 1.17507, 1.13559, 1.13742, 1.13672, 1.13713, 1.73127, 1.1441, 1.92557, 1.94084, 1.94061, 1.58979, 1.90924, 1.17038, 1.2957, 1.17518, 1.17883, 1.1813, 1.18747, 1.1885, 1.89629, 1.19867, 1.19819, 1.66442, 1.20413, 1.20593, 1.21034, 1.21098, 1.21539, 1.21569, 1.2211, 1.22327, 1.22481, 1.22565, 1.39988, 1.24124, 1.24029, 1.24502, 1.2461, 1.26186, 1.26359, 1.42587, 1.25492, 1.48544, 1.38267, 1.26493, 1.26356, 1.27037, 1.26995, 1.27372, 1.27385, 1.27806, 1.27821, 1.28212, 1.28453, 1.2853, 1.2897, 1.29245, 1.29622, 1.30029, 1.30095, 1.30241, 1.30659, 1.30896, 1.34107, 1.34227, 1.5201, 1.53755, 1.52484, 1.34691, 1.34858, 1.47625, 1.46205, 1.41012, 1.44046, 1.39284, 1.37945, 1.37984, 1.39364, 1.39411, 1.39024, 1.39168, 1.38951, 1.39355, 1.38554, 1.38168, 1.37605, 1.37854, 1.47092, 1.40241, 1.39945, 1.40138, 1.39909, 1.38223, 1.3833, 1.65955, 1.66237, 1.38124, 1.38026, 1.37873, 1.38055, 1.37961, 1.38631, 1.38527, 1.38159, 1.38834, 1.37132, 1.38317, 1.38523, 1.38144, 1.38973, 1.38813, 1.39617, 1.39675, 1.3991, 1.39996, 1.40378, 1.40591, 1.4071, 1.4102, 1.4541, 1.40368, 1.40978, 1.40847, 1.41255, 1.41498, 1.41357, 1.41123, 1.4106, 1.40971, 1.41059, 1.40758, 1.40702, 1.40606, 1.40294, 1.40166, 1.40304, 1.40933, 1.4074, 1.41047, 1.41109, 1.40874, 1.4068, 1.41401, 1.39539, 1.3999, 1.40338, 1.45846, 1.37326, 1.46133, 1.34121, 1.34041, 1.33576, 1.33157, 1.3245, 1.32553, 1.32775, 1.323, 1.32348, 1.32076, 1.32233, 1.32769, 1.32248, 1.31932, 1.31754, 1.31962, 1.31606, 1.31604, 1.31174, 1.31544, 1.31412, 1.31477, 1.3156, 1.31634, 1.32052, 1.38121, 1.31157, 1.31464, 1.31142, 1.31263, 1.30938, 1.31494, 1.31673, 1.32753, 1.32497, 1.32838, 1.35483, 1.34189, 1.34336, 1.33578, 1.32841, 1.33167, 1.33256, 1.33066, 1.33246, 1.32959, 1.32867, 1.40269, 1.39364, 1.45414, 1.47476, 1.38651, 1.38654, 1.39093, 1.39124, 1.38862, 1.38821, 1.3878, 1.38883, 1.39125, 1.39559, 1.397, 1.39831, 1.39933, 1.40511, 1.40915, 1.41007, 1.42281, 1.42142, 1.42317, 1.42632, 1.42816, 1.43622, 1.44013, 1.43996, 1.44227, 1.45268, 1.44814, 1.45593, 1.46037, 1.46234, 1.47185, 1.47284, 1.478, 1.47776, 1.48264, 1.49088, 1.68586, 1.50718, 1.51038, 1.51604, 1.51558, 1.63778, 1.60693, 1.66534, 1.55378, 1.55606, 1.55453, 1.56334, 1.56604, 1.57528, 1.57661, 1.57929, 1.57936, 1.5852, 1.58319, 1.60027, 1.59737
1.32683, 1.32688, 1.37161, 1.36062, 1.37146, 0.958308, 1.25504, 1.21554, 1.21587, 1.5177, 1.13633, 1.16915, 1.18192, 1.19021, 1.59878, 1.16027, 1.18373, 1.21552, 1.14485, 1.2791, 1.80874, 1.2743, 1.82515, 1.434, 1.19806, 1.83396, 1.2161, 1.0945, 1.3199, 1.30935, 1.31206, 1.3509, 0.00437441, 1.31339, 1.06761, 1.31704, 1.324, 1.32733, 1.32939, 1.16821, 1.17737, 1.35209, 1.68919, 1.8539, 1.26461, 1.13368, 1.1277, 1.12928, 1.13052, 1.13432, 1.20001, 1.14324, 1.1458, 1.16747, 1.18388, 1.75774, 1.16367, 1.16761, 1.91411, 1.17723, 1.90367, 1.18839, 1.18594, 1.19061, 1.19451, 1.19522, 1.19814, 1.20419, 1.20597, 1.20902, 1.20888, 1.21284, 1.21602, 1.21674, 1.22198, 1.22217, 1.22328, 1.22569, 1.35322, 1.51374, 1.2329, 1.23367, 1.23413, 1.23267, 1.23231, 1.23342, 1.23981, 1.24481, 1.24696, 1.38449, 1.26601, 1.26538, 1.26947, 1.26719, 1.26888, 1.27887, 1.27768, 1.27956, 1.29396, 1.28695, 1.28903, 1.29833, 1.29899, 1.29865, 1.30377, 1.31052, 1.44798, 1.51818, 1.47568, 1.33341, 1.33866, 1.4339, 1.34704, 1.3653, 1.35899, 1.37027, 1.36799, 1.36706, 1.37052, 1.36173, 1.37429, 1.37281, 1.37104, 1.37266, 1.3716, 1.36897, 1.37186, 1.37269, 1.37338, 1.37173, 1.37029, 1.39335, 1.48162, 1.48312, 1.44069, 1.52159, 1.37302, 1.54846, 1.37144, 1.64165, 1.37368, 1.37241, 1.37331, 1.37688, 1.54561, 1.36925, 1.37283, 1.37229, 1.37518, 1.37519, 1.37744, 1.37749, 1.3781, 1.38237, 1.38574, 1.38959, 1.39667, 1.39551, 1.39824, 1.4877, 1.40061, 1.48181, 1.40516, 1.40489, 1.40036, 1.39833, 1.40365, 1.40301, 1.41304, 1.40385, 1.40737, 1.40492, 1.40535, 1.40366, 1.40575, 1.40647, 1.40392, 1.40431, 1.40397, 1.40563, 1.40674, 1.40636, 1.40527, 1.51493, 1.40196, 1.43665, 1.42571, 1.49935, 1.45873, 1.48241, 1.41658, 1.41682, 1.35118, 1.33428, 1.33275, 1.41264, 1.32626, 1.31345, 1.31366, 1.31231, 1.31359, 1.31555, 1.30996, 1.31435, 1.31317, 1.31469, 1.31295, 1.30967, 1.30905, 1.31108, 1.31353, 1.3154, 1.30446, 1.30374, 1.31328, 1.30827, 1.30516, 1.30779, 1.30852, 1.30829, 1.30727, 1.31043, 1.3127, 1.31321, 1.31566, 1.31725, 1.3271, 1.32668, 1.33001, 1.32922, 1.33603, 1.33384, 1.33201, 1.33071, 1.32911, 1.32891, 1.32977, 1.32922, 1.41526, 1.45095, 1.4504, 1.37762, 1.3813, 1.38309, 1.3864, 1.38928, 1.38606, 1.38555, 1.38832, 1.38903, 1.38832, 1.39261, 1.39249, 1.394, 1.40173, 1.39997, 1.40119, 1.40602, 1.40874, 1.41132, 1.41522, 1.42032, 1.42665, 1.42813, 1.43237, 1.43454, 1.43916, 1.441, 1.44668, 1.44772, 1.45543, 1.4569, 1.46504, 1.4649, 1.51345, 1.47819, 1.48179, 1.49521, 1.49576, 1.49926, 0.00376829, 1.52105, 1.51818, 1.52628, 1.53153, 1.53846, 1.67746, 1.55391, 1.56157, 1.56491, 1.56503, 1.57395, 1.57515, 1.57573, 1.58496, 1.58291, 1.59038, 1.59116, 1.59467, 1.60963
