1.97656378892325,1.95058257385082,1.9742586486354,1.97401065597333,1.97116856268097,1.96755445256429,1.96756801812804,1.96634642063184,1.96665738619013,2.08901809811475,1.96121493859007,1.94145043624364,1.96028900028299,1.95855155031042,2.08080080112929,2.08638924752054,2.07397428529373,2.07253517483488,1.95154655758189,1.95001928121022,1.87860796928684,1.93213230585784,1.94750403147122,2.08546739099273,1.99683556152616,1.94590535764339,1.9455092753295,2.08145101975888,1.94264661728031,1.94269377171552,1.94326114084808,1.9400182484203,2.08369203911812,1.8662452515861,1.9394796660928,1.94425980549726,1.93821841038001,1.94332902559647,1.94090377558009,1.86966983961126,1.94306244852242,1.93388692438205,1.946944776003,1.94754354486032,1.98874460851488,2.06731610544541,1.98672672095248,1.95673297721042,1.88483310047156,1.96103895033892,2.08229504003703,1.94368955666,2.07241223216016,2.04823291579715,2.04104470189067,1.95631612058118,2.04336309106314,2.0314697251484,2.02806420203725,1.95347038171127,2.04683648697203,1.95137573472158,1.95334635142257,1.95044893398502,1.95197699995898,1.95066940660549,1.94981402559777,2.02776356896083,2.0425287229245,2.04725458796846,2.0457833077604,1.95137573472158,2.04251314046626,2.04240745012483,2.03388669470662,2.03424241249039,2.02866579954633,2.03939205818019,2.0412694695004,2.03300033891763,2.03536281889866,1.95137573472158,2.03724220469441,2.03070005377215,2.03392877942193,1.94689284437117,2.03071836648296,1.94663090704346,2.03275066527968,2.0338371868432,2.02933385433602,1.95137573472158,2.02430987678747,2.04782279373314,2.04761583089306,2.03225560375688,2.04121907371093,2.03048043381903,1.94311900657574,2.02938386744055,2.0315225745455,1.95137573472158,2.02265597497106,1.94170260472964,2.02479798786755,2.02416874289318,2.02434902956049,2.02510932211844,2.03576724250735,1.93956647543791,1.93974532205002,1.94885056253192,1.93827303918963,1.93670959343126,2.03788210810227,2.02644557038404,2.03228339954971,1.93144824341919,2.00674068599505,2.00186086634332,1.93290434183766,1.94543023968342,1.93451270054723,1.92630488548949,1.93227601726428,1.92502150194207,1.93151133600749,1.92997609564642,2.00224867188127,2.00788568110592,1.92653934387407,1.89265063839062,1.84642643299627,1.84578576877788,1.95335836621174,1.89117794182746,1.89016954681173,1.83744184692567,1.88377745286839,1.83331267801065,1.83051156169634,1.82250780576554,1.82842571105217,1.83078073167961,1.826194667051,1.82851919616005,1.82494319195146,1.82330596245358,1.92532667106273,1.87322577706044,1.81959509808437,1.81360980843895,1.8180043066051,1.82393550316625,1.81911699393898,1.82407212526104,1.82222477126525,1.82282119401516,1.82405726211789,1.82291212414084,1.82182322442005,1.81882547370872,2.03337096899695,1.82496774477908,1.95041444622973,1.82281711342438,1.82330235580152,1.91087161112965,1.82406024933651,1.82051616584143,1.82441750018471,1.81991901671588,1.82295157863468,1.82296433820408,1.82347128961994,1.82498055402165
2.00412129978356,1.94759630524234,2.00483672455299,1.97376848020581,1.89766802952798,1.97409902851267,1.9683871845899,1.96541964071167,1.96644808784981,1.96510381297731,1.96280118554031,1.94809569732594,1.959766112999,1.99735943617799,1.88636591890671,1.9557046300983,2.07631555029139,1.95150755747469,1.95137470228073,1.9502962801006,1.94976344754043,1.93790263677316,2.08266369257232,1.87280338616119,1.94368285569978,1.9447044975086,1.94346420992445,1.99740794311787,1.94141482033829,1.94176314109437,1.94172489899042,1.94375731414042,1.94113022316378,2.08265399118981,1.86934969398851,1.93935292496753,1.94200421829398,1.86923166050238,1.86938041503416,1.94308961895839,1.87393966167189,1.89055675296704,1.87333124168692,1.94830066236766,1.94820663916713,1.87890555575842,1.9555894150402,1.95549602072659,1.88576443319229,1.96107664264401,1.96592681625764,1.94742517325277,2.07292830766323,2.04791901178871,2.04179308920042,1.95687233317828,2.05023256099959,2.04595378087464,2.02856867317784,2.05172598317078,1.95696314800853,1.95137573472158,1.95165311118759,1.95159297148701,1.95073803712056,1.95001257841234,1.95139215969626,1.94940830535179,2.03318664331841,2.03415678159768,2.04727788025942,1.95137573472158,2.04820555153244,2.04033623523301,2.04461658365292,2.04496084247008,1.94899804437634,2.04000440921854,1.94777405328331,1.94827205758536,2.04062951416139,1.95137573472158,1.94706746925838,2.03385175176397,2.03502290913898,2.03928683362927,2.02863852677961,2.03054585605629,2.0346197635328,2.03251689063895,1.94691224713826,1.9511427541412,1.94497683013699,1.94511194772722,2.02843823266807,2.0276030920017,2.04761290762696,2.02509239623332,2.03401208635314,2.02446738173248,2.04089971746641,1.95137573472158,2.02382588026832,2.02356863089294,2.02723710616987,2.0234644084986,2.0230142108478,2.02422895021798,2.02180462915163,1.9388131425021,1.93882162533775,1.94985376467664,2.02135422153365,2.0209406647174,2.02696976346451,1.93465940102918,2.01874955988587,2.01955653889128,2.02661081070488,2.02514266879013,1.932273608219,1.94547936866827,1.93260125507814,1.93401087701133,1.9269465990303,1.93386601809169,1.92569102241695,1.92836664400261,2.01268484830548,2.01430913690554,1.90661601898748,1.91723460304552,1.9049347931765,1.84721238388505,1.95769578340856,1.84008706762053,1.83835123405133,1.88764650140207,1.83622948408055,1.83297223762728,1.83080529199753,1.8227231017341,1.82942784377543,1.82868812329374,1.8282702238644,1.82436278125023,1.87496841136266,1.87462562918073,1.89916042554435,1.87302756449289,1.9116574231108,1.84696905444935,2.03112024730983,1.82036073747958,1.82285441109124,1.81762850350347,2.04128729617772,1.95980538449493,1.82127094282212,1.8218108909529,1.82181152033187,1.81917885579355,1.82031069426864,1.82211658516888,1.82245869059211,2.0379015136826,1.93012077073623,1.92130706509428,1.92059563036918,1.82138814466444,1.87353376168017,1.84587988565225,1.81906561193454,1.87138051682042,1.87100539669827,1.90581072325192
1.91027882358649,1.93628764736237,2.0038954816635,2.00379721513723,2.00488616392613,1.89691132169239,1.96832004613948,1.89432876772527,1.88969393173051,2.08347860870295,1.96108454870718,1.95018353970255,1.96022061069968,1.95998140095358,2.0919188114845,1.95621571679263,1.95515898436944,2.08573903082721,1.99990971088625,1.99959451106575,1.94872416519509,1.94349664740553,1.94921444159021,1.94871024342536,1.94814182419218,1.9446080646826,1.94409826249193,1.94418555248739,1.94310470448509,1.94179084429987,1.94313216959386,1.94200655586559,1.99441991728386,1.94160003578725,1.94078302363002,1.94283968204407,1.94096472045551,1.99334953141283,1.99360823494636,1.94522250168265,1.94471655901846,1.93477805775377,2.06241690727911,1.94834107383901,1.87778989677006,1.95234096594336,1.95356679239863,1.88367863595213,2.06052513769015,1.98621254767742,1.96600442815788,1.94377396810291,2.0723770408706,2.04604346585563,2.04457372785941,2.04927265583992,1.95694347664896,2.03908633945238,2.04072263677566,2.03049333779369,1.95162698521645,1.95137573472158,1.95369556800037,1.95189193305967,1.94975088571905,1.95525608436156,1.9478090354996,1.9516334684303,2.02464055628189,2.02510954880133,2.03664995228875,1.95137573472158,2.042260685921,2.03681691102649,2.03539323003696,2.03758846294171,1.95004579368715,2.0316255804408,2.03147368325201,2.04181116977856,1.94769805912137,1.95137573472158,2.02678178837451,2.02673570762497,1.94812491994962,2.043423099859,2.02948785744032,1.94800850335953,2.02788142024637,2.04444024190538,2.02900496752901,1.95137573472158,2.03734853487967,1.94615637084979,2.02708638102749,2.02555727516603,2.02688090102912,2.02498793469044,2.02491179392218,2.03474855461727,2.03392588865398,1.95083390745411,1.94268099421203,2.02547882870823,1.94213500920931,1.94183565226216,2.02196811340265,1.9406770300084,2.00649814072782,2.02301580105198,1.93826595854186,1.94984096827693,2.03364465768739,2.01904141195021,2.02829561969555,2.01962794192073,2.01681748243829,2.00781026817217,2.00742113442382,2.01385778535119,1.93242654598493,1.94509265962135,1.9335416027995,1.92733822113368,1.93153606141244,1.92366264070989,1.93066775173884,1.92440067540681,2.01143752769112,2.02143805523063,1.90604599892622,1.91601687438673,1.90443999337275,2.03839628419048,1.84471808739681,1.84045684807351,1.95635169232433,1.83881543138445,1.89182957506048,1.83251913459168,1.82955513009534,1.821744834589,1.82829577295622,1.87753045842837,1.87662323217489,1.87570601055129,1.91787600929948,1.82236969556792,1.89930918007498,1.8222491134873,1.82154207519094,1.81406678253746,1.81903211277488,1.82118784367653,1.81924415893889,1.95796212182058,1.82091072341456,1.82120037829481,1.82160448645659,1.8216796882898,1.8213501498444,1.81808301691965,1.9514696921939,1.82112636766422,1.82246469653805,1.82226052835903,1.93032126597866,1.82126056446128,1.82302985223108,1.87489195523122,1.87377768215344,1.85569569534061,1.91190089807544,1.90531529693119,1.90383297375525,1.82286348895407
1.97679507250535,1.93592898764384,1.90989405007951,1.9762589292329,2.0043779056645,1.96962014529849,1.96853601089933,1.96865000704767,1.89390939136632,1.96476894847534,1.96503107000308,1.94894575559615,1.9605358770325,1.9582950992847,1.95725478081805,1.8839017677498,1.95551532654807,1.95465634840713,1.95303968470724,2.00038089371937,1.99998161525047,1.94322286558139,1.94963297690155,1.94977712177565,2.09141433959411,1.87563617222806,1.8703489540142,1.94520895889908,1.94362207301555,2.07274887964963,1.94305716002057,1.9354811196679,1.94257572915948,1.99622437443026,1.86797209767244,1.94198804448095,1.94179982486794,1.87013550597162,1.94343945756357,1.94553066041998,1.94546827099729,1.94131903398863,1.94702977840055,1.94823714120203,1.99169221189893,1.95394574934716,1.98719238730638,1.95727332366406,1.9870953734841,1.89153768024834,1.89981239448399,1.93241140465569,2.07321002820352,2.05078702454507,2.0442352142146,2.04972872955214,2.03064488052294,2.0453660773684,2.05192002897029,2.03039023614708,1.95185981744927,1.95137573472158,1.9544866268507,1.95150147959522,1.95529369954343,1.94866759292581,1.95582716496555,1.94786812611436,1.95168562782175,2.02524592254269,2.04206349049312,1.95137573472158,1.95020877691428,1.95039504345847,2.03759547873463,2.03021802000568,2.02525091284778,1.95037564069137,2.03067872331851,2.02388689764917,2.02132116301411,1.95137573472158,2.02775111718315,2.02801063023208,2.04130523004926,2.02954147754064,2.03129605411141,2.02169981508757,2.02730580380068,2.02856572804671,2.03711584151261,1.95123000379605,1.94562540724789,2.029882712749,2.04162683998113,2.02722940433829,1.94478376381502,2.02707804736409,2.02735609523354,2.03436825009491,2.02748328426337,1.95137573472158,2.02939994661226,2.02672173867511,1.94171923567207,2.02415271271592,2.02145139415292,1.94010603435345,2.02185939627315,2.02124655120261,2.02559036902836,1.9513042421189,2.0293822760049,1.93728856529516,1.93366764896435,1.93414508733919,2.02841355860998,2.01293802555123,2.02089531869088,1.99994970672075,1.93225482230659,1.94482367499864,1.93120491883921,1.93138159154454,1.92584138244282,1.93104094732301,1.92405250360692,1.92645347891093,2.00137580955539,2.02785167460029,1.90625644289343,1.91601194958045,1.90469707687814,1.89778077237184,1.89664315078448,1.84046931169654,1.83890987763984,1.83782928975827,1.89164265855548,1.89164225603919,1.95430470061524,1.86262975347098,1.87908561943116,1.87840887450981,1.828089714184,1.87425315502392,1.82584054725345,1.82305644611136,1.82305970371027,1.95168532733821,1.82067604751945,1.81479307303236,1.82080605888429,1.8214076810449,1.82120915304467,1.81953261333234,1.91261624308228,1.91140680406301,1.82133710293091,1.95081220291253,1.82005309777894,1.81839607158612,1.951802115931,1.95394835078492,1.95065621219016,1.82169908685435,1.82105528341548,1.8241914076256,1.81926201044444,1.82281925862793,1.82084557151818,1.84352628307649,1.91262559453851,1.90611932558762,1.90369478013715,1.92103561106054
1.97772180012417,1.94650237633206,1.97672539627598,2.0044858038745,2.0040811547835,2.00465497941081,1.89632923874194,2.0048197993276,1.89323054707343,2.08123758934371,1.96457492082512,1.94303198605373,2.08085904337305,1.96033871226151,2.00231522574683,1.95801787773476,1.95721264022044,1.88277640737893,1.95963760497663,1.95220434483991,1.94974753499119,1.93629206414538,2.00320936983568,1.87658844977005,1.94649156212623,1.94642630270196,2.00039473245585,1.94644541462134,1.94539168306301,1.87073699168709,1.99690347120579,1.92516194039777,1.87036394687281,1.94432450331827,1.9416033998239,1.86936909675353,1.99471095875909,1.94176747138771,1.8707466930696,1.94612338101871,1.99079160022397,1.94733303590896,1.99093712095948,1.95124865914188,1.99172454984163,2.07810404279378,1.88184507465821,1.98744462325462,1.96345847240039,1.89066411503196,1.98828864353703,1.94415675294897,1.99084516352966,1.96013523149867,2.03347768325827,1.9587964407079,2.05114553688091,2.04505033953552,2.03820204835837,2.02838782689477,2.02757626812906,1.95137573472158,2.02798185006761,1.95450237407319,1.94847511840752,1.95663505423724,1.9460524621172,1.95426707996785,1.95019961181056,1.95061465762722,2.05013495678563,1.95137573472158,2.04202460012126,1.95027086576241,2.03893096898292,1.95044355036892,2.04194553516429,2.03799459348434,2.04362946013578,2.02332041186412,2.0215901394657,1.95137573472158,2.02080736069446,2.03827075670104,2.04016791091044,2.03946583917294,2.02441674371641,2.02815218868826,1.94541823423002,2.03499525989117,1.94656317286991,1.95117975011058,1.94539737913289,2.03156798248079,2.02372169207419,2.02832879679105,1.94406974206366,2.03697497660149,2.02842264701666,2.02690376407638,2.02416400530914,1.95137573472158,2.02766766016522,1.94228145388696,2.03791121245522,2.01759301633801,2.03095532254104,1.94005614152792,2.02920818343992,2.02927757631332,2.02481855304949,1.95137573472158,2.02107851985509,2.03010171291974,1.93415155492753,1.93330268478383,1.93328596349084,2.01137933674981,2.03084904154508,2.02499823958099,1.93176314217308,1.94434688652272,1.92978643430282,1.92945084066647,1.92715394814367,1.92764606624894,1.92749318968166,1.92510619684989,2.01921675307708,2.02026560684749,1.84820102051859,1.91151343840048,1.90225316865228,1.84655032497471,1.95550767204618,1.84223118333903,1.95404276328754,1.83809454738633,1.89149170050613,1.89097729956463,1.83207968826507,1.85487723892299,1.95265546558606,1.92822738443461,1.87600484239284,1.92713112821166,1.82582525213003,1.82461175177232,1.82261493792307,1.82259277428709,1.82033114236479,1.81474916966972,1.81971224850692,1.86926238154991,1.8208752846847,1.86921387463965,1.8194073869419,1.8202522719677,1.82121503754335,1.81979704829176,1.81987696653351,1.82047703858094,1.81976648461872,1.82029010645213,1.8198975832343,1.94893983608858,1.82238872582769,1.81817237794982,1.82380529947794,1.82068861504232,1.82140222687356,1.81333350019384,1.81863760915241,1.93901532106996,1.92289051540704,1.921372664816
1.97832883153899,1.94538184707445,1.97566859894433,1.97528744416167,1.97566104012928,2.00379341377533,2.08491441331407,1.9699563106364,1.96973472660125,1.89448218579458,1.89751195014748,1.92994586674057,2.08764069384947,1.95884093493932,2.00285203557881,1.95912809617352,1.9565373603244,1.95756724970692,1.95958764302773,1.95323095031566,1.95200285822648,1.92679340411715,1.87818603389284,1.87689917448621,1.94704719118244,1.94775454110726,2.00050620324384,1.94633197119166,2.08148035641476,2.0748247429958,1.94326452731543,1.92247666782099,1.94333490279838,1.94327594870561,1.94279135075516,1.99854300484956,1.87020341564917,1.94371258603099,1.9940997716603,1.94488533019856,2.07861821606668,1.95018755431553,1.94749221684457,2.06495866949609,1.87607275206623,1.95199107968517,1.95684524148109,2.07449512850098,1.95918379561306,1.98829834491431,2.07794882067366,1.94941876357702,1.9859942023492,2.04908172624171,2.05553927317062,2.04357625536004,2.04417332062381,2.04955156796801,2.05750806554563,2.03177880220755,2.0264919161377,1.95137573472158,2.02710872564193,1.95307781747028,1.95729257200131,1.94840152772565,1.95686623359332,1.94997038063703,2.03548609312873,2.02792174754026,2.0281751698488,1.95137573472158,2.02226288694319,2.03236725370431,2.0267979044833,2.04053074572358,2.0399832951799,2.03892910396304,1.95013472302681,1.94986955190493,2.03485527745913,1.95137573472158,2.04301463543018,2.03212572493997,2.04398944789646,1.94742642040908,2.03110087906816,2.02249033020851,2.02240343014197,2.02964618441384,2.03498924524394,1.95137573472158,2.04372019695659,2.03120210077055,2.01986769139553,2.01873624478386,1.94401541432042,2.03699337161031,2.03548905515616,1.94362347846613,2.02455494825449,1.95137573472158,2.023048455736,1.94211329659017,2.0247884673464,2.02395454374617,1.9411399245442,2.01916756759329,2.03485515076004,2.02329702840604,2.03269277301485,1.95129806909483,2.03252042085386,2.03502605344711,2.0343916580533,2.02081681531988,2.01976503327997,2.02059241415787,2.016526390546,2.00254967613811,1.93217490297641,1.94421055870391,1.93179955393258,1.92447132492968,1.93110681375012,1.92461443463305,1.92765848176729,1.92660570633916,2.02783143001418,2.02155284123928,2.00002731719048,1.90730329184251,1.95980538449701,1.84561182682397,1.84569307256821,1.95458604070588,1.83917957514682,1.83792361903035,1.89047195061415,1.89023769902515,1.83186080831426,1.83368437444272,1.82882111576609,1.92818857890413,1.82709000350702,1.82607819089212,1.82618673597008,2.04277160770137,1.96107626560342,1.82149271451596,1.82176279530244,1.83924188994874,1.95377112457733,1.82192933629555,1.9075927124396,1.90650727601401,1.82041391972748,1.93876308583819,1.8207126078245,1.81993283913835,1.81940733830945,1.84340344057154,1.92080626920434,1.81987056405821,1.91382083141134,1.82229168509877,1.82000924954669,1.8246587180088,1.81628631772936,1.8185735792596,1.81745703096892,1.8141630294464,1.81942638606575,1.81889920382282,1.81803581836703,2.03165382334775
1.90998235751367,1.93148501305181,1.90957627464411,1.97407096298227,1.97544743207974,1.97411050378699,1.97254410318653,2.00519815324363,1.96825840912121,2.00498472283044,1.96497622137144,1.93622002737961,1.96318392433751,1.96323172364689,1.9577133879299,1.95745944858505,1.95746891031635,1.95562030723079,1.95398117604689,1.95309254507144,1.95332628484632,1.92583235946955,1.95044193347734,1.95140560414124,2.00045417720355,1.94753250344957,1.99985563994628,1.94680085202337,1.87106683869234,1.99783157013101,1.99874996767356,1.92492670989191,1.87081853960202,1.99731092927111,1.94298365241549,1.94459928120982,1.94289108268879,1.94185155880938,1.94438129006707,1.99443446935658,1.94783562298098,1.95072275609305,1.94728973618338,1.99110204446181,1.99075279469514,1.95223100643652,1.95710418851061,1.96049546196438,1.9603427149901,1.9664564379709,1.96758912862565,1.9508482693038,1.98725887243564,2.04554982483916,2.04909241868975,2.04816125949231,1.9572539208892,2.03315753820111,2.04373240847244,2.04930997502087,2.02738546003126,1.95137573472158,1.95400337959369,1.95574710798467,1.95042102710085,1.95891237554728,1.95053277070515,1.95424559060157,2.02812714005386,2.02981475165453,2.03069634103559,1.95137573472158,2.03678744975494,2.037760761502,1.95152040382726,2.0445189516707,1.95086070981674,2.0431367171667,2.04632346802588,2.02863669463145,1.9492793844701,1.95137573472158,2.03251724775426,2.04266504217918,2.04954036097025,2.05084681287209,2.0381589237073,2.04537163390689,2.03033584697602,2.03608594130289,2.04319882572797,1.95137573472158,2.0378890388746,2.04280617102812,2.04213836506805,2.02856640093948,2.02979944581435,2.02910191109362,2.03478029075438,2.04212248067766,2.03006312638049,1.95100875733975,1.94398075446753,2.02231191056931,2.02265368058774,2.02374876263101,2.02054093272049,2.01189382347312,2.01017355528519,2.02313576818679,1.9379445922852,1.9498269818031,2.03733751896617,2.01458909252352,2.02689981755901,2.02769425252699,2.02478724678884,1.93308777706296,2.00520816762417,2.01189179540845,1.93213671396218,1.94412350558466,1.92791928916756,1.932964934246,1.92346950188851,1.93261238831294,1.92423632646475,2.02471733454366,2.00093412824936,2.00106994947417,2.01093220477885,1.90242364059994,1.84536782454282,1.84453138926965,1.84455333760401,2.02831654776748,2.04479919664105,1.83855074950202,1.83740028499176,1.83352708727007,1.83262205918548,1.83288449432983,2.05115973214151,1.82872262863132,1.82591135874638,1.82686693010683,1.82469100514249,1.82555836040247,1.8233193731818,1.82178788734972,1.82007029838908,1.84725065977139,1.86991791782505,1.87011527166592,1.91360769987659,1.9070572133034,1.82065810967733,1.82066612406723,1.8209739337478,1.82208682924075,1.91749765538169,1.8549165660063,1.91407123019318,1.81901382254359,1.82045162156378,2.03387543994197,1.81859047707679,1.81778574738246,1.82206332392783,1.81477326868052,1.81897114498068,1.81339424571088,1.81846130806455,1.82022136011241,1.81603954670998,1.819971161982
1.98034502876805,1.94606538700826,1.97881739997794,1.97706762969621,1.97464421650712,2.00919512283866,2.08813509531358,2.09114756501135,1.96816110794261,1.96865846933965,1.90023186873128,1.93037547109692,1.96385845734257,1.96338526517571,1.96329530634705,1.88684128664958,1.95711458294237,1.95732794813629,1.95694993518907,2.00311720670082,1.9535785360236,1.92585760856386,1.88102849304528,1.87798367894387,1.87707585233175,1.94711390946114,2.00010939767622,1.87355039261427,2.00088588872409,1.87018401288416,1.94392203853302,1.93508984240025,1.94351676326479,1.86603182117094,1.94550261395675,1.94611912514127,1.99512118864579,1.99460673819173,1.94591693847033,1.99515237166214,1.94783647061675,1.94941926773975,1.94720021257714,1.99242143248643,1.94800175006566,1.95293480051179,1.88397937880986,1.98737628751371,1.88665696038194,1.96646544948087,1.96675394703924,1.95022889117775,1.9860586086249,1.96039070123559,1.96038423364777,2.0502347246862,2.04408178699956,1.95848599646766,2.03248629239235,2.02808718161567,1.95796212181434,1.95137573472158,1.95491420632533,2.03111054592733,1.95358783601568,1.95462781304117,1.95607845712138,2.03634154850327,2.03522265566726,1.95190175376286,2.02469793304898,1.95137573472158,2.04918422150789,2.03852155169174,2.0400345083224,2.04041507666031,2.03521597158911,2.03687110610737,2.04792164400357,2.03751042261228,2.0375362943649,1.95137573472158,1.94885252363977,2.036554335311,2.03869826689992,2.04529380548868,2.04544902519388,2.03817795482321,2.05062002521696,1.94649180634095,1.94558948443534,1.95122517128974,2.03176958344806,2.04133898355587,2.03488441424485,2.03510321286579,2.02959085478426,1.94377870058625,2.03310807316942,2.03504062944327,2.02089445391909,1.95137573472158,2.02872076455085,2.02856180297282,2.02737679944641,2.01863004231289,2.02068168218811,2.02103241226354,2.02730175145278,2.02489684839749,2.03362337575833,1.95123672247972,2.02337854529897,2.00382055934495,2.01785881093378,1.93494691343504,1.93224728585625,2.01712806176473,2.0232331043578,2.03100382903848,1.93169958688527,1.94463967748791,1.93098803237941,1.92458393360322,1.93360347151755,1.92545371392785,1.92785790142578,1.92585265149552,2.01853755116092,1.92663635769545,2.00140491342548,1.89828254301884,1.84535200853774,1.84590665447727,1.95690467112726,1.83964058270789,1.83897233211463,1.83757485156551,2.05291925380425,1.83232603878642,1.83232836141205,1.83250745679455,2.0469467736064,1.82912366951842,1.95880614209874,1.82562412899794,1.82656409361757,1.82399094471061,1.82253903531957,1.87163389401779,1.87169248275861,1.85390264645856,1.87055765470819,1.82074167729019,1.81809576601354,1.81976230722569,2.03634971317502,1.82078215767223,1.82204497355866,1.9137723244988,1.81956704631703,1.84494171438687,1.91418117733363,1.9501780096747,2.0431984685317,1.94816372548173,1.81769889952957,1.81759152107766,1.81789203400819,1.81886787068786,1.81564593008467,1.81035890641766,2.0415201293579,1.81871906693991,1.82188580787986,1.81658226955792
2.08619120756175,1.95038882280108,1.97824799651647,1.97654412567126,1.97607828224031,2.08341047866528,2.08301110202939,1.97011065085974,1.96967988226386,1.96816189675247,1.96717824932763,1.943721218588,2.08159654049649,1.96244071969179,1.96243883795451,1.96087722330725,2.08848452308791,1.95709671467119,1.95747955646185,2.00484405278716,1.95339785761025,1.93717292833336,1.95275774861671,1.95076890868889,1.95027530967698,2.00317056430565,1.94638665899035,1.94661441419399,2.0017978186798,1.94493804011174,1.94466854530732,1.9408387761918,2.07372871928289,1.94639261968029,1.9462234208866,1.94619843249857,1.99692730888754,1.8707563944521,1.94717234881699,1.87276458063116,1.94770816297346,1.94531626125196,1.94768046773013,1.95106331728003,1.95016021261852,1.99029232607111,1.99093380442599,1.9905525986197,1.99072840382574,1.96697686485395,1.98697895596223,1.94643808129523,2.07096382526824,1.96048771506119,1.9604036364133,2.03664292678623,2.03589564879345,2.05098219035784,2.03161937880856,2.02795161901729,2.02641507703124,1.95137573472158,1.95380616517888,1.9560992176213,1.94895448730947,1.95868533883211,1.95147686007818,2.03138763205904,2.02598527647385,1.95272865395444,1.95221847536726,1.95137573472158,2.06097140006052,1.953234314739,1.95321491197399,2.04068981651317,2.03470952712701,1.95171443147741,2.03292640135198,2.03169729780722,2.0233979482034,1.95137573472158,2.04413983477475,2.03455509204565,2.03820827026856,2.03814361808643,1.9496480370033,2.03295380754235,1.94840982672929,1.94760917733704,2.03470005524642,1.95137573472158,2.04422681090517,2.02835807058679,2.02842879966809,2.03521142421839,1.9435663789015,2.03417464884914,2.03766257673208,2.02522207363524,2.02859859473671,1.95137573472158,2.03440867238348,1.9402279945885,2.02697779631969,2.02058962727763,2.01723224113784,1.93795787108174,2.02711160308972,1.93798526286089,1.93876277042129,1.950022993694,2.04446934807377,2.02247631582067,2.00702108010474,2.01560895363568,2.0171271255149,2.01591387001975,1.92994452913052,2.01867460806967,2.01399730819865,1.94992915986462,2.00381085555115,1.92897582902958,1.92239172151736,1.9322164061591,1.92174918666801,1.92840497727054,1.99851390131231,2.02458860873678,1.95148159830139,1.88978061282365,1.95190037464734,2.04924242983285,1.84243479030174,1.84028356555306,1.83897582457196,1.83667354465621,1.83297761409908,1.83285087019552,1.83189716669495,1.83322220886557,1.82807182348913,1.82902532371997,1.82753398031666,1.82643973208607,1.82518680588267,1.95692569078653,1.8724526146118,1.87147638921848,1.8206902078832,1.81267607952259,1.82054529851585,1.82115166368091,1.8195195016297,2.04477009191881,2.02874298847682,1.81909579557972,1.81549064603264,1.82045573840876,1.81974618154405,1.83734485126997,1.81758604300748,1.95047404043239,1.94992189317657,2.02005037082993,2.02788058612021,1.81665916628066,1.91008418224752,1.94454510981267,1.91092981942201,1.8098102895221,1.81570722566704,1.81890597217802,1.81438742676349,1.81968057677553
2.09096216285748,1.95126687018547,1.97953465582919,1.98034498804311,1.97489210532131,1.97554092462653,2.08772518777177,1.96974277616555,1.96933075038306,2.00813490032485,1.96899651434604,1.94934850117621,1.96729041124157,1.96385253086777,1.96596949854559,1.96022721692109,2.10019408974601,1.95688406412959,1.88266969217134,1.95500590155897,1.95399564808405,1.94567405214326,1.95312908933878,1.95175874170083,1.95045816626962,1.87621827280384,2.0947516151767,1.947545492047,1.9475778317226,1.94679283867708,1.94766758902789,1.94067387211455,1.94632671756994,1.94612480442077,1.94541166259578,1.87180081757562,1.87264123448432,1.94475607600778,1.94575544705465,1.94999174345677,1.94831265152431,1.93822031977034,1.94731424666095,1.99723331820924,1.9545439882122,1.95410419492815,1.95981233193737,1.95940891378633,2.07721151560309,1.96480985016884,1.9058932537224,1.93555701558303,1.986532693299,2.04852527027226,2.047839278029,2.03732367858923,2.05089092132809,2.04832105684172,2.0426471691491,2.04478793754861,1.95680701868675,1.95137573472158,1.95581838864658,1.95018586028251,1.95878448109534,1.94842176597397,1.95813190629431,1.95002657553123,2.02606295297568,2.03923060156956,1.95310358385537,1.95137573472158,2.03821195926017,1.95347361550752,1.95360943486263,2.05498564669333,1.9511350592093,2.03103281241896,1.95231591719287,2.03691490970769,1.9503077310159,1.95137573472158,1.94998204174828,1.95032020422192,2.0643862879232,1.94957042594324,2.0319933797727,2.02053880463405,2.02070508548913,2.02060399130279,2.02046425819274,1.95137573472158,2.02455241281701,2.03435774764538,2.0295890036741,2.01962385728427,1.94434692442102,1.94456756157628,2.03824536214834,2.03136230390494,2.01747317588814,1.95137573472158,2.01365776135192,2.02747711909277,2.03104254857095,1.94042202224083,1.94046858887567,2.02352030897638,2.02201585058174,2.02701370120449,2.01599579402292,1.95131438810647,2.03057712426324,2.03745509381199,2.02489977869548,2.02412393693254,2.0219675676593,2.03078075628451,2.01197942094516,2.02439595305922,1.93035040823894,1.94436325478987,1.9302899607383,1.92394712136216,1.93088147516434,1.91894098367917,1.93092076778893,1.92409711931867,1.99886315109795,2.02030581266278,1.84790296043665,1.87975223765056,1.95369189661706,2.04842751370222,1.89135242952183,1.84063342389082,1.83931224619475,1.83758805338758,1.88443816165177,1.8836150124075,1.88282771200937,1.87362123123208,1.93326240195642,1.82918904440944,1.94786459952629,1.82562121592954,1.82489306323198,1.95677693625624,1.82373541033625,1.82374187792459,2.05124091463044,1.81120817436152,1.81965623777883,1.82145202260983,1.93893771072332,1.82018864495227,1.81939620444699,1.81897180651863,1.90945520927879,2.03463538157069,2.03274684577589,1.84667607827297,2.04437000962382,2.04734328505163,1.81898011600944,2.0317605370221,1.81707212137405,1.81685455392965,1.90945682617721,1.81874970439931,1.81708768768053,1.81133270213929,1.81747107361963,1.81668210608121,1.81907044727474,1.81409521583892
1.98196980972965,1.95137057808656,1.98003352543475,1.98053061551277,1.9031105051147,2.08687409258059,1.97348415585341,1.97294078616738,1.97294109390994,2.00808500749938,2.00731998419423,1.95099330029285,1.96564477170556,1.89149237195982,2.00729365187138,1.88890768112368,2.07891895942978,2.00473248688728,1.95729886869625,2.09431505296386,1.95530765558288,1.94974123480151,2.00470338274184,1.95321200723405,2.00253027306016,1.94975475221297,2.00345190439629,1.94890739793925,1.94779341747237,2.08283831745746,1.94690405126299,1.93458173087259,2.00091014217932,1.94427979832055,1.9449484004657,1.94446658226277,1.87291065573448,1.94454675585372,1.94686024423064,1.9473619746117,1.94802534509111,1.93222268393844,1.87819263440947,1.95327787834013,1.99404987883274,1.99426829852889,1.95935070549106,1.96013571370922,1.96381186148078,1.96489734793818,1.96734913800029,1.94644127554901,2.07689136998034,1.96193968864034,2.04831586757988,1.9613673070724,2.04396390171703,2.04680037795474,2.07158471374016,2.03814701252128,1.95595213623191,1.95137573472158,1.95350976668175,1.95695455803872,1.95257491864771,1.96046139661621,1.94912885645738,1.9562039091322,1.95286976009312,1.95438169626664,2.03442709028234,1.95137573472158,2.0512411204051,2.04468282136642,2.04559087736893,2.0336911148569,1.95265931760135,2.03599201978208,2.03301046200019,2.05032898430827,2.05133792809854,1.95137573472158,1.95113512035248,2.03591503795707,2.04033425392814,2.02043255340616,2.02094996050921,1.94721298999392,2.02052328240825,2.03189330500371,2.0321575229326,1.9510950319545,1.94462208354189,2.02811536537542,2.02475575293027,2.02429817617197,2.03235899494106,2.03200967077326,2.0367617873624,2.0171627316594,2.01666934708912,1.95137573472158,2.03132343156835,2.02061654481497,2.02868701612574,1.93843517910209,2.02190149069105,2.02897137219372,2.01027198202199,2.02545400214566,2.02639310739009,1.95125465293304,2.02297081134953,2.02772466337949,2.02556869054536,1.93447382484497,1.93097412559497,2.02358221447659,2.00404066265462,2.00387250417493,1.93126416136952,1.94422036750801,1.92954749367022,1.92948157567643,1.92175470407068,1.9308875465692,1.92044956749492,1.92721775603058,2.01556914612316,2.00673974328552,1.92433713004741,1.87108441744419,1.84856078554879,1.94037351533236,1.84515446740683,1.8423180252123,1.83820007977409,1.83874206658132,1.88469049729772,1.88328749213303,1.83042249477349,1.87728984231814,1.88018927377489,1.82811428097788,1.94775465052454,1.87581131790603,1.87440615145469,2.03890075608087,1.93655440441931,1.93579122899389,1.82020242888315,1.81382038602623,1.81833865543435,1.86966822271967,1.82210160438604,1.9476689549801,1.81943762509002,1.81907044172733,2.0366957078227,1.81894045379271,1.81891146857558,1.82593577798559,1.81771255002175,1.81699045935881,1.91058903175993,1.91057911951352,1.8168075266341,1.81691179050769,1.865153846061,1.86575533177497,1.81597381478899,1.81062968195042,1.81646280737721,1.946063376022,1.94534547371128,1.81775995792497
1.98347029022295,1.95137573472158,1.98053051799729,1.90678409529193,1.97903863247305,1.97332011603483,2.00936489703222,2.0090738555567,1.89505835763346,1.97161301715625,1.97005995076719,1.95131438881271,1.96506423281598,1.89143125324999,1.8908249168433,2.09531914580365,2.09467885455027,1.88746217513006,1.95670489475789,1.95568619962455,1.95526453282138,1.9510398106348,1.95452710146408,1.88184507465821,1.95239860348488,2.00229743987998,1.94801593796293,1.94780711012673,1.94804667928022,2.00118178088745,1.8743143683368,1.91334909145853,2.0737384206654,1.9424692044906,1.94580787215013,2.00068701038373,1.94825871189881,1.94943492021703,1.94737015958817,1.94831071357572,1.94936071576694,1.9379702297812,1.994487826959,1.95386323334275,1.994407998437,1.95445022135222,2.08811586954155,1.88715173088982,1.96312141769594,2.06756834139061,1.97759019681777,1.95027401134924,1.99139955352465,2.06428927114684,2.05028987481629,2.04034968397902,2.04579354558842,2.05588845615546,1.95731212918425,2.03781069601802,1.95943916997219,1.95137573472158,1.95656787104574,1.95469313221693,1.95976076862701,1.95321866187385,1.95916703417103,1.95036987549288,1.95587257513127,1.95384448541495,2.03469341175862,1.95137573472158,2.04026831245368,2.04738368383138,1.95353829138882,2.06073856809665,1.95260795734102,1.95139642586744,2.04443095083579,2.03684365578718,1.95247113931508,1.95137573472158,2.04152983086577,2.04990212265423,1.95018161304122,2.04095768918426,2.03420933678144,2.03400750836442,1.9469413512837,2.04776781752687,2.03420911336348,1.95128828709126,1.94605866066639,2.03598734029165,2.01927488655779,2.0331865662697,2.0386389721483,1.94388541579383,2.03214889941935,2.03455483998451,2.02817285348039,1.95137573472158,2.03106645440421,2.03219488392611,2.0302235518113,2.02889850610624,2.02084442522316,1.94005810809758,2.0293157876871,1.9366637068609,2.03417294868103,1.9493054990015,1.93560464736608,2.0229597427478,2.02556479622069,2.03040430452096,2.03079252587399,2.00836555858479,2.01125656862575,1.93009883946237,1.93169837075371,1.94712531559072,2.0042943077784,2.00421022913,1.93073547712017,1.92042175853903,1.93116727402962,1.92192973071856,1.99682586229052,2.01161138534511,1.85049388891035,1.86100299038622,1.84802382723315,1.84620315785742,1.95647781029693,1.84081965374738,1.84011320836145,1.83885538290878,1.83643366710583,1.88316840274925,1.83099862741028,1.87872497722402,1.88025213377256,1.87898434931166,1.87731365257232,1.87601584470154,1.82599871540441,1.82550611609931,1.82400117151443,1.82251356396665,1.82009475592848,1.81363378106118,1.81831422501811,1.86989458831301,1.82127269735219,1.82004480099005,1.81997171775641,2.04271348192972,2.03579775493455,1.81914589124301,1.90950371619341,1.83048239321437,1.81649316457558,1.81644629186176,1.815904618645,1.91615189174279,1.90947457292671,1.81690992198702,1.81574820836675,1.81443799441377,1.86582140063653,1.84138404655004,1.81721271644317,1.81693369580871,1.93841212024173,1.9351802864416
2.01455998736057,1.95137573472158,2.01685921502245,1.9073532430657,1.98002429880867,1.9035059356083,1.97436174134922,1.97479083573223,2.09118112140957,1.97064797340122,2.08472038566392,1.95120153221614,2.08532187210144,1.89287384882889,1.96479685610248,1.96401197404368,1.96391910423047,2.09464489996911,1.95692039397524,1.95691740501057,1.9543949669609,1.95132694693446,1.95492652682128,1.95403294908763,1.95311529010383,1.95214272377432,1.87643170321901,2.00351981407488,1.94726976903433,2.08526366308434,1.87440807859894,1.91330502417154,1.94773686465349,1.87420038524227,1.9473905055105,1.94768052311779,1.9491988888245,1.87197876864805,1.94820913056863,1.9480673736123,1.99553557627223,1.94402515186272,1.94978243677211,1.95362036026023,1.95417382305792,2.07557198195932,1.95693377527145,1.99145434323786,1.99065162313172,1.99122927116375,1.97279658887557,1.95121507462937,1.99119259069782,2.0494123772461,2.05016195126028,2.03491956406984,2.04465416254617,1.9594933233524,2.04439110872456,1.9577680941621,2.03183815068868,1.95137573472158,1.95545294030389,1.95778387864628,1.95580869467228,1.95825429061386,1.9520731288482,1.95756487036211,1.95322156248518,2.03521236053032,2.03555399410118,1.95137573472158,2.03382370153827,2.03163765672124,2.04980011549156,2.03658025840586,2.04098842178425,2.02439395582048,2.02434221510008,1.95351460387357,2.03498139754783,1.95137573472158,2.04168505298544,1.95147189691472,2.02610853648286,2.03229802385104,2.0339772548561,1.94804285254192,2.03474274363122,1.94652257493984,2.04539097965362,1.95137573472158,2.0313724837365,2.03710050757764,2.03760941848348,1.94428802316894,1.94438503699401,2.04369502695678,1.94130429368311,1.94114685410532,2.03401870727426,1.95137573472158,2.02983875973468,2.03163618752372,2.02679727456928,2.02821451687304,2.02016762121418,1.93981987380014,1.93680139237208,1.93634282883907,2.03427643010575,1.95115502239636,2.01706559127687,2.02018900795541,2.03543753831821,2.00482465038734,1.93199960532607,1.93082897183683,2.00380609201376,2.00343841244133,2.00406220270027,1.94689720961443,1.93038495949028,1.93097753482443,1.92287216439697,1.93334176774166,1.92220611777197,1.9280950920679,2.02110762652787,2.01621836094363,1.9238035540095,1.87894820139724,1.89774240679908,1.94095236448968,1.84394195817965,1.84088617884201,1.84069963545145,1.88628138608555,1.88502557887667,1.8836944759199,1.83182290432503,1.87658682369655,1.88095229143214,1.87900439997386,1.82771570892181,1.82871800880108,1.82660621663712,1.82517547660384,1.82461412696028,1.95112103025465,1.95173545114679,1.81106263630736,1.81909764596336,1.95378082595984,1.81999243100697,1.82051292419476,1.82054542200691,2.03481857994747,2.04031628423829,1.81881699170241,1.94905625267867,1.83921613635821,1.81719249045226,1.81642056876978,1.81596573503858,1.81630230906246,1.81529910399032,1.86570197458426,2.00166199932469,2.00234109610022,1.86529611895124,1.87096999050733,1.86536035998877,1.86444413203028,1.81614740090541,1.81519944961926
1.98386124750869,1.95137573472158,1.98155188658823,1.980094011599,1.97985921737799,1.90647921103611,1.97586014309527,1.9746561089359,2.0973616720735,1.96994043757557,1.96979526055097,1.95022472965923,2.0921622598757,1.96336979501162,2.00955407399352,1.96404845599364,1.96258079384973,1.96256505510826,1.95943943078093,1.95598276559637,1.95610007221851,1.95137017102589,1.95628867217669,1.95529787181439,1.95159681438601,1.95105149683493,1.95047499030933,2.00348100854485,1.94835797560071,1.94824156777188,2.00091014217932,1.93545015546609,2.00158923895693,1.94635996437488,1.94702839679514,2.09188970733698,1.9477937170179,2.09132702715154,1.87479216957523,1.94827219966077,1.9501396618257,1.94476163173211,2.08326517828779,1.95417899407468,2.07719211283808,1.95664273379675,1.88530200062609,1.96075288618724,1.89032655587314,2.07402946214062,1.97166694361177,1.9513629659509,2.08107266583858,2.04836905422325,2.0532768436893,2.05183381075649,2.05353579268939,1.96022416083463,2.04144314778793,2.03355563587773,2.0402003999108,1.95137573472158,1.95931234047489,1.95750400477414,2.03147919846261,1.9539273462787,1.95595742099571,1.9538982001318,1.95393534868484,2.02755976862807,2.05170658026872,1.95137573472158,1.95360620106846,2.04484790001499,2.04520174729339,1.9540168929269,1.95344774515313,2.04899368232971,2.04645006651977,1.95248852107693,1.95173268449409,1.95137573472158,2.02536964881825,2.0245256432632,2.02492572934528,2.02869918748486,1.94908284074673,1.94833547138492,2.03421498842634,1.94744744007222,2.03645600866803,1.95104575956302,1.94425581338084,1.94447558323254,2.04531950654517,2.03418295478443,2.04039847965771,2.0384643549831,2.0262210499094,1.94086191064076,2.01654877079159,1.95136334514227,2.02125394156964,1.94070946034422,1.93976371414211,2.02635851543141,2.01937572765491,2.0168689199024,1.93732155817396,1.93645425108299,1.93666898628518,1.94956439454915,2.03304273773864,1.93340792268571,2.02560016163609,2.00317541537324,2.01826896979086,2.01425537288455,2.01878073253393,2.00316968622796,1.92986125047625,1.94444319039413,1.93057244229089,1.92457931807263,1.93209271519763,1.92032767671798,1.9319013489878,1.92262220139885,1.92504680602911,2.01462891227121,1.84788480560388,1.87430169946844,1.89819513798276,1.94121106802321,1.89324419911079,1.84352518376482,1.84208348701057,1.88618570426689,1.83811124231682,1.88353401055192,1.88474509888491,1.89254295548669,1.88274552271324,1.82753210302385,1.82793734740303,2.04068581046226,1.82626284210607,1.82141016211272,2.04849542338081,1.82237912098858,1.81982606710223,1.81401993424121,1.8203505365305,1.82101847295454,1.81830600634562,1.91952524432368,1.95023982134459,1.8161396432507,2.04115155524602,1.81800823936085,1.81641396242215,1.84666570820411,2.03476796713266,1.81915581233899,1.94714508032469,1.81633415462002,1.81641015305413,1.86636166861039,1.87790469601903,1.87654003489522,1.81489136460048,1.87257063580995,1.86514109548056,1.81544558124694,1.81491366378626,1.81492059842948
1.9834527613739,1.95136972471572,1.98078831793034,1.98167425500014,2.0118047947271,1.97740623947448,1.97705932326224,1.97647050009574,1.97127927953657,1.97064722503059,2.10122243730922,1.94628489100167,2.09160904828641,1.96612987085907,2.10149407601943,1.89055691614996,2.00754588891754,1.95978417928152,1.95790070859696,1.95853547033386,1.95675499364226,1.95136126884531,1.95702244142004,1.95730879169267,2.09439266402392,2.00673097168383,1.95075673621321,1.95132079885691,1.87656745595735,1.94867011444849,2.08841661239928,1.94349822581425,1.94814729379011,1.94683174205364,1.8734630801717,1.94919950240136,2.08491441331407,1.94768195294869,1.94771287329389,1.87530634284813,2.07998611100024,1.93889229846758,1.94879431599065,1.95404900345367,1.9550687254402,1.99472066013623,1.88461643626223,1.96066233994901,1.89045286406818,1.89241368467382,2.0709056169732,1.95137533741825,1.9894066581592,1.98760696088249,2.05180599269209,2.05822923538637,1.9622792370281,2.05841633674785,2.05229814506239,1.95986359278656,1.96060089785564,1.95137573472158,2.02925758186839,1.95686342248157,1.95787987272077,1.95524249326629,1.95853909396554,2.03441871736219,2.05226837648344,2.0564320389546,1.95600244254782,1.95137573472158,2.04130831583878,1.95337505263479,1.95357471841009,2.03725346179635,2.03594183490215,1.95320892799563,2.04801493233716,1.95213257979129,1.95341699729502,1.95137573472158,1.95085100843632,2.02434669844797,2.02392614891443,2.03951061970634,2.04051309327978,1.94922739849021,2.03190217883575,2.03785300797947,1.94750403147122,1.95137573472158,2.02701656298103,2.04198976496697,2.04057885987992,2.03278602537649,1.94464535742463,1.94388218200071,2.05119240770952,2.02393793311001,2.02388584630985,1.95061102937194,1.94146269128948,2.02561968396593,1.93967723324541,2.01791644507261,1.93726278298584,1.93743153944062,1.93691806678898,2.01536145822886,2.02703042648194,1.9512761041849,2.03165220623995,2.01470550899657,1.93311849810861,1.93133991131556,2.02387349262805,1.93033951399074,2.01139430065523,2.01099330871241,2.00357366123325,1.95059531328033,2.00154154696607,1.92829784348794,1.92286350402904,1.92918922214325,1.92314438113522,1.92723381006565,2.01416223037758,2.02188496623749,1.84716934323021,1.86468427012877,1.84872241161933,1.84635732871249,1.845524828001,1.84409422422056,1.84005561103125,1.83848005228735,2.0413940113853,1.8362485768731,1.95061817525974,1.90223694575743,1.95120025821075,2.02665761135637,1.82862483006234,1.82873212585074,1.82452848511332,1.82413945279714,1.82365801438423,1.8230071252694,1.82001389460109,1.81456210855049,1.82055847186523,1.82115990862189,1.81982372973793,1.86755493822878,1.81790917542007,1.81764800825561,1.81685366500325,2.0382992703654,1.81475009967655,1.84969253901887,1.90865969591366,1.94780065124543,1.81635859515452,1.81565624084701,1.81582024855667,1.93047810517676,1.8639473600677,1.86331153672196,1.86471572343126,1.8707899939937,1.86450744252241,2.02203005190028,1.90597241296067,1.81555370330778
2.01727884646236,1.95123652957146,2.01496023869117,1.98053370580265,1.98079103785037,2.01414088807102,1.97723549593183,2.01152345463946,1.90191723506628,1.97132583884942,1.90544612383104,1.93527700753243,2.09438136872161,1.96470458712338,1.9648566839144,1.96341930876171,1.96205997771782,1.95975616281835,1.96180564937431,1.95945229530386,2.00847722053727,1.95123969481063,1.95653527720278,1.95643475577852,1.95567758952647,1.95445013495732,1.877579131115,1.87747337355228,1.87730449455096,1.9500762213861,1.95133246311737,1.94859194703977,1.94785410342584,1.87329168908178,1.9507222111793,1.94989072548909,1.94989795512376,1.94959551647516,1.94961607172467,1.94926834204245,1.95071179641523,1.92928859199448,1.88446605140665,1.99555497903652,1.95622938492765,1.88349430968448,1.99321694584884,1.89013005531963,1.99422588963371,1.89194497474322,1.97047690525113,1.95137573472158,2.0614952759409,1.99076272630915,2.03740674448076,2.05661958563568,2.05950788033427,2.05255413850199,1.96032925914409,2.03249467846405,2.03201607805859,1.95137573472158,1.95813674669947,2.0349717367467,1.95548707458477,1.96053295466246,1.95506308663375,1.9563347252234,1.95476573245029,2.04093912044454,2.04132889999884,1.95137573472158,2.04181925531751,1.95422751440321,2.05203482371718,2.05342516783009,2.03657048448116,1.95313325137874,1.95372694098778,1.9531349524851,2.0369313766262,1.95137573472158,2.03833807542178,2.04705007600033,2.04017433179521,2.04468004062432,2.03198297156681,1.94894124342504,1.94858310667452,2.04690439588201,2.04585664659613,1.95137573472158,2.04867004773682,1.94447720012679,2.02822277070215,2.0438197498906,2.03045066187958,2.028703600157,2.0288420593599,1.94276365879459,2.02326277670663,1.95136334514227,2.02120039787756,2.02358165236258,2.03008806864218,2.02448445639543,2.01867337435499,1.93827172676662,2.01981197929157,2.01603451533978,2.0248780945888,1.95115021088119,2.01702373954706,2.023362136135,2.02434864601368,2.01157367202948,2.01553072171022,1.93001798245741,1.93030070846071,2.00205405586026,2.00293177373427,1.95133315934144,2.00263136161422,1.92554378802127,1.92694182925611,1.99941613110488,1.92844053726203,1.92394048154285,2.00503950760511,2.00685043210844,1.92398788027353,1.91851760039352,1.90296012749891,1.94273161698149,1.84552252367969,1.84419029017226,1.9596598637594,1.83755201049207,1.92565928989216,1.92415696151339,1.9230981249101,1.85807731455833,1.83248520506734,1.83169357395073,1.95390694392881,1.95514872089038,2.05085285933014,1.82458963394906,1.82528437423433,1.82212041247324,1.82104622143686,1.81222689963557,2.03723211828958,1.8203101615877,1.81959918070836,1.94826073931306,1.86690494560286,1.81722526463393,1.94848872180094,1.90988207010912,1.86619674467981,1.85121071804643,1.94693140737276,1.94762893677507,1.94725737382498,1.91086190974446,1.8134823738623,1.86304379536487,1.81445126546403,1.86225529918849,1.8634289152404,1.8395080295603,1.81165261037003,1.81259968895674,1.81516737633337,1.81449121828336
2.01721112337398,1.9500343989305,2.01570752232614,1.98138839643366,1.98282572749492,2.01454990934363,1.90466688949023,1.9025145576095,1.9762947962532,1.90020009036244,2.01335054834739,1.94628489100167,2.10463732227061,1.96443560994925,1.96602567343029,1.96675516608833,1.96230136418858,1.96195165634618,1.96042091691534,1.95966044825601,1.9563485863655,1.95053798898048,1.9572342815851,1.95657502227249,2.0070236300551,2.00683606999329,2.08696140626384,2.09802097983897,1.87697879457567,2.08803172516808,2.08657005066669,1.95027743265836,1.94841673194386,1.87245090259779,1.95023487220637,1.95038599232743,1.87593854960925,1.87474204576665,1.94883220151008,1.99930941406766,1.95062101799677,1.93241049548801,1.95114423496175,1.95362614245575,1.95662354827725,1.95639682166499,1.95896579185506,1.99352739008794,1.89083663934664,2.08806736383725,2.09922395130235,1.95137573472158,1.98762894952235,2.06205378923059,2.05846471056683,2.05683631743605,2.04132594096995,2.03802707641995,2.04056088642473,1.9603311322268,2.03774615316209,1.95137573472158,2.03060135884793,2.03644634486762,1.9593949271829,1.95438252483053,1.96171047241499,1.95514691333759,2.04153953318884,1.95391664530662,2.04211565274296,1.95137573472158,1.95412680444084,1.95389383085823,1.95419665439497,2.05346286275948,2.04757258928801,2.0443405099632,2.04008167331141,2.04805932981399,2.03506871122918,1.95137573472158,2.02702303169648,2.02584593056189,1.95064081181428,1.95045971934081,2.04732155390846,2.02664868860965,2.0259613348872,2.02717728026502,1.94800850336161,1.95137573472158,2.03175084178395,2.04108332088836,2.02563573540607,2.03649181371729,2.02175769606219,2.04076341715819,2.02867179312452,1.94308851651862,2.01769334614615,1.95137573472158,2.02672094486458,2.03602914317912,2.0199155683762,2.01800801373761,1.93839348887031,2.02221533284216,2.02661813439003,1.93532870595731,1.93595685158257,1.94743101982367,1.93581755087416,2.02135541358843,1.93358254757188,1.93237957614095,2.01700275697576,2.01687886968872,2.0036242881895,2.00278745401355,2.00149934974418,1.95137573472158,2.00408672448449,2.00447002899234,1.92381964197563,1.92606523527973,1.92361267336372,1.92523079480712,2.01187283213224,2.01388295838854,1.90384720237978,1.91405991842267,1.90219044639978,1.94607726254906,1.84586218643128,1.84347096163375,1.84272321072071,1.83771564249926,1.83677513667956,2.04464397452533,1.83260716768783,1.82601641203362,1.83157241450137,1.83179130574561,1.93296489289053,1.93193007875728,1.82556250911509,1.82635736500177,2.03547081842527,1.82031320369685,1.81822427639918,1.81421538346769,1.82033043601071,1.81980173829469,1.82163771059911,1.82009436556678,1.81918691948554,1.8176164025971,1.9488185688062,1.81887635004736,1.81337081601077,1.83632912014374,1.81365349303828,1.81292204260204,1.81448480468295,1.81424746912425,2.03099412933724,1.81393529147255,1.81376804265369,1.94657876211924,1.81263236875091,1.82762196041375,1.81262982557361,1.81370154341454,1.90450750420348,1.92974080010474
1.91923424360065,1.94409361524817,2.01654350431641,1.98321934980862,1.98362537043066,2.01632954797312,2.01357855523204,1.97562582595126,1.97493096123979,1.97418828505389,2.01344109458562,1.95022448950366,1.96976385363608,1.89436955947542,2.0137741753843,2.09111359673638,1.96689838787764,2.01041992242243,2.01066245698305,2.01041992241915,1.96297773565338,1.9477999977425,1.95891808566236,1.95789133767785,2.09112329811888,1.95518839380198,1.879374455914,1.87934858556064,2.0809659506335,1.87610185621375,2.09437339224181,1.94932588819882,1.94961172871994,1.94865546233561,1.94956876272468,1.94866422776171,1.94924833080113,2.07621227320482,1.94863840103988,1.87647050874904,1.95065738259075,1.92976739837699,2.07602794693717,1.95305896509018,1.95736994010444,1.99723331820897,1.96044629300616,1.9629753017413,1.89133464364869,1.99350960421962,1.99277876673807,1.95137573472158,2.06547289392751,2.06462528228862,2.06309503272787,2.03813595392862,2.03639571867548,2.05432167649521,2.04774814514209,1.96037743008032,1.96030596742928,1.95137573472158,2.03195365063337,2.03155595350509,1.95576474104583,1.96248399714217,1.95432750246238,2.03488438372268,2.05012556743957,2.04391641941514,2.03958153197128,1.95137573472158,2.03793061783012,1.95657340561824,2.05166694340448,1.95501290152997,2.03816406795749,2.03900915711875,1.95268793725255,2.02503748047995,2.04680738203122,1.95137573472158,2.04074401738429,2.04690137939927,2.04595878122472,2.02581359107614,1.95043384898641,2.03070108663881,2.03035704600028,2.04439139190225,2.02809341635305,1.95137573472158,1.947212989996,2.03450324225785,2.03687088630286,2.03504454386223,2.03596404803932,2.01978626233985,2.02733487240722,1.94309738635285,2.03135499292466,1.95137573472158,2.02417265321457,1.93890052208309,2.01823706171299,2.02313055036256,1.93757479503342,1.93685362925941,1.93714827039543,2.01908058657055,1.93628888530771,1.94728235782202,1.93536343797642,2.02071855143914,2.01843262588192,2.01480069114067,2.01111607117455,2.00527265309697,2.00329128992805,2.00231837809306,2.00172800968328,1.95132808792285,2.00405034476282,2.0038423065448,1.9254743306323,1.92144105489,1.92669319072594,2.00007582573101,2.01397608977551,1.99454603713583,1.90371942948988,1.91423334916655,1.90180375084711,1.8975116564759,1.89631270976176,1.84322769067295,2.03696047957937,1.84046106626635,1.95341217342455,1.8365881252606,1.94536972732581,1.82493226523632,1.8318401015526,1.83181605295566,1.83058535914371,1.82931154306305,1.87600640667882,1.82446142743275,2.03101888173062,1.8215921793406,1.81934824644682,1.81482218283699,1.82093459237187,1.94448690151763,1.82016731109122,1.82000026724023,1.81903663877496,1.81908368019245,1.92132970146552,1.90534182310016,1.94677157709711,1.84830884999864,1.94642717801913,1.81642227685559,1.81271371946916,1.81601306675335,1.81256904597221,1.81366144786856,1.94375371953305,1.9443522948338,1.94338894755077,1.83369617858976,1.81312677738164,1.8113992160286,1.81384088161604,1.81184548577137
1.9875632179107,1.94990454655953,1.98228298071804,1.98260450188416,1.98284933793628,1.98137383974967,1.97666502464018,1.97652411890693,2.01439506386133,1.97669566953367,2.0902404723107,1.95119322349032,1.97009370064283,2.01298198820523,1.89367591062717,1.89249234196126,1.9630075018182,1.96320387795592,2.01104081089967,1.96139641122118,2.09077404834861,1.94052728730335,1.95838625658846,1.95602749218205,1.95635972283956,1.95362026021157,1.95685888767538,2.08589425294733,1.95121722862799,1.95037646995887,1.95074480396816,1.94523530245847,1.95009568502107,1.94880753264585,1.94875983888196,1.87690707069491,1.9483695668094,1.94849745488684,1.94839503935416,2.08233384556706,1.88453228643658,1.89911227298675,1.88447601289423,1.95181065190895,2.08844448384925,2.09255063360781,2.08493381651216,1.88987088981649,1.99567139562534,1.96680623741926,2.06718028609031,1.95137573472158,1.99125726658017,2.03892015884868,2.06822493044109,2.05789326574948,2.05265164332504,2.05326797795722,2.05145717006862,2.06834444972748,1.96037417108895,1.95137573472158,2.02971025309983,1.95647978111873,1.96233595534576,1.95218160456462,1.96009024642415,1.95409494184834,2.03127547061906,2.04430447437323,1.95519722780073,1.95137573472158,1.95571140107259,2.05463168588982,2.05313822735169,2.02701656322352,2.03430358854977,2.05205582799514,1.95219693545306,1.95301506106349,1.95204781620698,1.95137573472158,2.02540128331073,2.02460576990984,2.04783971481391,1.95328605544363,2.03619608618117,2.04053736675639,1.9477077605018,2.03707457396964,2.04146799438705,1.95137573472158,2.03751039902353,2.03236031950812,1.94519316215684,1.94534062317215,1.94447914040428,2.02845792672174,2.02740502563325,2.0263477501377,2.02522046448585,1.95137573472158,2.02158038662564,1.93979951686212,2.02810472160131,2.02679973081649,2.03770765639327,2.03218722678205,1.93661045163751,2.02469817713521,1.93633319417286,1.94923853145431,2.02789911047995,2.03441899190243,2.0104050049048,2.01667198399473,2.0039561990996,2.01772276301866,2.00407500809765,2.0172278639362,2.00138727587926,1.95057080756507,2.00615009671408,2.00472337809243,1.92301859425378,1.92977297724576,1.92305028769701,1.92647652903729,2.00683930303622,2.00789351989576,1.85114940968841,1.84538130705847,1.84995467131854,1.95395545084007,1.93301016600927,2.03733883349716,1.95191815987752,1.84018257109974,1.83860706171014,1.90031489006274,1.83202162546339,1.8267240952615,1.83136444371708,1.87913090502117,1.87770397024552,1.82883676061737,1.87539197391257,1.82509184156002,1.82404926656332,1.82266786964958,1.82062506507918,1.82869196420505,1.89380687929831,1.81926872040557,1.81962665286014,1.81920185683917,1.90729180098389,2.03134337910751,1.81643195089629,1.81703070548143,1.94496711995071,1.83998484492592,1.81453173253358,1.81312777271837,1.81751314912496,1.81210081989671,1.81490331835002,1.81248308457399,1.8150831410927,1.81281932681219,1.90967349038804,1.84090566165968,1.81246146778896,1.81257665513693,1.81050963767547,1.81447958986053
1.98703907407226,1.94993852527537,1.98344506130424,1.98312376725887,1.90832014752124,1.98233013093838,1.98345690043289,1.97742135627396,1.97774844241072,1.97484913500894,1.97205345284651,1.95121027940698,2.09091956908622,2.01287887636722,2.01346317677765,2.09459639305658,1.89290465071678,1.96271302384625,2.08712632852617,2.09869972449456,1.89068719866764,1.92805764651571,1.95733770427071,1.95896808981462,1.95404956617103,1.95583770117556,1.9530283791633,2.00707052009274,1.95306189716657,2.00668246477338,1.95103388223368,1.93779670777404,1.95027430281065,1.94818681882177,1.95018108007741,2.00366533481354,1.94909885655357,1.87830407004296,1.99898926844491,1.95142436472243,1.95172223611004,1.935625751198,1.99817435231114,1.95619646981389,1.99749525553459,1.95903897527267,1.88831866861529,1.88968794946183,1.96536495485155,1.9674332616118,1.99130562634192,1.95137573472158,2.06777207555387,2.06011354315834,2.05710468262436,1.96418070799958,2.07103173453214,1.96178446652022,2.05171730172805,2.05861396635483,1.9605444114536,1.95137573472158,1.95755497117637,1.95999025129671,1.95411795011626,1.96244295433274,1.95235494798464,1.95770307922925,1.95565240261128,2.03091651827761,1.9563225881716,1.95137573472158,2.03176029867771,2.04010442439522,2.03175993692983,2.06489075980671,2.03653596498143,1.9555755817154,2.04569102778464,1.95340600975953,1.95229769367215,1.95137573472158,2.04356711977673,1.95334025189047,2.04446141217086,2.05050018300291,2.03233598971979,2.0321826552889,2.03777628138454,2.03557206891236,2.04455818247134,1.95137573472158,2.03746408683368,2.02916389516983,2.03374363232832,2.03239597661942,2.03164233326293,1.94448528461415,2.02773326470228,1.94411824897401,2.03121782958289,1.95077178973158,1.94221923727915,2.02419369708347,2.02813467516434,1.93898840044017,2.02420453244621,1.9373178040168,1.93724108966824,1.93527713746296,2.01845994313543,1.95126819555518,2.01702802980436,2.01490283587528,2.02443855823038,2.02230000538466,2.01815898640128,2.00366545104537,2.00401531322731,1.92771811103751,1.92984510672216,1.94427134465192,1.93008809103317,1.92464879541976,1.92887035804829,1.91825413846072,1.92843035621,1.9205201218734,1.92365498610326,1.92283602805877,1.8521243510821,1.84735660590514,1.85083554534053,2.03176053855533,1.95524573471285,1.84508659077624,1.94771099462649,1.94954778970274,1.83900139363284,1.90019200588431,1.83285812969045,1.82718487291479,1.83193630804966,1.83130148192637,1.87810643902844,2.01911963714802,1.87608950871523,1.82613485276599,1.87272058757343,1.8223355532593,1.91454520106427,1.83018201651417,1.82215632743993,1.8194362015511,1.9235771884187,1.8193677303313,1.93399000564021,1.81759449421461,1.8172636357719,1.81611083661881,1.81577310872062,1.83251056827257,1.81384466087987,1.81491743828502,1.8137328834787,1.81545016827461,1.94848387111073,1.81416030771697,1.81168246069905,1.81295320961752,1.91058542034225,1.84858505847044,1.90980445905114,1.94104291072746,1.81167019151802,1.81217550866872
1.91966685664274,1.94405863482388,1.98517082667531,1.9105805696455,1.98508855703463,2.01763809744536,2.0192812344606,1.97817688159934,1.97712857703146,2.01422043909845,1.97107803664634,1.95031791202659,1.97362771924624,2.10882832119109,2.09123971471092,1.96778557755584,1.96380571872736,1.96351073532548,1.88875245900356,2.10445335104237,1.95892255868674,1.93154977985492,1.95842813250671,1.95894238215016,1.95644385087518,1.95336922020698,1.95429086794567,1.95150270335412,1.95115671349801,1.95309135453785,1.9524878825779,1.93036736409749,1.87817924644316,2.00573172928764,1.95059416186351,1.95086723190255,1.94986880122242,1.94952026936244,1.87643493701422,1.95141017159206,1.95212090192006,1.94419243413725,1.95393493934527,2.08999147015863,2.08891785049446,1.99743057965224,1.96126874833826,1.96224392639928,1.96705266246381,1.99381580389027,1.9944129907194,1.95137565547893,2.08896959119404,2.06977055378589,2.04559273561544,2.03761379910099,2.03801515916639,2.06038931786613,1.96129357656691,2.04449845378747,1.96060512278978,1.95137573472158,1.95844251715768,1.95575956164632,1.96102435482014,1.95918496425828,1.95770654878814,1.95627655557635,2.05059114846215,1.9563419909335,2.03413289935778,1.95137573472158,2.0342924162807,2.04508833820941,2.05830263601937,2.02624368619421,2.06856758377806,2.04184444685096,2.04581234723887,2.04533401325108,2.03898758672743,1.95137573472158,1.95322383530031,1.95316898237239,2.04494127339923,2.04030647178518,2.03331802891898,2.02747720758227,2.02772944108869,2.04254512802272,2.03962501681463,1.95137573472158,2.04054305896101,2.04045353948105,2.03429679082494,2.04077785605081,2.04068084316586,1.94432359490495,2.02571797269984,2.04166564885176,2.02550683641606,1.95137573472158,2.03453513374411,2.01819748705334,1.94003614975098,1.93946279804475,2.02646058950606,2.00763966784873,2.03758136805614,1.93465877062252,2.04458576440407,1.95127117435127,2.0219935672999,2.02710942778235,2.0344673533336,1.92774482632138,1.92834550726502,1.92846660917994,2.02144796992746,1.92695021669201,2.00263375447248,1.94649792512681,1.92782632602339,1.93162757633325,1.91946462564161,1.93332968260038,1.92157840335638,1.92753912271575,1.92152151227177,1.92398727180585,1.9018428578038,1.87337670966882,1.8512736683877,1.8491336724297,2.03729032658462,1.84183133249593,1.84174904102506,1.88927633366313,1.95632097073064,1.83696545868759,1.83271497235449,1.82745999927566,1.8312709136227,1.82943544179093,1.82686869238996,1.93779294758535,1.87610943595135,1.87469498686185,1.87510315373742,1.90668061437265,1.91600687602033,1.83180942496486,1.82174242601495,1.82138360698526,1.92375828089217,1.86743551228717,1.90611793369828,1.81745717324045,1.81765474752407,1.81619701116428,1.94722269138475,1.84262863873822,1.94785328124566,2.03536945284813,1.81475045524321,1.81365248647294,1.81577505734271,1.81253611869108,1.81381788292004,1.81164522361218,1.81129056696031,1.80535147913849,1.81085539885875,1.81177474681723,1.9428764720193,2.03072249062703
1.98672672116349,1.94836511066366,1.98628609903486,1.98711597413316,1.98710428240851,2.01755826892732,1.97967162779196,1.97747296454682,1.97829218315023,1.97446894010193,2.01531669520235,1.94658232827799,1.97299968669454,1.97080048266129,1.96995546686535,1.96860898068255,1.96493199092893,2.08725244649838,2.01172250570096,2.0113926595888,1.89269621747411,1.92770010720376,1.95755904140767,2.0077981237607,2.00830259565109,1.954616271776,1.95318793781417,1.88038501659186,1.88024919723676,2.00688619380395,1.95192721082405,1.93220271726714,1.95166796641034,1.95150830876942,1.95257435783771,1.95081438052393,2.00366533481354,1.94994119574916,1.87664189984104,1.95165971900005,1.95278063617818,1.94908411238145,1.95385289336869,1.95471881105188,1.88322267097427,1.99783157012922,1.9611287819395,1.967110493095,1.89293375486431,1.96842991354365,2.06602582157191,1.95136596845813,1.99225327518517,1.91598423970219,2.05050964258887,2.06509448606245,2.03708604389331,1.96154969306511,1.961464320899,1.96057955481436,2.04798124785406,1.95137573472158,1.96093715434458,1.95843880833769,2.03104263624977,1.95810790599273,1.95822877703157,1.95707180207838,2.04496394783657,2.04509988454756,2.03725623143811,1.95137573472158,2.04046162665391,2.0407764046116,2.06246629871301,2.02551931631977,2.04788407934235,2.04338393154298,1.95460322600678,1.95401227322209,2.04764198047663,1.95137573472158,2.02361137725045,1.95328948375491,1.95221570847771,2.0354567660791,1.95076248992416,2.02197984731909,2.02131368657495,2.03360342061586,2.04662801190014,1.95137573472158,2.03728338535811,2.04080383073816,1.94546674114256,2.01765472838731,1.94448528461415,1.94444001149504,2.02908736003224,1.94341328184796,1.94354180034575,1.95094970715874,2.02463938055304,1.94122723698677,2.02829714500015,1.93843736191374,2.02490150569737,2.00863567645299,1.93719146186364,2.0203851208105,2.03342917727019,1.94940231657091,1.93649214606009,2.03209585045647,2.02832479872198,2.01738960426023,1.93054510739334,2.02123453942926,2.02834565091986,1.92761134663967,2.00130143127536,1.94667843989102,1.93190351383574,1.92183484559207,1.93204258190508,1.92085327707563,1.93042028513652,1.92132833852551,2.01904202349525,2.0098160112141,1.90135132109158,1.8999555548485,1.89986054198301,1.84801463665761,1.84732646591513,1.84231819013991,1.84170740344434,1.84025041428812,1.9545294487415,1.9467473247553,1.83337365104499,1.82742352666541,1.83187296330716,1.82886547187186,1.82723356423668,1.8270100062181,1.82620520050609,1.82634441101031,1.82615881136311,1.93377657522655,1.82255796886319,1.83165356340435,1.94959629630388,1.81907056371984,1.81944024688398,1.86897569606856,1.86789452782197,1.8665838027718,1.86611117307536,1.81554765325432,1.81374768557758,1.83195142108158,1.81442668332007,1.81428972582149,1.81337200456305,2.02839415882522,1.81545995334957,1.81304883721038,1.81123569650753,2.03207098279557,1.81199065428154,1.80564635720649,1.81073820031972,1.81158024993181,1.80968546787418,1.81123058704414
1.91607819935202,1.94282903908852,1.98673428342252,1.98666708693397,1.98569934816139,1.90988207010496,1.97813980661483,1.97847374387525,1.97687391511229,1.97592347414167,1.9754534095997,1.93580975945692,1.90629654734989,1.97074556578299,2.01406521685952,2.11104993778934,1.96818858865674,1.96436875561074,1.89140093642812,2.01686857007293,1.96026377056436,1.94085083222103,1.95815978700721,1.95705094452577,1.95686502572855,1.88359132350956,1.95355325280124,1.95800256992237,1.95160307400317,2.09809859214179,1.9519899951698,1.93195100858402,1.95207108309396,1.87698634511707,1.95119159892466,1.95070323235671,1.87619887003882,1.95091389350421,1.95167133099834,1.95098037266916,1.95057801098991,1.9505987569699,2.00167816829554,2.00180105247397,1.95661540213855,2.08239205386211,1.96008016064887,1.96537659225081,1.99493247365653,1.89676275194984,1.97194828160169,1.95120574435892,1.99196870129945,1.96697470616711,2.05289695948115,2.04833091795524,2.0476727128718,2.06144351925539,2.03684406404312,2.05826471450442,2.03385895574874,1.95137573472158,1.96189738259891,1.95915213017981,1.95747982538218,1.96242596481786,1.95617509341871,1.95887956065243,1.95660438493772,2.06482285013354,2.02840363046044,1.95137573472158,1.95621725887706,1.95571167825488,2.04333511811918,2.03811494277343,1.95446511203013,1.95483511900542,2.03982238741909,1.95500680351909,2.03716461288016,1.95137573472158,2.03834777603571,1.952596002672,2.04398428051481,1.95146602505969,1.95099049882934,2.03178291920313,2.03016602034478,2.04757180997765,2.04185756337549,1.95137573472158,2.02061196721099,2.04101188628851,2.04199270664153,1.9469316499012,2.03338505157114,2.02216742716867,2.02197895909241,2.02876561372133,2.0248626340641,1.95137573472158,2.03089962740976,2.03007662477001,1.94058694574127,2.02574611469213,2.02489368739536,1.93756011439893,2.0205403317116,2.01846146882395,2.0345545376077,1.94934892215069,1.93665619393897,2.01555929262005,2.01485389106199,2.01651602841592,2.02733673053568,1.92971169595034,2.04058879432786,2.03091651967816,2.01830472101579,1.94536449357686,1.92615123093775,1.93131126410628,1.91967658418456,1.93054660748415,1.91827632206774,1.92489753749048,2.00923398259859,1.99395425372677,1.99179084261822,1.90313745565306,1.84941590199588,1.84704149783228,1.84631246694366,1.89343822702229,1.84272620481643,1.88731720908855,1.88654613999536,1.83465190502492,1.83190572601145,1.82710322655954,1.83153409605998,1.82975677022522,1.92100955584941,1.82681937049591,1.82751179020765,1.82547865937724,1.8255021637561,1.8232087181911,1.82279429884939,1.82999064119203,1.94989380536745,1.81750090406725,1.8167037489962,1.81643108558416,1.86723172216696,1.86682827350449,1.81874892805208,1.8158406313164,1.8634745082146,1.83926241144569,1.81503738123923,1.81517387844686,1.8132590292424,1.9433906452922,1.90469183046967,1.81085200529886,1.812178129941,1.94362347847029,1.80839592726624,1.80404672598068,1.80929975062542,1.80993994058371,1.89888716993692,1.89751604120816
2.02374719659891,1.94964469349414,1.98657112577126,1.98618450142346,2.09420833775628,1.98420485971114,1.97940344821054,1.97813828727032,2.01791666577052,1.9031105051147,2.09244268613991,1.94658232827799,2.09439266402392,1.97092622572357,1.96811181534669,1.89459269127309,1.96480022518078,1.96455629245573,2.01414282791958,2.09856425850216,1.95929346065848,1.94807733782231,2.010174962474,1.88279692033073,1.88303419424909,1.95669124071001,2.01011453672119,2.00890269545363,2.00834500455182,1.95344811246541,1.87852549413381,1.92883408214659,1.95064047335445,1.87679896984469,2.07792941790865,1.95338504639109,1.95321403567394,1.87534514837816,2.0070429640527,2.00165268766694,2.09150165203668,1.94980221027817,1.95380415082391,1.95654856960216,1.95690715481524,1.95889374401908,1.88650173826182,1.96480939512586,1.99593494984884,1.89558639002641,1.97034431969244,1.95003212430687,2.083536816998,2.04110297080581,2.05211665433904,2.04531646067212,2.0457375018077,2.05594306598038,2.0578426854166,2.0348350338442,2.03385465410791,1.95137573472157,1.96032207287243,1.95767243145688,1.96122318481025,1.95542377641674,1.96141879536885,1.95391098150453,2.03698775086678,2.03427545624576,2.04356763091179,1.95137573472158,1.95676718867162,2.04749033594562,2.04102622324361,2.02028380551374,2.04332814351852,1.95418355163692,1.95401752663134,2.03545342171524,2.03145303583452,1.95137573472158,2.02709555987438,2.02718758444297,1.95079885697177,1.95180164729599,2.03082920669792,2.03769633666602,2.0379227050415,2.04207806265583,2.03701122205427,1.95137573472158,2.02045027797268,2.02857877345771,2.0184807636571,2.03459476094842,2.03133982373956,2.02677067414446,2.03403419180845,2.03408593331193,1.94320260852509,1.950904077474,2.03095621678403,2.02954143507317,2.05383118375202,2.01867344607623,2.01426511083196,2.03169262686917,2.01133870831995,1.93693762475803,1.93742525484966,1.94951325288991,2.01423984174613,2.02610520437016,2.0116918566223,2.02416809861379,2.02141559998518,2.01778085158296,2.01427902507698,2.01619127261654,1.92895028921524,1.9423479631919,1.93046785708709,1.92000924998128,1.93105287852608,1.91646193580468,1.92774422033923,1.92108982263122,2.00357491242473,2.01458909041768,1.95935376440685,1.9008224800317,1.9586315172136,1.84816006824056,1.84643680328427,1.89993976915693,1.89889848741582,1.8893477951494,1.9436816867695,1.83440455743237,1.8333846382412,1.837744282573,1.95289372012802,1.83075660754918,1.82703547166612,1.82716213399834,1.82795829123941,1.82530835046222,1.8232327071834,1.94205450858822,1.94081826987018,1.8288203053424,1.81874152780356,1.94787268401275,1.81721276121269,1.81613184446403,1.81750746991498,1.92276550608328,1.86361717560466,1.86385400347116,1.86321827758308,1.84806952083069,1.88726814748607,1.86238714681724,1.86127347927754,1.86068967835711,1.81132323419061,1.81134264011215,1.94617494207186,2.0412581920302,1.809475048686,1.803438746879,1.80881036131735,1.85921174927231,1.99740794309618,1.85865463311518
1.99087379489633,1.95107898932664,2.02188319424402,2.02230470741423,1.98628059343835,1.984805284298,1.98436623080818,2.01788756156086,1.97698296229604,2.09916574421762,2.01726667308492,1.95031836526472,2.01676220119661,1.97030697768583,1.96978797551922,2.09093851404513,2.08950362613699,1.96606453745449,1.96426628866435,1.96383731949724,1.96337158413499,1.95063401593111,2.09802098108173,2.01343462699653,1.88360411610314,1.88236254288216,1.881716232408,1.95297942125259,1.95297444736165,1.95342784637926,1.95082679794575,1.93281694867285,1.95100715530766,1.87780902235371,1.95091739340082,1.9532367345929,1.95154003067306,2.00242355785214,1.95170915309611,2.0016212559392,1.9537905273361,1.94577227189504,1.95372182322221,2.08872705663848,2.00113812466899,2.00045902789197,1.9620236847627,1.96490070352784,1.96601329654729,1.89694901849398,1.99396395230226,1.94486958756825,1.99680645737406,1.99374082050458,2.04179577224156,2.04184327070868,2.05688098600439,2.03799852824022,2.05748033822992,2.03629439103537,2.03826030046418,1.95137573472158,1.9599720901388,2.03739494922965,1.95730951326984,1.96151541234016,1.9533957885709,1.95707882381294,1.95483749185513,2.03977294298124,1.95741884439391,1.95137573472158,2.04168458102908,2.04865500603243,2.04118859126584,2.03940964480628,2.04345422618007,2.04183801117097,1.95398338820907,2.04817527468955,1.95330545821072,1.95137573472158,2.02541805227362,2.04869281220351,1.95129490414514,1.95131581337218,1.95170116470803,1.95133494938537,1.95062183017472,2.03784370858958,2.03678746546753,1.95137573472158,2.03573261098819,1.94706192561014,2.01813798177926,2.02394146933827,2.03227369069858,2.03322284364733,2.02788499984953,2.02016727727888,2.04016371080959,1.95082010351577,1.94257838156028,2.01573386895264,2.02022207142872,2.01876764128056,2.02549750238421,2.02093404916218,2.02296696281828,2.03489408070757,2.02237672520339,1.94928725228043,1.93590736751296,2.01651882689231,2.02673050425158,2.01134883278286,1.93009975125064,2.00945673418309,2.01412072823168,2.01329933352525,1.92884243003179,1.94221682947558,1.92464611504128,1.92974379564498,1.91657234167469,1.92960812339984,1.9189268620451,1.92603757948012,2.00476494556002,1.92331848488167,1.95794807554036,1.87237478928331,1.849426255611,1.84768365827236,1.84606365258791,1.95429338233282,1.95389885944568,1.84129100169956,1.83659274134773,1.83535700783058,1.83248021374966,1.84001400608204,1.95252735027172,1.83002428022676,1.95299877417118,1.9525814103263,1.95349260521222,1.95198591736398,1.9478824574856,1.94279736132896,1.82077271325479,1.81638277175319,1.81980456053636,1.82067128455428,1.81719073669113,1.94694135129203,1.81734985730964,1.81679596671021,1.8163594749695,1.8152787242772,1.8124378906302,1.80548679378718,1.81041809446016,1.92866879733807,1.86204644093354,1.86124311799524,2.03380753026442,1.81123364606171,1.81033838713013,1.81012149236101,1.90300378991441,1.84309166390233,1.91828346736376,1.91677005169258,1.81028767728269,1.86007388830713
1.99112870886793,1.95022388666082,1.99066548225425,2.02188456615718,1.9856409484919,2.02101417855663,2.02063942801064,1.98051380119526,1.97741074132405,1.97783026013439,1.9772419364059,1.95122421938818,1.97370746562613,1.8995015908219,1.9698952935468,2.10415225373157,2.01957575939623,1.96590881916584,1.96414207886289,2.10735371105397,2.01401185925648,1.95117045626594,1.96097897725451,1.88556070415859,2.01403449581596,1.95857330891647,1.8814858856459,1.88214711462847,2.00950556708307,1.87860481290069,1.95138364091762,1.93304039058882,1.9512215425669,2.00767200578914,1.8769361751094,2.08554500317706,1.95129669496766,1.95058243507355,1.9514616416232,1.9515461700244,2.09003674327804,1.93674188074944,1.95469193432626,2.08841661239824,1.88336582172259,1.88751305203398,1.96164371742634,1.88999423596453,1.96657144374414,2.08451665663126,1.90708029981613,1.92885432739427,1.90824184218662,2.04772884859767,2.05489838353124,2.04124473373763,2.06109394596655,1.96398668034943,2.03569187794008,2.03530513231477,1.96107949939446,1.95137573472158,2.03310229363981,2.03640777026979,1.95924420103568,1.95587833894419,1.9599458045446,1.95683690956318,2.03146915516978,2.05150322816783,2.0388858778342,1.95137573472158,2.04768554913988,2.05067466506163,1.95649721305362,2.05311146852084,2.05151397556593,2.05846895700338,2.05061444239749,2.027055372991,2.04737006001628,1.95137573472158,1.95360620106846,2.04889977410446,2.03543318819318,2.03474588080637,2.0346528955915,1.95070720234079,2.03766868050241,1.94882674839848,1.9480867802027,1.95137573472158,2.0352060711166,1.94692333443266,2.04185482705198,1.9468203337752,1.9455719946085,1.94392975316901,1.9434349994756,1.94323407911964,2.03618259378738,1.95137573472158,2.02479490469876,2.01724694329807,2.04119028094885,1.93858846094472,2.03082918601501,1.93732728121875,2.01844297663936,2.01822019668735,2.02030549654268,1.95126026970922,2.0202119524281,2.03116875142965,2.01869740729097,2.03030540784529,2.02097272049862,2.01471485386757,2.01417132655174,2.00872071315014,1.92887185061577,1.9428854345309,1.92994346193998,1.91927595766316,1.92947676286268,1.9212211686352,1.92789656981186,1.92162038661431,1.99695131316781,2.01714066612744,1.8510879851726,1.84600878396055,1.84825998057138,1.84706280929076,1.84580244122137,1.84362059958479,2.03170233026029,1.84013925630756,1.8373240821305,1.83627282621006,1.83170299996625,1.84278428837973,1.95160971362042,1.95023439998184,1.82872033866536,1.82730449138059,2.03328365560901,1.82413523974897,1.82350987206942,1.82269572851547,1.82127532895712,1.81604700738116,1.81765195281797,1.90735000928018,1.86699225804507,1.81767583233002,1.81708580707657,1.81569799865727,2.03056726850691,1.94061604989504,1.81337374660347,1.80693744055364,1.81175438696628,1.93016281024422,1.86153185780682,1.86031234820357,1.81227646070023,1.94436078354503,1.81094755168239,1.8108192439877,1.90405153922522,1.83223483151421,1.80826234303923,1.80831551477496,1.94010996110682,1.93967663268964
1.92156250381881,1.94384586582257,2.02382733450046,2.0234436469221,1.98742766253419,2.0213224053392,1.98087683637804,1.97906534258488,1.97810761023881,1.97786482462506,2.10925518202545,1.95136402233685,2.01866256343975,1.97551192277253,1.89783794231403,1.96757619188138,2.01760606420025,1.96773196480891,2.01530699382257,1.89027592690801,2.01383723436985,1.95065777856991,1.96001206769914,1.95910643850199,2.01383400057747,1.87932271520625,2.08787333497886,1.88126131085555,1.95377107456756,1.95410780607731,1.88269103859296,1.928524692222,1.95109535595135,1.95014879613222,1.9502394672325,1.87637349492396,2.0065078398872,1.95185173484529,1.95155087575384,2.00460636891677,1.88398970221471,1.91593235157511,2.08845541792931,1.95501613532844,1.99920319843264,1.99817939397872,1.96124452087548,1.96546993098669,1.96689484468648,1.97141470519556,1.99401463297394,1.94486958756825,1.99370201497414,2.05471412771684,2.06432646130537,2.06354388317424,2.040578371357,2.05766676487433,2.05569282325257,2.0603771037037,1.96085960139096,1.95137573472158,2.03426235400679,1.96089885615474,1.95912197599033,1.96031432798693,1.95761859646436,1.95769243409511,2.03777573881859,2.04413502174283,2.04080651938363,1.95137573472158,2.04779368262479,2.04073193907364,2.04874452714855,1.95556806314553,1.95612007181017,1.95558358535754,2.04985496134494,2.04929505106437,2.02502777939139,1.95137573472158,2.04091211926079,2.04102481539339,2.04092974598422,2.03360514628439,2.03415019730863,2.03764417178944,1.95002249134798,1.94942481009565,2.03688292531717,1.95137573472158,2.03697506278116,1.94710073114017,2.04342645101657,1.94700251994895,2.02245054754447,2.02442345006399,2.02819843576016,1.94310539362821,1.94330282141493,1.95091755858512,2.03459735954984,2.04239341118521,2.01914004353777,2.02762743861776,2.01784033123117,2.03016966078134,2.01833261708506,2.02358864231696,2.03879403968117,1.95137573472158,2.02571135600987,2.01608768780923,2.02248128814143,2.00074521935622,1.93116690332865,1.93138421429562,2.02075982348477,2.01854176108085,2.00026985093382,1.94510322857806,1.92608228827744,1.92719131882736,1.92131684032802,1.92637468911887,1.92115227980769,1.92361797204696,2.00459723231434,2.01010694168175,1.8491880860371,1.8455010573359,1.84874207478061,2.04009402554085,1.84484535716679,1.89275912998659,1.84073461560806,1.84007530149844,1.83664278536031,1.83617432908387,1.95340587911068,1.84253939157045,1.83021688962088,1.82875215397755,1.82898828681237,1.82732868287988,1.82653699907638,1.95384226804801,1.82281375798626,1.82156645178204,1.82212063155451,1.82592880127274,1.86955342302533,1.92665576046535,1.81967861555201,2.03042174776929,1.81609206120323,1.81637801091879,1.81575337899474,1.81521611100481,1.81330791103109,1.80733893843958,1.81221969529854,1.81199702410459,1.86232240593323,1.81172633822368,1.86098710227126,1.8127812629815,1.81027596388682,1.81043734035268,1.80861362567279,1.80288162277027,1.80825808103239,1.80625728461831,1.80849004250083,2.02677402794646
1.92114879094895,1.94220814410265,2.02476440685626,1.98758621756998,1.98705577079531,1.98692313818379,1.98305591285101,1.97917116724431,1.97838809859509,1.97890796368284,1.97720204108582,1.95137538786925,2.01931782253135,2.01835988030552,1.89793551050502,1.89673586526117,1.96744016332938,1.89316767323006,1.89261408248153,1.89217880127515,1.96207874179482,1.94782335899464,1.96050343706432,1.95960488960406,1.95885680662201,2.01363413405715,2.01281291682088,2.01023821443626,1.95401281222171,1.95370084488181,1.95284855745302,1.93405639164837,1.95235576064959,1.87882794469836,1.95021427680498,1.9498975253364,2.00569292375657,1.95279318670343,1.87782870230009,1.95379289670611,1.95287183383998,1.9090501372069,1.88754634842574,1.95673651382408,2.00200984028001,2.00221189393583,1.96000217922415,1.99845569239822,1.89459269127309,1.97027640966071,1.99456583240018,1.95003212430687,2.08667036354793,1.98744462325312,1.96741288527322,2.04015223535642,2.05151291500276,2.03994072681536,2.04748653164718,1.9630796296447,2.04132610170775,1.95137573472158,1.96039716882372,2.0343165675101,2.03426634858813,1.95904178904124,1.95774973697877,1.9589787762185,1.95767124083395,2.0450467181916,1.95711810153618,1.95137573472158,1.95732183056884,2.03908508221533,1.95515842226758,2.04761258069432,1.95531194664733,2.0348634029128,2.03585038608985,2.07375782342467,2.04875736070396,1.95137573472158,2.04762254048765,2.04123031440245,2.02245691369363,1.95227295392967,1.95234613007081,2.04194570488061,2.02423145311305,2.04107246924651,2.03536951130503,1.95137573472158,2.03624092346623,2.02443590167648,1.94666971257349,2.03286068759917,1.94638837248078,2.0241653334017,2.04434353700203,2.03717389110475,2.02384418490854,1.95137573472158,2.03499904879248,2.02952692270708,2.03377829871495,1.93849885179895,2.02040796139566,1.93759891992896,2.02945007558994,2.0158833584254,2.01581326677654,1.95137573472158,2.01326970471859,1.9332721033306,2.01773827620227,2.01758503942244,1.9304451204689,2.01707642897004,2.02161714077757,2.0156433709765,1.92881596686798,1.9429480859002,1.92792212271574,1.92258762079953,2.00183993464842,1.92270576823278,1.99968220004655,1.99834069736976,1.99675782515155,1.9967656522651,1.90051538529914,1.87257200787853,1.84919742206994,2.03183815020176,1.84509241740073,1.84412069034978,1.84311453087295,1.88733605716578,1.83599115760544,1.95697316952229,1.95571710667106,1.83912763221233,1.83025369547074,1.82903842056177,1.82942839702465,1.8263731232718,1.92228043695582,1.95377759216463,1.82205003480435,1.94550554668092,1.82187458573446,1.82636940167701,1.92752888489447,1.81789159893093,1.86717658431179,1.86632286265202,1.8153099405047,1.81581819792387,1.81618987544052,1.81440244606558,1.81336133790521,1.80536197315154,2.01822710995733,1.94357497155984,1.8129525929749,1.81251411966089,1.81147022172546,1.85983263775453,1.80911816486591,1.80766194432425,1.81007422637022,1.80428560843732,1.8073614833949,1.8081023392352,1.80665197527639,1.80994851503376
1.92082362532451,1.93930606621253,1.92110177570476,1.98647211837598,1.98678934145874,1.98560825517403,1.91047385443791,1.9846604882361,1.98358596318314,2.09787546034412,1.97733841257253,1.95137573472158,1.97497860710632,1.97213007284772,2.0928620630456,2.09271571075972,1.97195416446607,1.89360918812542,2.0143507146875,2.01463454942263,1.96313942628231,1.93917324489325,2.09190911010199,1.95846853558173,1.95828325629487,1.88428012166759,1.95698578015926,1.95672953106952,1.95623985747634,1.88059359631473,2.00805035970694,1.93415123140752,1.95060073541341,1.95085097886139,1.95138278554387,1.9510894806868,1.9519030982392,1.95258146370693,1.9530654885336,1.95355916081958,1.95347598487754,1.9146978349716,1.88646644897973,1.88359993750343,2.00017178887038,1.96034979565387,2.0907546455836,1.96848812184263,1.99767220799972,1.99521163472199,1.994696751291,1.95120574435892,1.99564739102385,2.08877556355003,1.968544713233,2.0585169509054,2.05077561251841,2.03994848962377,2.04026669546632,1.96274989686948,1.96193566611859,1.95137573472157,2.03377557276717,2.03492832527763,1.96019338058947,1.95655779509272,1.95846923138541,1.95651121006482,2.04171113728513,1.9586606213528,2.04283951698133,1.95137573472158,2.04216041957497,2.02791879415174,2.04173186273948,2.03525875969192,2.04475711584866,1.9554494637428,2.03754644762998,2.0344108467614,1.95496584982792,1.95137573472158,1.95478976973437,2.02536673752581,2.03583570830701,1.9532308961555,2.03839628483973,2.04470897513173,2.02739573269894,2.04353888649743,2.04336380151623,1.95137573472158,2.03709077053049,2.02858421007566,2.0336252874554,2.03170757595304,2.02265972517853,2.0304515748845,2.03787212161591,1.94185152095324,2.0309553494532,1.95087937073051,1.94301171003224,1.94143136755166,1.9379945803908,1.93764389168044,2.03588453861444,2.03136804075294,2.02734811029585,2.02155373377972,2.02252928625701,1.9512776522942,2.02185244875741,2.01615345891395,2.01708291823149,2.01491757252687,2.01567408755528,2.02370865204618,2.00127269965886,2.03731943072089,1.93020322165255,1.94682149695697,2.00308994531729,1.92647156044958,2.00136810756555,2.00075337980758,1.92455309681482,1.99819982879938,2.01825621410493,1.92198939547643,1.90018553829389,1.9004115949532,1.89810587091122,1.84615834066055,1.84507345147803,1.84356239992866,1.83872978618623,1.83786980829506,1.83725715815034,1.83314614736345,1.83262643950969,1.83306177965,1.83148694025275,1.87809204024419,1.8773793289603,1.94979355774924,1.82345245334541,1.87321946854217,1.87180986435834,1.87127701668228,1.87017729958799,1.82751219947098,1.82173777389017,1.81739346977942,1.81708520972506,1.815992260538,1.94451438876524,1.94369300504776,2.03374932196937,1.81360059928334,1.81296849007166,1.80681913792958,1.81142843155142,1.91740710914294,1.91657925783505,1.81237413175768,1.90210156134225,1.8077318495954,1.80880093269124,1.80784029078175,1.81050209771852,1.80359696477029,1.80793981207403,1.80632750311482,1.80752546333587,1.85634984143467
1.98571733312755,1.94929806953348,1.98750837520216,1.91482700336121,1.9861719987754,1.9861658985338,2.02222407991696,1.90727239821043,2.09837023085201,2.02056514313748,1.97689191710222,1.95137573472158,1.97666401578911,2.10209556252774,1.97069680325433,2.09241968000326,1.97005341161608,1.96727490477185,2.01478201043674,1.96774130259201,1.89483129396468,1.91782966855569,1.96348998122674,1.96356134080284,2.01267791916303,1.95657482411576,2.09428594881634,2.01079585095449,1.95552303454395,1.95341143064284,1.88345950967959,1.92856703481797,2.09118150641393,1.9546270119214,1.95183809984998,1.87816534978545,1.87817543161507,2.00324143579992,2.00355057455524,2.00437081053597,2.00440403511901,1.93250426665671,1.9573731418234,1.95784098783856,1.95769429696454,1.95802648420945,1.88867231262837,1.89112110360917,1.96844931631115,1.99461839363806,1.99440138892986,1.95136596845813,1.99434840119883,2.05609316169764,2.06558123593754,2.05859456198654,1.9646763254989,1.96373224974602,1.96364110341799,2.04783249512498,1.96145459504072,1.95137573472157,1.95999524770271,1.96059240795277,1.95804622161544,1.96210349196002,1.95497699986644,1.95545051924021,2.03504163830175,2.05463639648388,2.02998514479769,1.95137573472158,1.95694024285613,1.95669447450077,2.02777328116217,2.03545381302127,2.04011371410039,2.04049218449851,2.04804973224072,1.95460107784569,1.95501047618743,1.95137573472158,2.03644630725786,2.04412980175697,1.9522189033678,2.03856269614139,1.95164652179985,2.04711074647917,2.04777949106036,2.02408674695351,1.94898834299487,1.95137573472158,2.03780156683542,2.03053613614826,1.94563166464623,2.02958003094144,2.02998144693722,2.02380529350676,1.94423418049709,1.94287404666949,1.94360408052503,1.95095272219527,2.030353838254,2.03802763148615,2.01995880970132,2.02071901393173,2.03138577288145,2.01433685557359,1.93773702795962,1.93648948103255,1.93674613198415,1.94958175032464,2.02199473758489,1.933145985358,2.01610689083504,2.00585379577379,2.00475504929118,2.02169076656275,2.00074383560343,2.00292581504291,1.99991926023424,1.95087017879876,2.00210777554742,2.00203907702465,2.00283839841734,1.92503909347109,1.92406778152705,1.9237254117826,1.92352762638136,1.99645502479845,1.85137450041625,1.90314221027385,2.00991302514838,1.8463501976448,1.84571190477826,2.04253715762307,1.95342190483554,1.83738601827388,1.92830499549507,1.83604459300194,1.95522633195346,1.83102084569481,1.83136863119847,1.87862906977266,1.87791795841781,1.8777321928972,1.91637229501284,1.92914416507961,1.82260843306725,1.8706688363017,1.87006230421454,1.82752674052269,1.81963502888739,1.81970878134001,1.8168838665026,1.90075306917298,1.87702982314202,1.86439228753358,1.81268432417909,1.94347472394163,1.94295731687457,1.80592327291821,1.81104215417808,1.81127396952333,1.94153606433669,1.8115385738682,1.80688746126639,1.80873796496847,1.80868426805062,1.80893074163839,1.80838873534274,1.79978649715868,1.85644685525975,1.8074568287955,1.80701098203136,1.93638624648097
1.99171367561877,1.95005123107363,1.98756935531958,1.9162129151492,1.98707702092529,1.98643905871824,2.10014558384984,2.09878739029879,1.98012521008217,1.98035173391052,1.97820070550427,1.95137573472158,1.97795188660788,2.11449392778459,1.97025700724584,1.89634864150696,1.96857763706009,1.96820646336644,1.96764993385458,1.96684830156731,1.89499837142119,1.91056236608842,1.89312382707518,1.88833673735846,1.96084343242115,2.01296896063825,1.95514248402398,1.95507209335616,1.95533483933477,1.95257611550282,1.95301889911697,1.93300027587313,1.9568579790521,1.95404742140394,1.87976988236366,1.87926902471307,1.95320536708525,2.00519486505859,1.95410151456011,1.95346627034544,1.9548663894211,1.93558737650567,1.95713062352454,1.96047247201529,2.08275262191093,2.08442772729056,1.88992088643845,1.99744083112678,1.99667867809585,1.99688189936002,1.9969045787486,1.95137565547893,1.99528570651185,2.05718618455627,2.0646175648451,1.96665631021871,1.96424290078513,2.05231590943285,2.05692491380139,2.04521958942095,1.96171073112124,1.95137573472157,1.96193292191865,1.95695258034451,1.96385217906975,1.95612914298705,1.95881405195283,2.05113419736957,2.03485600575778,2.03906550378387,2.0380565591223,1.95137573472158,2.03797912482941,2.04766193415217,2.03890784856315,2.04090000828658,2.04040141352634,2.03543958216182,2.0410013436991,2.04665700610711,1.95646374328708,1.95137573472158,1.9534024720358,2.05448117388322,2.03862478499015,2.03771056487354,2.04393899944474,1.95078034817438,1.95063508762809,2.03865205994074,2.03221702712982,1.95137573472158,1.94934729414765,2.03556795132517,1.94652419183692,2.03992960679743,2.02803676683533,1.94499784098907,2.03406864305928,2.0276968219994,2.03354086810725,1.95069542518998,1.94183602048648,1.9411106399391,1.94144343922763,2.02089103912037,2.02507878479281,1.93862707318851,1.93839331196177,1.93690987922298,2.0211084191396,1.9512776522942,2.03320604161064,2.00691529975865,2.02347602351295,2.00740157882599,2.02651635635588,2.02496081828525,2.04472158558001,2.01846964362774,2.00401591778183,1.95036179575914,2.00315203416534,1.92433822063642,2.00261518136722,1.92451245944723,1.99298411267275,1.92363895931877,1.99420430405673,1.99485526682297,1.93849144712589,1.90035622843357,1.89685885241759,1.95822735223469,1.84407381817003,2.04206502367437,1.95107411020551,1.83710575382018,1.83602865101715,1.83500946690936,1.83281800421799,1.83135517796334,2.04800065287293,1.87823839141211,1.87748133083331,1.82556843923275,1.82414945556085,1.92912476231314,1.90400303231164,1.82132155210239,1.86955458165631,1.82692416510734,1.8193985875178,1.81719251101638,1.81852431248404,1.86485795473156,1.8838857307813,1.81419773985027,1.81389683410185,1.81232815909364,1.81171949430857,1.80772832720733,1.94024739736184,1.81156854765063,1.94129676356759,1.81167093878645,1.80746547176008,1.94247759728981,1.94044254305866,1.80839351304395,1.80720005040386,1.79863577873157,1.90603870574218,1.90416957271239,1.80737738823216,1.93642505203306
1.92134840790005,1.94394016155783,1.98979790147393,1.91467178124109,1.98820465329308,1.98499613601768,1.91324844983507,1.98248074920606,2.10453060874428,2.02387331457463,1.97870797694912,1.95137573472158,1.97782361024783,2.02020619198679,1.89826951524345,2.01995395603951,2.10061072641439,1.96803268606108,1.96634364635403,1.96712619046207,2.01403611271408,1.93734232760901,1.96272388373157,1.96205772213272,1.88678307835454,1.95701455361445,1.95502083486473,1.95491770477595,1.88162841044991,1.88130503103299,1.95343156231856,1.93008640934442,1.95408262976291,1.87957495115144,1.95169140285178,1.95312640068762,1.95413863584084,1.95408426347068,1.95398353820074,2.00358966402899,2.00429592467434,1.93007676073034,1.88795980296838,2.09092927046873,1.95764197619367,1.88502540650462,1.88987332017533,1.99769694171661,1.99689558159127,2.08645530255252,2.08404577982893,1.95137573472158,1.9950683106863,1.99585346176784,1.9677411153843,2.06295257811803,1.96405623207762,2.0493812169687,2.04421873983178,2.03345474778954,2.03281667260193,1.95137573472158,1.95932982327501,1.96401293436098,1.95525259716082,1.96134339074421,1.95505991585672,1.95877690037951,2.03360424560857,2.04525537745361,2.05760340425201,1.95137573472158,2.02864944426885,2.04233437509324,2.04590042669337,2.04763817334295,1.95561438724543,2.03547856457333,2.03447682528402,1.95527093928428,2.04199605163746,1.95137573472158,2.04090220656845,2.0389143577051,1.95155759246124,2.03748371850609,1.95102671125299,1.95048774555713,2.0405470833104,2.04006655020867,2.02400861048511,1.95137573472158,2.03155681061418,1.94839655865983,2.03301637699284,2.03144475660964,2.03845436573954,1.94378193438146,2.02936355466139,2.02896697934702,2.03389637046053,1.95135403503098,2.02305967005868,2.02478820497058,2.02650124474909,2.02102338665296,2.02341957804382,1.93843320015574,2.01861516525677,1.93691409426822,2.00908840926619,1.95137573472158,2.01944798382601,2.01494794483554,1.92979900839291,2.00278220375587,2.02525572388771,1.93049750793345,2.00690988996189,2.00040137707089,1.92873161393274,1.94324138302893,1.92733241824209,1.92616378239792,1.99594303495211,1.92542970482722,1.9232133713483,1.92343662590825,2.01554955448426,1.99537623106357,1.84797690987368,1.87360017931546,1.95109909317565,1.95362316146761,1.84464926116349,1.94941596925479,1.83917839439133,1.88726069858166,1.83547362175351,1.83386912485953,1.83276801881667,1.8320097817104,1.83159556147302,1.83208577662982,1.8259266000218,1.82678050198235,1.82465614988738,1.82334783465474,1.82332070140291,1.82145840332427,1.81924801758275,1.81302072310142,1.81822479066601,1.8170985418019,1.81549226296553,1.81588465587989,1.81424695532384,1.90320751894602,1.9439339227147,1.81117972783182,1.81153363783747,1.80995478021953,1.81055253952175,1.80993362082246,1.90258663221748,1.9137319011779,1.80790332478567,1.80775492266414,1.80851026442033,1.80898842042914,1.80662467107224,1.79997858934943,1.8039903562851,1.80699242419734,1.80686410391559,1.80638144461604
