1.80595, 1.80589, 1.80869, 1.80775, 1.80708, 1.80482, 1.80316, 1.80172, 1.80298, 1.80332, 1.80252, 1.80282, 1.80137, 1.79831, 1.80182, 1.80152, 1.8017, 1.80225, 1.79978, 1.97778, 1.79954, 2.07633, 1.79908, 2.07946, 1.79845, 1.7985, 1.8961, 1.79913, 1.79662, 1.89239, 1.79625, 1.79585, 1.89248, 1.79833, 1.79921, 1.79353, 1.90087, 1.90621, 1.90966, 1.79436, 1.7934, 1.91275, 1.9028, 1.89045, 1.89958, 1.90013, 1.7908, 1.79321, 1.79204, 2.05999, 1.79387, 1.799, 1.87154, 1.87315, 2.03147, 1.86531, 1.87063, 1.94881, 1.87252, 1.94814, 1.94812, 2.02735, 2.02749, 2.04776, 1.94218, 2.03171, 1.94463, 1.86664, 1.94305, 1.94467, 1.86536, 1.93863, 1.93915, 1.94174, 1.95459, 1.93829, 1.9376, 1.8617, 1.86037, 1.95792, 1.93699, 2.03497, 1.93551, 1.96157, 1.95931, 1.86116, 2.03779, 1.93861, 1.96277, 1.94409, 1.94524, 1.96387, 1.94456, 1.95055, 1.966, 1.96613, 2.05894, 1.96174, 2.04977, 2.02434, 2.02073, 2.01943, 2.02127, 2.02048, 2.03602, 2.02742, 2.02309, 1.94334, 1.94279, 1.94271, 1.94182, 1.94547, 2.02565, 2.0214, 2.02099, 2.02133, 2.02293, 2.02461, 2.03787, 2.0383, 2.04137, 2.02526, 2.02761, 2.02685, 2.05253, 2.06268, 2.03875, 1.9545, 2.04533, 1.95527, 2.05548, 2.05893, 1.95739, 2.03899, 2.0452, 2.04738, 2.04084, 2.03947, 2.04962, 2.0478, 1.96208, 2.04531, 2.04909, 1.96469, 2.07536, 2.05628, 2.05187, 2.04202, 2.04271, 2.05207, 2.04342, 2.05638, 2.05306, 2.0419, 1.96508, 2.06524, 1.96364, 2.06998, 2.04203, 2.06187, 2.04428, 2.04122, 2.04518, 1.96568, 1.96811, 1.97153, 1.96837, 1.96858, 2.06566, 2.04703, 2.05137, 2.06469, 1.95504, 1.90643, 1.90623, 2.08265, 1.90428, 1.90371, 1.90417, 1.9553, 1.90446, 2.00875, 1.95676, 1.90768, 1.90343, 1.9064, 2.08198, 1.90782, 1.91114, 1.9102, 1.9104, 1.90803, 1.911, 1.91317, 1.96203, 1.91504, 2.08394, 1.91352, 1.91323, 1.91642, 1.91231, 1.91289, 1.91148, 1.91215, 1.9128, 1.96102, 2.09493, 2.09732, 1.91275, 1.91326, 1.91186, 1.91039, 1.96306, 1.91139, 1.91018, 1.90979, 1.909, 1.97545, 1.97593, 1.83844, 1.9447, 1.94275, 1.92774, 1.83356, 1.93415, 1.87675, 1.87559, 2.11554, 1.82387, 1.94102, 1.86978, 1.81849, 1.81698, 1.81966, 1.81878, 1.86681, 1.86514, 1.92977, 1.92839, 1.92744, 1.81034, 1.9138, 1.86119, 1.80958, 1.81071, 1.80829, 1.9253, 1.8579, 1.80757, 1.80744, 1.80726, 1.80574, 1.94246, 1.8067, 1.9376, 1.90297, 1.80362, 1.80379, 1.80427, 1.80376, 1.80369, 1.80257, 1.80286, 1.92786, 1.80322, 1.9199, 1.92561, 1.7983, 1.79862, 1.93095
1.9106, 1.80876, 1.80748, 1.80914, 1.80486, 1.80624, 1.80629, 2.06161, 1.80481, 1.80648, 1.80597, 1.80285, 1.85526, 1.88844, 1.87559, 1.80328, 2.06592, 1.80115, 1.8016, 2.06586, 1.80178, 1.8028, 1.90618, 1.85487, 1.80152, 1.8017, 1.80214, 1.80061, 1.80078, 1.7997, 1.79864, 1.79893, 1.79945, 1.84903, 1.79758, 1.91536, 1.79749, 1.90991, 1.91062, 1.79663, 1.79643, 1.9146, 1.89557, 1.79428, 1.89919, 1.79388, 1.7953, 1.90624, 1.79697, 1.79517, 1.79582, 1.79772, 1.87448, 1.87263, 1.87289, 1.87156, 1.87153, 1.94694, 1.87078, 2.034, 1.86709, 1.95089, 1.95168, 1.95261, 1.95155, 1.94456, 1.95293, 1.94723, 1.94489, 1.94035, 1.94192, 2.03441, 1.95501, 2.03417, 1.9404, 1.93986, 1.86172, 1.94064, 1.95898, 1.93549, 2.03927, 1.86218, 1.93746, 1.93854, 1.96142, 1.96289, 1.94086, 1.86239, 1.86295, 1.86853, 1.86858, 1.96304, 1.96852, 2.04482, 1.96616, 1.95479, 1.95676, 1.9656, 2.04388, 2.07031, 2.03194, 2.01917, 2.01802, 2.01803, 2.01861, 2.01707, 1.94476, 1.94576, 1.94403, 1.94337, 1.9428, 1.94668, 2.02432, 1.94684, 2.04518, 2.03865, 2.02512, 1.94854, 2.02488, 1.95219, 2.0275, 2.05884, 2.02858, 2.05831, 2.05052, 2.05129, 2.0535, 1.95598, 2.05251, 2.02337, 1.95869, 1.95719, 2.05262, 2.05681, 2.03935, 2.03473, 2.04578, 2.03792, 2.06227, 1.96536, 1.965, 1.9648, 2.0578, 2.03765, 2.0631, 2.04896, 2.05003, 2.05677, 2.05495, 2.05195, 2.05211, 2.05171, 2.05605, 2.04078, 2.04103, 2.05497, 2.05578, 2.04134, 2.04202, 2.04181, 2.04313, 1.9663, 1.96731, 2.0446, 1.96822, 1.96815, 1.96593, 1.96624, 2.05776, 2.06777, 2.04761, 2.05493, 1.90861, 2.08272, 1.90591, 1.9058, 1.90595, 1.90426, 2.08209, 2.07941, 1.90733, 1.9072, 1.90753, 1.97331, 1.95838, 1.95843, 1.90809, 1.97533, 2.00639, 2.00419, 2.11107, 2.11126, 1.96381, 1.99666, 1.96081, 1.91408, 1.91142, 1.91056, 1.91123, 1.97206, 2.00235, 1.91399, 1.91114, 1.91178, 1.96245, 1.91112, 1.91107, 1.91314, 2.10424, 2.07859, 1.90941, 1.91095, 1.90926, 1.98407, 1.90815, 1.90968, 1.9099, 1.90931, 1.97189, 1.93133, 1.83846, 1.93723, 1.8319, 1.83194, 1.83382, 1.87949, 1.92534, 1.82498, 1.82438, 1.82059, 1.94427, 1.86991, 1.81731, 1.81981, 1.81407, 1.8164, 1.81376, 1.86506, 1.81353, 1.86217, 1.86086, 1.80953, 1.81033, 1.80978, 1.80864, 1.94546, 1.94242, 1.94248, 1.80732, 1.80716, 1.80427, 1.80378, 1.86915, 1.9238, 1.85523, 1.93939, 1.93696, 1.93361, 1.93307, 1.93469, 1.9043, 1.80276, 1.92931, 1.80038, 1.80267, 1.80021, 1.79967, 1.92729, 1.92558, 1.798
1.81106, 1.81039, 1.81212, 1.80847, 1.81033, 1.81238, 1.80932, 2.08247, 1.98722, 1.80828, 1.85643, 1.80663, 1.80774, 1.85556, 1.80279, 1.80525, 1.80379, 1.80266, 1.80237, 1.80355, 1.8046, 1.80122, 1.80192, 1.80198, 1.89749, 1.80195, 1.80107, 1.80228, 1.80168, 1.80135, 1.80082, 1.80127, 1.80007, 1.85178, 1.89655, 1.80004, 1.90235, 1.79955, 1.8005, 1.9044, 1.90395, 1.79925, 1.79735, 1.9021, 1.79644, 1.79883, 1.79949, 1.90965, 1.79952, 1.80034, 1.80158, 1.80169, 1.87073, 1.87291, 1.94667, 1.94771, 1.87239, 1.87195, 2.02809, 1.94828, 1.95292, 1.94947, 1.87026, 1.94787, 1.94567, 1.9433, 1.94542, 1.95543, 1.94506, 1.94204, 1.94251, 1.94247, 1.95619, 1.94112, 1.93974, 2.058, 1.94002, 2.03849, 1.93767, 1.93539, 1.96135, 1.93845, 2.05851, 1.93583, 1.93828, 1.9636, 1.93981, 1.94172, 1.94168, 1.96553, 1.86724, 1.87189, 1.87091, 1.94854, 2.04325, 1.95577, 1.96782, 2.04444, 2.04516, 1.90313, 1.94375, 1.94402, 1.94484, 1.94609, 2.02555, 2.02057, 2.01982, 1.94399, 1.94329, 1.94614, 2.02393, 2.02267, 2.02314, 2.02271, 2.02268, 2.04198, 2.04217, 2.02431, 2.02637, 2.0267, 2.03164, 2.02781, 2.02701, 2.03064, 2.04078, 2.04187, 2.03738, 2.03841, 2.04494, 2.05556, 2.04901, 2.05297, 2.04509, 2.03778, 2.04782, 2.0523, 2.04742, 2.0466, 1.96336, 2.03968, 2.03863, 2.04207, 2.05465, 1.96602, 2.04818, 2.06965, 2.05282, 1.96463, 2.05785, 2.04256, 2.04332, 2.04472, 2.06313, 2.05711, 2.04408, 2.04787, 2.05864, 1.96643, 1.96618, 2.04286, 2.04793, 1.96664, 1.96719, 1.96886, 1.97162, 1.96758, 1.96882, 2.04973, 1.96871, 2.04858, 2.04869, 2.04714, 1.90607, 1.96963, 1.95785, 1.90731, 1.90712, 1.90538, 1.90648, 2.00106, 1.90633, 2.08401, 2.08621, 2.08538, 1.95723, 1.9581, 1.90724, 1.95886, 1.97672, 1.96364, 1.91129, 1.91373, 1.96242, 1.96178, 1.99471, 1.96337, 1.91445, 1.91187, 1.99323, 1.91463, 1.91376, 1.91084, 1.91169, 1.91273, 1.96485, 1.96218, 1.91112, 1.91069, 2.11026, 2.09671, 2.08104, 1.91267, 1.91328, 1.91074, 1.90869, 1.95869, 1.90634, 1.91347, 1.91343, 1.99004, 1.9887, 1.83545, 1.83407, 1.83236, 1.82919, 1.82622, 1.82729, 1.82652, 1.91699, 1.82295, 1.82132, 1.82046, 1.94453, 1.94236, 1.81527, 1.94131, 1.81398, 1.94403, 1.90561, 1.81209, 1.80944, 1.80879, 1.80717, 1.81018, 1.80799, 1.81017, 1.8068, 1.80948, 1.80725, 1.94636, 1.8024, 1.80661, 1.807, 1.80302, 1.85555, 1.80571, 1.80233, 1.80457, 1.80648, 1.80432, 1.80316, 1.80402, 1.85627, 1.85501, 1.80168, 1.9197, 1.92765, 1.85144, 1.92053, 1.7995
1.81251, 1.815, 1.81286, 1.81111, 1.81297, 1.81292, 1.81026, 1.80779, 1.80963, 1.81258, 1.808, 1.80949, 1.85762, 1.80602, 1.85663, 1.80642, 1.80742, 1.80366, 1.98543, 2.06977, 1.80292, 1.90134, 2.06591, 1.91348, 1.80089, 1.90623, 1.80409, 1.85465, 1.85324, 1.89778, 1.89879, 1.80157, 1.80298, 1.80438, 1.80167, 1.80106, 1.79596, 1.79925, 1.91089, 1.79961, 1.79936, 1.80177, 1.79761, 1.79737, 1.79638, 1.79671, 1.80164, 1.85072, 1.8514, 1.80114, 1.80023, 1.80297, 1.87324, 1.95236, 1.87455, 1.95347, 1.87541, 1.95209, 1.94614, 1.94498, 2.03062, 2.03141, 1.95318, 1.94586, 1.94515, 1.95483, 1.95142, 1.94398, 1.94296, 1.94294, 1.94397, 1.94449, 1.96173, 1.96143, 1.86423, 1.8645, 1.86176, 1.94176, 1.95831, 2.03963, 1.86127, 1.96155, 1.96347, 1.86145, 2.04986, 2.05846, 2.04188, 1.94076, 1.94292, 1.86652, 1.8676, 1.94636, 1.86985, 1.96693, 1.9516, 2.0474, 1.95649, 2.04592, 2.05292, 1.90331, 2.02168, 2.041, 2.02211, 2.02858, 2.05238, 2.03454, 2.02257, 2.02132, 2.024, 2.02558, 2.02413, 1.94602, 1.94672, 1.94837, 2.02437, 2.03511, 2.0247, 2.02464, 2.04904, 2.0408, 2.0394, 2.0434, 2.04592, 2.05633, 2.03075, 2.03052, 2.0524, 2.04209, 2.04562, 2.03793, 2.05166, 2.05546, 2.0561, 2.04543, 2.03658, 1.96224, 1.96171, 1.96153, 1.96327, 2.04335, 2.05788, 2.04176, 2.04136, 2.06199, 2.06575, 2.06069, 1.965, 2.05857, 1.96661, 2.04213, 2.06024, 2.05472, 2.05031, 1.9657, 2.04828, 1.96687, 2.06579, 2.04317, 2.04827, 2.04851, 2.04219, 2.04821, 1.96716, 1.96747, 1.96656, 1.96895, 1.97292, 2.04933, 1.96701, 2.05223, 2.05616, 2.04738, 2.00584, 1.90469, 1.90705, 1.90906, 1.99962, 1.90572, 1.90488, 2.0093, 2.01421, 1.90377, 1.90653, 1.90725, 1.95873, 1.90978, 1.97227, 1.9076, 1.99834, 1.90875, 1.91017, 2.09789, 1.91277, 1.91366, 1.91286, 1.90993, 1.9136, 1.9133, 1.91262, 1.91148, 2.104, 1.96175, 1.9131, 1.9616, 1.91364, 1.91011, 1.91005, 2.10437, 1.9108, 1.95969, 1.9114, 1.91063, 1.91178, 1.91007, 2.1073, 1.91072, 1.90995, 1.90907, 1.90945, 1.84061, 1.83622, 1.93894, 1.834, 1.83063, 1.82983, 1.82711, 1.82767, 1.8249, 1.82395, 1.98951, 1.82064, 1.81986, 1.9416, 1.9391, 1.94046, 1.81193, 1.81674, 1.81436, 1.9416, 1.81157, 1.80966, 1.81087, 1.80999, 1.85809, 1.8578, 2.01002, 1.80508, 1.93331, 1.80828, 1.80861, 1.9383, 1.89981, 1.80514, 1.8043, 1.80402, 1.80513, 1.80442, 1.80324, 1.93551, 1.93407, 1.93142, 1.92653, 1.91419, 1.80278, 1.80327, 1.80121, 1.80036, 1.80108, 1.84989, 1.80035
1.81661, 1.86498, 1.81234, 1.81379, 1.81244, 1.8135, 1.81101, 2.06613, 2.0669, 1.80894, 1.80972, 1.81142, 1.98369, 1.8093, 1.80984, 1.80754, 1.89217, 1.80647, 1.80715, 1.80604, 1.80613, 1.80679, 1.80731, 1.80582, 1.90995, 1.8038, 1.90969, 1.9104, 1.80619, 1.80394, 1.80219, 1.80221, 1.80397, 1.8054, 1.79929, 1.9074, 1.8025, 1.80319, 1.90351, 1.89909, 1.80113, 1.90612, 1.80178, 1.80082, 1.80107, 1.79967, 1.80276, 1.80345, 1.80221, 1.98681, 1.80635, 1.80683, 1.80915, 1.8741, 1.87605, 1.95455, 1.87271, 1.87387, 1.95191, 2.03356, 1.94858, 1.94841, 1.94521, 1.94551, 2.03141, 1.94777, 1.9421, 1.94268, 1.94317, 1.95934, 1.95986, 1.96047, 1.94111, 1.9418, 1.94207, 1.94088, 1.94161, 2.03759, 2.03767, 1.93858, 2.04457, 1.96542, 1.96479, 2.04172, 1.94072, 1.94124, 1.94063, 1.94062, 1.942, 1.86733, 1.86798, 1.94774, 1.94745, 2.06553, 1.96765, 2.04574, 1.95777, 2.06029, 2.06009, 2.08393, 1.94508, 2.03854, 2.04337, 1.94558, 2.02142, 2.02787, 2.02126, 2.0424, 1.94488, 1.94567, 2.02314, 2.02727, 2.02737, 2.02397, 2.02471, 2.02489, 2.02835, 2.02764, 2.02778, 1.94994, 2.04294, 2.03853, 2.04006, 2.0568, 2.05008, 2.03212, 2.05538, 2.03107, 2.03186, 2.05521, 2.03515, 2.03541, 2.03514, 2.04881, 2.06524, 2.06623, 2.03886, 2.03837, 2.04619, 1.96379, 2.04725, 2.05961, 1.96519, 2.03896, 2.03943, 2.03918, 2.0589, 2.05409, 2.0465, 2.0593, 2.05497, 2.06816, 2.05347, 1.96627, 2.04892, 2.04892, 1.96599, 2.05817, 2.04531, 1.96563, 2.05274, 1.96598, 1.96591, 1.96511, 1.96649, 1.96802, 1.97138, 1.96857, 2.04599, 2.05485, 2.04602, 2.04486, 1.90893, 2.09482, 1.90952, 1.90776, 1.90647, 1.90856, 1.95776, 1.90739, 1.9059, 2.01045, 1.90785, 2.09032, 1.90779, 2.08574, 1.91182, 2.08264, 1.91044, 1.91056, 1.91344, 1.98517, 1.91211, 1.91213, 2.10063, 1.91047, 1.91382, 1.91239, 1.91339, 1.91125, 2.10168, 1.91013, 1.91265, 2.10835, 2.0758, 1.91159, 2.0817, 2.09499, 1.91069, 2.08948, 2.10059, 2.0813, 1.98647, 1.90705, 2.07954, 2.07743, 2.08439, 2.08299, 1.90708, 1.83698, 1.83708, 1.83179, 1.94204, 1.98859, 1.93775, 1.93789, 1.8273, 1.82607, 1.93841, 1.99299, 1.81529, 1.81802, 1.8179, 1.9412, 1.81395, 1.81577, 1.94746, 1.91356, 1.81263, 1.90887, 1.90669, 1.94437, 1.94549, 1.80688, 1.80836, 1.80504, 1.93693, 1.80666, 1.80589, 1.93883, 1.80585, 1.80609, 1.94044, 1.80241, 1.80379, 1.8029, 1.93505, 1.93209, 1.92586, 1.89714, 1.89506, 1.80062, 1.80135, 1.85442, 1.80253, 1.79989, 1.85121, 1.92497, 1.92223, 1.85115
1.81958, 1.81716, 1.81424, 1.81578, 1.81603, 1.8161, 1.81688, 1.8145, 1.81317, 2.08367, 1.81039, 2.07994, 2.06832, 1.81248, 1.81057, 1.81006, 1.90736, 1.81132, 1.80864, 1.80862, 1.80758, 1.8078, 1.80596, 1.80688, 2.06641, 1.80777, 1.90441, 1.80337, 1.80636, 1.80331, 1.80436, 1.90801, 1.80679, 1.80682, 1.80415, 1.8048, 1.85465, 1.80354, 1.85628, 1.85447, 1.85436, 1.80323, 1.80265, 1.80212, 1.80283, 1.80463, 1.80611, 1.80502, 2.06534, 1.80638, 1.80681, 1.80987, 1.87355, 1.8767, 1.95483, 1.95467, 1.94826, 1.94832, 1.94776, 1.94864, 1.95452, 1.95442, 1.94802, 1.95582, 1.86922, 1.86926, 1.95897, 1.94514, 1.94457, 1.95924, 1.94226, 1.94615, 1.94329, 1.95831, 1.93974, 1.94104, 1.96165, 2.04167, 1.86142, 1.93857, 1.93864, 1.93845, 1.93887, 1.9659, 1.94126, 1.93905, 1.93989, 1.94283, 1.94269, 1.96965, 1.94501, 1.8717, 1.87254, 1.94854, 1.9698, 1.95582, 1.88262, 1.88973, 2.06387, 2.0577, 1.94494, 2.04462, 1.94724, 2.0291, 2.03079, 1.94491, 2.02534, 1.94746, 1.94732, 2.02645, 2.02628, 2.02553, 2.02747, 2.03179, 2.02845, 2.02514, 2.04192, 2.0272, 2.02648, 2.04821, 2.0452, 1.95262, 2.02125, 1.95408, 2.05238, 2.02772, 2.04765, 1.95638, 2.04913, 1.95793, 1.95894, 1.95972, 1.96051, 1.96013, 2.03774, 2.03965, 2.03826, 2.04733, 2.03755, 2.04049, 2.05605, 2.04241, 2.05237, 2.04353, 2.05822, 2.04979, 2.05641, 2.0629, 2.03871, 2.03803, 2.05667, 2.05263, 1.96852, 2.04098, 2.06604, 2.04146, 2.05968, 2.05321, 2.04006, 2.04232, 1.96615, 1.96692, 1.96832, 1.96674, 1.96659, 1.96803, 1.96872, 1.96861, 2.04453, 2.04718, 2.04693, 2.07362, 1.90698, 1.91101, 1.90984, 2.0969, 1.91031, 1.9073, 2.0137, 2.01062, 1.90669, 1.90888, 1.91027, 1.90775, 1.90675, 1.91026, 1.90955, 1.91373, 1.91161, 2.00452, 1.91248, 1.90998, 1.91353, 1.91331, 1.9982, 1.91306, 1.91276, 1.9136, 2.08394, 1.91354, 1.91094, 1.91199, 1.91167, 1.91083, 2.08386, 1.90989, 1.9102, 1.90826, 1.9069, 1.90852, 1.91069, 1.90861, 1.90568, 1.90621, 1.90729, 1.90614, 1.90708, 2.08668, 1.90692, 1.83769, 1.83513, 1.83528, 1.83376, 1.9392, 1.93776, 1.8252, 1.82483, 1.82361, 1.82321, 1.82152, 1.87084, 1.8701, 1.81746, 1.81609, 1.81482, 1.94245, 1.8132, 1.86278, 1.81079, 1.93478, 1.80932, 1.9438, 1.80958, 1.80879, 1.80801, 2.02064, 1.80398, 1.80674, 1.80413, 1.94146, 1.94389, 1.94185, 1.80421, 1.80206, 1.80324, 1.94168, 1.93581, 1.85546, 1.801, 1.85456, 1.80686, 1.80416, 1.93074, 1.93071, 1.92847, 1.80386, 1.80338, 1.93173, 1.92863, 1.85153
1.9229, 1.81791, 1.86933, 1.86889, 1.82005, 1.86811, 1.81706, 2.06867, 2.08313, 1.81593, 1.8151, 1.81493, 1.90294, 1.81502, 2.06872, 1.81322, 1.81004, 1.81233, 1.81366, 1.81183, 1.81373, 1.81043, 1.91002, 1.81173, 1.85897, 1.85825, 1.80964, 1.91181, 1.80703, 1.81037, 1.80682, 1.80507, 1.91212, 1.80791, 1.80695, 1.80791, 1.89574, 1.80611, 1.8075, 1.80679, 1.8057, 1.8555, 1.80594, 1.80652, 1.99277, 1.80496, 1.80559, 1.85759, 1.91894, 1.80779, 1.80854, 1.81169, 2.03129, 2.03575, 1.87815, 1.87764, 1.95151, 1.95193, 1.95871, 1.95545, 1.9553, 1.95563, 1.94851, 1.94799, 1.96253, 1.94806, 1.94817, 1.94636, 1.86577, 1.96066, 1.96218, 1.94459, 1.94325, 2.05085, 2.04854, 1.94296, 1.93968, 1.94088, 1.94141, 1.86508, 2.04291, 1.94087, 1.94046, 1.94047, 1.94067, 1.94123, 1.94367, 1.94312, 1.94083, 1.86998, 1.86995, 1.94684, 1.95008, 2.05949, 1.87911, 1.88015, 1.95987, 2.05187, 2.05026, 2.06254, 2.02678, 2.02731, 2.02911, 2.02421, 2.04884, 2.0241, 2.02445, 1.94856, 1.94766, 1.94791, 1.94793, 1.9487, 1.94974, 2.02695, 2.02635, 1.95001, 2.04088, 2.03923, 2.04363, 2.05467, 2.05119, 2.05574, 2.03635, 1.95395, 2.04277, 2.04072, 2.03469, 2.03586, 2.03486, 2.06365, 2.03883, 2.04514, 2.03823, 2.03806, 2.03908, 2.05619, 2.06595, 2.06199, 2.05309, 2.04197, 2.04104, 2.06898, 2.04271, 2.04251, 2.04877, 2.04847, 1.96627, 1.96915, 2.05973, 1.96814, 2.04511, 2.04423, 2.04487, 2.04467, 2.04531, 2.06582, 2.04595, 2.04209, 2.06101, 2.06179, 2.04574, 2.04271, 1.9702, 1.96883, 1.97113, 1.96978, 1.9672, 2.04613, 2.04682, 2.04993, 2.04711, 1.91303, 1.91104, 1.91121, 1.91383, 1.90826, 2.00992, 1.95923, 1.95878, 1.90755, 2.09175, 2.00648, 1.90828, 1.90819, 1.90965, 1.90794, 1.91004, 2.09298, 1.91046, 1.90984, 1.91101, 2.09411, 1.91053, 2.00918, 1.91513, 1.91432, 1.9136, 2.10033, 2.09836, 1.96322, 1.96255, 1.98792, 1.98623, 1.90971, 1.90735, 1.90799, 1.90723, 1.90855, 1.90934, 2.10237, 1.9067, 1.90841, 1.90818, 1.9084, 1.90764, 1.95551, 1.95772, 1.90559, 1.95426, 1.88662, 1.8345, 1.82971, 1.83071, 2.11435, 1.82772, 1.94604, 1.87508, 1.82229, 1.94426, 1.82151, 1.94115, 1.81925, 2.01643, 1.81606, 1.81443, 1.81172, 1.86177, 1.81359, 1.8623, 1.92718, 1.85942, 1.91577, 1.80702, 1.93848, 1.942, 1.80726, 1.92234, 1.80695, 1.8067, 1.80419, 1.80595, 1.80574, 1.8524, 1.92584, 1.80507, 1.8536, 1.85163, 1.80559, 1.93719, 1.80326, 1.80203, 1.86269, 1.8599, 1.85884, 1.80568, 1.80348, 1.80271, 1.96206, 1.89806, 1.80211
1.82265, 1.82068, 1.99339, 1.82016, 1.82372, 1.81766, 1.81829, 1.8195, 1.81828, 1.81726, 1.81785, 1.8167, 1.91985, 1.92099, 1.81658, 1.81436, 1.9148, 2.08074, 1.91637, 1.81397, 1.81358, 1.8127, 1.81058, 1.81171, 1.81372, 1.92812, 1.81186, 1.81083, 1.81169, 1.81104, 1.90503, 1.88549, 1.80906, 1.80637, 1.80967, 1.85815, 1.85808, 1.8576, 1.85777, 1.80678, 1.80892, 1.85793, 1.85902, 1.80683, 2.06534, 2.07667, 1.80936, 2.06561, 1.80781, 1.8121, 2.06535, 1.87656, 2.0386, 2.03302, 1.95157, 1.95269, 1.95834, 1.87532, 1.87595, 1.87496, 1.95241, 2.03538, 1.95007, 1.87185, 1.94831, 1.94973, 1.95099, 1.94391, 1.94435, 1.94409, 1.94774, 1.94498, 1.94776, 2.03805, 2.04195, 1.94237, 1.94163, 1.96529, 1.96562, 1.97246, 1.93849, 1.86418, 1.97041, 1.9443, 1.94295, 1.9423, 2.06136, 1.94451, 1.94458, 1.86848, 1.947, 1.97219, 1.95117, 1.97208, 1.95265, 1.95611, 1.96028, 1.97293, 2.06303, 2.05543, 2.05657, 2.02772, 2.02752, 2.03079, 2.0247, 2.02585, 2.02547, 2.02426, 2.02756, 1.94935, 1.94975, 2.02508, 2.02991, 2.03002, 2.02745, 2.04495, 1.95101, 2.03651, 2.03547, 2.0259, 2.02604, 2.03301, 2.03116, 2.03006, 1.95481, 2.04907, 2.07057, 1.95807, 1.95845, 2.05876, 1.95926, 1.95934, 1.96165, 2.05563, 2.03783, 2.05576, 2.06116, 1.96503, 2.0397, 2.04493, 2.04255, 2.04135, 2.05083, 2.04307, 2.04202, 2.04986, 2.05218, 2.04451, 2.05802, 2.0519, 2.04902, 2.04464, 2.05308, 2.04588, 2.04614, 2.04941, 1.96981, 2.04263, 2.04564, 2.05422, 2.06234, 2.04241, 2.04497, 2.0447, 1.96922, 1.96974, 1.96888, 1.96909, 1.9678, 1.96887, 2.06971, 1.97143, 1.9134, 1.91214, 2.0808, 2.08641, 1.91122, 1.90976, 2.08277, 2.0797, 2.09056, 2.00722, 1.90633, 1.90821, 1.90732, 1.9096, 1.96654, 1.90963, 1.90819, 1.91096, 1.91144, 1.91393, 1.91286, 1.9112, 1.91114, 1.90904, 1.90811, 1.91113, 1.91114, 2.09005, 1.91033, 2.07722, 2.08833, 2.08987, 2.09962, 1.96043, 1.96086, 1.95953, 1.95954, 2.09715, 2.09283, 2.08041, 1.90961, 1.90735, 1.95638, 1.95498, 1.90642, 1.90432, 1.95556, 1.97346, 1.97153, 1.92474, 1.83049, 1.88864, 1.82392, 1.82387, 1.82335, 1.824, 1.82131, 1.87164, 1.81812, 1.81682, 1.81635, 1.86835, 1.86854, 1.81423, 1.81211, 1.81115, 1.92475, 1.92208, 1.92396, 1.81078, 1.80832, 1.80713, 1.80737, 1.80642, 1.80668, 1.94419, 2.12842, 1.80349, 1.80309, 1.80207, 1.85458, 1.85427, 1.85349, 1.85433, 1.80396, 1.8024, 1.80237, 1.80376, 1.80341, 1.86396, 1.86051, 1.91838, 1.93156, 1.80421, 1.9282, 1.799, 1.85098, 1.92041
1.87447, 1.87352, 1.82335, 1.82504, 1.82355, 1.81852, 1.82085, 1.81808, 1.81846, 1.81889, 1.81904, 1.81942, 1.81676, 1.81842, 1.8174, 1.8169, 1.81705, 1.8655, 1.8667, 1.91063, 1.81428, 1.81599, 1.81545, 2.0759, 1.86324, 1.81353, 1.81379, 1.81421, 1.81148, 1.91656, 2.06939, 1.80823, 1.81129, 1.8105, 1.81159, 1.80913, 2.07278, 1.80766, 1.91517, 1.80847, 1.81069, 1.8105, 1.80953, 1.80822, 1.81095, 1.91182, 1.81133, 1.81073, 1.89637, 1.81083, 1.81122, 1.81482, 1.95531, 1.95744, 2.03501, 1.87875, 1.95931, 1.95149, 1.95862, 1.95286, 1.9541, 2.05247, 1.87434, 1.95856, 1.94861, 2.0384, 2.04731, 1.94751, 1.96285, 1.96627, 1.94567, 1.96515, 1.94467, 1.94513, 1.94564, 1.94282, 1.96847, 1.94143, 2.06011, 1.86527, 1.94143, 1.94151, 1.94129, 2.04569, 1.93875, 1.94265, 1.97186, 2.05787, 1.97213, 1.87169, 1.9463, 1.87385, 1.95264, 1.95244, 1.97367, 1.97132, 1.96466, 2.05991, 2.05111, 2.05197, 2.02652, 2.0321, 2.02763, 2.02699, 2.03881, 2.03468, 2.02705, 2.02552, 2.02178, 1.9517, 1.9498, 1.94931, 2.03177, 2.03393, 2.02688, 2.02727, 1.95211, 2.02765, 2.02764, 2.03455, 2.03313, 2.02882, 2.05922, 2.03159, 2.043, 2.0341, 2.03241, 2.04748, 2.05855, 2.04676, 2.04688, 2.05219, 2.04808, 2.05184, 2.04569, 2.06259, 2.04792, 2.05612, 2.05518, 2.05579, 2.04232, 2.0383, 2.05893, 1.96629, 2.05514, 2.04303, 2.04415, 2.04333, 2.04304, 1.96826, 2.05299, 2.05259, 1.96886, 1.96776, 2.05291, 2.0597, 2.04453, 2.05815, 1.96909, 2.05606, 2.04601, 2.04489, 2.05104, 1.96837, 2.04796, 1.96816, 2.04869, 2.05172, 2.04695, 2.06688, 2.06972, 2.05964, 1.91112, 1.91156, 1.91065, 1.91084, 1.90843, 1.90776, 1.90737, 1.90994, 2.08934, 1.90662, 1.90988, 1.9107, 2.00718, 2.00313, 1.90693, 1.96664, 1.9604, 1.9585, 1.96202, 1.91271, 1.99346, 1.99231, 2.09071, 2.09053, 1.90949, 1.91106, 1.91196, 1.91028, 1.90772, 1.9129, 2.09989, 2.10426, 1.90729, 1.95812, 1.95915, 1.95905, 1.90634, 1.90678, 2.09734, 1.90533, 1.90624, 1.90331, 1.90747, 1.95554, 1.95504, 1.96893, 1.95499, 1.83115, 1.88431, 1.92166, 1.82818, 1.82702, 1.82619, 1.9316, 1.93034, 1.8211, 1.93389, 1.81942, 1.86823, 1.81738, 1.86544, 1.81619, 1.81425, 1.94038, 1.81215, 1.8105, 1.89524, 1.86188, 1.80763, 1.80849, 1.80964, 1.80835, 1.80641, 1.80699, 1.80359, 1.80605, 1.80399, 1.94938, 2.12604, 1.80472, 1.80403, 1.80101, 1.80369, 1.80134, 1.94164, 1.79968, 1.80508, 1.80179, 1.79953, 1.80531, 1.92075, 1.9179, 1.80325, 1.92805, 1.8012, 1.80392, 1.80134, 1.80196
1.82362, 1.82519, 1.82548, 1.8253, 1.82414, 1.87334, 1.87346, 1.87236, 1.82049, 1.81956, 1.91814, 1.9196, 1.81857, 1.87086, 1.81887, 1.81682, 2.09579, 1.81933, 1.81963, 1.91335, 1.81673, 1.81735, 1.81861, 1.81879, 1.81442, 1.81661, 1.81444, 1.81531, 1.81433, 1.81456, 1.8131, 1.81443, 1.81416, 1.81258, 1.91493, 1.8107, 1.8131, 1.8123, 1.8117, 1.81329, 1.81303, 1.91446, 1.81048, 1.81071, 1.81008, 1.91474, 1.81639, 1.81271, 1.81331, 1.8156, 1.81604, 1.81587, 1.87994, 2.03936, 1.95855, 1.95467, 1.95107, 1.95409, 2.04023, 1.95843, 1.9514, 1.95642, 1.95123, 1.95062, 1.96101, 1.94879, 1.9467, 1.96357, 1.94725, 1.86898, 1.86898, 2.05248, 1.9687, 1.94816, 1.94475, 1.86581, 1.86487, 1.94082, 1.9408, 2.06256, 2.06247, 1.972, 1.94127, 1.94119, 1.9735, 1.94128, 1.94219, 1.94498, 1.8688, 1.94745, 2.05172, 1.94955, 1.97538, 1.97591, 1.97549, 1.96146, 1.97333, 1.97607, 1.97166, 1.90958, 2.02588, 1.95156, 2.02622, 1.94909, 2.03484, 1.94955, 1.94963, 1.9508, 1.94883, 1.94943, 2.03099, 1.95019, 2.0296, 2.02892, 2.04178, 2.04328, 2.02867, 2.02823, 2.02954, 2.03447, 2.03007, 2.05591, 2.04428, 1.9556, 1.95606, 2.03566, 2.04538, 1.95959, 1.95853, 1.95925, 2.0362, 2.04577, 2.03772, 2.04485, 1.96466, 1.96425, 2.04636, 2.04499, 2.04825, 1.96882, 2.06465, 2.04295, 2.04421, 2.06122, 2.07259, 2.07195, 2.04728, 2.04876, 2.04648, 2.05229, 2.05673, 2.05685, 2.05518, 2.04529, 2.06011, 2.04457, 2.05915, 1.9688, 1.96935, 2.05048, 2.04981, 2.04591, 2.04764, 2.0472, 2.04824, 2.05136, 2.04949, 2.04847, 2.05913, 2.06944, 2.04977, 2.05053, 1.91272, 1.91703, 1.9095, 2.11034, 1.90791, 1.9069, 1.96156, 1.96199, 1.90816, 1.91041, 1.9091, 1.90679, 1.90912, 1.90982, 2.09004, 1.91177, 1.91121, 1.90918, 1.90865, 1.99368, 1.96283, 1.96224, 1.90845, 1.91028, 2.08599, 1.90995, 1.91039, 1.91505, 1.91098, 2.09573, 1.91005, 1.90992, 1.91, 1.90836, 1.90652, 1.90841, 2.09954, 1.90735, 1.99924, 1.90985, 1.90163, 1.90311, 1.90477, 2.07878, 2.07697, 1.90336, 1.90234, 1.8337, 1.83184, 1.93675, 1.82729, 1.82632, 1.82511, 1.82461, 1.93289, 1.8213, 1.81979, 1.81723, 1.93025, 1.9266, 1.81441, 1.87968, 1.81489, 1.81441, 1.81293, 1.81117, 1.81013, 1.8871, 1.81169, 1.80983, 1.90707, 1.80657, 1.85926, 1.9381, 1.80612, 1.80348, 1.93996, 1.80651, 1.9376, 1.9352, 1.80201, 1.80457, 1.80497, 1.80401, 1.80282, 1.80398, 1.80522, 1.80639, 1.93059, 1.91712, 1.85307, 1.80235, 1.80366, 1.80262, 1.92571, 1.89913, 1.92854, 1.79909
1.82843, 1.82935, 1.82694, 1.82725, 1.82723, 1.82761, 1.90673, 1.90683, 1.8241, 2.08785, 1.82133, 1.82084, 1.82181, 1.82167, 1.81773, 1.81884, 1.99928, 2.07932, 1.82054, 1.82031, 2.07575, 1.8198, 1.81972, 1.82044, 1.81818, 1.81881, 1.91679, 1.81326, 1.81387, 1.81407, 1.81317, 1.81444, 1.90492, 1.91831, 1.81128, 1.91372, 2.0723, 1.81428, 1.91342, 1.91603, 1.91588, 1.81412, 1.86253, 1.81397, 1.92712, 1.81379, 1.81342, 1.81606, 1.81587, 2.09712, 1.81685, 1.81679, 2.03741, 1.96216, 2.0408, 2.04062, 1.96199, 2.03924, 1.95446, 1.96026, 1.95356, 1.95233, 1.96372, 1.95226, 1.97172, 2.03967, 1.96528, 1.9496, 1.87173, 1.94666, 1.87162, 1.96569, 1.94694, 1.94532, 2.04457, 1.94425, 1.86836, 1.96985, 1.94087, 1.94089, 1.943, 1.9436, 1.9443, 1.86631, 1.94362, 1.86855, 1.86832, 2.06573, 1.94617, 2.06962, 1.95007, 1.97577, 2.05416, 1.95798, 1.97836, 1.96164, 1.96297, 1.97526, 2.08767, 2.08409, 1.95123, 2.02687, 2.02737, 2.02615, 2.03299, 2.04252, 2.03013, 2.03017, 1.94997, 2.0285, 1.95158, 1.94947, 1.95082, 1.95069, 2.02759, 1.9525, 2.02718, 2.04897, 2.03241, 2.03148, 2.03256, 2.0337, 2.03485, 1.95689, 2.04395, 2.04901, 2.03908, 2.05863, 2.05718, 2.04848, 2.0505, 2.03959, 2.03852, 2.03811, 2.03803, 1.96475, 1.96469, 2.04464, 2.04165, 2.04135, 1.96649, 2.05553, 1.9723, 1.9692, 2.06568, 2.0526, 1.96864, 2.04517, 2.04854, 2.05161, 2.04589, 2.05667, 2.0629, 2.06583, 2.05159, 2.04813, 2.04838, 2.05689, 1.97033, 2.05483, 2.06171, 1.97158, 2.04653, 2.04599, 2.04557, 1.97198, 1.97158, 2.05428, 2.05223, 1.97232, 2.05673, 2.05524, 1.91355, 1.99985, 2.07595, 2.0966, 1.90964, 1.90973, 1.90769, 1.90628, 1.96697, 1.90691, 1.90686, 1.90805, 1.90689, 2.00146, 1.99933, 1.96627, 1.91144, 1.96673, 1.96847, 1.91157, 1.91144, 2.10785, 1.91305, 2.09043, 2.11803, 1.9111, 1.9116, 1.90994, 1.91233, 1.91059, 1.95931, 2.07758, 2.07998, 1.9083, 1.90726, 2.09284, 1.90544, 1.99203, 1.98995, 1.90694, 1.90347, 2.09101, 1.90277, 1.90313, 1.90273, 1.9013, 1.83225, 1.83164, 1.83005, 1.92825, 1.94102, 1.93588, 1.82361, 1.82355, 1.82347, 1.87145, 1.8202, 1.82022, 1.93171, 1.93063, 1.81676, 1.93799, 1.81288, 1.81299, 1.93635, 1.81074, 1.80724, 1.81075, 1.81017, 1.85793, 1.80752, 1.80907, 1.9377, 1.8063, 1.80611, 1.80507, 1.80295, 1.80317, 1.94348, 1.80326, 1.93479, 1.80366, 1.80288, 1.80113, 1.80062, 2.13136, 1.80324, 1.93231, 1.80162, 1.85407, 1.85689, 1.85431, 1.85288, 1.92866, 1.92645, 1.89826, 1.89588, 1.79918
1.89563, 1.8308, 1.82733, 1.83045, 1.82735, 1.82809, 1.83094, 1.88884, 1.8253, 1.877, 1.82429, 1.82519, 1.82308, 1.82194, 1.82348, 1.822, 1.82192, 1.82123, 1.81781, 1.90677, 1.91547, 1.82009, 2.07286, 1.86845, 1.82083, 1.8858, 1.81746, 1.8192, 2.0753, 1.81816, 1.91372, 1.81671, 1.81559, 1.86659, 1.86788, 1.9127, 1.81485, 1.81552, 1.91975, 1.86631, 1.81597, 1.86408, 1.81724, 1.81661, 1.8167, 1.81633, 1.81717, 1.81614, 1.81574, 2.1002, 1.81802, 1.81809, 1.9625, 2.03971, 1.95834, 1.96539, 1.965, 1.95871, 1.95734, 1.95666, 1.96564, 1.95199, 2.0656, 1.965, 1.96671, 1.9521, 2.06053, 1.94792, 1.96761, 1.86915, 1.94884, 1.86886, 2.04803, 1.86903, 1.94509, 1.94479, 1.9442, 1.96929, 1.97018, 1.97278, 1.97522, 1.97393, 1.97522, 1.867, 2.05258, 1.9759, 1.94429, 1.94508, 1.94771, 1.87249, 2.05607, 1.97719, 1.87957, 1.97787, 1.97936, 2.07577, 1.96613, 1.97974, 2.05471, 2.04883, 2.03816, 2.0378, 1.95224, 2.02987, 2.02975, 2.02959, 2.02782, 2.03071, 2.03456, 1.95084, 2.03011, 1.95117, 1.94921, 1.95162, 2.02964, 2.02783, 2.0458, 2.02863, 1.95432, 2.04907, 2.04694, 2.04487, 1.95567, 1.95792, 2.05527, 2.05439, 2.02777, 2.03473, 2.03816, 1.96229, 2.05936, 2.05593, 1.96436, 2.06727, 2.0387, 2.05218, 2.04726, 1.96687, 2.0491, 2.05982, 2.05536, 2.05927, 2.04186, 2.0609, 2.04767, 2.06239, 1.96951, 2.04768, 2.06664, 2.04177, 2.06924, 2.04856, 2.04847, 2.04833, 1.9708, 1.96996, 2.06956, 2.06006, 2.04785, 2.0482, 2.05, 2.05217, 2.05231, 2.04964, 2.05459, 2.05169, 1.97187, 2.05275, 2.05265, 2.04826, 2.05226, 2.06315, 1.91619, 1.91313, 2.08098, 1.91058, 2.0079, 1.90866, 1.91136, 1.9083, 1.90645, 1.90754, 1.90636, 2.00655, 1.90958, 1.90626, 1.90769, 1.90687, 1.96622, 1.9684, 1.96617, 1.91145, 1.91321, 1.9095, 1.96642, 1.91373, 2.0873, 1.90973, 1.9116, 2.08959, 2.09998, 1.91058, 1.99253, 1.95964, 1.95898, 1.90785, 2.09949, 1.90589, 1.90437, 1.95551, 1.90414, 1.9982, 2.10005, 1.90139, 2.07974, 2.08474, 1.90352, 1.90156, 1.83348, 1.93472, 1.91447, 1.82661, 1.82663, 1.82637, 1.87276, 1.87032, 1.86985, 1.92486, 1.92988, 1.8683, 1.93202, 1.93133, 1.92892, 1.81657, 1.81027, 1.81366, 1.81301, 1.8093, 1.86179, 1.93116, 1.92859, 1.93057, 1.93142, 1.9051, 1.93527, 1.93784, 2.00607, 1.80322, 1.80599, 1.93248, 1.80488, 1.9359, 1.93862, 1.91373, 1.93587, 1.80492, 1.80468, 1.80282, 1.80333, 1.85329, 1.85324, 1.80542, 1.91612, 1.80607, 1.85251, 1.80242, 1.80166, 1.9252, 1.92687, 1.92247
1.82862, 1.83098, 1.83035, 1.83279, 1.83349, 1.82791, 1.82937, 1.82869, 1.83045, 1.82979, 1.82859, 2.08772, 1.82396, 1.82646, 1.92381, 1.82565, 1.82503, 2.08281, 1.82336, 1.8202, 1.82232, 1.82127, 1.82345, 1.8719, 1.82112, 1.82097, 1.92303, 1.82146, 1.82092, 1.81862, 1.81841, 1.81965, 1.9214, 1.81861, 1.9177, 1.81654, 1.81739, 1.89984, 1.81875, 1.92422, 1.81788, 1.81525, 1.81602, 1.86701, 1.81785, 1.81843, 1.91684, 1.91728, 1.9968, 1.97908, 1.87007, 1.98624, 1.96614, 1.96271, 2.04098, 1.95907, 2.04728, 1.95799, 1.96608, 1.96587, 1.96654, 1.95482, 2.04661, 2.04662, 1.87588, 1.87406, 1.95095, 1.95109, 1.96956, 2.04655, 1.95072, 1.94836, 1.97296, 1.94546, 2.0565, 1.97493, 1.94425, 1.86842, 1.94489, 1.8693, 1.94803, 1.9445, 1.86714, 1.94379, 1.94329, 1.94459, 1.97731, 1.97658, 1.87163, 1.97835, 1.87482, 1.9552, 1.95539, 1.9561, 1.97913, 1.96281, 1.96729, 1.96703, 1.98004, 2.06192, 2.0267, 2.047, 2.04587, 2.03744, 2.03082, 2.04574, 2.03233, 2.03243, 1.95421, 1.95182, 1.95294, 1.95222, 1.9543, 2.03188, 2.03134, 2.02947, 2.03485, 2.04744, 2.04518, 1.95568, 2.0284, 2.05265, 2.03483, 1.9572, 2.04749, 2.06253, 2.04459, 2.03631, 2.04759, 2.03958, 2.03877, 1.96502, 2.04102, 2.04882, 2.04831, 2.04835, 2.06238, 2.05776, 2.04115, 2.04745, 2.06455, 2.04504, 2.04493, 2.05968, 2.04922, 2.05648, 2.04445, 2.06543, 1.97004, 1.96949, 1.96988, 2.04858, 2.06474, 2.05942, 2.06048, 2.04863, 2.04915, 2.04934, 2.07281, 2.05195, 2.04778, 2.04812, 2.05436, 2.04916, 2.05215, 2.05226, 2.05346, 1.9725, 2.05234, 2.06032, 2.07012, 2.06493, 1.91205, 2.08213, 1.90935, 2.08044, 1.90783, 1.90931, 1.90859, 2.07946, 2.08148, 1.90723, 1.90714, 1.907, 1.90815, 2.00468, 1.90721, 1.90654, 2.08329, 2.0833, 1.90582, 1.90738, 1.90757, 1.91251, 1.91156, 2.00049, 1.96205, 1.91188, 2.08192, 2.08135, 2.10254, 1.91013, 1.9116, 1.91034, 1.91049, 1.90996, 1.90693, 1.99633, 1.90316, 1.90558, 1.90133, 1.90425, 1.95204, 1.90624, 1.90236, 1.90225, 1.90206, 1.90266, 1.88205, 1.88171, 1.87882, 1.82607, 1.82474, 1.82025, 1.87314, 1.87195, 1.93162, 1.81923, 1.86692, 1.91317, 1.91407, 1.86622, 1.8675, 1.86535, 1.86351, 1.81327, 1.812, 1.81356, 1.81029, 1.80941, 1.90185, 1.80549, 1.90352, 1.90276, 1.90088, 1.80674, 1.93122, 1.93481, 1.85783, 1.80146, 1.80376, 1.8041, 1.8565, 1.80011, 1.80011, 1.80218, 1.80585, 1.80356, 1.8535, 1.85492, 1.85477, 1.85309, 1.85428, 1.91392, 1.85301, 1.80404, 1.80095, 1.80306, 1.80269, 1.80348
1.83469, 2.08646, 1.83397, 1.83249, 1.83336, 1.83371, 1.8327, 1.82967, 1.87925, 1.82986, 1.82936, 1.82937, 1.82712, 1.8279, 1.82951, 1.82689, 1.82407, 1.826, 1.82318, 2.10801, 1.82636, 1.82723, 1.82466, 1.82355, 1.82394, 2.10616, 1.82133, 1.90965, 1.82133, 1.82219, 1.82297, 1.82119, 1.82202, 1.82227, 1.8216, 1.87038, 1.87111, 1.87192, 1.82102, 1.93961, 1.8203, 1.87128, 1.87044, 1.91622, 1.8183, 1.82067, 1.82119, 1.90484, 1.90577, 1.82001, 1.87305, 1.81992, 1.88504, 1.96242, 1.96109, 1.95962, 1.95875, 1.95781, 1.95653, 1.96725, 1.87779, 1.95495, 1.97161, 1.95236, 1.9542, 1.95198, 1.95145, 1.97427, 1.8722, 1.95135, 1.94924, 2.05489, 1.94869, 1.94598, 1.9459, 2.05473, 1.97493, 1.97956, 2.0621, 1.86898, 1.94784, 2.05539, 2.0562, 2.06697, 1.97823, 1.97885, 1.94762, 1.94962, 1.94949, 1.95186, 1.95167, 1.95239, 1.98244, 1.98256, 1.96194, 1.96197, 1.89035, 2.05804, 2.06078, 1.91429, 2.0461, 1.95504, 2.05139, 2.05596, 2.03182, 2.03809, 2.05067, 1.95569, 1.95494, 1.95214, 1.95276, 1.95318, 1.95401, 2.03223, 2.0328, 2.05026, 2.03102, 2.05498, 1.95561, 2.05604, 1.95691, 2.03872, 2.05024, 2.05592, 2.03529, 2.05903, 2.05194, 2.04149, 2.04003, 2.03822, 1.96484, 1.96438, 2.043, 2.04333, 2.06579, 2.04141, 2.06597, 2.06806, 1.96885, 2.0549, 2.04807, 1.96945, 2.06853, 2.04827, 2.06858, 2.05861, 1.97187, 2.04536, 2.0618, 2.06186, 2.07044, 1.9717, 2.05217, 2.04915, 2.06051, 2.04832, 2.0494, 2.05051, 2.04932, 2.04723, 2.0488, 2.0527, 2.04993, 2.04973, 2.05596, 2.05033, 2.05205, 2.05177, 2.04919, 1.97302, 1.9726, 1.97316, 1.91025, 1.91093, 1.91319, 1.91024, 1.90871, 1.95858, 1.95682, 1.95593, 1.90568, 2.01062, 1.90483, 2.00696, 1.90719, 2.01197, 1.90374, 2.11724, 1.90701, 1.90702, 1.90783, 2.10732, 1.96219, 1.96188, 1.91253, 1.91091, 1.91161, 1.91228, 2.09059, 1.91077, 1.96257, 1.91153, 1.91213, 2.08331, 1.91124, 1.90945, 1.90846, 2.10835, 1.90685, 1.90398, 1.9053, 1.90316, 1.90343, 1.90295, 1.89996, 2.09692, 1.90109, 1.89865, 1.91632, 1.8803, 1.87876, 1.92437, 1.92341, 1.82069, 1.93139, 1.81956, 1.94482, 1.81961, 1.91645, 1.91557, 1.91307, 1.81113, 1.9079, 1.86514, 1.86427, 2.02385, 1.86009, 1.92126, 1.81241, 1.81088, 1.80962, 1.80696, 1.80971, 1.85694, 1.80678, 1.85524, 1.80549, 1.80342, 1.80302, 1.80376, 1.80545, 1.93408, 1.87405, 1.80381, 1.80111, 1.79962, 1.86231, 1.80282, 1.93234, 2.10917, 1.80235, 1.93076, 1.90056, 1.8054, 1.80291, 1.8034, 1.92376, 1.80303, 1.91956, 1.79994
1.84096, 1.83618, 1.83917, 1.83659, 1.83749, 1.83447, 1.83633, 1.83542, 1.83091, 1.82879, 2.08671, 2.11005, 1.8301, 1.82845, 1.82825, 1.83059, 1.82717, 1.82744, 1.82642, 2.08599, 1.82806, 1.82532, 2.0074, 1.82528, 1.82184, 1.82347, 1.82473, 1.82678, 1.8213, 1.82473, 1.82567, 1.82064, 1.98945, 1.87363, 1.91637, 1.91741, 1.82213, 1.82316, 1.87229, 1.92154, 1.82231, 1.82279, 1.82181, 2.08637, 1.91921, 1.92004, 1.82275, 1.87193, 1.82426, 1.82552, 1.82284, 1.82416, 1.96186, 1.96896, 1.96828, 1.88309, 1.95896, 1.96101, 1.95975, 1.95884, 1.95861, 1.95853, 1.95583, 1.8788, 1.95197, 1.95846, 1.95351, 1.95073, 1.95079, 1.94916, 1.94909, 1.97769, 1.94776, 1.94731, 1.9463, 1.97846, 1.94764, 1.94672, 1.94525, 1.94661, 1.94602, 1.94475, 1.86907, 1.94602, 1.97951, 1.97896, 1.87186, 1.94746, 1.95039, 1.98202, 1.95428, 1.98185, 1.88214, 1.98217, 1.96215, 1.98165, 1.98231, 1.89566, 2.06061, 2.0587, 2.03321, 2.03448, 2.05925, 2.02969, 2.05019, 2.03293, 2.03103, 2.03565, 2.03301, 1.95421, 1.9544, 2.03289, 2.0337, 2.03344, 1.95481, 2.03167, 2.03665, 2.04195, 2.04212, 2.04808, 1.95892, 2.05538, 2.05531, 2.05179, 2.03066, 2.05624, 1.96186, 2.0555, 2.04119, 2.04136, 2.04176, 2.07019, 2.04281, 1.96822, 2.07376, 1.97052, 2.06051, 2.04585, 2.04543, 2.06895, 2.07326, 2.06395, 2.06823, 2.0521, 2.04566, 2.04866, 2.06089, 2.04807, 2.0455, 2.05568, 1.97483, 1.97324, 2.05837, 2.04896, 2.06171, 1.97223, 2.04839, 2.05446, 1.97322, 1.97184, 2.05239, 2.05906, 2.04838, 2.05813, 2.05604, 2.05596, 2.05155, 1.97495, 2.05213, 2.05421, 1.9754, 2.06628, 1.91316, 1.9108, 2.09741, 1.95943, 1.9079, 2.01064, 1.9589, 2.02592, 2.02484, 1.90647, 1.90658, 1.90372, 1.90706, 1.90378, 2.09971, 1.90639, 1.90707, 1.90758, 1.90742, 1.91073, 1.91009, 2.10434, 2.08977, 1.91041, 1.91337, 1.91161, 2.00609, 2.00428, 1.96419, 1.96297, 1.96173, 2.09651, 2.09381, 2.08069, 2.07859, 1.90718, 1.95713, 1.95663, 1.95551, 1.95457, 1.95154, 1.9042, 1.89973, 1.98535, 1.99611, 1.89664, 1.83167, 1.88224, 1.82709, 1.82764, 1.82545, 1.92158, 1.82423, 1.82117, 1.82069, 1.92235, 1.81846, 1.81793, 1.91678, 1.92045, 1.81524, 1.81506, 1.8133, 1.91067, 1.8131, 1.92061, 1.80917, 1.81053, 1.81052, 1.85989, 1.80701, 1.80849, 1.8053, 1.91431, 1.85548, 1.85401, 1.93598, 1.80288, 1.9348, 1.80437, 1.80562, 1.8037, 1.90263, 1.85411, 1.80032, 1.80157, 1.80048, 1.92786, 1.8011, 1.79945, 1.80407, 1.92705, 1.92547, 1.80094, 1.92107, 1.8961, 1.80315, 1.80033
1.88976, 1.8894, 1.88963, 1.83503, 1.83476, 1.92947, 1.92967, 1.83478, 2.10432, 1.83467, 1.83367, 1.83166, 1.88262, 1.91745, 1.83055, 1.83114, 1.83048, 1.92743, 1.83045, 1.82767, 2.08956, 2.10368, 1.83059, 1.82839, 1.82814, 1.82706, 1.8252, 1.82413, 1.82447, 1.82696, 1.82725, 1.92343, 1.82359, 1.82434, 1.92304, 1.82289, 1.92596, 1.82168, 1.8219, 1.82412, 1.87482, 1.92604, 1.82385, 1.92394, 1.82518, 1.82622, 1.824, 1.99646, 1.99441, 1.82712, 1.99727, 1.96551, 1.96864, 1.97011, 1.9634, 1.97207, 1.96866, 1.95966, 1.95903, 1.95926, 1.95905, 1.95827, 2.05093, 1.95641, 1.95628, 1.97459, 1.97684, 2.05265, 1.97682, 1.9549, 1.95234, 1.95144, 1.94821, 1.94814, 1.9799, 2.06655, 1.9826, 1.98122, 2.06376, 1.98057, 1.94759, 1.9825, 1.87003, 1.94872, 1.98232, 1.94845, 1.95178, 2.07634, 2.06141, 1.95441, 1.95512, 1.95516, 1.95995, 1.96146, 1.98435, 1.98433, 1.9705, 1.97515, 2.09617, 2.05879, 2.03811, 2.05505, 2.03474, 2.03499, 2.03431, 2.03413, 2.06268, 2.03741, 2.03785, 2.0363, 1.95821, 1.95487, 1.95722, 2.03886, 2.03561, 2.0344, 2.03757, 2.03459, 2.03446, 2.05555, 2.0382, 2.0494, 2.04365, 1.96143, 2.06229, 2.05118, 2.05581, 2.06699, 2.06517, 2.06595, 2.06606, 2.06224, 2.06304, 2.04801, 2.06055, 2.04543, 2.045, 2.04655, 1.96967, 2.08574, 2.04626, 2.04861, 2.04813, 2.04871, 2.04778, 2.06235, 2.04809, 2.05777, 2.07325, 2.05211, 2.0498, 2.05937, 1.97205, 1.96994, 2.05317, 2.07223, 2.06894, 1.97518, 2.05183, 2.0526, 2.05076, 2.04937, 2.04962, 2.05478, 2.05253, 2.05711, 2.05666, 2.05115, 1.97626, 2.06955, 1.97359, 2.0837, 2.00381, 1.96154, 1.98968, 1.99247, 1.95874, 2.00032, 2.03053, 2.02922, 1.95674, 1.95474, 2.00377, 1.90599, 1.90598, 1.90725, 1.90641, 2.00874, 1.90618, 1.90478, 1.90973, 1.90973, 1.9116, 1.91021, 2.08459, 1.91124, 1.91018, 2.01707, 1.96414, 1.96312, 1.91385, 1.91368, 1.91301, 1.91202, 1.91215, 1.91063, 1.90828, 1.90843, 2.09047, 2.09509, 1.95623, 1.95517, 1.9031, 1.90252, 2.08643, 1.89986, 1.89827, 1.89517, 1.8879, 1.90335, 1.82915, 1.82713, 1.82758, 1.82482, 1.8225, 1.82305, 1.82128, 1.91388, 1.91688, 1.81785, 1.91403, 1.91328, 1.90049, 1.81532, 1.81294, 1.81192, 1.80837, 1.81204, 1.92377, 1.88994, 1.85813, 1.86049, 1.85805, 1.922, 1.8583, 1.80362, 1.80717, 1.80503, 1.80742, 1.80551, 1.80418, 1.80175, 1.80235, 1.80407, 1.80284, 1.80058, 1.85618, 1.80292, 1.91655, 1.93073, 1.93003, 1.90968, 1.8028, 1.80188, 1.80382, 1.8529, 1.85249, 1.85138, 1.80052, 1.80406
1.92444, 1.89215, 1.83783, 1.84212, 1.83848, 2.11297, 1.83839, 1.83765, 1.88655, 1.887, 1.88657, 1.83803, 1.93446, 1.83273, 1.83353, 1.83486, 1.83412, 1.83251, 1.83376, 1.95095, 1.91765, 2.08617, 1.82851, 1.82937, 1.82663, 1.82913, 1.92565, 1.93021, 1.82811, 1.9282, 1.82762, 1.82871, 1.82702, 1.93146, 1.92669, 1.82674, 1.82541, 1.82763, 1.82604, 1.82444, 1.82647, 1.82562, 1.8755, 1.82603, 1.87644, 1.8781, 1.82676, 1.9211, 1.827, 1.87877, 1.87771, 1.87702, 1.96519, 1.96411, 1.97368, 1.97303, 1.96391, 1.96298, 1.9727, 1.95992, 2.05284, 2.0554, 1.97545, 1.95563, 2.05712, 1.95595, 1.97626, 1.95231, 2.05715, 2.05594, 1.95092, 1.95218, 1.95498, 1.95114, 1.94775, 1.87213, 1.98217, 1.94821, 1.94898, 1.94866, 1.94783, 1.87022, 1.94772, 1.94629, 1.94658, 2.06112, 1.87525, 1.9514, 1.98367, 1.95405, 2.06204, 1.95794, 1.95808, 2.06395, 1.98696, 2.06976, 1.89431, 2.0608, 2.06576, 2.06586, 1.95827, 2.03493, 2.03427, 2.05102, 2.03673, 2.0497, 2.03735, 1.9559, 1.95808, 1.95764, 1.95872, 1.9613, 1.96115, 2.03978, 2.03863, 2.05139, 1.95627, 2.05982, 2.03783, 2.03652, 1.96088, 2.05614, 2.04918, 2.04577, 2.05006, 2.04503, 2.04623, 2.03131, 2.05524, 2.04985, 1.96671, 2.07185, 2.05963, 1.96947, 2.0796, 2.04518, 2.06379, 1.97088, 2.0484, 1.97024, 2.04754, 2.04847, 2.0615, 2.07324, 1.97207, 2.07728, 2.06425, 2.05414, 2.06948, 2.04903, 2.06219, 2.04898, 1.97419, 1.97359, 2.07716, 2.04971, 2.04975, 2.0516, 2.08013, 2.0512, 2.05247, 2.06533, 2.05683, 2.05618, 2.05637, 2.05886, 2.05318, 2.05879, 2.05235, 2.07045, 2.05087, 1.97554, 1.91026, 1.91014, 1.91099, 1.95993, 1.95902, 1.99672, 1.90747, 1.95477, 1.90606, 2.01319, 1.90629, 1.90735, 1.90579, 2.01011, 1.90524, 1.97022, 1.96355, 1.90605, 1.95827, 1.95865, 1.908, 1.9581, 1.90999, 1.90825, 1.91171, 1.91323, 2.09053, 1.91396, 1.91356, 1.97077, 1.96629, 1.91103, 1.91339, 1.9099, 1.9078, 1.9064, 1.90648, 2.07602, 2.07349, 1.90301, 1.89936, 2.08843, 1.89962, 1.89933, 1.90154, 1.83627, 1.8349, 1.93228, 1.83061, 1.82446, 1.82721, 1.87518, 1.8716, 1.82197, 1.82066, 1.90036, 1.86842, 1.81759, 1.9002, 1.90963, 1.90984, 1.81651, 1.81591, 1.91666, 1.90817, 1.86124, 1.80964, 1.80941, 1.86161, 1.80866, 1.80487, 1.917, 1.93038, 1.80564, 1.80554, 1.8042, 1.80205, 1.80147, 1.92967, 1.93313, 1.80297, 1.85148, 1.85382, 1.85417, 1.80287, 1.80266, 1.91374, 1.80288, 1.9306, 1.85319, 1.85206, 1.80245, 1.92464, 1.80149, 1.8009, 1.80264, 1.92521, 1.80065
2.0968, 1.84342, 1.84312, 1.84441, 1.8437, 1.89273, 1.89209, 1.88976, 1.83872, 1.8418, 1.83864, 1.88699, 1.83791, 1.83636, 1.83655, 1.94008, 1.93623, 1.83652, 1.92024, 1.83557, 1.88467, 1.8824, 1.83212, 1.83392, 2.09417, 1.82759, 1.83, 1.82986, 1.82942, 1.92337, 1.8282, 1.83027, 1.82661, 1.82823, 1.93445, 1.82675, 1.92743, 1.9279, 1.92288, 1.82803, 1.82799, 1.8247, 1.82486, 1.87814, 1.87829, 1.87875, 1.91333, 1.9406, 2.00365, 1.83068, 2.00583, 2.05559, 2.0523, 2.05447, 1.96864, 1.96539, 1.96713, 1.8853, 1.97621, 1.97715, 1.96124, 1.88289, 1.97749, 1.95762, 1.97906, 1.95709, 1.87882, 1.97904, 1.95246, 1.95475, 1.87518, 1.98326, 1.95181, 1.87358, 1.94976, 1.87246, 1.98333, 2.08388, 1.95166, 1.9527, 1.94821, 1.94787, 1.94796, 1.8733, 1.95237, 1.95287, 1.98652, 1.95138, 2.07289, 1.9557, 1.95361, 1.98827, 1.95806, 1.98543, 1.88991, 2.07255, 1.89433, 1.98682, 2.08417, 2.06847, 2.04625, 2.05349, 2.03634, 2.03797, 2.03827, 2.05234, 1.96043, 1.96094, 1.95892, 1.96103, 1.9589, 1.959, 2.04158, 1.95889, 2.04578, 2.03593, 2.05866, 2.05834, 2.03532, 2.04916, 2.05354, 2.03869, 2.04217, 2.02871, 2.03139, 1.96606, 1.96511, 2.06366, 2.06634, 2.06271, 1.96617, 1.96889, 1.96915, 1.9701, 1.97012, 1.96973, 2.06319, 2.07302, 2.07315, 2.05395, 1.97247, 2.04825, 2.05063, 2.0727, 2.0656, 2.05702, 2.05174, 2.05843, 2.05671, 2.05925, 2.05162, 2.05936, 2.05481, 2.05085, 2.05468, 2.05122, 2.05092, 2.04905, 2.0561, 2.05312, 2.06311, 2.05508, 2.05183, 2.05484, 2.05658, 2.05784, 2.05554, 2.0586, 2.05139, 2.05135, 2.07083, 2.09018, 1.91046, 1.91103, 2.11076, 2.10752, 2.08333, 1.90829, 2.00172, 1.90834, 1.95471, 1.90324, 1.90286, 1.90337, 1.90544, 1.90625, 1.90393, 1.90495, 1.95551, 1.99538, 2.06984, 1.9566, 1.90926, 1.95885, 1.90904, 1.91097, 1.90863, 1.91015, 2.1041, 2.08313, 2.10369, 2.09368, 2.08063, 1.99827, 2.08638, 1.90703, 1.90732, 2.08008, 1.90266, 1.9004, 2.10407, 2.08013, 1.9008, 2.07688, 1.89908, 1.89979, 1.89882, 1.89599, 1.83127, 1.88266, 2.09602, 1.82797, 1.82423, 1.82663, 1.82436, 1.82315, 1.82066, 1.82037, 1.81992, 1.81631, 1.90755, 1.81543, 1.8163, 1.81389, 1.81521, 1.81139, 1.81051, 1.86902, 1.90975, 1.81031, 1.85847, 1.85833, 1.85789, 1.85493, 1.93162, 1.80277, 1.80295, 1.80284, 1.80187, 1.80448, 1.92665, 1.92531, 1.93143, 1.92961, 1.80063, 1.93155, 1.92843, 1.9294, 1.89831, 1.80384, 1.80447, 1.80301, 1.79985, 1.80285, 1.92106, 1.91893, 1.80199, 1.91696, 1.80278, 1.80321
1.84605, 1.8464, 1.84664, 1.84647, 1.94088, 1.89414, 1.89319, 1.84255, 1.84446, 1.84167, 1.84468, 1.84163, 1.84238, 1.90266, 1.88873, 1.83766, 1.83432, 1.83574, 1.83732, 1.83732, 1.83581, 1.93088, 1.93505, 1.83424, 1.8332, 1.83112, 1.83221, 1.83393, 1.88163, 1.8302, 1.83083, 1.92101, 1.87855, 1.82881, 1.82728, 1.82847, 1.82694, 1.93069, 1.93002, 1.82992, 1.93377, 1.8291, 2.00414, 1.83032, 1.90687, 1.87941, 1.87976, 1.83039, 1.83071, 1.83157, 1.83255, 1.99706, 1.97651, 1.97156, 1.96704, 1.88931, 1.97658, 1.97861, 1.88911, 1.88727, 1.96245, 1.97957, 2.05916, 1.95897, 2.05963, 1.983, 1.98267, 1.98437, 1.95432, 1.98483, 1.98436, 1.95141, 1.9521, 1.98349, 1.87257, 1.87457, 1.9868, 1.95026, 1.95066, 1.95114, 1.98766, 1.98641, 1.95229, 1.95197, 1.95482, 1.94966, 1.87582, 1.95486, 1.9553, 1.99032, 2.07218, 1.88267, 1.98828, 1.96284, 1.96666, 1.97189, 1.97208, 1.98666, 2.06661, 2.0719, 2.05473, 2.05293, 2.05574, 2.06212, 2.0381, 1.96215, 1.96144, 1.96031, 1.96177, 1.96097, 2.03794, 2.03673, 2.04215, 2.03868, 2.04871, 2.03962, 2.04132, 2.03936, 2.0406, 2.04314, 2.04042, 2.0593, 2.06809, 2.03607, 2.06473, 2.04188, 2.0416, 2.04452, 2.05409, 1.96885, 1.96875, 2.05963, 2.05578, 1.97015, 1.9708, 2.06278, 2.07607, 2.05081, 2.04901, 2.07042, 2.06014, 2.0666, 2.05931, 2.06231, 2.05175, 1.9731, 2.05097, 2.05206, 2.05808, 2.06364, 2.06539, 2.05598, 2.05208, 2.06217, 2.05302, 2.05172, 2.05547, 2.05257, 2.05382, 2.04187, 2.06066, 2.05282, 2.05523, 2.05591, 2.05701, 2.05557, 2.05869, 2.05766, 1.97604, 2.05355, 2.05179, 1.97688, 1.96552, 1.91076, 2.10381, 1.90891, 1.90868, 1.90762, 1.90738, 2.09824, 1.90422, 1.90439, 1.90357, 1.90245, 1.90648, 1.90601, 1.90525, 1.90565, 1.90455, 1.9569, 1.95716, 1.90727, 2.07758, 1.9096, 1.90984, 2.08344, 1.91061, 1.91049, 1.90976, 2.10019, 1.91007, 1.91045, 1.91048, 1.90818, 2.08216, 1.90727, 2.09744, 1.90741, 2.08008, 1.95561, 1.90623, 1.90101, 2.08711, 1.89964, 1.90004, 1.89945, 1.89825, 1.88625, 1.88514, 1.83073, 1.82842, 1.82516, 1.87709, 1.87374, 1.90111, 1.82063, 1.82025, 1.81867, 1.8166, 1.86831, 1.81608, 1.81625, 1.81406, 1.90316, 1.81173, 1.81074, 1.81214, 1.90536, 1.81161, 1.8094, 1.85989, 1.80818, 1.85665, 1.856, 1.80717, 1.80634, 1.8058, 1.89466, 1.89213, 1.85462, 1.85411, 1.80325, 1.80242, 1.80301, 1.80254, 1.92841, 1.92895, 1.80258, 1.80293, 1.92665, 1.80121, 1.92482, 1.80258, 1.80215, 1.80011, 1.79965, 1.79885, 1.80216, 1.79952, 1.90529
1.85069, 1.84737, 1.84706, 1.84738, 1.84832, 1.84934, 1.84641, 1.89677, 1.93129, 1.84397, 1.84559, 2.0212, 2.10041, 2.1069, 2.11358, 1.88972, 1.84163, 1.84127, 1.84098, 1.83548, 1.83704, 1.83772, 1.83778, 1.83679, 1.83351, 1.83398, 1.88223, 1.9234, 1.83421, 1.83172, 1.88371, 1.88208, 1.88252, 1.83041, 1.83042, 1.83138, 1.83117, 1.83385, 1.83047, 1.83196, 1.87994, 1.92235, 1.83117, 2.00761, 1.83042, 1.83129, 1.83186, 1.83118, 2.12531, 1.92146, 1.83119, 1.83522, 2.0817, 1.96957, 1.89223, 1.96871, 1.96565, 1.98005, 1.96525, 1.9839, 2.06029, 1.98305, 1.98326, 1.96009, 2.0609, 1.95823, 2.08453, 1.95773, 2.06263, 1.9869, 1.98573, 1.95512, 1.95473, 1.98899, 1.98699, 1.95047, 1.87553, 1.87496, 1.95501, 1.99109, 1.98925, 1.9501, 1.98999, 1.9926, 1.95257, 1.95224, 1.95313, 1.99198, 1.95585, 1.95616, 1.98963, 1.99108, 1.95958, 1.99073, 1.99047, 1.98986, 1.89815, 1.90087, 2.08703, 2.08056, 2.04791, 2.05075, 2.04922, 2.05518, 1.96315, 2.03952, 2.03851, 1.96211, 1.96193, 1.96117, 2.03999, 2.04403, 2.04483, 2.03794, 1.96233, 2.07262, 2.04484, 2.0388, 2.06571, 2.04174, 2.04316, 2.04193, 2.0619, 2.04318, 2.05153, 2.04658, 2.04255, 1.96872, 2.05139, 2.05868, 2.04946, 1.97095, 2.06317, 2.06449, 2.06494, 2.06532, 2.07161, 2.05006, 2.07258, 2.07719, 2.05135, 2.05202, 2.05166, 2.07069, 2.06942, 1.97458, 1.9754, 2.06257, 2.05225, 2.07002, 2.07567, 1.97542, 2.05064, 2.06685, 2.05895, 1.97555, 2.0534, 2.05237, 2.07593, 2.07713, 1.9754, 1.9755, 2.052, 2.05618, 2.05663, 2.06204, 2.0591, 1.97506, 1.97582, 2.05181, 2.05289, 2.05232, 1.91048, 2.08663, 2.0974, 1.90962, 1.90859, 1.90737, 1.9058, 1.90586, 2.00966, 2.00925, 1.90572, 2.08692, 2.10619, 1.90411, 1.90419, 1.90338, 1.90715, 1.90658, 1.90735, 1.9076, 1.90809, 2.00798, 1.90763, 1.90617, 1.91009, 1.91048, 1.91173, 1.96171, 1.91133, 1.91063, 1.90824, 1.90869, 1.95863, 1.90654, 1.95817, 1.95603, 1.95607, 1.90389, 1.90125, 1.90197, 1.89943, 1.90121, 1.89923, 1.90046, 1.89657, 1.89589, 1.83375, 1.83413, 1.83078, 1.82769, 1.82549, 1.82358, 1.82359, 1.82134, 1.89628, 1.8695, 1.86711, 1.89429, 1.9039, 1.81723, 1.81612, 1.81287, 1.81371, 1.812, 1.81036, 1.91969, 1.91722, 1.91738, 1.91657, 1.9245, 1.92336, 1.806, 1.80817, 1.8066, 1.9209, 1.93071, 1.80672, 1.80613, 1.80176, 1.92789, 1.80315, 1.92601, 1.9223, 1.8513, 1.80078, 1.80045, 1.92149, 1.91855, 1.85292, 1.80346, 1.89714, 1.92674, 1.92435, 1.80041, 1.79913, 1.80269, 1.85829, 1.85087
1.85282, 1.8527, 1.93534, 1.85117, 1.85472, 1.84927, 1.8477, 1.84778, 1.84411, 1.84657, 1.84402, 1.94865, 1.84473, 1.94131, 1.89312, 1.89334, 1.89246, 1.89263, 1.89241, 1.83921, 1.83892, 1.83909, 1.93637, 1.8382, 1.83593, 1.83765, 1.88533, 1.83654, 1.89616, 1.89737, 1.88496, 1.83467, 1.8318, 1.83307, 1.82924, 1.83345, 1.83161, 1.83011, 1.92324, 1.93388, 1.83405, 1.83133, 2.01069, 1.82953, 1.83089, 1.83114, 1.93158, 1.83363, 1.83379, 1.8348, 1.88474, 1.88565, 1.89363, 2.05966, 1.96899, 1.96851, 2.06588, 1.89064, 2.06226, 1.96478, 1.96504, 1.98578, 1.96147, 1.88405, 2.06515, 1.95853, 1.95906, 2.06248, 1.9617, 1.87948, 1.95641, 1.95536, 1.95501, 1.9916, 1.95418, 1.99145, 2.0819, 1.95216, 1.95122, 1.87499, 1.98941, 1.98943, 1.95329, 1.95355, 1.95192, 1.87809, 1.87869, 1.88008, 1.95783, 1.9934, 1.96015, 2.06951, 1.88914, 1.99288, 2.07685, 1.97308, 1.89935, 1.98966, 2.06977, 1.92334, 2.0411, 2.04266, 2.04096, 1.96529, 2.05285, 2.04167, 1.96488, 1.96569, 2.04455, 2.04612, 2.04887, 2.04969, 2.04574, 2.04599, 2.0397, 2.0418, 2.04197, 2.04174, 2.04213, 1.96523, 2.04233, 2.06255, 2.07553, 2.0589, 2.04455, 2.04439, 2.06624, 1.96964, 2.04748, 2.04152, 2.06427, 2.0458, 2.05449, 2.07359, 2.07333, 2.06674, 2.07209, 1.97469, 2.06505, 1.97272, 2.06597, 2.06524, 2.05289, 2.06373, 2.05741, 2.06337, 2.05135, 1.97393, 2.05303, 2.05942, 2.06311, 2.06048, 2.05783, 2.06657, 2.09426, 1.97588, 2.07045, 2.05365, 2.06008, 2.07302, 2.0536, 2.05315, 2.05765, 2.06203, 2.05714, 2.062, 2.05935, 2.0561, 2.06525, 2.06634, 2.06383, 2.06518, 2.00759, 1.90766, 1.90973, 1.90768, 1.91001, 2.11061, 2.09397, 2.1024, 2.09965, 2.10676, 2.10493, 1.9059, 1.90513, 1.90609, 1.90403, 2.10112, 1.9075, 1.90663, 1.90643, 2.09389, 2.11118, 1.90884, 1.90924, 2.09943, 1.90901, 2.10645, 1.91142, 2.08353, 1.91049, 2.09506, 1.91075, 1.91001, 1.91003, 2.00141, 2.10035, 1.90709, 1.90633, 1.90575, 1.90457, 1.90388, 1.90156, 2.09761, 1.89684, 1.89907, 1.8959, 1.83806, 1.83323, 1.82933, 1.82899, 1.92172, 1.82487, 1.82724, 1.82159, 1.82132, 2.11846, 1.81843, 1.81653, 1.81456, 1.90813, 1.81088, 1.81435, 1.81284, 1.81128, 1.81218, 1.81253, 1.91383, 1.81027, 1.80834, 1.80776, 1.80607, 1.89833, 1.92065, 1.92999, 1.92798, 1.80303, 1.80081, 1.80226, 1.80374, 1.93133, 1.80451, 1.80216, 1.85148, 1.80282, 1.85215, 1.79917, 1.93016, 1.8026, 1.80216, 1.9252, 1.80151, 1.7995, 1.92168, 1.91911, 1.92137, 1.9217, 1.9186, 1.84868, 1.79861
1.85475, 1.85612, 1.94799, 1.85422, 1.85198, 1.85229, 1.85181, 1.84801, 1.84956, 2.11492, 1.84862, 1.84797, 2.10781, 2.12927, 1.84431, 1.8951, 1.89339, 2.00785, 1.89287, 1.84425, 1.94459, 1.83945, 1.83868, 1.84061, 1.94426, 1.94469, 1.9446, 1.83767, 1.83503, 1.83703, 1.83631, 1.94417, 1.83486, 1.83502, 1.93888, 1.93084, 2.02091, 2.12108, 1.93644, 1.92281, 1.92347, 1.83275, 1.83276, 2.01439, 2.01442, 2.0141, 2.01556, 1.83505, 1.88459, 1.88462, 1.88469, 1.88598, 1.89599, 2.06223, 1.97268, 1.97141, 1.96985, 1.97268, 1.96769, 1.98563, 1.98589, 1.9871, 1.96358, 1.96308, 1.95989, 1.95992, 1.96101, 1.96086, 1.95914, 1.95966, 1.95633, 1.95624, 1.99034, 1.87919, 1.95269, 1.95349, 1.95748, 1.95827, 1.99358, 1.87611, 1.99285, 1.95158, 1.95485, 1.95475, 2.07051, 1.95595, 2.07941, 1.95801, 2.07952, 1.88205, 1.96207, 1.96359, 1.99409, 1.99623, 1.89533, 1.97442, 1.97635, 1.9768, 2.08702, 1.92377, 2.06329, 2.06604, 2.06211, 2.04875, 2.05874, 2.05566, 2.06642, 2.0458, 2.04411, 2.04911, 2.04763, 2.04809, 2.04811, 2.04799, 1.9657, 2.04252, 2.04282, 2.04251, 2.04188, 2.04493, 2.07224, 1.96587, 2.05245, 1.96827, 2.05421, 2.05049, 2.05549, 2.04615, 1.97082, 1.97266, 1.97276, 1.97512, 2.04994, 2.08076, 2.05903, 2.05184, 1.97526, 2.06506, 2.05853, 2.0573, 1.97509, 2.06717, 2.05928, 2.06569, 2.0664, 2.05857, 2.0622, 2.05332, 2.05262, 2.05139, 2.06254, 2.06335, 2.05667, 2.06545, 2.07119, 2.09256, 2.05111, 2.05249, 2.06021, 1.97609, 2.05226, 2.05469, 2.05662, 1.97533, 2.05641, 2.05681, 2.05467, 2.05822, 2.05232, 2.06574, 2.07148, 2.06962, 2.0065, 2.09452, 2.10134, 1.90716, 1.9071, 1.90916, 1.90728, 1.90726, 1.90573, 1.90676, 1.99948, 2.08341, 1.90659, 1.90598, 2.107, 1.90746, 1.90585, 1.90434, 1.90533, 1.90683, 1.90745, 2.00635, 2.00182, 1.90749, 1.90638, 1.9046, 1.91037, 1.91021, 1.90735, 2.08214, 2.08667, 2.07892, 1.9094, 1.90706, 2.09511, 1.90301, 1.90393, 1.90375, 1.90284, 2.08912, 2.0857, 1.89961, 2.07742, 1.9509, 1.94901, 1.95072, 1.92491, 1.82835, 1.87885, 1.82505, 1.82426, 1.82125, 1.82172, 1.90465, 1.81913, 1.81888, 1.81705, 1.81731, 1.86612, 1.86282, 1.81348, 1.91046, 1.91043, 1.81047, 1.91377, 1.80942, 1.80618, 1.80455, 1.8057, 1.92118, 1.92401, 1.80446, 1.80521, 1.80116, 1.85312, 1.87963, 1.80093, 1.80231, 1.80357, 1.80522, 1.80319, 1.92798, 1.924, 1.80284, 1.80205, 1.80301, 1.80275, 1.80033, 1.79978, 1.8005, 1.92143, 1.79897, 1.80153, 1.92106, 1.79764, 1.85176, 1.84824, 1.79696
1.85832, 1.85746, 1.9061, 1.90468, 1.90642, 1.85336, 1.95213, 1.95208, 1.95145, 1.95255, 1.85173, 1.90025, 1.85142, 1.84889, 1.95111, 1.84777, 1.89761, 1.89604, 1.8957, 1.89551, 1.84568, 1.96181, 1.84145, 1.89275, 1.93966, 1.94141, 1.84008, 1.89071, 1.89207, 1.94632, 1.83694, 2.0223, 1.83587, 1.94167, 1.9441, 1.83552, 1.93448, 1.8332, 1.8852, 1.88569, 1.88523, 2.00101, 1.88376, 1.92459, 2.01389, 2.01673, 2.01363, 2.01407, 2.01905, 1.83388, 2.00738, 1.97317, 1.97304, 1.97365, 1.9755, 1.97441, 1.98687, 1.96819, 1.9706, 1.97234, 1.96761, 2.07918, 1.96459, 1.9642, 1.96415, 1.96209, 2.08723, 1.9905, 1.95845, 1.95911, 1.99121, 1.99289, 1.99353, 1.95654, 1.95484, 1.87775, 2.07013, 1.95664, 1.95115, 1.9529, 1.9548, 1.99394, 1.99429, 1.99434, 1.87951, 2.07261, 1.88108, 1.88191, 1.88256, 2.07913, 2.07333, 1.99604, 1.99836, 1.96945, 1.99896, 1.97416, 1.97653, 1.9773, 1.99614, 2.07807, 2.06596, 2.05958, 2.04516, 2.05476, 2.06041, 2.04493, 1.96882, 2.04631, 1.9668, 2.04385, 2.04796, 2.04276, 2.04997, 2.04971, 2.04429, 2.04527, 2.06322, 1.96704, 2.06251, 2.04464, 2.04721, 2.04708, 1.96885, 2.04761, 2.04831, 1.96856, 2.06038, 2.05354, 2.05438, 2.04521, 2.05332, 1.97266, 2.05885, 2.07304, 2.05862, 2.05134, 2.053, 2.06271, 2.07441, 2.06516, 2.06026, 2.05622, 1.97676, 2.05611, 2.06261, 2.07868, 2.0616, 2.05503, 2.05339, 2.05426, 1.97546, 2.06199, 2.06133, 2.06898, 2.07587, 2.06168, 1.97641, 2.05426, 2.0541, 2.05346, 2.05262, 2.05918, 2.05458, 2.05516, 2.05485, 1.97584, 2.05838, 2.06313, 2.06152, 2.06169, 2.06215, 2.05199, 1.91208, 1.91083, 1.90999, 1.90701, 1.90479, 1.90687, 1.90577, 1.90672, 1.90597, 1.90379, 1.90717, 2.01044, 2.0087, 2.00667, 1.90706, 1.95576, 1.95501, 1.95627, 1.90673, 1.95617, 1.90585, 1.90814, 1.90898, 1.90789, 1.90645, 1.90734, 1.909, 1.90787, 1.90837, 1.90851, 2.08024, 1.90712, 2.07959, 1.90711, 1.90693, 1.90521, 2.10349, 1.9035, 1.99983, 1.9005, 2.10732, 2.11189, 1.89926, 1.98659, 1.9005, 1.83456, 1.83279, 1.87968, 1.87903, 1.9144, 1.92015, 1.82203, 1.87159, 1.93639, 1.81765, 1.81716, 1.81541, 1.86574, 1.8132, 1.91295, 1.90681, 1.81281, 1.81058, 1.91881, 1.90414, 1.91727, 1.91788, 1.80557, 1.80568, 1.92195, 1.80578, 1.80291, 1.92132, 1.8981, 1.85262, 1.91016, 1.90929, 1.80386, 1.80405, 1.80326, 1.92949, 1.92653, 1.79807, 1.92807, 1.80264, 1.79991, 1.80361, 1.88775, 1.91093, 1.79943, 1.7988, 1.80205, 1.85444, 1.84996, 1.92264, 1.79981, 1.80102, 1.79937
1.85846, 1.85863, 1.8615, 1.9425, 1.92535, 1.8562, 1.85672, 1.85647, 1.95512, 1.95814, 1.85395, 1.95431, 1.85182, 1.95518, 1.85051, 1.84822, 1.84743, 1.84772, 1.84797, 1.8488, 1.84499, 1.84489, 1.84085, 1.89344, 1.94325, 1.94793, 1.84286, 1.84381, 1.84096, 1.84222, 1.84239, 1.83704, 1.83781, 1.83763, 1.83782, 1.83682, 1.93438, 1.88897, 1.88877, 1.83499, 1.88667, 1.83748, 1.88721, 1.83397, 1.83557, 2.02013, 1.83695, 1.83774, 1.83467, 1.83672, 1.83702, 1.97333, 1.9876, 1.97566, 1.98367, 1.97306, 1.97401, 1.97312, 1.97326, 1.99208, 1.96889, 1.96922, 1.96731, 1.96635, 1.96898, 1.96524, 1.88656, 1.96306, 2.07606, 1.96001, 2.07072, 1.99661, 1.96433, 1.88173, 1.88217, 2.0897, 1.95491, 1.96187, 1.95813, 1.95596, 1.95569, 1.95697, 1.99619, 1.95645, 1.87891, 1.95619, 1.95646, 2.07754, 1.96195, 2.00058, 1.96584, 1.96624, 1.96852, 1.99942, 1.97549, 1.99981, 1.9046, 1.99738, 2.09767, 2.08766, 2.05114, 2.08281, 2.04936, 2.0481, 2.04893, 2.07531, 1.96889, 2.0427, 1.96898, 1.96867, 1.97008, 1.96886, 2.04832, 2.04694, 2.04609, 2.04578, 2.0455, 2.04512, 1.96827, 2.04781, 2.04648, 2.07063, 2.06345, 2.04905, 2.05444, 2.06226, 1.97265, 1.9736, 2.05482, 2.06367, 2.04972, 2.07551, 2.08343, 2.06471, 2.05679, 2.0558, 2.05289, 2.05264, 2.06061, 2.06364, 2.06223, 1.97915, 1.97893, 2.07949, 2.07276, 2.06534, 2.0653, 2.05287, 2.05272, 2.05318, 2.06899, 2.0774, 2.08022, 1.9777, 2.08304, 2.05528, 2.05366, 2.05448, 2.05542, 2.05476, 2.06007, 2.05393, 2.058, 2.06016, 2.05792, 2.05524, 2.05627, 2.05517, 2.07542, 2.06541, 2.06047, 2.07376, 1.91178, 1.90947, 1.90946, 1.90812, 2.01044, 1.95844, 2.08924, 2.01017, 1.90695, 1.90662, 2.00693, 1.90659, 2.11142, 1.90658, 1.90789, 1.90743, 1.95709, 1.90891, 1.95515, 1.9564, 1.95784, 1.90699, 1.90503, 1.90831, 1.90764, 1.90877, 1.90742, 1.90813, 2.10094, 1.90702, 1.9066, 1.90529, 1.90773, 1.90711, 1.90679, 2.10151, 1.90486, 1.90401, 2.08674, 1.90276, 1.95225, 1.90255, 1.89984, 1.89941, 1.89788, 1.83125, 1.88213, 1.91635, 1.82478, 1.82428, 1.82272, 1.82085, 1.92426, 1.81848, 1.86857, 1.89124, 1.8889, 1.92162, 1.81271, 1.81247, 1.81063, 1.80963, 1.91833, 1.80715, 1.80512, 1.92155, 1.92337, 1.80077, 1.92518, 1.8038, 1.8061, 1.80453, 1.91716, 1.85976, 1.80238, 1.8519, 1.92215, 1.80252, 1.80144, 1.85402, 1.85378, 1.80287, 1.80009, 1.7998, 1.80184, 1.80134, 1.80057, 1.79719, 1.80207, 1.80091, 1.80042, 1.80109, 1.79941, 1.79825, 1.80011, 1.79719, 1.79927, 1.7944
1.95558, 1.86216, 1.8638, 1.86441, 1.91179, 1.95597, 1.85702, 1.85883, 1.90793, 1.85568, 1.96061, 1.95885, 1.95894, 2.03523, 1.85301, 1.95084, 1.85122, 1.956, 1.85117, 1.84846, 1.849, 2.03029, 1.95499, 1.84526, 1.84395, 1.96205, 1.96185, 1.89479, 1.84471, 1.94537, 1.94847, 1.84193, 1.84128, 1.84146, 1.95006, 1.83753, 1.83812, 1.83726, 1.9481, 1.83865, 1.83846, 1.84137, 2.02674, 1.83428, 1.9363, 1.83813, 1.83877, 1.88737, 1.8382, 1.83723, 1.83865, 1.90272, 1.90132, 1.97884, 2.07557, 2.07799, 2.07602, 2.07076, 2.07519, 1.97193, 1.97164, 1.97025, 2.07262, 1.99433, 1.96658, 1.96822, 1.96495, 1.96406, 1.99647, 1.96173, 1.88328, 1.96466, 1.96275, 2.09288, 1.95855, 1.95895, 1.95832, 1.95838, 1.99849, 1.95795, 1.95804, 1.95743, 2.07933, 1.96195, 2.00029, 1.88117, 2.00118, 2.00091, 1.96135, 1.96283, 1.88964, 1.9657, 2.07914, 2.07636, 1.89938, 1.9992, 1.98016, 2.09407, 2.09383, 2.07724, 2.07283, 2.04958, 2.04908, 2.04803, 1.97214, 2.07517, 2.04883, 2.04945, 2.0489, 1.97078, 1.97158, 2.0512, 2.0514, 2.0458, 2.04631, 2.06221, 2.05642, 2.04779, 2.04677, 2.06806, 2.0634, 1.9744, 2.05341, 2.05158, 2.05046, 2.05945, 2.06146, 2.06712, 2.05851, 2.06413, 2.06453, 1.97778, 2.06951, 2.062, 2.0557, 2.05346, 1.97904, 2.06579, 2.05259, 2.0599, 2.06511, 1.97895, 2.07725, 2.07303, 2.06305, 1.97999, 2.06316, 2.07066, 1.97861, 1.97854, 1.97879, 2.06534, 2.0612, 1.97684, 2.09077, 2.07565, 2.07299, 2.05758, 1.97679, 2.0554, 2.07608, 2.05697, 2.0554, 2.05882, 2.0614, 2.05793, 2.05464, 2.05351, 2.05792, 2.05561, 2.05462, 2.07569, 1.91069, 1.90872, 1.90775, 1.90746, 1.90641, 1.90738, 1.90651, 1.90619, 1.90778, 1.90405, 1.90491, 1.9858, 1.98487, 2.00916, 1.90614, 1.90523, 2.00673, 2.08428, 1.90684, 2.1066, 2.08652, 2.08639, 1.90652, 2.09456, 1.90496, 1.90722, 2.07743, 1.95815, 1.90448, 1.90997, 1.90659, 1.90733, 1.90673, 1.90676, 1.90459, 1.90401, 1.90321, 1.90236, 1.90161, 2.08702, 1.90205, 1.90308, 1.90026, 1.90093, 1.90047, 1.91664, 1.83134, 1.92652, 1.94153, 1.82523, 1.92874, 1.93105, 1.87051, 1.86837, 1.86804, 1.86716, 1.81172, 1.81071, 1.80956, 1.92739, 1.81038, 1.85991, 1.89915, 1.8557, 1.85569, 1.80584, 1.85413, 1.90567, 1.90217, 1.90924, 1.80406, 1.80214, 1.80279, 1.8027, 1.80436, 1.91067, 1.90849, 1.9769, 1.80359, 1.80329, 1.92145, 1.92468, 1.9765, 1.92704, 1.79964, 1.91287, 1.85173, 1.79946, 1.8026, 1.79885, 1.80206, 1.92733, 1.89354, 1.80058, 1.80095, 1.92168, 1.92202, 1.92195
1.91674, 1.86291, 1.86652, 1.96295, 1.86472, 1.95939, 1.96038, 1.91007, 1.91116, 1.91059, 1.90935, 1.9486, 1.85815, 1.95938, 1.8548, 1.85479, 1.85225, 1.85228, 1.85102, 1.89977, 1.89958, 1.85102, 1.84776, 1.84863, 1.95522, 1.84782, 1.95554, 1.84551, 1.89491, 1.89515, 1.84311, 2.03172, 2.02856, 1.84294, 1.84208, 1.84247, 1.84156, 2.03086, 1.94026, 2.02655, 1.93412, 1.8388, 1.88883, 1.84035, 1.83968, 1.83751, 1.83878, 1.83797, 1.93783, 1.94055, 1.84193, 1.98063, 1.90306, 1.97977, 2.07863, 1.9763, 1.97561, 1.97433, 2.07842, 1.97348, 1.97302, 1.89359, 1.99762, 1.96744, 2.09465, 1.99649, 1.88854, 1.99852, 1.96532, 1.88603, 1.96261, 1.96513, 2.00323, 1.88523, 1.8832, 1.9993, 1.88297, 1.88083, 2.00206, 2.00112, 1.95878, 1.95879, 1.95841, 1.95818, 2.00315, 2.00316, 1.96049, 1.96459, 2.09573, 2.08111, 2.00175, 2.00281, 1.97223, 1.9737, 1.9755, 1.97688, 1.98439, 2.00128, 2.00314, 2.10046, 2.06254, 2.06865, 2.05168, 2.05107, 2.06833, 2.06605, 2.05885, 2.05585, 2.05485, 2.0522, 2.05134, 2.05292, 2.05116, 2.05273, 2.04895, 2.04977, 1.97067, 2.04896, 2.04816, 2.04896, 2.07279, 2.08067, 2.08397, 2.07354, 2.07911, 1.9721, 2.05959, 2.05192, 2.06562, 2.05912, 2.05815, 1.97578, 1.97777, 2.05158, 1.97871, 2.06543, 2.09081, 2.06685, 2.06246, 2.06664, 2.06209, 2.06205, 2.08393, 2.06817, 1.9789, 2.05973, 2.07321, 2.0684, 2.0593, 2.05616, 2.07301, 1.97889, 2.06532, 1.97889, 2.05889, 1.97862, 2.05849, 2.05377, 2.05309, 2.07651, 2.08651, 2.05828, 2.05607, 2.05591, 2.05613, 2.05905, 2.05519, 2.05529, 2.06126, 2.05258, 2.05556, 1.96178, 1.91017, 2.09685, 2.08797, 2.08762, 2.09436, 1.90713, 1.9056, 2.02004, 2.01741, 1.90757, 1.90587, 1.90628, 1.90479, 1.90397, 1.90394, 1.96779, 1.964, 1.96209, 2.08732, 1.90465, 2.10499, 2.09721, 2.00522, 2.00483, 1.90533, 2.00375, 1.90711, 1.90739, 1.9068, 1.90572, 2.00575, 1.90616, 1.90588, 1.90372, 1.90376, 1.90132, 1.90253, 1.90281, 1.90321, 1.90072, 1.89944, 1.90021, 1.90275, 1.89991, 1.8994, 1.92819, 1.83372, 1.82982, 1.92401, 1.92057, 1.82325, 1.92737, 1.92736, 1.81687, 1.92857, 1.81531, 1.8134, 1.81286, 1.86134, 1.81038, 1.80793, 1.808, 1.80463, 1.80722, 1.85501, 1.85367, 1.85459, 1.80408, 1.80274, 1.80255, 1.93034, 1.91236, 1.80195, 1.80283, 1.80301, 1.92254, 1.80294, 1.80097, 1.92738, 1.80275, 1.8034, 1.80183, 1.8529, 1.85006, 1.92585, 1.79955, 1.92327, 1.80184, 1.80279, 1.80145, 1.80097, 1.79584, 1.79824, 1.79986, 1.79783, 1.79792, 1.9236, 1.79955
1.8697, 1.86619, 1.91698, 1.91695, 1.86656, 1.9358, 1.86578, 1.86265, 1.91305, 1.91421, 1.91049, 1.97495, 1.97514, 1.96006, 1.96248, 1.85831, 1.85581, 1.9581, 1.9729, 1.97453, 1.96102, 1.85166, 1.95858, 1.8505, 1.85109, 1.84878, 1.89919, 1.84973, 1.84936, 2.01465, 1.93535, 1.95285, 1.84157, 1.89936, 1.84376, 1.84419, 1.84375, 1.94886, 1.84271, 1.94746, 1.94954, 1.89029, 1.93041, 1.93163, 1.93257, 1.84124, 1.94189, 1.84091, 1.84088, 1.84162, 1.84358, 1.84301, 1.98164, 2.0777, 1.98047, 2.0747, 2.08215, 2.08582, 1.9759, 1.89668, 1.97422, 1.97415, 1.89368, 1.96915, 1.96829, 1.99875, 1.96583, 1.96491, 1.96469, 1.99986, 1.96624, 1.96354, 1.96468, 1.96147, 1.96136, 1.96156, 1.95857, 1.95971, 1.88216, 1.95874, 1.95801, 1.95906, 2.09378, 1.95925, 1.96032, 1.88365, 1.96276, 1.96267, 1.9637, 1.96618, 1.96661, 2.08887, 1.97204, 2.0034, 1.97656, 2.00042, 1.90791, 2.00349, 1.99101, 2.1003, 1.97529, 2.06314, 2.05914, 2.06953, 2.04994, 2.06357, 2.04915, 2.04878, 2.05522, 1.97304, 1.97185, 2.05259, 2.05501, 2.05005, 2.06636, 2.05582, 2.05013, 2.05158, 2.07983, 1.9743, 2.05244, 2.05859, 2.0731, 2.05144, 2.05108, 2.05033, 1.97578, 1.9783, 1.97735, 2.05914, 1.97748, 1.97818, 2.05824, 2.05874, 1.9798, 2.07195, 2.06186, 2.09365, 2.06508, 2.06289, 1.98027, 2.06455, 2.06199, 2.06218, 2.06158, 2.08074, 2.05901, 2.05629, 2.06352, 2.0584, 2.0566, 2.05549, 2.09066, 2.07386, 1.9779, 2.07337, 2.07755, 2.08019, 2.05561, 2.06584, 2.05496, 2.05836, 2.05664, 2.05846, 2.05614, 2.05828, 2.06242, 2.06258, 2.06846, 1.97725, 1.97876, 1.97916, 1.96109, 1.95812, 1.90897, 2.10405, 1.90764, 2.12102, 2.09919, 1.90539, 2.01092, 2.10341, 1.90601, 2.10441, 2.0876, 1.95823, 1.95708, 2.0078, 1.90659, 1.90485, 1.90635, 1.9065, 2.08763, 2.00731, 1.90466, 2.00658, 1.9078, 1.9067, 1.99402, 1.90466, 2.0754, 1.90711, 1.90518, 1.9072, 1.95452, 1.95467, 1.90344, 1.90466, 1.90043, 1.89907, 1.90254, 1.9016, 2.07833, 1.90371, 2.07508, 1.90052, 1.8979, 1.92029, 1.92511, 1.94701, 1.82851, 1.8849, 1.82084, 1.81902, 1.81909, 1.81952, 1.93131, 1.81579, 1.81542, 1.90293, 1.81113, 1.80895, 1.80705, 1.92748, 1.80545, 1.93206, 1.80436, 1.80438, 1.80254, 1.80116, 1.80148, 1.79988, 1.80231, 1.85195, 1.80258, 1.79982, 1.8002, 1.80141, 1.80259, 1.927, 1.92516, 1.80013, 1.92857, 1.85179, 1.80167, 1.80044, 1.80037, 1.80256, 1.91838, 1.91483, 1.7996, 1.9104, 1.80042, 1.79969, 1.98472, 1.7995, 1.91988, 1.79711, 1.92355, 1.79682
1.86856, 1.96215, 1.87003, 1.9572, 1.86987, 2.12449, 1.96527, 1.86829, 1.86648, 1.86377, 1.91317, 1.95705, 1.951, 1.95245, 1.85924, 1.85865, 1.85936, 1.85837, 1.85635, 1.90625, 1.96046, 1.94833, 1.85321, 1.85258, 1.96506, 1.85009, 2.03932, 1.85157, 1.96443, 1.8488, 1.84835, 1.89858, 1.84755, 1.84786, 1.9423, 1.94825, 1.96301, 1.84293, 1.91929, 1.89245, 1.89276, 1.83894, 1.84407, 1.84191, 1.94795, 1.84337, 1.94443, 1.84383, 1.84409, 2.03489, 2.03523, 1.98353, 2.07718, 1.983, 1.98263, 2.08373, 1.97898, 1.97792, 1.97657, 1.97848, 1.97578, 2.07996, 1.89623, 1.97244, 1.89446, 1.97001, 1.89122, 1.9684, 2.00106, 1.89019, 2.00029, 1.96577, 1.8859, 1.96641, 1.88724, 2.00411, 2.00444, 1.9621, 1.9613, 2.00689, 1.96053, 1.96044, 1.96245, 1.96265, 1.96152, 2.00504, 1.96644, 1.96737, 1.88909, 1.88961, 2.08279, 2.00595, 2.00628, 2.00531, 1.90096, 1.97987, 2.07951, 1.98773, 2.00461, 2.10503, 1.97881, 1.97808, 1.97944, 2.0674, 2.05432, 2.07645, 1.97618, 1.97438, 1.97519, 1.97549, 1.97447, 2.05626, 2.05495, 2.0524, 2.05011, 2.06441, 1.9753, 2.05138, 2.05239, 2.05162, 1.97612, 2.06364, 2.05203, 2.07598, 2.06999, 1.97673, 1.97637, 2.07289, 2.06833, 1.97858, 1.97887, 2.07789, 1.97925, 2.07829, 2.07986, 2.07328, 2.0627, 1.98075, 2.06294, 2.06584, 2.06546, 1.98082, 2.08161, 2.06556, 2.06594, 1.97959, 1.97992, 2.07168, 2.07315, 2.07257, 1.98373, 2.06642, 2.05896, 1.98096, 2.05527, 2.061, 2.07391, 2.0601, 2.05999, 2.05758, 2.05467, 2.05454, 2.06205, 2.06037, 2.06186, 2.06327, 2.05526, 2.05555, 2.05576, 1.97962, 2.08112, 1.90944, 2.09888, 1.90906, 1.9067, 1.90621, 1.90657, 1.90675, 1.9053, 1.9037, 1.9045, 2.00866, 2.00714, 1.90366, 1.9046, 2.09675, 2.01023, 2.01095, 1.90614, 1.90598, 1.90833, 1.90691, 1.90708, 1.90644, 1.90496, 1.90643, 1.90659, 1.98964, 1.98793, 1.9051, 1.90527, 1.90676, 1.90533, 1.90452, 1.90676, 1.90601, 2.08015, 2.1005, 1.90383, 2.09251, 1.9025, 1.90147, 1.9026, 1.90188, 2.07748, 1.90308, 1.96051, 1.9302, 1.83139, 1.82809, 1.87591, 1.87404, 1.87279, 1.86919, 1.8685, 1.9179, 1.93097, 1.81404, 2.14527, 1.81007, 1.93443, 1.85863, 1.80676, 1.80456, 1.80611, 1.8045, 1.80291, 1.92774, 1.93027, 1.93048, 1.92992, 1.80034, 1.92856, 1.92756, 1.92689, 1.80029, 1.79973, 1.79906, 1.92349, 1.91389, 1.80124, 1.93075, 1.92475, 1.80225, 1.79823, 1.91996, 1.79803, 1.80213, 1.92449, 1.92437, 1.79819, 1.79877, 1.79896, 1.92372, 1.92029, 1.79798, 1.79536, 1.85426, 1.79641, 1.79556
1.92202, 1.95769, 1.95919, 1.95917, 1.87261, 1.97492, 1.86968, 1.86783, 1.96785, 1.97004, 1.86615, 1.91505, 1.96651, 1.96853, 1.86293, 1.86092, 1.86076, 1.9726, 1.97669, 1.85937, 1.8595, 1.90616, 2.02747, 1.85597, 1.85494, 1.85476, 1.85433, 1.8504, 1.85142, 1.85093, 1.85067, 1.84781, 1.84828, 1.84813, 1.8477, 1.84806, 1.84646, 1.96471, 1.84664, 1.8443, 1.84538, 1.84438, 1.94928, 1.94892, 1.9483, 1.84135, 1.8437, 2.03787, 1.84457, 1.84559, 2.01753, 1.90945, 2.00265, 1.98389, 1.98356, 1.9851, 1.9801, 1.97958, 1.98071, 1.97859, 1.98033, 1.97968, 1.97362, 1.97358, 2.09035, 2.09713, 1.97183, 1.97084, 1.96921, 1.96876, 1.96947, 1.9658, 1.88689, 1.96578, 1.96257, 1.88638, 1.96407, 1.96234, 1.886, 1.88572, 2.09706, 2.00405, 2.10608, 1.88566, 1.96311, 1.96535, 2.08979, 2.00841, 2.0073, 1.96867, 1.96917, 1.97225, 1.97478, 1.97587, 1.9029, 1.98135, 1.98653, 1.9892, 2.00648, 2.0914, 2.0689, 2.07873, 2.09664, 1.97856, 2.05467, 2.05503, 2.06184, 1.97705, 1.97675, 1.97496, 1.9794, 1.9771, 1.9757, 1.97547, 1.97514, 2.06065, 2.05313, 2.05942, 2.05556, 2.06919, 2.06263, 2.05448, 2.09063, 2.0881, 2.07298, 2.06459, 1.97955, 1.97757, 2.08099, 2.07639, 2.06867, 1.97908, 1.97935, 2.08284, 2.07481, 1.98231, 2.06087, 2.07036, 2.07917, 1.98024, 1.98244, 2.07326, 2.06828, 2.06326, 2.07404, 2.07218, 2.06867, 2.07981, 2.06499, 2.06928, 2.06669, 1.98288, 2.06802, 2.0602, 1.97916, 2.07861, 2.05736, 2.05638, 2.05471, 2.05792, 2.06349, 2.05656, 2.05957, 2.05924, 2.06048, 2.06197, 2.05862, 1.97711, 2.05603, 2.0694, 2.05713, 2.05773, 2.02494, 1.90751, 1.90639, 1.90793, 1.90697, 2.07228, 1.99637, 1.90597, 1.95302, 1.95498, 1.95511, 1.95505, 1.9542, 1.90547, 2.08963, 1.90736, 1.90533, 1.90635, 1.90716, 2.00419, 1.90442, 1.90604, 1.90607, 1.90704, 1.90608, 1.99763, 2.01467, 1.99196, 1.90716, 1.90673, 1.90529, 1.90439, 2.08386, 1.90392, 1.90413, 1.905, 1.90469, 1.90394, 1.90306, 1.90053, 2.08619, 1.89995, 1.90414, 1.90256, 1.89955, 1.92892, 1.93159, 1.82859, 1.82816, 1.82514, 1.90681, 1.93035, 1.93405, 1.93212, 1.81295, 1.81182, 1.92347, 1.81065, 1.80958, 1.80639, 1.93088, 1.92823, 1.85459, 1.80119, 1.80351, 1.9366, 1.80271, 1.80028, 1.80356, 1.91336, 1.91115, 1.80151, 1.93122, 1.93129, 1.89608, 1.93165, 1.92873, 1.85135, 1.80257, 1.79939, 1.80196, 1.79986, 1.85227, 1.90974, 1.90596, 1.79901, 1.93109, 1.80038, 1.79699, 1.79627, 1.80013, 1.79799, 1.92915, 1.79547, 1.80002, 1.85292, 1.79654, 1.89292
1.9237, 2.03844, 1.87616, 2.11537, 1.92303, 1.9761, 1.8708, 1.86713, 1.96307, 1.97388, 1.97846, 1.87015, 1.86763, 1.86509, 1.96902, 1.91382, 1.86617, 1.95451, 1.86137, 1.86354, 1.91147, 1.97213, 1.85857, 2.04513, 2.04776, 1.8568, 1.85754, 1.85351, 2.04427, 1.85338, 1.8525, 1.85037, 2.04776, 2.04188, 1.85187, 1.89936, 1.85067, 1.95636, 1.962, 1.89772, 2.03148, 1.84471, 1.95214, 1.84453, 1.9444, 2.04484, 1.84423, 1.84533, 1.84808, 1.84803, 1.89792, 1.98896, 1.98686, 1.98919, 2.0107, 1.98277, 2.0046, 1.9809, 2.08403, 1.98017, 1.98076, 1.97929, 1.97868, 1.97584, 1.97557, 1.97524, 1.97033, 1.89371, 1.96934, 1.96845, 1.96897, 1.96925, 1.96549, 1.96478, 1.88946, 1.96497, 2.00759, 1.96395, 1.88597, 1.96567, 1.96418, 2.09757, 1.96617, 1.96973, 1.96521, 1.96586, 1.96713, 1.9686, 1.96899, 1.96944, 1.96772, 1.97663, 1.97598, 2.10346, 2.012, 1.98609, 1.91311, 2.00654, 2.09462, 2.11071, 2.06972, 2.07179, 1.97893, 2.05656, 2.05607, 2.05441, 2.05357, 1.97672, 1.97693, 1.97853, 1.97686, 2.05485, 2.05628, 2.05929, 2.05595, 2.0658, 2.08579, 2.06501, 1.97654, 1.97662, 1.97792, 1.97966, 2.08477, 1.97734, 2.07977, 2.07336, 2.07332, 1.97914, 1.97952, 2.0559, 2.06959, 2.06055, 1.98251, 2.07407, 2.07661, 2.08148, 2.06948, 2.06512, 2.06583, 1.98352, 1.98349, 2.06261, 2.07062, 1.98311, 2.06966, 1.98172, 2.07655, 2.07502, 2.07503, 1.98225, 2.06592, 1.98175, 2.07943, 2.06148, 2.06274, 2.07625, 2.06964, 2.07294, 1.97882, 2.05522, 2.05531, 1.97623, 2.05685, 2.05407, 1.98285, 1.97728, 1.97944, 1.97913, 2.08314, 2.07256, 2.08283, 2.02324, 2.02217, 1.90857, 2.11769, 2.10131, 2.10811, 1.90615, 1.90639, 1.90516, 1.90163, 1.99809, 2.07302, 1.95302, 1.95538, 1.95511, 1.95441, 1.90322, 2.08629, 1.90458, 1.90637, 2.09753, 2.08602, 2.13056, 1.90565, 2.10463, 1.90643, 1.98722, 1.9957, 1.90591, 2.0059, 1.9976, 1.90646, 1.90416, 1.90238, 1.99687, 1.90328, 1.90424, 2.08066, 2.09349, 1.90607, 2.08673, 2.07936, 1.90373, 1.95089, 1.9931, 1.90188, 1.93016, 1.83036, 1.93233, 1.92936, 1.82027, 1.93372, 1.93071, 1.8167, 1.93403, 1.81319, 1.81339, 1.80991, 1.8102, 1.9333, 1.92667, 1.85594, 1.93124, 1.80486, 1.80398, 1.80218, 1.8029, 1.93073, 1.80257, 1.80119, 1.79905, 1.79732, 1.9253, 1.91362, 1.92624, 1.79731, 1.85134, 1.85105, 1.89693, 1.92831, 1.92835, 1.7967, 1.80013, 1.87811, 1.80041, 1.80069, 1.80171, 1.80033, 1.7985, 1.79955, 1.89894, 1.79752, 1.80006, 1.89327, 1.92588, 1.79717, 1.85351, 1.85251, 1.92127
1.87753, 1.92607, 1.92798, 1.93653, 1.92545, 1.87582, 1.97583, 1.9756, 1.87228, 1.87042, 1.86991, 1.8713, 1.86937, 1.86837, 1.97269, 1.97259, 1.97258, 1.86643, 1.86567, 1.86536, 1.86035, 2.04928, 2.04876, 1.90971, 1.91031, 1.85769, 1.96748, 1.85788, 1.85627, 1.85504, 1.85567, 1.8527, 1.85228, 1.85156, 1.90146, 1.85133, 1.84951, 1.85083, 1.85217, 1.94985, 1.84919, 1.95833, 1.84654, 1.84748, 1.84902, 1.84932, 1.85048, 1.84661, 1.84729, 1.84943, 1.84967, 1.90124, 1.98624, 2.01024, 1.91024, 1.9856, 1.98578, 1.98342, 1.907, 1.98332, 1.98109, 2.00975, 2.00789, 1.90156, 2.10405, 1.97563, 1.97561, 1.97286, 1.9716, 1.972, 2.00698, 1.89273, 2.0097, 1.96675, 1.96689, 2.01352, 2.1007, 1.96474, 2.0103, 1.96609, 1.96514, 1.8892, 2.10031, 1.8881, 2.09407, 1.89224, 1.89312, 2.01024, 2.01048, 2.00977, 2.00964, 2.01016, 1.89964, 1.98104, 1.90699, 1.98354, 1.98967, 1.98993, 2.01019, 2.12315, 2.05532, 1.98238, 2.07645, 2.07709, 2.05822, 2.05688, 2.05642, 2.05939, 1.97803, 2.06191, 2.0624, 1.97861, 2.06004, 2.05621, 2.05747, 2.0544, 2.05519, 2.05623, 2.0656, 2.06611, 2.07672, 2.07371, 2.0768, 2.07414, 2.05348, 2.05607, 1.9802, 2.08094, 2.06815, 2.06698, 2.0624, 1.98139, 2.07457, 1.98321, 1.98257, 2.07046, 2.06917, 2.06804, 2.06946, 2.07061, 1.98557, 2.06571, 2.05894, 2.07034, 1.98366, 1.98232, 1.98323, 2.07654, 2.07287, 2.07325, 2.06508, 2.08304, 2.08009, 2.06028, 1.98103, 2.05887, 1.98082, 2.06672, 2.07257, 2.07076, 2.05373, 1.97899, 1.97732, 1.97789, 1.97884, 1.97763, 1.97946, 2.07353, 2.05903, 2.05523, 2.06172, 2.05987, 1.90957, 2.11031, 1.90733, 2.09034, 1.90699, 2.09065, 1.90334, 2.10377, 1.90371, 1.90277, 1.90292, 1.95342, 1.95373, 1.90542, 1.90484, 1.90527, 1.90252, 1.90567, 1.9067, 1.90352, 1.90795, 1.90769, 1.90564, 1.90861, 1.9075, 2.00973, 1.90485, 1.90734, 1.90702, 1.90621, 1.95655, 1.90624, 1.90609, 1.90363, 1.9043, 1.90362, 2.07781, 1.90508, 1.9037, 2.08704, 2.07656, 2.08287, 2.07456, 1.90616, 1.88308, 1.88168, 1.83027, 1.82737, 1.82048, 1.94142, 2.02751, 1.81742, 1.81595, 1.93261, 1.93128, 1.8109, 1.86144, 1.85895, 1.80781, 1.80687, 1.85342, 1.80249, 1.80335, 1.93065, 1.80132, 1.80171, 1.80203, 1.93061, 1.9357, 1.93227, 1.79934, 1.79925, 1.79932, 1.87006, 1.80315, 1.85161, 1.79978, 1.92577, 1.92425, 1.80026, 1.80302, 1.80031, 1.79907, 1.9246, 1.91558, 1.79906, 1.79983, 1.79912, 1.92652, 1.79593, 1.79616, 1.92427, 1.79621, 1.7993, 1.79725, 1.79799, 1.90763, 1.7956
1.92922, 1.8787, 1.87926, 1.87757, 1.98205, 1.87674, 1.87831, 1.97455, 1.97578, 1.93311, 1.87519, 1.97642, 2.13036, 1.8709, 1.87134, 1.87006, 1.86848, 1.86598, 2.05155, 1.95546, 1.9743, 1.86165, 2.05588, 2.05813, 1.85928, 1.86108, 1.97032, 1.86128, 2.03294, 2.0291, 1.90664, 1.91854, 1.90377, 1.90477, 1.85429, 1.9508, 1.8523, 1.85112, 1.85038, 1.85091, 1.85018, 1.9518, 1.95528, 1.9572, 1.84805, 1.84839, 1.85108, 1.8508, 1.85106, 1.8515, 1.85305, 2.08986, 1.99226, 1.98779, 1.98903, 1.9871, 1.98639, 2.01056, 1.98666, 1.98267, 1.983, 2.00954, 2.01256, 1.90345, 2.10443, 1.90118, 1.97548, 1.97207, 1.97345, 1.97268, 1.97238, 1.97047, 1.89356, 2.01126, 1.89088, 1.96894, 1.96849, 1.8904, 1.96454, 1.96735, 1.96488, 2.09363, 1.96769, 1.96704, 1.96579, 2.0105, 1.96695, 1.96958, 1.97353, 1.97284, 1.97613, 2.08626, 2.00981, 1.90505, 1.98512, 1.98612, 1.98971, 1.99038, 2.08918, 2.10779, 2.097, 2.06218, 2.0596, 1.98344, 2.08394, 2.05963, 2.05233, 2.0588, 2.05875, 1.97724, 1.97782, 1.97981, 1.97914, 1.97875, 2.06573, 2.05696, 2.06644, 2.06442, 2.06955, 2.07404, 1.97964, 2.07369, 2.05621, 2.05668, 2.05769, 2.07509, 2.07403, 1.98358, 2.09829, 2.07476, 2.07179, 1.98431, 2.06779, 2.06716, 2.07865, 2.06797, 1.983, 2.0623, 2.07772, 2.06048, 2.07365, 2.06731, 1.98559, 2.0756, 2.06652, 2.06517, 1.98305, 2.08363, 1.98284, 2.0591, 2.06982, 2.06159, 2.08294, 2.06911, 1.9801, 1.98067, 1.97975, 1.9803, 1.97872, 2.06972, 2.05844, 2.05549, 1.97974, 1.97975, 1.97937, 2.05477, 1.97876, 2.06785, 2.06308, 2.06012, 2.06514, 1.91011, 2.00443, 1.90816, 2.10375, 2.10719, 1.90623, 1.90644, 1.90588, 1.90333, 2.01177, 1.90454, 1.90299, 1.90343, 1.9025, 1.90066, 1.9007, 1.9038, 1.90405, 2.0068, 1.90729, 2.02308, 2.02144, 1.90714, 1.90739, 1.90817, 1.90598, 2.08567, 1.99273, 1.9039, 1.905, 1.9067, 2.08863, 1.90302, 1.9062, 1.9054, 1.90381, 2.08986, 1.90315, 1.90289, 1.9041, 1.90349, 1.90391, 1.90348, 2.07486, 2.08058, 1.88329, 1.83051, 1.88902, 1.9201, 1.90357, 1.82292, 1.93024, 1.81657, 1.81386, 1.86299, 1.81281, 1.86187, 1.85858, 1.85891, 1.91075, 1.91699, 1.80516, 1.85897, 1.80254, 1.93162, 1.80212, 1.8016, 1.93447, 1.91719, 1.91563, 1.79963, 1.84904, 1.79997, 1.79724, 1.89405, 1.79733, 1.90422, 1.79804, 1.93404, 1.93196, 1.79758, 1.79679, 1.7991, 1.8016, 1.92488, 1.90264, 1.79886, 1.92443, 1.92266, 1.79938, 1.89277, 1.79741, 1.79767, 1.79476, 1.79632, 1.90757, 1.79648, 1.90699, 1.84524
1.87967, 1.983, 1.88054, 1.88083, 2.05871, 2.06007, 1.87847, 1.87894, 1.87692, 1.92548, 1.92667, 1.87605, 1.87577, 1.87197, 1.92307, 1.92377, 1.97617, 1.87015, 1.86934, 1.87016, 1.97547, 1.97704, 1.86751, 1.86629, 1.86432, 1.86334, 1.86243, 1.86247, 1.86077, 2.03641, 1.90796, 1.85876, 1.90779, 1.90703, 1.85782, 1.97887, 1.85576, 1.85424, 1.90405, 1.85198, 1.90271, 1.90134, 1.90163, 1.8498, 1.85104, 1.85226, 1.84904, 1.85228, 1.85103, 1.95715, 1.85458, 2.01329, 1.99141, 1.99037, 1.98922, 2.01321, 1.989, 1.98806, 2.01426, 1.98463, 1.98532, 1.98199, 2.01439, 1.98182, 1.98057, 2.01458, 1.97971, 1.97683, 1.97565, 1.97518, 1.89704, 1.97278, 1.97363, 1.97017, 1.97187, 1.97239, 1.9704, 2.01355, 1.96713, 1.96853, 2.0882, 1.96811, 1.96837, 1.96848, 1.96758, 2.01309, 1.97256, 1.96948, 1.97287, 1.89651, 1.89723, 1.97819, 1.97956, 2.01297, 1.98674, 2.1104, 2.0125, 2.01228, 2.1053, 2.10221, 2.07634, 2.06929, 2.08048, 2.08749, 2.07983, 1.98327, 1.98215, 1.98068, 1.98047, 1.98143, 1.9803, 1.97904, 1.97966, 2.05934, 1.97954, 2.05807, 2.05779, 2.05865, 2.05805, 2.09837, 1.98274, 2.07918, 2.0765, 2.05882, 2.06687, 2.05588, 2.07719, 2.07286, 2.07345, 2.07282, 1.98262, 2.06913, 2.07706, 2.06979, 2.07953, 2.07894, 2.06023, 2.06221, 1.98227, 2.06221, 2.07176, 2.06694, 2.07949, 2.06964, 2.07177, 2.06, 2.07306, 2.0776, 1.98361, 2.07676, 2.07546, 2.07537, 1.9825, 2.07583, 2.07624, 2.06683, 2.06852, 2.05824, 2.05959, 1.97928, 2.07641, 1.9804, 1.9789, 1.97778, 1.97842, 1.98025, 1.97782, 2.05812, 2.05808, 2.06897, 2.05517, 2.06231, 1.91098, 1.91128, 1.91013, 1.95716, 1.955, 1.90512, 1.9045, 1.90409, 1.90495, 1.90454, 2.00746, 1.90144, 1.90416, 2.01147, 2.0106, 1.90435, 1.90373, 2.0116, 2.09966, 1.90587, 1.90549, 1.95565, 1.90733, 1.90621, 1.90587, 1.9021, 1.90485, 2.08723, 1.90578, 1.9546, 1.95521, 1.95464, 1.9545, 1.95304, 1.95192, 1.9032, 1.90348, 1.90311, 1.90247, 1.9053, 1.90309, 1.90278, 1.90301, 1.90165, 1.88313, 1.87997, 1.87816, 1.82393, 1.91801, 2.11164, 1.81684, 1.81466, 1.81664, 1.89246, 1.88962, 1.80966, 1.80752, 1.8053, 1.80613, 1.80525, 1.93008, 1.86691, 1.80548, 1.93165, 1.80225, 1.93718, 1.80159, 1.85073, 1.84971, 1.79927, 1.79918, 1.85176, 1.90342, 1.93033, 1.92791, 1.92493, 1.79938, 1.8002, 1.84799, 1.80084, 1.79647, 1.92617, 1.79748, 1.797, 1.9233, 1.79877, 1.84964, 1.7992, 1.79667, 1.79741, 1.92742, 1.7998, 1.79555, 1.79541, 1.79391, 1.79575, 1.79551, 1.98012
1.98363, 1.98626, 1.88479, 1.9863, 2.06547, 1.87892, 1.88139, 1.88253, 1.92886, 1.93052, 1.87899, 1.92791, 1.98183, 1.97666, 1.87425, 1.87297, 1.87127, 1.92231, 1.87003, 1.87211, 1.9728, 1.87042, 1.86728, 2.05558, 2.05686, 1.86606, 1.95605, 1.91375, 1.91373, 1.91336, 1.91115, 1.91141, 2.05533, 1.85813, 2.04564, 1.85903, 1.85464, 1.85765, 1.9064, 1.85455, 1.85439, 1.85459, 1.8524, 1.85058, 1.90427, 1.85407, 1.95093, 1.94235, 1.85426, 1.94159, 1.85497, 1.9928, 1.99313, 1.99391, 1.99292, 1.99075, 1.99259, 1.91348, 2.01499, 1.91078, 1.98438, 2.0147, 1.98424, 2.10891, 1.98016, 1.98044, 1.90195, 1.97759, 1.97685, 2.10327, 1.97269, 1.97344, 1.89672, 1.89706, 1.89587, 1.9718, 1.8939, 1.96961, 2.01381, 1.96818, 1.96711, 2.01717, 1.96863, 1.96853, 1.97036, 1.97093, 2.10374, 1.9734, 1.89674, 2.10372, 2.01497, 1.90273, 1.98287, 1.98236, 1.98907, 1.91386, 1.91959, 1.92132, 2.01776, 2.10663, 2.08472, 1.98648, 2.07689, 2.06903, 2.06991, 2.06631, 2.07558, 1.9827, 1.98207, 1.98177, 1.98128, 1.97936, 2.06533, 2.05934, 2.08327, 2.06023, 2.05997, 2.05945, 2.05995, 2.05974, 2.06167, 2.05899, 2.05884, 1.98281, 1.98239, 2.06877, 2.07294, 1.98264, 2.07089, 2.08027, 2.05874, 2.06048, 2.08308, 1.98598, 2.06226, 2.07243, 2.07715, 1.98558, 1.98565, 2.08307, 2.08152, 2.07683, 2.07328, 1.98529, 2.0695, 2.06509, 1.98627, 1.98622, 2.08005, 2.08623, 2.07406, 2.07404, 2.07661, 2.07302, 1.98333, 2.06068, 2.07209, 2.05924, 2.05827, 2.05726, 2.05607, 1.97937, 1.97841, 1.98284, 1.97953, 2.06345, 2.05693, 1.97857, 2.0581, 2.07314, 2.07271, 1.91331, 1.96122, 1.96013, 2.00396, 2.01024, 1.90598, 2.01278, 1.90288, 1.90094, 1.89984, 1.95153, 1.95155, 1.90264, 1.95221, 1.90322, 2.09658, 1.90476, 2.08957, 2.08661, 1.90282, 1.95573, 1.90425, 1.95533, 1.96205, 1.90742, 1.95466, 1.90427, 1.90537, 2.01048, 2.00895, 1.90507, 1.95435, 1.90304, 1.90125, 1.90449, 1.90397, 1.90374, 1.90228, 2.08012, 1.90241, 2.118, 1.90052, 2.00238, 1.9044, 1.90299, 1.93438, 1.82959, 1.82307, 1.82315, 1.81972, 1.818, 1.81685, 1.93431, 1.81443, 1.93708, 1.93732, 1.81122, 1.80852, 1.80742, 1.805, 1.93435, 1.93208, 1.8026, 1.80376, 1.80123, 1.80307, 1.8017, 1.80118, 1.85125, 1.80275, 1.8018, 1.9146, 1.85072, 1.79712, 1.7993, 1.8, 1.7995, 1.80021, 1.79934, 1.79766, 1.9243, 1.79956, 1.91289, 1.799, 1.91054, 1.92544, 1.91146, 1.91744, 1.89257, 1.79947, 1.84857, 1.92177, 1.79897, 1.79609, 1.79815, 1.79627, 1.7961, 1.79301, 1.79673
1.88623, 1.88451, 1.98637, 1.88503, 1.883, 1.88171, 1.88096, 1.99093, 1.88314, 1.87988, 1.88025, 1.87996, 1.87856, 1.98612, 1.87568, 1.87724, 1.87496, 2.06197, 1.87637, 1.92228, 1.87527, 1.87194, 1.92289, 2.05254, 1.97676, 2.05537, 1.8689, 1.97586, 1.97604, 1.86509, 1.85987, 1.97165, 1.86027, 1.86088, 2.05943, 2.04876, 1.97514, 2.04617, 1.97473, 1.97582, 1.90627, 1.9061, 1.90662, 1.90719, 2.04211, 1.85775, 1.96165, 1.85591, 1.95735, 1.85884, 1.85965, 1.99753, 1.99745, 1.993, 2.0937, 1.99975, 2.01679, 1.99044, 2.0188, 1.91326, 1.91103, 1.9826, 2.01743, 2.01867, 2.01657, 2.01792, 2.01762, 1.97936, 1.979, 1.89999, 1.97284, 1.97402, 1.97437, 2.0208, 1.97062, 1.97118, 1.97092, 1.97015, 1.9703, 1.893, 2.01739, 1.97084, 1.97002, 1.96945, 2.01764, 1.89571, 1.89635, 1.89734, 2.01722, 1.97599, 1.97949, 1.90469, 1.90726, 1.90748, 2.01624, 1.99087, 1.99275, 2.01393, 2.01525, 2.11692, 2.07954, 2.08043, 2.10173, 2.07836, 1.98685, 2.07543, 2.0741, 1.98298, 2.05618, 1.9848, 1.98503, 2.06764, 2.06027, 2.06188, 2.05897, 1.98273, 2.07935, 1.98269, 2.06525, 1.98376, 2.07489, 2.0794, 2.08119, 2.07411, 2.07603, 2.10117, 2.05991, 2.08271, 2.08822, 2.06164, 1.98725, 2.08605, 2.08073, 2.06115, 2.08546, 1.98695, 2.08169, 2.0695, 2.08319, 2.08363, 2.08142, 2.06025, 2.07608, 2.07302, 2.07238, 2.06915, 2.06962, 2.09415, 2.07309, 2.0658, 2.06542, 1.98365, 1.98348, 2.07308, 2.0794, 2.07029, 2.07082, 2.07957, 2.06959, 2.07135, 2.06604, 1.98083, 1.98353, 1.98189, 2.05672, 2.06231, 2.05846, 2.05833, 2.05887, 2.05857, 2.06809, 1.96265, 2.0088, 1.90666, 2.10983, 1.90815, 1.90689, 2.11183, 2.11082, 1.90338, 2.03559, 2.0344, 1.90037, 1.90106, 1.90105, 1.90052, 1.90329, 2.01475, 2.01369, 1.90378, 2.00404, 1.90417, 1.90419, 1.90381, 1.90626, 1.90426, 2.00496, 1.95646, 1.9055, 1.90712, 1.90456, 1.90175, 1.90177, 1.90271, 2.0873, 1.90286, 2.08092, 1.90272, 1.90362, 1.90361, 1.99742, 1.99613, 2.10068, 1.99324, 1.90319, 1.90225, 1.82828, 1.82668, 1.82367, 1.82065, 1.82041, 1.81628, 1.86595, 1.86448, 1.92863, 1.92487, 1.80985, 1.93326, 1.80719, 1.85663, 1.80746, 1.9347, 1.80335, 1.85684, 1.91332, 1.8018, 1.92971, 1.80055, 1.8001, 1.92087, 1.91694, 1.79945, 1.79873, 1.80232, 1.8, 1.93245, 1.89549, 1.92726, 1.92464, 1.79667, 1.80014, 1.79617, 1.79948, 1.91795, 1.91556, 1.79563, 1.79608, 1.91445, 1.79596, 1.79655, 1.85218, 1.85215, 1.85252, 1.79549, 1.79581, 1.79492, 1.9213, 1.79399, 1.79289, 1.79092
1.88881, 1.88809, 1.88425, 1.88606, 1.93599, 1.93599, 1.99296, 1.8853, 1.88474, 2.1631, 1.88256, 2.15751, 2.16228, 1.98956, 1.97166, 1.8808, 1.92824, 1.92923, 1.98378, 1.98896, 1.87723, 1.87163, 1.92262, 1.87577, 1.87247, 1.87171, 2.05962, 1.86943, 2.05426, 1.8685, 1.9783, 1.86177, 1.86556, 1.91086, 1.86449, 1.86376, 2.05958, 1.85954, 1.85897, 2.05337, 2.14885, 1.97163, 1.85889, 2.04317, 2.04405, 2.04005, 1.85857, 1.85989, 2.03552, 1.85889, 1.86031, 1.92219, 1.91978, 2.09782, 1.99677, 1.99735, 1.92023, 1.99501, 2.02155, 1.98832, 1.98938, 1.99317, 1.98759, 1.98564, 1.98533, 2.11049, 2.10347, 1.98023, 2.02417, 1.97853, 2.1036, 2.09783, 2.098, 1.89927, 1.97278, 1.89655, 1.97371, 1.97337, 1.89588, 2.0185, 1.89511, 1.97355, 1.97239, 2.02006, 2.01944, 1.89774, 1.97517, 1.97492, 1.90128, 1.97863, 1.97851, 1.98208, 1.98341, 2.01719, 1.99624, 1.99404, 2.01763, 2.01735, 2.104, 2.10359, 1.98955, 2.08136, 2.07987, 2.08471, 2.06183, 1.9858, 2.09033, 1.98713, 1.98541, 1.98743, 1.98537, 2.065, 2.06933, 2.06349, 2.06118, 2.06935, 2.07119, 2.07951, 2.07709, 1.98551, 1.98682, 1.98672, 2.08282, 1.98516, 2.08663, 2.06229, 2.06267, 2.06509, 2.08027, 2.08442, 1.9869, 2.07233, 2.06493, 2.06788, 2.0718, 2.06034, 1.98919, 1.98748, 2.07627, 2.07514, 1.98611, 2.08646, 2.08394, 2.09067, 2.081, 1.98395, 2.07296, 2.09089, 2.08348, 2.07631, 2.07435, 2.06219, 2.06825, 2.0935, 1.986, 1.98408, 2.08068, 1.98583, 2.08366, 1.98291, 2.0731, 1.98124, 1.98168, 1.98133, 2.06555, 2.0611, 2.06002, 2.06265, 2.06334, 2.0624, 2.06627, 1.91446, 2.01045, 1.90852, 1.90719, 1.90661, 1.90405, 2.09647, 1.90361, 1.90239, 1.9019, 2.11066, 1.90158, 1.89962, 1.89891, 1.90034, 1.9025, 1.90255, 1.90044, 2.09991, 1.90198, 1.95427, 2.01097, 1.9026, 2.00135, 1.99637, 1.90599, 2.00569, 2.09039, 1.9056, 1.90365, 1.90333, 1.90323, 1.90193, 1.90164, 1.90352, 1.90279, 1.90338, 2.01105, 1.90266, 1.95146, 1.90478, 1.904, 1.9549, 2.06329, 1.90532, 1.82524, 1.82381, 1.82252, 1.81929, 1.9067, 1.86677, 1.81198, 1.81172, 1.93469, 1.80988, 1.80928, 1.80846, 1.85662, 1.85549, 1.80251, 1.85457, 1.9199, 1.92834, 1.93486, 1.80331, 1.93097, 1.93088, 1.80106, 1.92751, 1.7998, 1.8004, 1.80001, 1.93057, 1.93065, 1.79956, 1.79715, 1.84897, 1.84774, 1.79741, 1.79601, 1.79928, 1.79789, 1.79635, 1.79595, 1.79422, 1.79745, 1.7939, 1.89277, 1.79905, 1.85153, 1.85125, 1.85193, 1.84999, 1.84757, 1.79349, 1.79406, 1.96933, 1.7943, 1.7944
1.97002, 1.88416, 1.88794, 1.88871, 1.88721, 2.00131, 1.88475, 1.88419, 1.88373, 1.88638, 1.88466, 1.88543, 1.88254, 1.88084, 1.88278, 1.88551, 1.93024, 1.88103, 1.92846, 1.87531, 1.87873, 2.06622, 1.87711, 2.05923, 2.05997, 1.87084, 1.92192, 1.87093, 1.87157, 1.87176, 1.91856, 1.91905, 1.98249, 1.94077, 1.94146, 1.86187, 1.91625, 1.86168, 1.86269, 1.91026, 1.99225, 1.86023, 1.96952, 1.86215, 1.86142, 1.90936, 1.86102, 1.96622, 1.86102, 1.91058, 1.86295, 2.00013, 1.92547, 2.00036, 1.92209, 1.99813, 2.02356, 2.02418, 1.91779, 1.99254, 2.02229, 2.02151, 1.9875, 1.98627, 1.98532, 1.9107, 2.09704, 1.98204, 1.90458, 2.10064, 2.09944, 1.97719, 1.97627, 1.97617, 1.97601, 1.97441, 1.9734, 1.89859, 2.02064, 1.97438, 1.97207, 1.97205, 1.89599, 1.97451, 1.90025, 1.97467, 1.89811, 1.97729, 1.97754, 1.98232, 1.90452, 1.98342, 1.90994, 2.10495, 1.99178, 1.99532, 2.01753, 2.0186, 2.10403, 2.1014, 2.08615, 2.08602, 2.07307, 2.08517, 2.08552, 2.07417, 2.06548, 2.06437, 2.06288, 1.98611, 1.98688, 2.0669, 1.98595, 2.06453, 2.06948, 2.06696, 2.07735, 1.98592, 2.07551, 2.06342, 2.06169, 2.06261, 2.08303, 1.98211, 1.988, 1.98724, 2.06601, 2.07325, 1.98881, 2.07458, 2.0734, 2.06589, 2.06379, 2.07995, 2.06712, 1.98768, 2.07619, 1.98658, 2.06836, 1.98756, 2.07788, 1.98741, 2.07351, 2.07341, 2.07186, 2.07564, 2.07446, 2.06053, 2.07045, 1.98604, 2.07731, 1.98549, 2.08334, 2.07533, 2.07305, 2.07359, 2.07045, 2.08065, 2.08318, 2.06783, 2.06355, 1.98223, 1.98241, 1.98051, 1.98026, 2.06232, 2.06226, 2.06003, 2.05925, 1.97839, 2.06372, 1.91432, 1.9099, 1.90896, 1.90944, 1.9033, 1.95662, 1.90369, 1.90447, 1.90399, 1.90341, 1.90122, 1.90041, 1.90141, 1.90085, 1.90013, 2.03184, 1.90324, 1.99287, 1.90009, 1.90296, 2.08976, 1.90353, 2.09288, 2.00271, 1.90306, 1.90275, 1.90468, 1.90379, 1.99402, 1.95441, 1.95334, 1.90331, 1.90354, 1.90322, 1.90277, 1.9028, 1.90165, 1.90086, 1.90003, 2.09576, 2.10023, 2.09031, 1.95455, 2.0756, 1.90275, 1.93984, 1.82198, 1.93803, 1.95237, 1.86798, 1.91694, 1.81258, 1.91535, 1.80996, 1.81063, 1.93772, 1.93529, 1.93594, 1.8066, 1.80534, 1.80343, 1.85428, 1.9083, 1.80282, 1.80293, 1.80118, 1.93214, 1.93146, 1.80021, 1.79918, 1.93068, 1.79753, 1.79943, 1.79874, 1.84832, 1.79803, 1.91352, 1.92122, 1.7939, 1.79578, 1.796, 1.79643, 1.79576, 1.85128, 1.79546, 1.79601, 1.79403, 1.79372, 1.97598, 1.92139, 1.7969, 1.85053, 1.79586, 1.79095, 1.79234, 1.92251, 1.79426, 1.79353, 1.9081
1.89596, 1.8954, 1.94095, 1.8902, 1.88897, 1.99836, 1.88862, 1.88946, 1.89038, 1.94684, 1.94807, 1.94764, 1.94922, 1.97942, 1.88565, 1.88279, 1.88364, 1.88498, 1.97631, 1.97996, 1.93017, 1.99002, 1.92822, 1.98619, 1.98678, 1.97895, 1.98006, 1.87006, 1.87465, 2.06627, 1.96702, 1.96672, 1.92017, 1.91941, 1.98571, 1.86649, 1.96259, 1.86566, 1.97643, 2.05172, 1.86316, 1.86306, 1.86267, 1.86518, 1.86343, 1.86437, 1.86506, 1.91312, 1.91388, 2.05892, 1.86502, 2.0026, 2.00363, 2.02647, 2.00083, 2.00077, 2.00035, 1.9964, 1.99519, 1.99566, 1.99507, 1.99456, 1.98964, 2.0242, 1.98664, 2.02428, 1.9854, 1.98604, 1.9842, 1.98137, 1.98266, 1.90451, 1.97856, 1.97871, 1.9765, 1.97724, 2.02485, 1.97782, 1.97846, 1.97664, 2.10692, 1.97512, 1.97577, 1.97603, 1.89935, 1.97616, 1.97627, 1.97732, 1.98058, 1.90597, 1.90673, 1.98278, 1.98682, 1.98989, 1.99033, 2.02224, 1.99911, 2.01789, 2.0189, 2.10705, 1.9922, 1.98988, 2.08311, 2.06796, 2.06796, 2.08405, 2.06747, 2.06943, 2.06596, 2.06875, 1.9896, 1.99293, 1.98727, 1.98679, 1.98701, 2.0799, 2.07614, 1.98662, 2.07589, 2.07244, 2.06608, 2.06392, 2.07497, 2.07242, 2.06533, 2.06547, 2.07398, 2.07872, 1.99042, 1.99101, 2.07139, 2.08923, 2.09007, 2.07403, 2.07509, 2.08732, 2.07907, 2.08074, 2.07294, 2.08152, 1.98845, 1.99005, 2.08178, 2.07671, 2.07957, 2.07476, 2.07025, 2.07585, 2.07628, 1.98702, 2.08061, 1.9867, 1.98531, 2.07675, 1.98672, 1.98585, 2.05894, 2.07713, 2.06703, 2.07026, 2.07651, 1.98445, 1.98323, 1.98133, 1.9818, 1.98079, 1.98027, 2.06118, 1.98098, 2.05781, 2.05702, 1.91377, 1.91169, 2.02186, 1.90692, 2.01327, 1.90624, 1.90382, 1.90282, 1.90055, 2.10198, 1.89994, 2.03389, 2.01481, 2.01371, 1.89662, 1.90222, 1.89927, 1.89959, 1.98748, 1.90167, 1.99936, 1.90262, 1.95326, 1.90317, 1.9021, 2.0061, 1.90379, 1.90429, 1.90172, 1.90349, 1.90322, 1.95278, 1.95158, 2.11092, 1.9004, 1.90369, 1.90163, 1.90146, 1.90323, 1.90073, 1.90386, 1.90309, 1.90302, 1.90262, 1.90447, 1.8724, 1.8226, 1.81529, 1.81331, 1.81636, 1.93829, 1.81383, 1.8103, 1.80678, 1.80711, 1.93812, 1.93664, 1.93589, 1.87854, 1.9055, 1.93479, 1.80251, 1.8024, 1.8024, 1.80313, 1.9293, 1.80281, 1.79946, 1.79812, 1.79861, 1.79565, 1.80028, 1.79923, 1.79767, 1.9293, 1.79541, 1.85212, 1.79629, 1.7951, 1.79591, 1.92472, 1.91317, 1.91112, 1.84431, 1.84238, 1.79319, 1.79592, 1.79365, 1.92744, 1.7962, 1.7932, 1.89149, 1.79389, 1.79618, 1.92227, 1.9201, 1.79409, 1.92086, 1.79444
1.89662, 2.15859, 1.88999, 1.88953, 1.89267, 1.89023, 1.89201, 1.89161, 1.88822, 1.88843, 1.88814, 1.89076, 1.93849, 1.88817, 2.07593, 1.88643, 1.88657, 1.88411, 1.97677, 1.99248, 1.8809, 1.88027, 1.88019, 1.87944, 1.87969, 1.87647, 1.87591, 1.98307, 2.06249, 1.87182, 1.87197, 1.87219, 2.05564, 1.87214, 1.86794, 2.07176, 1.86673, 1.8631, 2.07156, 1.86446, 1.97255, 1.86469, 1.9595, 1.95976, 1.86518, 1.86464, 1.86619, 1.91517, 1.86829, 1.96854, 1.86665, 2.10749, 2.00608, 2.00279, 2.00145, 2.02943, 2.03045, 2.00048, 2.02823, 1.99449, 1.99589, 2.02597, 2.0273, 1.99274, 2.0291, 2.02698, 2.02772, 1.98657, 1.98683, 1.98749, 1.98414, 1.97852, 1.90358, 1.97836, 1.97909, 2.10709, 1.97925, 1.98047, 1.97667, 1.90321, 1.89984, 1.97954, 1.97484, 1.97817, 2.02442, 1.97577, 2.10096, 2.02482, 1.98028, 1.90687, 1.98397, 2.02351, 1.91317, 2.1068, 2.09983, 1.99683, 1.99727, 2.02115, 2.02079, 2.13176, 2.09474, 2.08114, 2.06913, 2.06975, 2.08007, 2.08361, 2.07261, 2.06771, 1.98886, 1.98912, 1.98809, 1.98646, 2.06932, 2.06861, 2.06846, 2.06547, 2.06575, 2.06862, 2.06528, 2.06691, 2.0734, 2.0915, 2.09396, 1.98972, 2.07935, 2.0814, 2.07977, 1.99105, 1.99144, 2.0832, 2.08125, 1.9899, 2.07053, 2.07977, 2.09085, 1.98949, 1.99058, 1.98937, 2.08664, 1.98972, 1.98909, 2.07318, 1.98902, 1.98814, 2.0743, 2.07962, 2.06519, 2.07007, 2.07268, 1.98685, 2.08436, 2.08761, 1.9858, 2.08266, 2.07779, 1.9828, 1.98191, 2.06294, 2.07872, 2.06173, 2.08041, 1.98462, 1.98223, 2.06241, 1.98406, 1.98277, 1.98263, 1.98252, 2.05853, 2.05899, 2.07711, 1.91223, 1.91042, 1.90944, 2.00762, 2.01729, 2.0167, 1.90379, 1.9004, 2.01682, 2.01162, 1.9497, 2.0121, 2.00967, 1.89661, 1.89591, 1.89591, 2.10719, 1.89887, 1.89844, 1.89581, 2.08593, 1.99732, 2.09743, 1.90018, 1.95134, 1.95257, 2.07176, 1.90253, 1.90135, 1.90069, 2.00564, 2.01315, 2.01215, 1.90096, 2.00154, 1.90166, 2.00349, 1.90116, 1.90433, 1.95196, 1.95238, 1.90309, 1.90413, 2.07918, 2.07791, 1.92355, 1.99282, 1.96988, 1.86753, 1.8162, 1.93725, 1.93735, 1.93594, 1.9421, 1.80805, 1.93459, 1.80574, 1.80481, 1.92656, 1.80238, 1.80387, 1.80186, 1.79971, 1.80328, 1.8013, 1.80127, 1.80132, 1.80097, 1.9273, 1.92739, 1.79709, 1.79635, 1.79608, 1.7975, 1.79727, 1.84748, 1.8463, 1.79635, 1.84634, 1.84999, 1.79621, 1.91426, 1.7944, 1.7957, 1.79102, 1.79408, 1.84496, 1.79588, 1.90356, 1.79192, 1.79309, 1.79215, 1.84118, 1.79279, 1.90682, 1.9233, 1.79122, 1.79322, 1.79107
