1.89285614380841,1.89277853274835,1.81813609573545,2.00706081868701,1.81783535287771,1.8941367262994,1.93187510425368,1.89359344887898,1.89275912998334,1.82255992615888,1.82287037039912,1.90055904151939,1.93273852729685,1.93412582499543,1.90324632447397,2.01046600394715,1.93180719457613,1.932932554947,2.00704141592199,1.84183657320133,1.91796332173789,2.00748767951734,1.86439228753133,1.9804984333814,1.97979023245835,1.99149980114493,1.98531031910513,1.98751253293434,1.98034321126128,1.98825953938742,1.97754921309911,1.98330213292608,1.98440809053193,1.98687224168884,1.98536852740018,1.97897531632772,1.97826711540467,1.97725817162389,1.97901412185775,2.00361682789684,1.98099320388928,2.00140491268512,1.98068275964904,1.9801103780811,1.98302079283336,1.9074082175697,1.98195364075753,1.98225438361526,1.98223498085025,1.98234169605783,1.99788331083489,1.99114084999216,1.97923725365542,1.91029922955694,1.91100743047999,1.98218647393771,2.00065790623204,2.00748767951734,1.99897956705824,2.00790483896516,2.00204520393062,1.99876613664307,1.91631408671161,1.91511111528068,2.00077432282213,2.00089073941222,2.00015343434165,2.00751678366486,2.01397790441487,1.98986996888367,2.0198084353019,2.00420861222979,2.00779812375758,2.0017735652204,1.99804823433752,1.99692287396664,1.99770868594975,2.00468397997266,2.00489741038783,2.00078402420464,2.0011235725924,2.00713842974707,2.0004735799644,1.99188785644524,1.99096622510702,1.99178114123765,1.99672884631649,1.99130577349478,1.99922210162093,1.99398335506686,1.99257665460327,1.99188785644524,1.9923632241881,2.00453845923505,1.91693497519209,1.94502047755138,1.85359464880045,1.85241108013453,1.85337151700278,2.02132185097307,1.84962678335487,1.84982081100503,1.8487536589292,1.84777381929594,1.84777381929594,1.84913201284699,1.84789993726853,1.84652234095247,2.04029775515779,1.84766710408835,2.03923060308196,1.84838500639391,2.04428502336838,2.02453300858306,2.03166352472609,2.02747252748284,2.04677827867282,2.04345070447274,1.85178049027155,1.85153795570886,2.04200519847911,1.85243048289955,2.02181662148095,1.85280883681734,1.85386628751066,1.85278943405233,1.85253719810713,1.8514603446488,1.84847231883648,1.84818127736125,1.85001483865518,1.84778352067844,1.85012155386276,1.84660965339503,1.84675517413265,1.84744397229068,2.01553982699858,1.8407694211255,1.84104105983571,2.01476371639798,1.78091189105407,1.77739999058634,1.77421793712388,1.77370376385098,1.772442584125,1.77093886983633,1.76936724587011,1.76964858596283,1.76555460254465,1.76453595738136,1.76420611037611,1.84010002573248,1.7604516753457,1.84997603312515,1.759559148155,1.76250836843729,1.75835617672407,1.75572710206453,1.82869119990363,1.75824946151649,1.85684461194047,1.75576590759456,1.85814459719648,1.75420398501085,1.8582998193166,1.84018733817505,1.75085700804575,1.8722213032149,1.87018401288832,1.86846686818449,1.79972287173616,1.79627888094599,1.74747122555063,1.87328845529073,1.8709310193414,1.87314293455312
1.93133182683326,1.89368076132155,1.92993482775218,2.01408461962246,1.89295315763349,1.89523298252275,2.00889437998093,1.89521357975774,1.89537850326037,1.82209425979852,1.93174898628108,1.90270304705355,1.90085008299461,1.82799270036309,1.90347915765415,1.90655449590904,1.93406761670038,1.91065818070972,1.93213704158138,1.93399000564032,1.92076702128256,2.00856453297567,2.01434655695016,1.99323634861378,1.90683583600176,1.98723119284162,1.98785208132211,1.9984168868728,2.00074521867461,2.01089286477748,1.9856595688754,1.98306929974589,1.98109991909687,1.98733790804921,1.98921997625567,1.98744462325679,1.98388421587653,1.98079917623913,1.98185662693245,1.98073126656158,1.98143946748463,1.98214766840768,1.98218647393771,1.98215736979019,2.00450935508753,2.01438536248019,2.00436383434991,1.99256695322076,1.98362227854882,1.98229318914529,1.91099772909748,2.00399518181463,2.00423771637732,2.0037041403394,2.00714813112957,1.99410947303946,1.91283129039141,1.9115313051354,1.91597453832385,1.99858181037543,2.01820770718815,2.00810856799782,1.91612005906146,2.00360712651433,2.00041537166935,2.00277280761868,2.01390999473732,2.00121088503497,1.99950344171364,1.99819375507513,1.9914609956149,1.99147069699741,2.00753618642988,2.0042183136123,1.99831987304773,2.00560561131088,1.99048115598164,2.01489953575309,1.9178469051478,1.98876401127781,2.01625772930414,2.00562501407589,2.00103626014983,1.91644990606671,1.99259605736829,1.91711930145973,1.99521543064532,1.99247964077819,1.99780569977483,1.99091771819448,1.99121846105222,1.99072369054433,1.99720421405936,1.99531244447039,1.85471030778882,2.03641720215478,1.85148944879632,1.8528767464949,1.85135362944121,2.05080435241344,2.04693350079294,2.02923817909921,1.84952006814729,1.94872640566925,2.03466125192092,1.94147947293613,1.95030773101798,1.84847231883648,1.9436331798528,1.8482394856563,1.84877306169421,1.95147189691888,2.02835535329103,1.84953947091231,2.02468823070318,1.85010215109774,1.85628193175504,1.85100437967094,2.04204400400915,1.84935514464466,1.84999543589016,1.89933666732344,1.85000513727267,2.04004551921259,1.85282823958236,1.85170287921149,1.93799667661593,1.85190660824414,2.01521968137584,1.84757009026328,1.8482394856563,1.89648446086623,2.02847176988112,1.8460469732096,1.84608577873963,1.84434923127078,1.84242835753429,2.03737763902302,1.84332088472498,1.84087613633309,1.89004274288123,1.77917534358522,1.77510076293206,1.77305377122297,1.76966798872785,1.77140453619669,1.76907620439489,1.76527326245194,1.7653605748945,1.76162554262911,1.76474938779653,1.76253747258481,1.76167404954164,1.75958825230253,1.75784200345117,1.76149942465651,1.7560763518348,1.75613456012985,1.80464147266748,1.75666813616776,1.80301164040621,1.75192416012158,1.86025949858312,1.75128386887608,1.7507890983682,1.86233559443973,1.86056024144086,1.86182142116683,1.75026522371279,1.74913016195941,1.7478301767034,1.74831524582878,1.75205027809418,1.75087641081077,1.87313323317061,1.74649138591737
1.8973575852919,1.9326706176193,1.81969801831916,1.93223405540646,1.82077487177749,1.89629043321608,1.82102710772269,1.93259300655924,1.89805608483244,1.8991523410558,1.89770683506217,1.82466512616301,1.9008306802296,1.90349856041917,1.90428437240228,1.90565226733584,1.9356392406666,1.91122086089516,2.01844054036833,1.91663423233436,1.93419373467298,2.02492106388336,2.04306264917244,1.90743732171722,1.90808731434523,2.00039596890434,1.99778629700981,1.99382813294674,1.99345948041145,1.90657389867405,1.98663940850866,1.9841073476742,1.98109021771436,1.98174021034236,1.90628285719883,1.98554315228531,1.98673642233374,1.98078947485663,1.9059918157236,1.98162379375227,1.98112902324439,1.9819148352275,2.01431745280264,1.98525211081009,1.99006399653382,1.99334306382136,1.98541703431272,1.99409977165695,1.98701776242646,1.99421618824704,1.9897826564411,1.98769685920198,1.9977765956273,1.91349098440192,1.91416037979494,1.99480797258,2.01985694221443,1.99036473939155,1.99021921865394,1.98375809790393,2.00442204264496,1.99571990253571,1.99714600576431,1.91580961482122,2.0079533458777,1.99949374033114,2.00567352098843,1.99726242235441,1.99818405369262,2.01075704542237,1.99488558364006,1.9897826564411,2.0000952260466,2.00732275601471,2.00658545094414,2.02507628600348,2.00199669701808,2.01094137169002,1.99160651635252,1.99018041312391,1.99096622510702,2.00132730162506,1.91675064892445,1.98966623985101,1.9923535228056,1.99490498640508,1.99241173110064,1.91593573279381,1.9954482638255,1.91722601666732,1.99268336981085,2.01098987860255,1.99330425829133,1.99100503063705,1.85488493267395,1.85369166262553,2.03374932196521,2.04141341414616,1.85148944879632,1.84847231883648,1.8496655888849,1.84679397966268,1.84829769395134,1.84909320731696,1.84911261008198,2.0234173495947,2.02067185834507,1.84950066538228,1.84830739533385,1.94537942870416,1.84990812344759,1.84743427090817,1.84725964602304,1.84638652159736,1.85176108750653,1.84910290869947,1.85080065063829,1.84989842206509,2.03565079293669,1.850431998103,1.85073274096073,1.8526245105497,1.85176108750653,1.8501700607753,2.01972112285933,1.85207153174677,2.01565624358867,1.84997603312515,1.8492678322021,1.8482394856563,1.84632831330232,1.94072276510054,1.84698800731283,2.02417405743028,1.84602757044458,1.84642532712739,1.84135150407596,2.01392939750234,1.89120690878213,1.8915561585524,1.89117780463461,1.86738031334365,1.77302466707545,1.77037618965089,1.77088066154129,1.76912471130742,1.76594265784496,1.7654866928671,1.84716263219796,1.76505013065426,1.76302254171019,1.7644486449388,1.76314865968279,1.8090556017084,1.84713352805044,1.7582688642815,1.75526143570417,1.85301256585,1.75596963662722,1.75546516473683,1.75476666519629,1.75333086058517,1.74972194629237,1.8611326230088,1.74968314076234,1.86465422485903,1.86222887923215,1.7502749250953,1.74694735089522,1.74816002370866,1.8237531962073,1.79626917956348,1.75011000159267,1.74900404398682,1.75077939698569,1.74855778039147
1.89698893275662,1.89627103045106,1.82045472615474,1.89610610694843,1.895543426763,2.00745857536981,2.0079533458777,1.89783295303477,1.8986381677829,1.9351250673937,1.89855085534033,1.89987994474386,1.9028970747037,1.90504108023786,1.93618251808702,1.83330905797722,1.90889252909335,1.910376840617,1.91534394846086,1.9177207871752,1.84573652896936,2.02075917078763,2.03512691828128,2.00100715600231,1.98502897901241,1.9802461974362,1.91022161849688,1.99588482603834,1.99718481129435,1.98116782877442,1.90718508577203,1.98437898638441,1.98272004997562,1.98701776242646,1.98765805367195,1.98670731818622,1.98073126656158,1.9802364960537,1.98139096057209,1.98322452186602,2.00154073204022,1.9955743817981,2.02441659199297,1.98340884813366,1.98367078546136,1.98460211818208,1.9833312370736,1.90993057702166,1.91027012540942,1.98729910251918,1.98470883338967,1.99563259009314,1.91345217887189,1.99651541590133,2.01423014036007,2.00881676892087,1.91337456781183,2.0169756316097,2.01084435786494,1.99044235045161,2.00418920946478,2.00446084817499,1.99775719286229,1.91629468394659,2.00514964633302,2.00225863434578,1.9933915707339,1.99220800206798,1.99734003341447,2.0042183136123,1.99136398178983,2.00377205001696,2.00090044079473,1.99786390806987,1.99810644263256,2.00695410347942,1.99166472464756,1.9914609956149,2.00780782514009,1.99319754308375,1.99723331820688,1.99027742694899,1.91709019731221,1.99053936427669,1.99400275783188,1.99069458639681,1.9968743670541,1.99321694584877,1.99227591174554,1.99333336243886,1.99152890529246,1.99233412004058,1.91706109316469,1.99133487764231,1.85518567553169,1.85439016216607,2.03328365560485,1.85062602575315,2.03787240953091,1.84975290132747,1.84863724233911,1.84821038150878,1.84735665984811,2.04099625469833,2.04109326852341,1.84791934003355,1.84845291607146,1.84895738796186,1.84728875017056,1.84776411791343,1.84919022114204,1.94486525543126,1.89626132906855,1.84961708197237,1.8517222819765,1.84931633911463,2.04492531461388,1.85121781008611,1.84977230409249,1.85053871331058,1.85018946354031,1.85145064326629,1.85337151700278,1.85199392068671,2.04428502336838,1.85301256585,2.01802338092051,1.84893798519684,2.03838658280381,1.84827829118633,1.8475991944108,2.03520452934134,1.84933574187965,1.84677457689766,1.84609548012214,1.84549399440667,1.84206940638151,1.84034256029517,1.8928464424259,1.88988752076111,1.78207605695497,1.77693432422598,1.77356794449587,1.82308380081428,1.77213213988476,1.86016248475805,1.76895008642229,1.76519565139188,1.76544788733707,1.76367253433819,1.76594265784496,1.76285761820756,1.76228523663962,1.76214941728451,1.80693099893925,1.80580563856838,1.75622187257241,1.86219007370212,1.85162526815143,1.85677670226292,1.86268484421,1.75248684030702,1.75174953523645,1.86046322761578,1.74995477947255,1.86135575480647,1.74914956472443,1.75235102095191,1.74964433523231,1.85071333819572,1.79992660076882,1.85101408105345,1.75106073707841,1.74929508546204,1.86775866726144,1.87042654745101
1.89719266178927,1.9340870194654,1.89415612906442,1.89515537146269,1.89925905626338,1.8969695299916,1.89943368114851,1.93426164435053,1.82239500265625,1.93496984527358,1.93600789320189,1.90126724244244,2.01881889428613,1.90345975488914,1.93839443329874,1.90880521665078,1.91054176411963,1.93995635588245,1.91542155952092,1.91687676689705,1.93517357430624,2.03544706390403,2.04899989526704,2.00491681315284,1.99750495691709,1.99385723709426,1.98324392463103,1.99812584539757,1.98272004997562,1.90918357056858,1.98480584721474,1.90926118162864,1.90806791158021,1.98615433938329,1.98663940850866,1.98739611634425,1.98792969238217,2.01024287214948,2.00638172191148,2.00201609978309,1.99888255323316,1.99085950989944,1.98316631357097,1.98425286841181,1.99151920390995,1.99679675599404,1.9868140333938,1.98429167394184,2.00119148226995,1.99917359470839,1.9915871135875,1.91280218624388,1.91354919269696,1.99335276520387,2.00380115416448,2.0040824942572,2.01138763528536,1.99109234307962,1.99069458639681,1.99185875229771,2.00120118365246,2.00349070992424,2.00018253848917,1.91718721113729,1.91654691989179,1.91781780100027,1.9942937993071,2.00017283710666,1.99793181774742,1.99220800206798,1.9914512942324,1.99187815506273,1.9919654675053,2.01351223805451,2.00110416982739,2.00713842974707,2.00387876522454,1.99295500852106,2.01423014036007,1.91706109316469,2.0080891652328,1.990296829714,1.99051026012917,1.99120875966971,1.99100503063705,1.99736913756199,1.99396395230185,1.99436170898466,1.99438111174967,1.99675795046401,2.00046387858189,1.99250874492572,1.99422588962955,1.99215949515545,1.85608790410489,1.85476851608386,1.85278943405233,1.85284764234737,1.8526245105497,1.84831709671636,1.84976260270998,1.84852082574902,2.04090894225576,1.84770590961838,1.84697830593032,1.85029617874789,1.84944245708723,1.94796969783367,1.84974319994497,2.04051118557296,1.89732848114438,1.84994692897762,1.93542581025143,1.89793966824235,1.89669789128139,1.84803575662364,1.84963648473738,1.94560256050183,1.85001483865518,1.84964618611989,1.85080065063829,1.84999543589016,1.84996633174264,1.8527506285223,1.85014095662777,1.85022826907034,1.84920962390705,1.84679397966268,2.01791666571293,1.84932604049714,1.84841411054143,2.03060607403277,1.84590145247198,1.93941307846203,1.84291342665967,2.03397245376288,1.8432141695174,2.04076342151815,1.89338971984632,1.89167257514249,1.78002906524588,1.77845744127966,1.82312260634431,1.76994932882056,1.77195751499962,1.86209305987705,1.86005576955047,1.81573015287358,1.87726602211882,1.76215911866702,1.76233374355216,1.809181719681,1.80951156668625,1.75912258594216,1.85466180087628,1.85026707460037,1.84319476675239,1.7558144145071,1.85780504880872,1.84640592436238,1.84461116859848,1.86405273914357,2.07080860314396,1.75206968085919,1.75054656380551,1.75025552233029,1.74818912785618,1.86316991333538,1.84064330315291,1.79908258049066,1.74932418960956,1.85180959441907,1.74819882923869,1.79556097864043,1.87019371427083,1.871057137314
1.9336989641651,1.89328300463874,1.89441806639212,1.89614491247846,1.93475641485842,1.89816280004003,1.82259873168891,1.89668818989888,1.89729937699686,1.89996725718643,1.82476213998809,1.82790538792052,1.82678972893216,2.01219285003349,1.90481794844019,1.93707504527771,1.93658997615234,1.91307382495409,1.9382198084136,1.93759891993312,1.85226555939692,1.93386388766772,2.03342917634246,1.98406854214417,1.98528121495761,1.98499987486489,2.00869065094827,1.98461181956459,1.99817435231011,2.00325787674406,1.9081843281703,1.90909625812601,1.90935819545371,1.90845596688051,1.98641627671099,1.98792969238217,1.9847476389197,1.98356407025378,1.98392302140656,1.98399093108411,1.90807761296272,1.90811641849275,1.99677735322903,1.9955743817981,2.00662425647417,1.90962983416392,2.00032805922678,1.99040354492158,1.9953221458529,1.9968646656716,1.99746615138706,2.01650026386683,1.99766017903721,1.98540733293021,1.9147618655104,1.91547976781596,1.99367291082662,1.99308112649366,1.99149009976243,1.99982358733639,2.01370626570466,1.91625587841656,1.9980288315725,2.01082495509993,1.91751705814254,2.0080794638503,1.99466245184239,1.91801182865043,2.01459879289535,2.00105566291485,1.9170707945472,2.00422801499481,2.01101898275008,1.91547976781596,2.00738096430976,2.00526606292311,1.99397365368435,1.91726482219735,2.00431532743738,1.91700288486964,1.91713870422475,1.9913251762598,1.99125726658225,1.99335276520387,1.99122816243472,1.992227404833,1.99669004078646,1.99418708409952,1.99477886843248,1.99479827119749,1.91657602403931,1.91751705814254,2.01432715418514,1.99257665460327,1.99179084262016,1.85464239811127,1.85302226723251,1.85169317782898,1.84928723496711,1.84898649210938,1.84945215846974,1.89853145257531,1.84984991515255,1.84873425616418,1.8986478691654,1.89833742492516,1.95006519645529,1.84951036676478,1.8495297695298,1.84820068012627,1.93708474666022,1.89814339727501,1.8495297695298,2.01111599657515,1.8973478839094,1.89705684243417,1.84809396491869,2.02736581227526,2.02856878370619,1.84983051238753,1.85071333819572,1.85134392805871,1.85034468566043,1.93909293283928,1.85061632437064,1.84996633174264,1.84902529763941,1.85010215109774,1.84915141561201,1.84814247183122,1.84902529763941,2.0333515652824,1.84423281468069,1.8460469732096,2.03423439109059,2.04080222704818,1.84447534924338,2.037338833493,1.84279701006958,1.84015823402753,1.77945668367794,1.7770798449636,1.77443136753904,1.77037618965089,1.86478034283163,1.76874635738963,1.85298346170248,1.76633071314526,1.86259753176744,1.86146247001406,1.76308075000524,1.80852202567049,1.75973377304014,1.75622187257241,1.76260538226237,1.80424371598467,1.7541360753333,1.7559502338622,1.75303011772744,1.75198236841663,1.8631990174829,1.86109381747877,1.75005179329763,1.74895553707428,1.8666721124206,1.74732570481301,1.86263633729747,1.86602211979259,1.86365498246076,1.85088796308085,1.79632738785853,1.7496346338498,1.75009059882766,1.7989952680481,1.7489846412218,1.74690854536519
1.89633894012861,1.8959411834458,1.89686281478402,1.93810339182351,1.89715385625924,2.01857635972344,1.89704714105166,1.89656207192629,1.89754191155955,1.89674639819393,2.01359955049708,1.90310080373636,1.90427467101977,1.90662240558659,1.90757314107233,1.90959102863389,1.93979143237982,1.91343277610687,2.00739066569226,1.9192633069939,1.92360952635727,2.03693137542768,2.03481647404104,1.9888707264854,1.98783267855709,1.98671701956872,1.91071638900477,1.98600881864568,2.01333761316938,2.00504293112544,1.98115812739191,1.98502897901241,1.90976565351903,1.90784477978254,1.98690134583637,1.98714388039906,1.98646478362353,1.98415585458674,1.98331183430858,1.98335063983861,1.99740794309202,1.99163562050004,1.90632166272886,1.98358347301879,2.00131760024255,1.99950344171364,1.99848479655035,1.99321694584877,1.99899896982325,1.91307382495409,1.99546766659051,2.00450935508753,2.00688619380187,1.98813342141482,1.91528574016581,2.01209583620841,2.00738096430976,1.99439081313218,2.00101685738482,1.99767958180223,1.99160651635252,2.00083253111717,2.00170565554285,2.00119148226995,1.91747825261251,1.91969986920674,2.00837050532552,2.00993242790923,2.00310265462394,2.00150192651019,1.99907658088331,1.99126696796475,1.99144159284989,2.00505263250795,1.99492438917009,2.00100715600231,2.0046063689126,1.91825436321311,1.91764317611514,1.99211098824291,1.99268336981085,1.99237292557061,2.00651754126659,1.99363410529659,1.99207218271288,1.99756316521214,1.99651541590133,1.99131547487729,1.99396395230185,1.99451693110478,1.99373111912167,2.00737126292725,1.99164532188255,1.99792211636492,2.0004832813469,1.85283794096487,1.85281853819985,1.85139243497124,1.84994692897762,1.84806486077116,1.8990359244657,1.84723054187552,1.85011185248025,1.84953947091231,1.8490155962569,1.8492775335846,1.84882156860675,2.04659395240517,1.84864694372161,1.84968499164992,1.9413145494335,1.89716355764175,1.8968337106365,1.89761952261961,1.89751280741202,1.89861876501788,1.84722084049301,1.85027677598288,1.84973349856246,1.84958797782484,2.03165382334359,1.85001483865518,2.03274037818443,1.84994692897762,1.84960738058986,1.84891858243183,1.84758949302829,1.85006334556771,1.84994692897762,1.84902529763941,1.84642532712739,1.84622159809473,1.8456686192918,2.02466882793817,2.0180039781555,1.89295315763349,1.89179869311509,2.02009947677712,1.8421858229716,1.84062390038789,1.77402390947372,1.77717685878867,1.85773713913117,1.76924112789751,1.77091946707132,1.76698070577326,1.76667026153302,1.86759374375881,1.86460571794649,1.7595494467725,1.83320234276963,1.80956007359879,1.80875485885067,1.7587830375544,1.75665843478525,1.75590172694967,1.75441741542601,1.75460174169366,1.7533696661152,1.74947941172968,1.83788811052077,1.75190475735657,1.74880031495416,1.86682733454072,1.86443109306136,1.75145849376122,1.84987901930007,1.85748490318597,1.80347730676657,1.85126631699865,1.79928630952332,1.74633616379725,1.74612273338208,1.79941242749592,1.797578866202,1.79726842196176
1.90037471525174,1.93691012177509,1.89744489773447,1.89693072446157,1.89857995948785,1.8231032035793,1.89695982860909,1.82347185611458,1.8978717585648,1.89802698068492,1.94004366832502,1.94030560565272,2.01351223805451,1.90678732908922,1.90812611987526,1.90967834107646,2.01309507860669,1.83868362388639,1.84096344877565,1.84915141561201,1.84944245708723,2.0413358030861,2.0303829422351,1.98872520574778,1.98675582509875,1.98684313754132,1.91147309684035,2.00800185279024,2.00744887398731,1.98645508224102,1.98789088685214,1.98028500296624,1.91022161849688,1.90966863969395,1.91112384707008,1.91135668025026,1.98741551910927,1.98670731818622,1.9866879154212,1.9838454103465,1.98493196518734,1.9098626673441,1.99817435231011,2.00488770900532,1.9946721532249,1.9119193604357,1.91387903970222,1.99708779746927,2.00722574218963,2.00092954494225,2.00045417719938,2.00407279287469,1.99954224724367,1.91413127564742,2.00578023619601,1.91728422496236,1.91723571804982,1.99838778272528,1.98986996888367,1.99757286659465,1.99164532188255,2.00329668227409,2.00429592467236,1.91808943971049,1.91794391897287,2.01055331638972,1.99745645000456,2.01133912837283,2.00334518918662,1.91919539731634,1.99418708409952,1.99295500852106,1.991577412205,1.99826166475268,1.91940882773151,2.00896228965848,2.01201822514835,2.00883617168588,1.99783480392235,1.99160651635252,1.99812584539757,1.91550887196348,1.99670944355148,1.99184905091521,1.9944199172797,1.99427439654209,1.99756316521214,2.00052208687693,1.99581691636078,1.99759226935966,1.99724301958939,2.00153103065772,2.00081312835216,1.99788331083489,2.02022559474972,1.85394389857072,1.85334241285526,1.85111109487853,1.85014095662777,1.95024952272293,1.84877306169421,1.84847231883648,1.94954132179988,1.84790963865104,2.03886195054668,1.84673577136763,1.8473372570831,2.04362532935787,1.849782005475,1.84842381192394,1.84992752621261,1.89855085534033,1.89860906363537,1.89784265441728,1.84933574187965,1.84954917229481,1.84967529026741,2.02050693484244,1.850431998103,1.84921932528956,1.85106258796599,1.85001483865518,2.02239870443141,1.84846261745397,1.94313840934492,1.84994692897762,2.01750920764761,1.84992752621261,1.84854992989654,1.84866634648663,2.01701443713973,1.84628950777229,1.84434923127078,1.84420371053317,2.01666518736946,1.84391266905794,1.89156585993491,1.89096437421944,1.93399000564032,1.84302984324976,1.85974532531022,1.8264501805444,1.77548881823236,1.77200602191216,1.76982321084797,1.76951276660773,1.76691279609571,1.86638107094537,1.8138286819021,1.83370681466002,1.76199419516439,1.76231434078714,1.80775561645239,1.75845319054915,1.75417488086333,1.75848229469667,1.75460174169366,1.75562038685695,1.75455323478112,1.75263236104463,1.75031373062533,1.8661579391477,1.74709287163283,1.7507890983682,1.86468332900656,1.86340274651556,1.74812121817863,1.74874210665911,1.802740001696,1.85659237599528,1.74710257301534,1.86661390412555,1.91678945445448,1.79944153164344,1.79792811597227,1.74488095642112
1.89769713367967,1.82338454367202,1.82347185611458,1.89716355764175,1.89885159819806,1.89759041847208,1.89857025810534,1.89919114658583,1.90040381939927,1.93942277984454,1.90292617885122,1.90082097884709,1.90420676134222,1.90724329406707,1.9068940442968,2.01410402238747,2.01415252930001,1.93964591164221,1.93928696048943,1.92310505446688,1.92464757428557,2.03535005007895,2.03241053117917,1.99007369791633,1.98779387302706,1.98699835966144,2.00467427859016,1.98777447026205,1.98780357440957,2.00466457720765,1.98652299191857,1.98408794490919,1.98824983800491,1.98873490713029,1.98845356703757,1.91079400006483,1.99001548962128,1.98405884076166,1.98716328316407,1.98709537348652,1.98547524260776,1.98512599283749,1.98524240942758,1.98544613846024,1.91332606089929,1.99129607211228,2.00001761498654,1.98766775505446,2.005760833431,2.00139521130261,1.91393724799726,1.99819375507513,1.91522753187077,2.00239445370089,1.99788331083489,1.91776929408774,2.00568322237094,1.99277068225342,1.99629228410365,1.91904987657873,2.01419133483004,2.00521755601058,1.91762377335012,1.91915659178631,1.91821555768308,1.91791481482535,2.0113003228428,2.00399518181463,1.91984538994435,2.00108476706237,1.91894316137115,1.91783720376529,1.9192730083764,1.91795362035538,1.91762377335012,2.00092954494225,1.91664393371686,2.01682040948958,1.91786630791281,1.91687676689705,2.00730335324969,1.9970004850267,1.99283859193097,1.99378932741671,1.99253784907324,1.9945460352523,1.9939057440068,1.9968743670541,1.99618556889607,1.99184905091521,1.91618796873901,2.0045966675301,1.9935176887065,1.99201397441783,1.9939057440068,1.85278943405233,1.85099467828844,1.8503058801304,1.8494036515572,1.9513651817113,1.85048050501554,1.84933574187965,1.84957827644234,2.04763200033348,1.94960923147744,1.84848202021899,1.92604457336666,1.92415280377769,1.94676672640273,1.84874395754669,1.84652234095247,1.84581414002942,1.84874395754669,1.84967529026741,1.8483753050114,1.84849172160149,2.02385391180753,2.03346798187249,1.84780292344346,1.95011370336783,2.01985694221443,1.90004486824649,1.89910383414326,1.84718203496298,1.85009244971524,1.84899619349189,1.84735665984811,2.01758681870767,1.84786113173851,1.84671636860262,1.84545518887664,1.84515444601891,1.84486340454368,1.84344700269758,2.01725697170242,2.01552042423357,1.84495071698625,1.84152612896109,1.84374774555531,1.84175896214127,1.85821250687404,1.85729087553582,1.8674482230212,1.88295103226823,1.77094857121884,1.8696407354679,1.76725234448347,1.8131786892741,1.81075334364722,1.81254809941111,1.8107339408822,1.75686216381791,1.75618306704238,1.97760742139416,1.75345697855777,1.7556882965345,1.80308925146627,1.75450472786858,1.79885944869299,1.86017218614056,1.75033313339035,1.79873333072039,1.84716263219796,1.74922717578449,1.86614823776519,1.75002268915011,1.74902344675183,1.74755853799319,1.86249081655985,1.8628012608001,1.85301256585,1.84993722759512,1.86970864514545,1.74729660066549,1.86596391149755,1.86379080181586
1.8995500977386,1.89782325165226,1.82549944505866,1.89995755580392,1.89840533460272,1.94047052915535,1.8981336958925,1.8245196054254,1.94152797984867,1.94119813284341,1.82847776948847,1.90361497700926,2.01766442976773,1.94061604989296,1.83296950958945,1.94016008491511,1.91671184339442,1.84104105983571,1.94175111164634,1.9395100922871,1.93978173099731,2.02850087402864,2.02040021963486,1.9914512942324,1.9129477069815,1.98783267855709,1.98682373477631,1.91208428393833,1.98753193569936,1.98741551910927,1.98753193569936,1.99032593386152,1.91094922218495,1.98834685182999,1.99033563524403,1.98724089422413,1.98524240942758,1.98682373477631,1.98669761680371,1.98650358915356,2.01013615694189,1.9865617974486,1.9874640260218,1.99162591911753,2.00113327397491,2.00152132927521,2.00425711914233,1.98901624722301,2.00172505830787,2.00015343434165,2.00431532743738,1.98807521311978,2.01283314127898,1.91571260099614,1.91688646827955,1.91677975307197,2.0071869366596,1.91732303049239,1.99715570714682,2.0003474619918,2.0098936223792,1.99092741957699,1.99082070436941,1.91933121667145,1.99901837258827,2.02493076526587,2.00423771637732,1.99475946566746,2.01330850902185,2.00741006845728,2.01022346938446,2.00335489056913,2.01001003896929,2.01627713206916,2.00388846660705,2.00018253848917,1.99887285185065,2.00506233389046,2.01446297354025,2.00639142329399,1.99265426566333,1.99344977902895,1.99368261220913,2.01249359289122,1.99671914493398,1.99431320207212,1.99669974216897,1.99972657351132,1.99663183249142,1.99704899193924,1.99308112649366,1.99108264169711,1.99121846105222,1.9172066139023,1.85434165525353,1.85280883681734,1.85254689948964,1.85112079626103,1.84895738796186,1.85050960916306,1.85111109487853,1.84953947091231,1.94731970520566,1.9458256922995,1.84903499902192,1.84873425616418,1.84674547275014,1.94912416235206,1.94886222502436,1.84916111699451,1.84804545800615,2.03075159477038,2.03176053855117,1.84915141561201,1.84946185985225,2.02314571088448,2.02231139198884,2.04101565746335,1.84990812344759,2.03437021044569,1.84970439441493,1.84763799994083,1.89824041110009,1.84764770132334,1.85058722022312,1.84866634648663,2.03011130352489,2.03728062519795,1.84693950040029,1.84802605524113,1.84471788380607,2.00468397997266,1.84409699532558,1.84574623035186,1.84455296030344,1.84582384141192,1.8429619335722,1.84005151881995,1.84660965339503,1.84286491974713,1.87060117233615,1.77789476109423,1.86926238155011,1.86653629306549,1.86219007370212,1.76864934356456,1.76694190024323,1.76554490116215,1.81239287729099,1.90347915765415,1.81064662843964,1.7595494467725,1.75873453064186,1.87354069123593,1.87249294192511,1.75335026335019,1.86940790228772,1.86614823776519,1.753748020033,1.79761767173203,1.75127416749358,1.75084730666325,1.84974319994497,1.74848987071392,1.74652049006489,1.74587049743688,1.74902344675183,1.74899434260431,1.79700648463405,1.79576470767309,1.82069726071743,1.74642347623981,1.86673032071564,1.86727359813606,1.8686123889221,1.86657509859552
1.90090829128966,1.94274065266211,1.89870607746045,1.89989934750887,1.82327782846443,1.94056754298042,1.89940457700099,1.9012187355299,1.94175111164634,1.94118843146091,1.90570077424838,1.90451720558246,1.94073246648305,1.83268816949673,1.94147947293613,1.9126954710363,1.91352008854944,1.91725512081484,1.84383505799788,1.92421101207273,1.92666546184714,2.02708447218254,1.96362772920081,2.00656604817912,1.99837808134277,1.99040354492158,1.98860878915769,1.98817222694485,1.98846326842008,2.0021519191382,1.99431320207212,1.99399305644937,1.99004459376881,1.91066788209223,1.99329455690883,1.987716261967,1.98930728869823,1.98701776242646,1.98894833754546,1.91028952817443,1.98728940113667,1.98700806104395,2.0009877532373,2.01670399289949,1.91461634477279,2.02059424728501,2.01359955049708,1.91326785260425,2.0013758085376,1.9165566212743,1.99097592648953,1.98842446289005,1.99666093663894,1.99434230621964,1.91687676689705,1.91777899547024,1.91699318348714,1.99681615875906,2.00832199841298,2.01403611270992,1.91777899547024,2.00330638365659,2.01037869150458,1.91982598717933,2.00677947859429,2.02755983992541,2.01505475787321,1.91960285538166,2.01867337354851,1.99359529976656,2.00074521867461,1.99492438917009,1.99395425091934,1.99396395230185,1.99535125000042,2.00728395048468,2.00327727950907,2.00157953757025,2.01189210717575,2.00083253111717,1.99308112649366,1.99122816243472,2.00947646293138,1.99401245921438,1.99534154861792,1.99414827856949,1.99411917442197,2.00109446844488,1.99689376981912,1.99636019378121,1.99439081313218,2.00916601869114,1.99750495691709,1.99448782695725,2.00065790623204,1.85293495478994,2.02512479291602,2.02488225835333,2.02408674498771,2.03212919108645,1.84821038150878,1.85162526815143,1.9478823853911,1.95608975499247,1.84999543589016,1.84995663036013,2.02513449429853,1.9505890711107,1.84744397229068,1.84781262482597,1.90813582125776,1.90432317793231,2.0312851708083,1.84695890316531,1.84942305432222,2.0243195781679,2.04708872291306,1.94634956695491,1.94423466556827,1.8470850211379,1.94347795773268,1.8492775335846,1.94688314299282,1.84972379717995,1.84766710408835,1.94463242225108,1.84623129947724,1.84932604049714,1.93741459366548,1.84512534187138,1.84348580822761,1.90119933276488,1.90388661571947,1.84464997412851,1.84340819716755,1.84368953726027,1.84388356491042,1.84588204970697,1.84472758518857,1.84230223956169,1.78044622469371,1.86943700643524,1.8695146174953,1.86944670781775,1.86121993545137,1.81646745794415,1.8686123889221,1.86762284790634,1.76366283295569,1.87003849215071,1.76248896567228,1.75911288455966,1.75733753156078,1.80556310400569,1.75585322003713,1.75399055459568,1.75397115183067,1.75046895274545,1.75275847901723,1.80033405883414,1.79818035191746,1.79837437956762,1.74893613430926,1.74848987071392,1.7487324052766,1.87147429676182,1.85448717599115,1.74624885135468,1.74945030758216,1.74848987071392,1.86315051057037,1.74877121080663,1.74728689928298,1.86869970136467,1.74866449559905,1.86765195205386
1.8260718266266,1.82300618975422,1.82420916118516,1.89925905626338,1.82517929943591,1.90115082585235,1.8995500977386,2.01535550073094,1.89983143783132,1.90130604797247,1.94331303423005,1.90692314844432,1.90679703047173,1.94257572915948,1.94293468031226,1.83743214554291,1.83758736766303,1.84391266905794,1.91904987657873,1.92549159456373,1.92775201668798,1.94257572915948,2.02437778646294,2.00818617905788,2.00999063620428,2.01692712469716,1.91608125353143,1.98970504538104,1.9878423799396,1.99244083524816,1.99407066750943,1.99331395967384,1.99010280206385,1.9125693530637,1.91298651251153,1.98954982326092,1.98841476150754,1.91163802034298,2.00448025094,1.98794909514718,1.98758044261189,2.01038839288709,2.00319966844901,1.99481767396251,1.99459454216484,1.99446842419224,2.01128092007778,1.91602304523638,2.00806006108528,2.008991393806,1.99475946566746,1.9966124297264,1.99779599839232,2.00579963896103,2.00889437998093,2.00864214403573,2.02454270996557,1.9973788389445,1.92013643141957,2.01147494772793,2.00578993757852,2.00684738827184,1.9985430048454,2.03844479109885,1.92034986183474,2.01183389888071,1.92010732727205,2.00056089240696,2.00691529794939,2.00339369609916,2.00045417719938,1.99150950252744,1.91933121667145,1.99531244447039,2.00492651453535,2.00351011268925,1.99987209424893,2.01337641869941,2.00393697351958,2.00336459195164,2.00172505830787,1.99724301958939,1.91640139915418,2.00776901961006,1.99769898456724,1.99643780484127,1.99782510253984,1.99503110437767,1.99718481129435,1.99369231359164,1.99781540115733,2.00024074678422,1.99184905091521,1.99986239286642,1.99120875966971,1.90157768668268,1.89964711156368,1.85315808658761,1.8499178248301,1.84673577136763,2.03769778464577,2.03434110629817,1.84615368841718,1.84637682021485,1.84795814556358,1.84943275570472,1.9484062600465,1.84742456952567,1.90166499912524,1.90260603322847,1.94745552456077,1.90687464153179,1.84636711883235,2.02409644637022,1.94199364620903,1.94741671903074,1.84912231146448,1.84950066538228,1.84892828381433,1.84955887367732,2.02118603161796,1.84912231146448,1.84713352805044,1.84946185985225,1.85284764234737,1.84974319994497,1.84963648473738,1.84817157597875,1.93728847569288,2.03328365560485,1.84672606998512,1.84690069487026,1.84505743219383,1.84654174371748,2.01747040211758,1.84328207919495,2.01341522422944,2.03421498832557,2.03109114315815,1.84157463587363,1.86289827462517,1.87031983224343,1.77343212514077,1.86995117970814,1.77002693988062,1.7675530873412,1.76424491590614,1.76348820807055,1.76120838318128,1.96152252919668,1.8688646248673,1.87250264330762,1.75794871865875,1.75576590759456,1.80270119616597,1.75395174906565,1.75322414537759,1.8472111391105,1.74957642555476,1.75043014721542,1.79911168463819,1.74631676103223,1.74676302462758,1.75002268915011,1.74856748177398,1.74670481633253,1.74635556656226,1.74686973983516,1.74677272601008,1.74944060619965,1.86658479997803,1.79711319984164,1.86939820090521,1.74896523845679,1.74830554444627,1.86931088846265
1.8999284516564,1.89987024336135,1.90009337515902,1.82712927731992,1.90357617147923,1.82678002754965,1.90023889589664,1.9008403816121,1.82745912432518,1.90292617885122,1.8295546229468,1.9062537530513,1.90627315581632,1.90837835582045,1.91254024891618,1.84064330315291,1.91440291435763,1.91783720376529,1.91970957058924,1.94378840197292,1.92966318904196,1.93010945263731,2.01175628782065,2.0110480868976,1.99340127211641,2.01016526108941,1.98985056611866,1.98927818455071,1.99018041312391,1.98869610160026,1.99736913756199,1.99313933478871,1.91343277610687,1.91281188762639,1.91317083877917,1.9892684831682,2.00117207950494,2.00384966107702,1.9125693530637,1.98932669146325,2.00884587306839,2.01438536248019,1.91473276136288,1.98988937164869,1.9899087744137,1.99304232096363,2.00945706016637,1.99147069699741,1.91530514293083,2.01265851639385,2.01397790441487,1.91770138441018,1.99800942880748,1.99899896982325,1.91767228026266,1.9172066139023,1.91969016782423,2.00182207213294,1.92133940285051,1.92072821575253,2.00030865646177,2.00431532743738,2.00153103065772,1.92057299363241,2.00270489794113,1.99961985830373,2.01343462699445,1.91990359823939,1.92053418810238,2.00959287952147,1.9944199172797,2.01825621410069,1.99625347857362,2.01752861041263,1.9205632922499,1.99457513939982,1.91956404985163,1.99438111174967,2.00554740301583,1.99365350806161,2.0009877532373,1.99407066750943,2.00224893296327,1.9940318619794,1.99349828594149,1.99669004078646,1.99677735322903,1.99768928318474,1.9962243744261,1.99618556889607,1.99526393755786,1.99264456428082,2.00301534218137,2.00583844449106,1.99297441128608,1.90136425626751,1.85401180824828,1.85138273358874,1.85007304695022,1.84853052713152,1.84789023588603,1.84849172160149,1.84762829855832,1.84738576399564,1.84679397966268,1.8469492017828,2.04395517636313,1.95380022872069,1.90029710419168,1.89779414750474,1.94523390796654,1.846570847865,1.84670666722011,1.84696860454781,1.84810366630119,2.02421286296031,2.04184997635899,1.9455637549718,1.85057751884061,1.84969469303243,1.84945215846974,1.93169077798604,1.84685218795772,1.85079094925578,1.84943275570472,1.8497917068575,1.89549491985046,1.93378627660766,1.84735665984811,1.84824918703881,1.93393179734528,1.84718203496298,2.03436050906318,1.84894768657935,2.02513449429853,2.01595698644641,1.84633801468482,1.84443654371335,1.84310745430982,2.01118390625271,1.86270424697502,1.86707957048591,1.86416915573366,1.77139483481419,1.76701951130329,1.81585627084618,1.76512774171432,1.76472998503152,1.87071758892624,1.86962133270289,1.75884124584945,1.87383173271115,1.84536787643407,1.75520322740912,1.75347638132278,1.75266146519215,1.75339877026272,1.87275487925282,1.87307502487557,1.7488585232492,1.86943700643524,1.74824733615123,1.74535632416399,1.74718988545791,1.87361830229599,1.74686973983516,1.79587142288067,1.74755853799319,1.7451234909838,1.86963103408539,1.7474324200206,1.74748092693313,1.86832134744688,1.86727359813606,1.79573560352557,1.86980565897053
1.9030231926763,2.02969414407706,1.90063665257945,1.90054934013688,1.94319661763996,1.90056874290189,1.90095679820219,1.90321722032645,1.90284856779116,1.8299329768646,1.90378960189439,1.90961043139891,1.9067582249417,2.0211084205579,1.91275367933135,1.94397272824057,1.91458724062527,1.91998120929945,1.92141701391057,1.92716993373753,1.92726694756261,1.94570927570941,2.03815374962363,1.91778869685275,2.00507203527296,2.00543098642574,1.9991929974734,1.98858938639268,1.91660512818683,1.98871550436527,1.99393484815432,1.91595513555883,1.91541185813841,1.91305442218908,1.988366254595,1.9935176887065,1.91407306735237,2.00113327397491,1.9879781992947,2.00428622328985,2.00855483159317,2.01722786755489,1.98883192095537,2.00446084817499,1.91474246274539,1.91431560191506,2.00919512283866,1.99032593386152,2.00864214403573,1.91736183602242,2.00106536429736,1.99899896982325,2.00432502881988,2.00106536429736,2.01691742331465,1.99264456428082,1.91738123878744,1.91910808487378,2.00800185279024,2.00645933297154,2.00608097905375,2.01089286477748,2.00191908595802,2.00235564817086,2.01707264543477,1.92168865262078,2.00561531269339,1.91985509132686,2.00147282236267,2.00835110256051,1.99959075415621,1.99490498640508,2.0133667173169,2.02321362056204,2.01314358551923,2.01419133483004,2.01441446662771,2.02036141410482,2.00410189702221,1.99585572189081,2.01334731455188,1.99523483341033,2.00274370347116,2.01306597445917,1.99863031728797,1.99762137350718,1.99772808871477,1.9954482638255,1.99599154124592,1.99994970530899,1.99536095138293,1.99080130160439,2.00437353573242,2.02813222149335,1.91953494570411,1.92502592820337,1.92342520008963,1.85114990040856,2.04514844641155,1.84905440178693,1.84897679072687,1.84697830593032,1.84608577873963,1.84614398703467,1.95093832088097,1.84727904878805,2.02434868231542,2.0269001459149,1.89968591709371,1.84804545800615,1.84610518150464,1.94988087018765,1.84719173634549,1.84921932528956,1.84944245708723,1.85139243497124,2.0210987191754,1.89731877976187,1.94636896971992,1.89695012722659,1.89708594658169,1.93633774020714,1.93470790794588,1.84647383403993,1.85018946354031,1.84870515201666,1.89727027284933,1.89668818989888,1.92712142682499,1.84663875754256,1.84608577873963,1.84506713357634,1.84409699532558,1.8438544607629,1.84447534924338,1.84522235569646,1.84591115385449,2.01418163344753,1.84432982850577,1.84562011237927,1.82788598515551,1.82305469666676,1.88937334748821,1.77587687353266,1.81823310956052,1.83396875198773,1.76601056752251,1.87113474837406,1.87074669307376,1.87435560736656,1.75959795368503,1.75624127533743,1.80578623580336,1.75438831127849,1.75320474261257,1.75277788178224,1.75254504860206,1.74970254352736,1.87488918340447,1.87016461012331,1.7500129877676,1.74960552970228,1.87297801105049,1.93959740472967,1.97052541216366,1.74712197578036,1.74865479421654,1.74823763476872,1.86838925712443,1.86968924238044,1.86973774929298,1.74178621540122,1.74585109467187,1.79585202011566,1.74452200526834,1.74875180804162
1.90280006087862,1.94452570704349,1.90215976963313,1.90079187469957,1.90069486087449,1.82648898607443,1.90279035949612,1.90254782493343,1.94445779736594,2.02235019751887,1.90699105812188,1.90969774384148,1.91071638900477,1.91200667287827,1.94487495681376,2.01732488137997,2.01899351917126,1.94609733100971,1.94366228400032,2.01748010350009,1.92746097521276,2.03429259938563,2.04235444824939,2.0355343763466,2.0075652905774,2.00685708965435,1.99208188409539,1.99002519100379,1.91693497519209,1.98846326842008,1.91787600929532,1.91492678901303,1.91594543417632,1.91578051067369,1.91670214201191,1.99350798732399,1.9905490656592,1.98821103247488,1.99094682234201,1.98946251081835,1.98963713570349,1.98981176058863,1.98970504538104,1.98951101773089,2.01036899012207,1.99160651635252,2.00155043342273,1.91637229500665,1.99789301221739,2.00103626014983,1.99527363894036,1.99369231359164,2.00468397997266,1.99997880945651,2.01425924450759,2.00892348412845,1.92047597980734,2.00245266199593,2.01510326478575,2.00080342696965,2.0009877532373,2.00208400946065,1.9215819374132,2.00406309149218,1.92040807012978,2.00887497721591,2.00753618642988,1.92183417335839,1.92015583418459,1.9197871816493,2.01054361500721,2.01044660118213,1.92082522957761,2.01602489612396,1.92195058994848,1.99473036151994,2.0030541477114,1.99422588962955,2.00082282973467,2.0087294564783,1.99512811820275,1.99612736060102,1.99644750622377,1.9935176887065,1.99997880945651,1.99410947303946,1.99911538641334,1.99724301958939,1.99999821222153,1.99406096612692,1.99395425091934,1.99174233570762,1.92051478533737,1.99111174584463,1.8523722746045,1.92671396875968,1.92474458811065,1.85116930317357,2.0243195781679,2.02094349705528,1.84910290869947,2.04811706945886,1.84809396491869,1.84770590961838,1.94841596142901,1.94697045543539,2.0342537938556,1.84858873542657,2.0339918565279,1.95050175866813,1.95036593931302,2.0337299192002,1.84805515938866,1.85026707460037,1.8497917068575,1.84896708934436,1.85023797045285,1.94615553930476,1.847851430356,1.84904470040442,1.93137063236329,1.92755798903783,1.84915141561201,1.84847231883648,1.84958797782484,1.84845291607146,1.84881186722424,1.84851112436651,1.92890648120638,1.84696860454781,2.01701443713973,2.01561743805864,2.02747252748284,1.8447566893361,1.84313655845734,1.84461116859848,1.84574623035186,2.01455998736532,1.84580443864691,1.84334998887251,1.83749035383796,1.83608365337437,1.82291887731166,1.81939727546142,1.81754431140249,1.81605029849633,1.76492401268167,1.76485610300411,1.76338149286297,1.75909348179464,1.75976287718766,1.7555621785619,1.75557187994441,1.87630558525057,1.8741518783339,1.75210848638922,1.74975105043989,1.75042044583291,1.74965403661482,1.74739361449057,1.86973774929298,1.86957282579035,1.74543393522405,1.87089221381137,1.84277760730456,1.86960192993787,1.86898104145739,1.74384290849281,1.74622944858966,1.74531751863396,1.87280338616535,1.7487324052766,1.8566214801428,1.74751003108066,1.74618094167713,1.8667982303932
1.9436331798528,1.82623675012923,1.90340154659409,1.90329483138651,1.9026448387585,1.82989417133457,1.90343065074161,1.83042774737248,1.82918597041152,1.90480824705768,1.90659330143907,1.83393964784021,1.94630106004237,1.91067758347474,1.94506898446392,1.91394694937977,1.91912748763879,2.02216587125122,1.92255207566395,1.92727664894511,2.01799427677299,1.94537942870416,1.91999091068196,1.92026254939217,1.91987449409187,2.01032048320954,2.00523695877559,1.91642080191919,2.01105778828011,1.9157902120562,1.91603274661889,1.9152663374008,1.91667303786439,1.9155282747285,1.91522753187077,1.99201397441783,1.99163562050004,1.99033563524403,1.98892893478044,1.99060727395424,1.99041324630409,1.99133487764231,2.00532427121816,1.91774018994021,2.01772263806278,1.91571260099614,2.01358984911457,2.00851602606314,1.91727452357985,1.99693257534915,2.00493621591786,2.00518845186305,2.0085936371232,2.00835110256051,1.99436170898466,2.01432715418514,1.99846539378534,2.00651754126659,2.0000855246641,2.01394880026735,2.00562501407589,2.00984511546667,2.00054148964195,2.00117207950494,2.00801155417274,1.99677735322903,2.00102655876733,1.92174686091582,1.92010732727205,2.00376234863445,2.01433685556765,2.01690772193215,2.01060182330225,2.00145341959766,1.99892135876319,2.01026227491449,1.99699078364419,1.99474006290245,1.99718481129435,2.0008616352647,2.00687649241936,2.00037656613932,1.99677735322903,1.99321694584877,1.9919654675053,2.00168625277784,1.99679675599404,1.9939057440068,1.9973788389445,1.99246023801318,1.99431320207212,1.9937699246517,2.00714813112957,2.01879949152111,1.8519745179217,1.85034468566043,2.03680525745508,1.85134392805871,1.85028647736539,1.84998573450765,2.02560016065889,1.84892828381433,1.84757979164579,1.84681338242769,1.8465611464825,1.89605760003589,1.84795814556358,1.84763799994083,1.84577533449939,2.02407704360521,1.84834620086388,1.84981110962252,1.84924842943708,1.94691224714035,1.84925813081959,1.84878276307672,1.84992752621261,1.84939395017469,1.84891858243183,1.84806486077116,1.93220495125894,1.92873185632124,1.84738576399564,2.02783147863562,1.84912231146448,1.84699770869534,1.84637682021485,1.84780292344346,1.84452385615592,1.84359252343519,1.84710442390292,2.03045085191265,2.02897624177151,2.03074189338788,1.84593055661951,2.03457393947835,1.84513504325389,1.84359252343519,1.84468877965854,1.84391266905794,1.87149369952684,1.87021311703584,1.77223885509234,1.85968711701518,1.76897919056981,1.81596298605376,1.81393539710969,1.76460386705892,1.76332328456792,1.87314293455312,1.75934571773984,1.75867632234682,1.75510621358405,1.75286519422481,1.75137118131865,1.85767893083612,1.75204057671167,1.86302439259777,1.74957642555476,1.74787868361594,1.74858688453899,1.87115415113908,1.74567646978673,1.79589082564569,1.79472665974479,1.74558915734417,1.86993177694313,1.74848016933141,1.74721898960543,1.74587049743688,1.74733540619552,1.74400783199544,1.74964433523231,1.74759734352322,1.747956294676,1.79580351320312
1.90336274106406,1.82804120727563,1.90452690696496,1.9040515392221,1.94328393008253,1.90319781756143,1.82905015105641,1.82996208101212,1.82984566442203,1.83046655290251,1.90795149499012,1.9465921015176,1.9096007300164,1.90971714660649,1.91208428393833,1.91541185813841,1.91679915583698,1.8461827925647,1.92194088856597,1.92646173281448,1.94670851810769,2.04060819939803,1.87447202395665,1.91816705077055,2.0073130546322,1.91930211252393,2.01732488137997,2.02304869705941,2.02231139198884,2.0004735799644,1.9164305033017,1.91639169777167,1.9195252443216,1.91715810698976,1.91953494570411,1.99515722235027,1.99395425091934,2.00102655876733,2.00706081868701,1.99031623247902,1.99960045553872,2.00196759287056,2.00226833572829,1.91719691251979,2.02106961502787,2.02132185097307,2.01114510072267,2.00754588781238,2.00406309149218,2.00793394311268,1.91662453095185,2.0150450564907,2.01063092744978,2.00587725002109,2.01119360763521,2.00755558919489,2.01347343252448,2.01535550073094,1.92196029133099,2.00320936983152,1.92105806275779,2.01691742331465,2.00619739564384,2.00224893296327,2.00467427859016,2.00484890347529,1.92332818626455,2.00013403157663,2.01026227491449,2.00739066569226,2.01454058460031,2.00337429333415,2.02046812931241,2.00345190439421,1.92164984709075,1.92290132543422,1.92037896598226,1.91960285538166,2.00509143803798,2.00188998181049,1.99373111912167,1.91947673740906,1.99452663248728,2.00191908595802,1.91801182865043,1.99452663248728,1.99590422880335,2.00033776060929,1.99484677811003,1.99683556152407,1.9977668942448,1.99334306382136,1.91839018256822,1.99230501589306,1.99166472464756,1.85132452529369,1.84984021377004,1.85214914280683,2.03359409984509,1.84910290869947,1.84911261008198,1.84732755570059,1.84670666722011,1.8973575852919,1.89708594658169,1.89622252353852,1.89664938436885,1.84644472989241,1.84768650685337,2.0526864206199,1.847851430356,1.84947156123475,1.85006334556771,1.84970439441493,1.84934544326216,1.94008247385505,1.84973349856246,2.02491136250085,2.02383450904252,1.84821038150878,1.93682280933252,1.84954917229481,1.93154525724842,1.84841411054143,1.84889917966681,1.84794844418107,1.84753128473325,2.02017708783718,1.84538727919909,1.846570847865,1.84677457689766,1.84705591699038,2.04665216070022,1.84444624509586,1.84654174371748,1.84457236306845,2.03622317450463,1.8443783354183,1.84447534924338,1.84146792066605,1.77901042008259,1.77763282376652,1.77458658965916,1.77251049380255,1.76918291960247,1.87340487188082,1.76600086614,1.76350761083557,1.87398695483127,1.75943303018241,1.7567166430803,1.86502287739432,1.75657112234269,1.8702810267134,1.75288459698983,1.87149369952684,1.8697668534405,1.79890795560553,1.747956294676,1.74991597394252,1.87951674286056,1.74707346886782,1.74897493983929,1.79580351320312,1.85447747460864,1.74612273338208,1.74625855273719,1.87265786542774,1.96775081676651,1.83850899900125,1.87323024699569,1.79454233347714,1.79567739523052,1.74619064305963,1.79534754822527,1.74729660066549
1.90435228207983,1.90299408852878,1.90356647009672,1.90321722032645,1.94704806649545,1.89973442400625,1.82988446995206,2.02726879845018,1.90502167747285,1.90602091987112,1.94762044806339,1.90978505628404,1.90952311895634,1.90788358531257,1.83880004047648,2.04889318005946,1.84334028749,1.94683463608029,1.946465983545,1.94540853285168,1.85732968106585,1.94805701027623,2.04626410539992,2.02453300858306,1.91993270238692,1.92154313188316,1.99316843893623,1.99487588225755,1.9944199172797,1.99184905091521,1.99474006290245,1.91882674478106,1.91829316874314,1.91649841297925,1.91676035030695,1.9942937993071,1.99434230621964,1.992227404833,1.99103413478457,1.99004459376881,1.99340127211641,1.99386693847677,1.99421618824704,1.99346918179396,1.99327515414381,2.0069249993319,2.0089816924235,2.01384208505977,2.00061910070201,2.00412129978723,1.99327515414381,2.01252269703874,1.92044687565981,2.00958317813896,1.92037896598226,2.00696380486193,2.01114510072267,2.0110480868976,2.00966078919902,2.00247206476095,2.00057059378947,1.92172745815081,1.9215916387957,2.01585027123883,1.99782510253984,2.00386906384203,2.00685708965435,1.92067000745749,2.01076674680488,2.01390029335481,2.008991393806,2.02298078738186,1.92128119455546,1.92175656229833,2.0147928205455,2.01200852376584,2.00132730162506,1.91950584155658,1.99682586014157,2.02645388231955,2.02667701411722,2.00451905647003,2.00191908595802,1.99683556152407,1.99730122788444,2.00091014217724,2.00015343434165,1.99765047765471,1.91969016782423,1.91919539731634,1.99733033203196,2.01200852376584,2.01043689979963,1.99243113386566,1.99034533662654,1.96356952090577,1.9362795319121,1.85050960916306,1.84976260270998,1.94713537893802,1.94631076142488,1.84828799256884,1.8464350285099,1.89632923874611,2.01031078182703,1.89623222492103,1.84654174371748,1.89509716316765,1.84727904878805,2.04180146944646,1.84764770132334,1.84750218058573,1.8487633603117,1.84922902667207,1.84677457689766,1.84790963865104,1.84910290869947,1.9476301494459,1.84928723496711,1.84883126998926,1.91085220835987,1.84839470777642,1.84841411054143,1.84968499164992,1.84699770869534,1.84717233358047,1.84839470777642,2.02064275419754,1.84485370316117,2.01597638921142,1.8470753197554,1.84740516676065,1.84446564786087,1.84585294555945,1.84356341928767,2.02315541226699,1.8432141695174,1.9242983245153,1.92386176230246,1.8428261142171,1.87232801842249,1.86335423960302,1.7737328679985,1.77213213988476,1.76840680900187,1.85225585801441,1.76410909655103,1.76238225046469,1.76211061175448,1.75725021911821,1.80561161091823,1.75632858778,1.87278398340034,1.75287489560732,1.75589202556716,1.75193386150409,1.87033923500844,1.74800480158854,1.74861598868651,1.74783987808591,1.86013338061053,1.74604512232202,1.74532722001646,1.74372649190272,1.856873716088,1.74796599605851,1.79561918693548,1.74515259513133,1.74242650664671,1.79387293808412,1.87463694745928,1.87182354653209,1.74642347623981,1.74464812324094,1.7457637822293,1.81927115748883
1.90400303230956,1.83030162939988,1.946465983545,1.90471123323261,1.90503137885536,1.82981656027451,2.04014253303767,1.95006519645529,1.90678732908922,1.90731120374462,1.90964923692894,1.9101149032893,1.910376840617,1.90856268208809,1.91718721113729,1.94765925359342,2.03252694776926,1.95016221028037,1.926490836962,1.94743612179575,1.94676672640273,1.86054083867584,2.04814617360638,2.01359955049708,2.00805035970277,1.92002971621199,1.99356619561904,1.99469155598991,1.99123786381723,1.990296829714,1.99123786381723,1.92025284800966,1.91822525906559,1.91791481482535,1.99363410529659,1.99425499377707,1.99514752096776,1.99256695322076,1.91802153003293,1.99116995413968,1.91391784523225,2.00780782514009,1.91739094016994,2.00789513758265,1.9191371890213,1.91807973832798,2.00712872836456,2.0051205421855,2.01114510072267,1.99181994676768,2.00212281499068,2.0051205421855,2.00655634679662,2.01670399289949,1.99979448318887,1.92147522220561,1.92272670054908,2.0049847228304,2.01191150994077,2.00954437260893,2.01444357077523,2.00290862697379,2.0040921956397,2.00195789148805,2.01610250718402,2.01127121869527,2.00697350624444,2.02073976802262,1.92066030607498,2.01360925187959,2.01783905465287,1.92418190792521,1.92132000008549,2.00730335324969,1.92119388211289,2.00487800762281,1.99902807397078,1.92013643141957,2.00457726476508,2.02472703623321,2.00438323711493,2.01083465648243,1.9196610636767,2.01202792653086,1.92033045906972,1.99527363894036,1.92057299363241,1.92001031344698,1.91805063418046,1.91919539731634,1.9183707798032,2.01413312653499,2.01046600394715,2.00111387120989,1.96182327205441,1.96029045361822,1.85214914280683,1.84745367367319,1.85103348381847,1.84939395017469,1.84909320731696,1.84935514464466,1.84765740270585,1.84642532712739,1.84494101560374,2.0106600315973,2.01007794864685,1.89632923874611,1.84648353542244,1.89574715579565,1.8477253123834,1.84771561100089,2.03152770537099,2.02947101227939,1.89666878713387,2.04769020862853,1.85000513727267,2.04379995424301,2.04092834502078,1.94450630427848,1.85001483865518,1.84882156860675,1.95438231167114,1.8475991944108,1.93672579550744,1.85036408842545,1.84817157597875,1.84591115385449,1.84534847366906,1.84600816767957,1.84605667459211,2.01674279842952,2.01628683345166,2.0155592297636,2.02453300858306,2.01456968874783,1.84975290132747,1.84646413265742,1.84647383403993,1.84401938426552,1.87191085897466,1.77595448459272,1.77339331961074,1.8726093585152,1.76861053803453,1.8545550856687,1.87533544699982,1.76249866705478,1.75943303018241,1.75754126059344,1.75750245506341,1.75611515736483,1.75596963662722,1.75385473524058,1.75241893062946,1.80134300261492,1.87310412902309,1.75186595182654,1.74908165504688,1.74733540619552,1.87411307280387,1.74893613430926,1.7476943573483,1.74589960158441,1.7460160181745,1.74358097116511,1.86662360550806,1.8695049161128,1.74619064305963,1.86762284790634,1.85243048289955,1.79482367356986,1.84065300453541,1.7467921287751,1.87035863777346,1.7420287499639
2.02712327771257,2.02104051088035,1.90445899728741,1.94712567755551,1.90461421940753,1.90370228945182,1.91180294384561,2.03770748602828,1.90944550789628,1.90958132725139,1.94864879460919,1.83554037595395,1.91092981941993,1.94816372548382,1.8426999962445,2.02108901779289,2.03958955423474,1.8496655888849,1.92724754479759,1.92766470424541,1.93334001301232,2.03753286114315,2.04569172383197,2.00593545831613,1.92170805538579,1.99409007027444,1.92071851437003,1.99481767396251,1.99516692373278,1.99379902879922,1.99179084262016,1.99507961129021,1.91922450146387,1.99200427303533,1.91780809961777,1.99966836521627,1.99541915967798,1.99125726658225,2.00275340485367,1.99317814031874,2.00815707491036,1.91891405722363,1.91748795399502,2.00278250900119,2.00551829886831,1.92027225077468,2.01487043160556,2.02006067124709,2.00893318551096,1.9935176887065,2.01449207768777,2.00758469334241,2.00448995232251,1.91950584155658,2.00741976983979,1.9214655208231,2.00469368135517,1.92408489410014,2.0089816924235,1.92342520008963,2.01106748966262,2.01007794864685,2.01395850164986,1.9237744498599,2.01451148045279,1.99668033940395,1.92331848488204,2.01488013298807,2.00980630993664,2.01472491086795,1.9236483318873,2.01419133483004,2.00877796339084,2.01081525371742,1.92079612543009,1.92123268764292,2.02096289982029,2.01686891640212,1.99599154124592,2.01019436523694,2.00493621591786,2.0102816776795,1.99395425091934,1.99434230621964,1.91793421759037,1.91962225814667,1.91777899547024,1.91935061943646,1.91895286275366,1.9201752369496,1.92001031344698,1.91890435584112,1.92067970884,1.9206894102225,2.03875523533909,1.85301256585,1.95277188217489,2.03853210354142,1.84944245708723,1.84924842943708,1.84929693634962,2.04004551921259,1.84941335293971,1.84619249394721,1.84632831330232,1.84488280730869,2.0103980942696,2.01184360026322,1.89579566270819,1.89607700280091,1.89597998897583,1.84890888104932,1.84996633174264,1.84787083312101,1.84813277044872,1.84789023588603,2.05173568513416,1.84720143772799,1.84974319994497,1.8470753197554,1.92807216231073,1.84928723496711,1.89798817515489,2.00515934771553,1.89668818989888,1.89652326639626,1.84593055661951,2.03641720215478,1.84639622297987,1.84589175108948,1.84964618611989,1.84551339717168,1.84687159072274,1.84637682021485,1.84613428565217,1.84554250131921,1.84795814556358,1.84427162021072,1.93367956140008,1.77608060256532,1.77554702652741,1.77274332698273,1.87358919814846,1.76868814909459,1.76613668549511,1.85621402207748,1.76301284032768,1.87674214746341,1.87644140460568,1.75855020437422,1.75584351865462,1.75514501911408,1.75608605321731,1.75514501911408,1.7519532642691,1.74854807900896,1.74870330112908,1.75126446611107,1.74966373799733,1.74880031495416,1.74709287163283,1.87405486450883,1.74764585043576,1.87116385252158,1.87327875390822,1.74589960158441,1.74516229651384,1.86295648292022,1.86919447187255,1.86880641657225,1.85398270410075,1.79589082564569,1.74608392785205,1.86781687555649,1.74631676103223,1.87236682395252
1.90692314844432,1.90598211434109,1.90673882217668,1.8325135446116,2.03857090907145,2.03801793026852,1.83179564230604,1.90733060650964,1.95043384899058,1.83515232065365,1.95017191166287,2.02852997817616,1.83710229853766,1.91356859546198,1.9502010158104,1.8432141695174,1.92031105630471,2.04161714317881,1.92169835400329,1.9286833494087,1.93216614572891,2.02502777909094,2.04390666945059,2.00914661592612,2.00055119102446,1.92323117243947,1.99479827119749,1.99568109700568,2.0016377458653,1.99379902879922,1.99699078364419,1.91825436321311,2.00100715600231,1.99827136613519,1.99374082050417,1.99569079838819,1.99734973479697,1.92020434109713,1.99262516151581,1.99332366105635,1.99284829331348,2.0303829422351,1.91938942496649,2.0119503154708,2.01768383253275,1.92041777151229,1.99780569977483,1.99316843893623,1.99474006290245,1.99409007027444,1.99834897719525,2.01694652746218,2.00448995232251,2.0105339136247,2.01133912837283,1.92148492358812,1.92375504709488,1.92315356137941,2.00806006108528,2.00806976246779,2.00752648504737,2.00804065832027,1.92388116506748,2.01394880026735,2.00449965370502,2.0107958509524,2.01687861778462,1.92302744340682,1.92262968672401,2.01495774404813,2.01448237630526,2.00824438735292,2.01158166293551,2.01125181593026,2.01070853850984,2.01271672468889,1.99718481129435,1.99798032465996,1.99809674125005,1.99500200023015,2.00067730899705,2.00440263987994,2.00851602606314,1.92007822312453,1.91983568856184,1.99438111174967,1.91923420284637,1.92160134017821,1.91949614017408,1.91872002957347,1.91864241851341,1.99693257534915,2.00487800762281,1.99691317258413,1.99498259746514,1.85390509304069,1.84988872068258,2.04249026760449,1.84944245708723,1.84822008289128,1.847851430356,2.04184027497649,1.8477253123834,1.84718203496298,1.89534939911284,1.84700741007784,1.84776411791343,1.895543426763,1.84942305432222,1.84755068749826,1.84660965339503,1.8456686192918,1.84658054924751,1.94740701764823,1.84727904878805,1.85049020639804,1.84971409579744,1.84889917966681,1.84975290132747,1.84932604049714,1.84944245708723,1.84720143772799,2.04190818465404,1.84993722759512,1.84716263219796,1.89843443875024,1.89602849588837,1.84790963865104,1.84786113173851,1.84741486814316,1.84634771606733,1.84928723496711,1.84646413265742,1.84646413265742,2.02425166849034,2.03724181966792,2.03092621965552,1.84623129947724,1.84777381929594,1.82579048653388,1.77690522007846,1.77328660440315,1.77162766799437,1.76703891406831,1.76376954816327,1.96638292183295,1.96452995777401,1.87443321842662,1.87242503224756,1.75952034262497,1.75695917764299,1.80537877773805,1.75282638869478,1.80108106528721,1.80073181551694,1.80005271874142,1.74951821725971,1.74979955735243,1.87315263593563,1.74805330850108,1.74685033707014,1.87265786542774,1.87078549860379,1.87624737695553,1.87414217695139,1.87272577510529,1.74449290112082,1.74440558867825,1.74612273338208,1.7460160181745,1.79592963117572,1.79416397955935,1.7442115610281,1.87025192256588,1.867195987076,1.87052356127609
1.90706866918194,1.95083160567339,1.90579778807345,1.90492466364777,1.95308232641513,1.95302411812009,1.83245533631655,1.83353218977489,1.90686494014928,1.83469635567579,1.83559858424899,1.9105029585896,1.95073459184831,2.0369604795752,1.91603274661889,1.92028195215719,1.92284311713917,2.03709629893031,2.02740461780529,1.92962438351193,1.9494346065923,1.94880401672931,2.05514087039431,1.92438563695787,2.03125606666078,2.00424741775982,1.92306624893685,2.01109659381014,1.92035956321725,2.01441446662771,1.9197871816493,1.91994240376942,1.91895286275366,1.99652511728383,1.99511841682024,1.99723331820688,1.99693257534915,2.01113539934017,1.99330425829133,1.99378932741671,2.0110480868976,1.91971927197175,2.01229956524107,2.01131972560781,1.92057299363241,1.92031105630471,1.98714388039906,1.99299381405109,1.99100503063705,1.92306624893685,1.99688406843661,2.00656604817912,2.01145554496292,2.00966078919902,2.00500412559541,1.99539005553045,2.00449965370502,2.00028925369675,1.99901837258827,2.00803095693776,2.01224135694603,2.00828319288295,2.02085618461271,2.00479069518025,2.00350041130674,2.01477341778049,2.01417193206502,2.01127121869527,1.92399758165757,1.92453115769548,2.00959287952147,2.00458696614759,1.99759226935966,2.00719663804211,1.92246476322138,2.02070096249259,2.01193091270578,1.99923180300343,2.01715995787734,1.99786390806987,2.00875856062582,2.00451905647003,1.99365350806161,1.99419678548203,1.99475946566746,1.91753646090756,1.91877823786852,1.91834167565568,1.91760437058511,1.91890435584112,2.01308537722418,1.99446842419224,2.01482192469303,2.00444144540997,1.99941612927108,1.85293495478994,1.85295435755496,1.84995663036013,2.02906355421408,2.05151255333649,2.04785513213115,2.02722029153765,1.84912231146448,1.84537757781658,2.0278023744881,1.84612458426966,1.89599939174085,1.89546581570294,1.89476731616239,2.03851270077641,1.84869545063415,1.84641562574488,1.94792119092113,1.84660965339503,1.94265334021954,1.89717325902426,1.84931633911463,1.85052901192807,1.84961708197237,1.84646413265742,1.84813277044872,1.8491417142295,1.84908350593445,1.84787083312101,1.84674547275014,1.84661935477754,2.02815162425837,1.846570847865,2.03557318187663,1.84782232620847,1.84741486814316,2.01596668782892,1.8430880515448,1.84594995938452,1.84406789117806,2.01391969611983,2.01066973297981,2.01827561686571,1.84513504325389,1.827876283773,1.82630465980678,1.77455748551164,1.82007637223695,1.77041499518093,1.92626770516433,1.8753063428523,1.76242105599472,1.87011610321077,1.87613096036544,1.87321084423067,1.85556402944948,1.75368981173795,1.86089978982862,1.85975502669273,1.83732543033533,1.80116837772978,1.75018761265273,1.74965403661482,1.74772346149582,1.87149369952684,1.87147429676182,1.74682123292262,1.87361830229599,1.8793033124454,1.74551154628411,1.74256232600182,1.74441529006076,1.74404663752547,1.79533784684276,1.86660420274305,1.74540483107652,1.74612273338208,1.86753553546377,1.74594810849694,1.87264816404523,1.86714748016347
1.90999848669921,2.03126576804328,1.90504108023786,1.8326396625842,2.02537702886122,1.90942610513126,1.90533212171309,1.90674852355919,1.9076701548974,1.90777687010499,2.02502777909094,1.91222980467594,1.91502380283811,2.04152983073625,2.02372779383494,2.03616496620958,1.84662905616005,1.92400728304008,1.92535577520862,1.93102138259302,1.9304781051726,1.94995848124771,2.0461088832798,1.99935792097603,2.00012433019413,2.02350466203726,1.92371624156485,2.00709962421704,2.00081312835216,1.92031105630471,1.91972897335426,1.99611765921852,2.00100715600231,1.99916389332588,1.92028195215719,1.92046627842483,1.99625347857362,2.01752861041263,1.91889465445861,2.02594941042916,2.00599366661118,1.99858181037543,1.99293560575605,2.00594515969864,1.92043717427731,1.92144611805809,2.00359742513182,1.99669974216897,2.01089286477748,1.92256177704646,2.01484132745804,1.92266849225404,2.01750920764761,2.01111599657515,2.00830259564797,1.99586542327332,2.00830259564797,2.00799215140773,1.92386176230246,2.01150405187545,2.00643993020653,1.92477369225817,1.99774749147978,2.00304444632889,2.00509143803798,2.02073006664011,2.01418163344753,1.92731545447514,2.02785088140063,1.9233960959421,2.01732488137997,2.01680100672456,1.99681615875906,2.01463759842538,2.01347343252448,2.01234807215361,2.02068155972757,2.00957347675646,1.99670944355148,1.92071851437003,1.99730122788444,1.92007822312453,1.99459454216484,1.99578781221326,1.99709749885178,1.91983568856184,1.91993270238692,1.91944763326154,1.91796332173789,1.9203013549222,1.91929241114142,2.00191908595802,2.00199669701808,1.9187588351035,1.85271182299227,1.85338121838529,1.85079094925578,1.84996633174264,1.84952006814729,1.84679397966268,1.84724994464053,1.84812306906621,1.95185025083668,2.04199549709661,1.84658054924751,2.03460304362587,1.84609548012214,1.84616338979969,1.84343730131507,2.04190818465404,1.84634771606733,2.03405976620545,1.84637682021485,1.8978717585648,1.96184267481943,1.96022254394067,1.85016035939279,1.84718203496298,1.84922902667207,1.94077127201308,1.84732755570059,1.89727027284933,1.84689099348775,1.84916111699451,1.84856933266155,1.8496655888849,2.01872188046105,2.01830472101323,1.84821038150878,1.84782232620847,1.845920855237,1.84571712620434,1.84387386352791,1.84706561837289,1.89926875764589,1.89650386363124,1.8464350285099,1.84486340454368,1.84415520362063,1.84230223956169,1.77506195740203,1.82203605150347,1.81939727546142,1.84611488288715,1.76700010853828,1.87348248294088,1.76326507627288,1.75964646059757,1.82936059529665,1.75615396289486,1.8711832552866,1.75277788178224,1.8022161270406,1.75238012509943,1.74920777301947,1.80354521644413,1.80265268925343,1.7488585232492,1.87469515575432,1.74721898960543,1.74746152416812,1.87197876865221,1.87578171059516,1.8729974138155,1.79457143762466,1.7944938265646,1.74402723476045,1.74551154628411,1.74686003845265,1.74412424858553,1.84666786169008,1.74229068729161,1.87581081474269,1.87336606635079,1.74571527531676,1.74659810112495
1.90770896042743,1.90649628761399,1.83297921097196,1.83255235014163,1.83334786350725,1.91103653462751,2.0270262638875,1.95302411812009,2.03764927773324,1.90772836319245,1.91262756135875,1.9152663374008,1.95185995221918,1.95279128493991,1.91822525906559,2.0252315081236,2.02647328508457,1.92480279640569,1.85216854557185,1.93003184157725,1.93154525724842,1.95367411074809,2.02881131826888,1.92391997059751,1.99927060853346,1.99720421405936,2.02418375881279,2.00495561868287,1.99448782695725,2.00539218089571,1.9917132315601,1.91897226551867,1.9200394175945,1.92228043695374,1.92086403510764,1.9214558194406,2.00013403157663,1.99451693110478,1.99554527765057,1.99810644263256,1.9968743670541,1.99713630438181,2.00057059378947,2.02075917078763,2.00985481684917,2.00868094956576,2.02100170535032,1.92115507658286,1.92412369963017,1.92391997059751,2.00754588781238,2.00906900486606,1.92296923511177,2.00880706753836,2.01073764265736,2.00386906384203,1.92664605908212,2.01150405187545,2.00847722053311,2.01112569795766,2.01358984911457,2.00753618642988,2.00664365923918,2.00431532743738,2.01374507123469,2.0071772352771,2.01225105832853,2.00714813112957,2.02219497539875,2.02141886479815,2.02068155972757,2.00773021408003,1.92343490147213,1.92351251253219,2.00049298272941,1.92267819363655,1.99707809608676,1.92061179916244,2.00685708965435,2.00055119102446,2.0067891799768,2.00553770163333,2.01103838551509,2.01106748966262,1.92127149317295,1.92169835400329,1.99407066750943,1.91934091805396,1.91905957796124,1.92047597980734,1.99656392281386,2.00813767214534,2.00139521130261,1.99214009239043,1.85503045341157,1.85157676123889,1.85091706722838,1.85060662298814,2.04277160769721,1.84855963127905,1.84855963127905,1.84789023588603,1.84688129210524,1.84487310592619,1.84600816767957,2.04447905101853,1.84653204233497,1.84517384878392,1.84406789117806,1.84586264694195,2.02508598738599,2.02120543438298,1.84758949302829,1.84963648473738,1.84913201284699,1.90433287931481,1.93310717983214,1.84606637597461,2.04339249617769,2.02311660673696,1.8492678322021,2.02395092563261,1.8472111391105,1.84885067275427,1.84909320731696,1.84609548012214,1.84591115385449,1.84922902667207,1.84629920915479,1.84726934740555,1.84597906353204,1.84628950777229,1.84605667459211,1.84590145247198,1.84446564786087,1.846570847865,2.02644418093704,2.01234807215361,2.01772263806278,2.01585027123883,1.82396662662247,1.8220748570335,1.76996873158558,1.76874635738963,1.76682548365314,1.76359492327813,1.81086976023731,1.80901679617837,1.83323144691716,1.80738696391711,1.80601906898355,1.80340939708902,1.75258385413209,1.85450657875616,1.75064357763059,1.75227340989185,1.74981896011745,1.86257812900242,1.74855778039147,1.87656752257827,1.7456376642567,1.74753913522818,1.86040501932074,1.85952219351255,1.74632646241474,1.85691252161803,1.85627223037253,1.84242835753429,1.83944033172197,1.8416619483162,1.74445409559079,1.8722213032149,1.87657722396078,1.873637705061,1.74625855273719,1.74508468545377
1.90830074476039,1.90871790420822,1.90922237609861,2.02591060489913,1.90887312632834,1.83376502295507,1.90915446642105,1.90825223784785,1.83561798701401,1.95391664531078,1.95309202779764,1.838829144624,1.84012912988001,1.91744914846499,1.92009762588954,1.91997150791695,2.02683223623734,1.85332301009024,1.92801395401568,1.93214674296389,1.86209305987705,2.03468065468593,2.0414716224412,2.00773021408003,2.0003474619918,2.02883072103389,2.02744342333532,1.99715570714682,1.99864001867047,2.00404368872717,1.92149462497063,1.92207670792108,1.92138790976304,1.92073791713504,1.91949614017408,1.92142671529307,1.99548706935553,1.99640870069374,1.99539005553045,2.02146737171068,1.99699078364419,2.01760622147269,2.03548586943406,1.99333336243886,2.01017496247192,2.01417193206502,2.013502536672,2.00359742513182,2.01247419012621,2.01882859566864,2.01766442976773,2.01041749703461,2.00594515969864,1.92357072082724,2.0095055670789,2.01536520211345,2.0213606565031,2.01586967400384,1.92464757428557,1.92529756691358,2.01055331638972,2.00676007582927,2.00983541408416,2.01025257353198,2.00584814587357,2.0174995062651,2.01032048320954,2.00748767951734,2.00503322974293,2.00495561868287,2.01470550810294,2.01056301777222,1.92431772728032,2.01340552284693,2.00932124081126,2.01863456801848,2.01816890165812,2.01409432100496,2.02057484451999,1.92152372911815,1.9951960278803,1.92124238902543,1.99525423617535,1.99387663985928,1.92025284800966,1.9191371890213,1.91880734201604,1.91851630054082,1.92129089593797,1.9208155281951,1.99692287396664,1.99491468778758,2.00767200578498,1.99359529976656,1.85444837046111,1.85298346170248,1.85291555202493,1.85324539903018,1.89749340464701,1.84637682021485,1.84607607735712,1.84715293081546,2.0274143191878,1.84789023588603,1.84730815293558,2.03055756712023,1.84357312067018,1.8465611464825,1.84488280730869,1.84845291607146,1.84718203496298,2.02676432655979,2.02176811456842,1.84757979164579,1.94560256050183,1.89739639082193,1.89729937699686,1.89804638344994,1.8483656036289,1.84641562574488,1.84703651422537,1.84779322206095,1.94649508769252,1.84947156123475,1.84857903404406,1.84667756307259,1.89590237791577,1.84719173634549,1.89378747652913,1.84567832067431,1.89422403874197,1.84417460638565,1.84603727182709,1.84462086998099,2.03566049431919,1.84552309855419,1.84561041099676,1.84548429302416,1.84431042574075,1.82653749298696,1.86285946909514,1.77185079979204,1.76887247536223,1.85785355572126,1.87591752995027,1.76527326245194,1.81191750954812,1.75732783017827,1.83484187641341,1.83257175290664,1.86174381010677,1.75280698592977,1.75058536933554,1.87212428938983,1.75269056933968,1.87126086634666,1.74932418960956,1.75020701541775,1.84002241467242,1.87713020276371,1.87846899354975,1.74764585043576,1.74625855273719,1.79402816020424,1.7455018449016,1.85871697876443,1.79576470767309,1.74431827623568,1.84241865615178,1.7455018449016,1.86625495297277,1.74531751863396,1.74514289374882,1.79233041826543,1.74625855273719,1.86788478523404
1.90943580651377,1.91023131987939,1.83622917411198,1.90760224521985,1.95346068033293,1.90777687010499,1.83567619530905,2.03839628418632,1.83590902848923,1.95430470061108,1.83956644969457,1.953557694158,1.95373231904314,1.9543241033761,1.95440171443616,1.92085433372513,2.04087983810824,1.85220735110188,1.95418828402099,1.93299076324205,1.95315023609268,1.95206368125184,2.04148132382371,2.02138005926812,1.92614158719173,1.92360952635727,2.01746070073507,2.02469793208569,1.92342520008963,2.01101898275008,2.0134928352895,1.92322147105697,1.92119388211289,1.9215916387957,1.92177596506335,1.92231924248377,1.99705869332175,1.99662213110891,1.99631168686867,1.92278490884413,1.99785420668736,1.99758256797715,2.01523908414085,1.99781540115733,2.02299048876436,2.01521968137584,1.92295953372926,1.92318266552694,1.92355131806222,2.00974810164159,1.92385206091996,2.01737338829251,2.00901079657102,2.02395092563261,2.02310690535445,1.9254527890337,2.00077432282213,2.01990544912697,1.99910568503083,2.01120330901772,2.01628683345166,2.00255937720351,2.00445114679248,2.01107719104512,1.92490951161328,2.01488013298807,1.92654904525705,1.92422071345524,2.03164412196108,2.01046600394715,2.02121513576549,2.00853542882815,2.01745099935257,2.01514207031578,1.92358042220975,2.00439293849744,2.00456756338257,2.01322119657929,2.0017638638379,2.01067943436231,1.99859151175794,1.99703929055673,1.99565199285816,1.99397365368435,1.92213491621612,1.92116477796537,1.91722601666732,1.9204274728948,1.92163044432573,1.91877823786852,1.99501170161266,1.99602064539344,2.00516904909804,2.00755558919489,1.9031590120314,1.90112172170482,1.89949188944356,1.8505678174581,1.89762922400211,1.84879246445923,1.95049205728562,1.84678427828017,1.84685218795772,1.94577718538696,1.84670666722011,1.84563951514428,1.84636711883235,1.84622159809473,1.95023011995792,1.84655144509999,1.84582384141192,2.02533822333119,1.84911261008198,1.84812306906621,1.84938424879219,2.03408887035297,1.84818127736125,1.84995663036013,1.84931633911463,1.84831709671636,1.84821038150878,1.84814247183122,1.84917081837702,1.8492678322021,1.89493223966502,1.84878276307672,1.84724024325802,1.896193419391,1.84729845155307,1.89448597606968,1.84752158335074,1.8457947372644,1.84534847366906,2.0278023744881,1.8430880515448,1.84338879440254,1.84693950040029,1.84329178057746,1.84577533449939,1.77756491408897,1.77559553343994,1.87993390230839,1.76787323296395,1.7670292126858,1.76526356106943,1.76091734170606,1.76000541175035,1.75973377304014,1.75565919238698,1.75313683293502,1.80371013994675,1.7516913269414,1.75341817302774,1.75072118869065,1.7494988144947,1.8758302175077,1.7496346338498,1.74968314076234,1.74784957946842,1.74918837025446,1.88078762396905,1.74435708176571,1.74673392048005,1.856873716088,1.85728117415331,1.74714137854537,1.79380502840657,1.74556005319664,1.74636526794477,1.83987689393481,1.8692526801676,1.86973774929298,1.85601029304483,1.746025719557,1.87039744330349,1.86956312440784
1.95464424899884,1.91081340282984,1.91184174937564,1.90834925167293,1.90965893831145,1.90879551526828,2.04003581783009,1.91072609038727,1.91098802771498,1.91471335859787,2.03204187864389,2.03543736252152,1.91312233186663,1.95449872826123,1.84278730868707,1.92298863787679,1.84986931791756,1.85389539165819,1.85616551516495,1.86200574743448,1.86313110780535,2.0396671652948,2.04457606484361,1.92488040746575,1.92426922036778,2.01398760579738,1.99985269148391,1.9977668942448,1.92316326276192,2.01120330901772,1.92196029133099,1.92214461759863,1.92322147105697,1.92138790976304,1.92035956321725,1.99659302696139,1.99732063064945,1.91984538994435,1.92112597243534,1.99775719286229,1.99763107488969,1.99763107488969,1.99798032465996,1.99834897719525,2.01910023437885,1.99667063802145,1.99664153387392,2.00648843711906,1.92353191529721,2.01054361500721,2.01114510072267,2.01590847953387,2.01747040211758,1.92552069871125,1.9259669623066,2.01041749703461,2.0248434528233,2.0120764334434,1.99934821959352,2.02143826756316,1.92666546184714,2.00368473757439,2.01820770718815,2.00509143803798,2.01485102884055,1.92505503235089,2.01128092007778,2.00791454034767,1.92629680931185,2.01225105832853,2.00895258827597,2.01756741594266,2.01998306018703,2.01181449611569,2.02055544175498,2.00700261039196,2.02938369983682,1.92333788764706,2.0070511173045,1.99840718549029,1.99824226198767,1.92220282589368,1.99741764447453,1.92123268764292,1.92023344524465,1.92384235953745,1.92022374386214,1.91949614017408,2.00021164263669,2.00194819010554,1.91928270975891,1.99472066013743,2.01364805740962,2.00156983618775,1.85589387645474,1.8534006211503,1.92728635032762,1.84890888104932,1.94911446096955,1.84928723496711,1.95217039645942,1.84865664510412,1.84695890316531,1.84632831330232,1.8932247963437,1.89296285901599,1.8933606156988,1.84660965339503,1.84577533449939,2.03156651090102,1.84709472252041,2.0258717993691,2.02331063438711,1.84417460638565,1.84890888104932,1.84853052713152,1.84753128473325,1.84725964602304,1.85145064326629,1.84750218058573,1.84864694372161,1.84687159072274,1.9499487798652,1.93837503053372,1.93773473928823,1.94049963330287,1.84545518887664,1.84510593910637,1.84724024325802,1.84586264694195,1.84697830593032,2.03061577541528,2.02497927217841,1.84430072435824,1.84399998150051,1.89630983598109,1.94150857708365,1.94003396694251,1.84461116859848,1.77778804588664,1.77368436108596,1.77294705601539,1.76734935830855,1.76761129563625,1.76094644585358,1.76280911129502,1.76054868917077,1.75980168271769,1.75896736382204,1.75689126796543,1.75548456750184,1.85993935296037,1.75229281265687,1.75131297302361,1.75081820251572,1.87588842580275,1.87128997049418,1.75023611956527,1.74778166979087,1.74864509283404,1.85012155386276,1.88040927005125,1.7959102284107,1.74645258038734,1.74600631679199,1.79511471504509,1.79400875743923,1.86347065619311,1.74585109467187,1.74584139328936,1.74522050480888,1.74499737301121,1.86071546356098,1.74291157577209,1.8700287907682,2.06264003907262
1.91176413831558,1.95492558909156,2.04479919664128,1.90993057702166,1.95706959462573,1.91071638900477,1.91129847195522,1.91354919269696,1.95392634669329,1.95499349876911,1.91580961482122,1.91640139915418,1.91657602403931,1.91658572542182,2.03513661966379,1.92336699179458,1.95467335314637,1.95370321489561,1.92967289042447,1.85963861010264,1.95518752641927,1.95431440199359,1.88333908756853,2.0124644887437,2.0274240205703,2.02657029890964,2.0221367671037,1.92476399087566,2.01243538459618,2.00744887398731,1.92407519271763,1.92320206829195,1.92245506183887,1.92302744340682,1.92144611805809,2.00299593941635,2.0002213440192,1.99882434493812,2.01381298091224,1.92289162405171,1.99817435231011,1.99714600576431,1.99748555415208,2.02254422516902,2.02027410166226,1.92374534571237,1.92463787290307,1.92353191529721,1.92475428949316,2.01047570532966,1.923910269215,2.01114510072267,1.92617069133925,1.99783480392235,2.00551829886831,2.00469368135517,1.99885344908564,1.92726694756261,2.00665336062169,2.00878766477335,2.00764290163746,2.0132405993443,2.01431745280264,2.01303687031164,2.01409432100496,2.00518845186305,1.92426922036778,1.92465727566808,2.01082495509993,1.92619009410427,2.00946676154887,2.00891378274594,2.0189062067287,2.00575113204849,2.00722574218963,2.00918542145615,1.92357072082724,2.03136278186836,1.92221252727618,1.99774749147978,1.99753406106462,2.02010917815963,1.99655422143136,2.00849662329812,1.92156253464818,1.92066030607498,1.92052448671987,1.91970957058924,1.99644750622377,2.00039596890434,2.00774961684504,1.99613706198353,1.91938942496649,2.00656604817912,1.85515657138416,1.85650506355271,1.85101408105345,1.94404063791812,1.85125661561614,1.84889917966681,1.84841411054143,1.95383903425072,1.84336939163752,1.8434761068451,1.89328300463874,1.84675517413265,1.84698800731283,1.84371864140779,1.84652234095247,1.84661935477754,2.03478736989352,2.03385603717279,1.84606637597461,1.9473682121182,2.03817315238864,1.84578503588189,1.8496655888849,1.8970956479642,1.94060634851045,1.94185782685392,1.84831709671636,1.84776411791343,1.89584416962073,1.8490155962569,1.84591115385449,1.94113022316586,1.93891830795414,1.84539698058159,1.84559100823174,2.04377085009548,1.89417553182943,1.84575593173437,2.02388301595506,1.84606637597461,1.84262238518444,2.01470550810294,1.84573652896936,1.84629920915479,1.84637682021485,1.87626677972054,1.87575260644764,1.76911500992492,1.76603967167003,1.87932271521041,1.76273150023496,1.76201359792941,1.87720781382377,1.75920989838473,1.75687186520042,1.96367623611335,1.75592112971468,1.75563978962196,1.75303981910995,1.87819735483954,1.74914956472443,1.87458844054674,1.74888762739672,1.74896523845679,1.87345337879336,1.87435560736656,1.74585109467187,1.74828614168126,1.79555127725792,1.79419308370687,1.79338786895875,1.74415335273305,1.74296978406713,1.87020341565334,1.86459601656399,1.83799482572835,1.7443376790007,1.86970864514545,1.7926796680357,1.86708927186842,1.8522364552494,1.84925813081959
1.91047385444208,1.91124026366017,1.91316113739666,1.95689496974059,1.91128877057271,1.91096862494996,1.91184174937564,1.9133357622818,1.95633228955515,1.95679795591551,1.84012912988001,1.91637229500665,1.91676035030695,1.91778869685275,1.84677457689766,1.92572442774391,1.95571140107467,1.85387598889317,1.92980870977958,1.93053631346764,1.86352886448816,1.86773926449643,2.04410069710074,2.01261000948131,2.00755558919489,1.92753858627282,2.01510326478575,2.01502565372569,2.01325030072681,1.92379385262491,1.92351251253219,1.92362892912228,1.9240363871876,1.92385206091996,2.00276310623617,2.00054148964195,2.00194819010554,1.998669122818,2.022524822404,2.01786815880039,2.01151375325796,2.01199882238334,2.02132185097307,2.01276523160143,2.01121301040023,2.01241598183116,1.92340579732461,2.00684738827184,1.99759226935966,2.00761379748994,1.92528786553107,2.00891378274594,2.0071772352771,2.01219285003349,2.01841143622081,2.00032805922678,2.00416980669976,1.9277811208355,2.01108689242763,2.01101898275008,2.03093592103803,2.03072249062286,2.01163016984805,1.92495801852581,1.99787360945238,2.01956590073921,1.9946721532249,1.9959721384809,2.0265120906146,2.00619739564384,1.92495801852581,2.02129274682555,2.00216162052071,2.01873158184356,1.92396847751005,1.92410429686515,2.01834352654326,2.00727424910217,2.00762349887244,1.92341549870712,1.9995713513912,1.92009762588954,2.00751678366486,1.92112597243534,1.92110656967033,1.92192148580096,1.92325057520449,2.00032805922678,1.99847509516785,1.99778629700981,1.99551617350305,1.99653481866634,1.99618556889607,2.0039563762846,2.00081312835216,1.94713537893802,1.84956857505983,1.85118870593859,1.85047080363303,1.85035438704294,1.84981110962252,1.84672606998512,1.8447663907186,1.97364925733109,1.97267911908033,1.84559100823174,1.89285614380841,1.84379625246785,1.84653204233497,1.84569772343933,1.84429102297574,1.95140398724133,1.84534847366906,1.94675702502022,1.84739546537814,1.84659025063002,1.84414550223812,1.89675609957644,1.89608670418342,1.9435070618802,1.8970956479642,1.89651356501375,1.84936484602717,1.84650293818745,1.94655329598757,1.84692009763528,2.03396275238038,2.034127675883,1.84578503588189,2.01844054036833,1.8432141695174,1.84590145247198,2.01750920764761,1.93714295495527,1.845920855237,1.84484400177866,1.84443654371335,2.02075917078763,1.84558130684924,1.7746350965717,1.87787720921679,1.87714960552873,1.76681578227063,1.76487550576913,1.76553519977964,1.76247926428977,1.80773621368738,1.75696887902549,1.8666721124206,1.75616366427737,1.87534514838233,1.8671862856935,1.80056689201432,1.75215699330176,1.87599514101033,1.87476306543187,1.80050868371927,1.86768105620138,1.74816002370866,1.87185265067962,1.74991597394252,1.74724809375295,1.74557945596166,1.85929906171488,1.79337816757624,1.74534662278148,1.87761527188909,1.746025719557,1.87313323317061,1.86928178431512,1.74479364397855,1.8398671925523,1.87352128847091,1.86965043685041,1.74574437946429,1.74535632416399
1.95763227481116,1.91348128301941,1.83710229853766,1.91417978255995,1.95757406651612,1.91169622863803,1.91070668762226,1.957418844396,2.03743584731807,1.9130835263366,1.84236044785674,1.91612976044397,1.84582384141192,1.92343490147213,1.92065060469247,1.84970439441493,1.95748675407355,2.03565079293669,1.95293680567752,1.95439201305365,1.95545916512948,2.04127759479105,1.9569046711231,1.92804305816321,2.02043902516488,2.00046387858189,2.00031835784428,1.99998851083902,2.00796304726021,1.92453115769548,1.92325057520449,1.9259669623066,1.92359982497476,1.92396847751005,2.00466457720765,1.99992060116147,2.00405339010967,1.99761167212468,1.99702958917422,2.02031290719229,2.0140070085624,1.92425951898527,2.01490923713559,2.02180692009845,2.01703383990474,2.01111599657515,2.0200703726296,1.92605427474916,2.01556893114611,1.92509383788092,2.00455786200006,2.01610250718402,2.0124644887437,1.9272572461801,2.01874128322607,2.00760409610743,2.00135640577258,2.02392182148509,2.03101353209809,2.02050693484244,2.01846964451586,2.03159561504854,2.0049847228304,2.00377205001696,1.92609308027919,2.01872188046105,2.01708234681728,2.01651966663184,2.01623832653913,2.00781752652259,2.01424954312508,2.02239870443141,2.02630836158194,2.00428622328985,1.9254527890337,2.00587725002109,2.00765260301997,2.00866154680075,1.9232699779695,2.00324817536155,2.00894288689347,1.92179536782836,2.01712115234731,1.99797062327745,1.99657362419637,1.92315356137941,1.92323117243947,2.00374294586943,1.99962955968624,2.00062880208452,1.99785420668736,1.99808703986755,2.00334518918662,2.03070308785785,1.90308140097134,1.85439016216607,1.85040289395548,2.04769991001103,1.95234502134456,1.84956857505983,2.02693895144493,2.04772901415856,1.84762829855832,1.84616338979969,1.84596936214954,1.84393207182296,1.84423281468069,1.84378655108534,1.8443783354183,1.84612458426966,1.8460469732096,1.84542608472912,1.84609548012214,1.94374959644289,1.89363225440901,1.84659025063002,1.84688129210524,1.84874395754669,1.84784172897349,1.93007064710728,1.95254875037722,1.94475854022367,1.84987901930007,1.84795814556358,1.84652234095247,1.84466937689353,1.84505743219383,2.0306448795628,2.02743372195281,1.84472758518857,1.8483753050114,1.84648353542244,1.84558130684924,2.01382268229475,1.84404848841305,1.84181717043632,1.8442425160632,1.84418430776815,1.84413580085562,1.86677882762818,1.77209333435473,1.76647623388287,1.8798174857183,1.81334361277673,1.75984048824772,1.85988114466533,1.87977868018827,1.87458844054674,1.87990479816086,1.75502860252399,1.87668393916836,1.80189598141785,1.83542395936386,1.83371651604253,1.74848016933141,1.8741518783339,1.79986839247377,1.74855778039147,1.87319144146566,1.87275487925282,1.74659810112495,1.86508108568936,1.86336394098553,1.74407574167299,1.7460160181745,1.74507498407127,2.06000126303058,1.74732570481301,1.74531751863396,1.83701498609509,1.74275635365197,1.86973774929298,1.8688646248673,1.74388171402284,1.86830194468186,1.74104891033064
1.91241413094358,1.91336486642932,1.95764197619367,1.91369471343458,1.9587091282695,1.9128215890089,1.91109474292256,1.95851510061935,1.83957615107708,1.83997390775989,1.84068210868294,1.91752675952505,1.84517384878392,1.918749133721,1.8482394856563,1.92257147842896,1.95777779554877,1.95688526835808,1.93649296232726,1.93554222684152,1.93970411993725,1.95571140107467,2.04351861415029,1.93015795954985,1.9289355853539,1.92779082221801,2.00050268411192,2.02455241134808,2.01797487400797,1.92657814940457,1.92498712267334,1.92460876875554,1.92717963512004,1.92637442037191,2.00374294586943,2.00251087029098,2.00094894770726,2.00191908595802,2.01507416063822,2.00822498458791,2.0202061919847,2.00742947122229,2.00995183067425,1.9271311282075,1.92609308027919,2.02143826756316,2.0208464832302,1.99982358733639,2.00072581590959,2.00011462881162,2.01750920764761,1.92581174018648,2.02352406480228,2.01791666571293,2.00633321499894,2.01142644081539,2.00404368872717,2.0096316850515,1.92613188580922,2.0150450564907,2.01098017722005,2.01578236156127,1.92667516322965,2.02098230258531,2.0131047799892,2.0214867744757,2.00796304726021,2.01049510809467,2.02733670812774,2.01508386202073,2.01194061408829,2.01857635972344,2.01268762054137,2.00071611452708,2.00736156154474,2.01064062883228,2.01758681870767,1.92631621207687,1.92412369963017,2.01090256615999,1.92414310239518,1.92358042220975,2.02127334406053,1.92139761114555,1.92065060469247,1.92089313925516,1.92112597243534,1.92074761851755,1.99831987304773,1.99878553940809,1.99561318732813,2.00003701775156,2.01054361500721,1.9201655355671,1.85659237599528,1.85381778059813,1.85314838520511,1.84988872068258,1.84884097137177,1.84734695846561,1.84751188196823,2.0285784850887,2.0287143044438,1.84599846629706,1.84397087735299,1.84325297504743,1.84136120545846,1.84545518887664,1.84338879440254,1.84560070961425,1.8452805639915,1.84447534924338,1.84628950777229,1.89307927560608,1.89443746915714,1.84871485339917,1.84645443127491,1.93962650887719,1.9377056351407,1.89595088482831,1.84650293818745,1.84595966076703,1.84696860454781,1.84751188196823,1.84649323680494,1.84519325154894,1.84391266905794,1.8432141695174,1.84619249394721,1.8447663907186,1.84502832804631,1.95125846650372,1.84445594647836,1.89274942860083,1.84703651422537,1.84590145247198,1.84625070224226,1.84259328103692,1.84792904141606,1.86895193730987,1.77002693988062,1.76672846982807,1.76446804770381,1.76202329931192,1.76026734907805,1.75938452326987,1.87990479816086,1.87851750046229,1.75566889376949,1.75524203293915,1.75434950574846,1.80091614178459,1.7992572053758,1.85978413084025,1.82219127362359,1.87564589124006,1.74729660066549,1.87518992626221,1.7482085306212,1.87279368478285,1.74739361449057,1.74605482370453,1.86959222855536,1.74384290849281,1.74372649190272,1.7455018449016,1.74628765688471,1.87464664884178,1.87139668570176,1.74502647715873,1.8567475981154,1.74490035918613,1.87142578984929,1.87252204607264,1.74407574167299,1.74195113890384
1.91305442218908,1.91392754661476,1.95694347665313,1.9138596369372,1.91158951343044,1.912957408364,1.95913598909983,1.96084343242115,1.95835017711672,1.91674094754194,1.9175946692026,1.91758496782009,1.91937972358399,1.96024194670569,1.96084343242115,1.8512081087036,1.92763560009789,1.95703078909569,1.9307400425003,1.86261693453245,2.04744767406584,1.96031955776575,2.03984179017994,2.02099200396781,2.01985694221443,2.02178751733343,2.02198154498358,2.00105566291485,1.92701471161741,1.92689829502732,1.92630651069436,1.92614158719173,2.0009974546198,2.00364593204436,2.00410189702221,2.00145341959766,2.00741006845728,2.00708022145202,1.99669974216897,2.01846964451586,2.02244721134394,2.0214867744757,1.9264811355795,2.01753831179513,2.03171203163863,2.0220106491311,1.92683038534977,1.92658785078708,2.00183177351545,2.01685921501961,2.01793606847794,2.01232866938859,2.00715783251208,2.0075652905774,2.01486073022306,2.00797274864271,2.00713842974707,2.01431745280264,2.01456968874783,2.03002399108232,2.01184360026322,1.92838260655097,1.92712142682499,2.01338612008191,2.02787028416565,2.01177569058566,2.0189062067287,2.03052846297271,2.01051451085969,2.00877796339084,2.02206885742615,2.02021589336721,2.01622862515662,2.01622862515662,2.02810311734583,2.01886740119867,2.01745099935257,1.92631621207687,2.00751678366486,2.00712872836456,2.01082495509993,2.01999276156954,2.00780782514009,2.0075652905774,1.9219699927135,1.92260058257649,1.92164014570824,1.92127149317295,1.9980288315725,1.99907658088331,1.99660272834389,2.00625560393888,1.99494379193511,1.99541915967798,1.8561073068699,2.0414716224412,1.94748462870829,1.84985961653506,1.84866634648663,2.05089166485601,1.8470753197554,2.04474098834624,1.84422311329818,1.84367983587776,1.84265148933196,1.84551339717168,1.84512534187138,1.84353431514015,1.84275820453955,1.8461827925647,1.89248749127312,1.95391664531078,1.8429522321897,1.84383505799788,1.89497104519505,1.95028832825296,1.95042414760807,1.94107201487081,2.00423771637732,1.84690069487026,2.03346798187249,1.84915141561201,1.84898649210938,1.84555220270171,1.84568802205682,2.05488863444911,1.84718203496298,1.84430072435824,2.0220009477486,1.84195298979142,2.02122483714799,1.84508653634135,1.8456589179093,1.93978173099731,1.84633801468482,1.84462086998099,1.8443783354183,1.84473728657108,1.84504773081132,1.76955157213776,1.76834860070682,1.76812546890915,1.76350761083557,1.81076304502973,1.75910318317715,1.87635409216311,1.75879273893691,1.87656752257827,1.87630558525057,1.75240922924696,1.75273907625221,1.80088703763706,1.74951821725971,1.79858780998278,1.79801542841484,1.79727812334426,1.87200787279974,1.87756676497655,1.74608392785205,1.74677272601008,1.74662720527247,1.74619064305963,1.74667571218501,1.747306302048,1.74751003108066,1.74504587992374,1.87355039261843,1.86941760367023,1.74500707439371,1.8581639999615,1.74295038130212,1.742795159182,1.74417275549807,1.74321231862982,1.74036981355512,1.74196084028635
