1.84986915697897,1.8845734868139,1.85273253564365,1.89761019913526,1.89957986630852,1.84964110457056,1.87111037942654,1.95391952436586,2.02534856042772,1.85108180625176,1.85215009362234,1.85216110147065,1.85230472044371,1.98760614924621,2.01914067846616,1.98358514126698,1.98115261812684,1.90832739900295,1.98039092903831,2.09051211399964,1.97713771169302,1.97573762435696,2.08924727870701,1.9736845214838,2.09482315811861,1.97047746276922,1.96817116505494,1.96964619063208,1.96831445577041,2.11127094868061,1.88890109647071,1.95833706790077,1.95869632562142,1.95854914361067,1.95825162977768,1.95663022852657,1.95464998274684,1.95495845409909,2.00577798222209,2.00497436732571,1.94805146741292,1.94749444054523,1.94681425907928,1.94653801271629,1.94552701048017,1.87328124772102,1.94244701352298,1.94661413916479,1.94531956048807,1.94439560804608,1.94379424627561,1.94387097582001,1.9444338226919,1.94538323552965,1.94587560552962,1.94593547453069,1.9461126737596,1.94651228064004,1.9481822059735,1.9923118078335,1.99237857444121,1.94906239343991,1.88081966800213,1.95807900378459,1.98789648054111,1.98911141930008,1.99035349579226,1.988720556238,1.9840672773646,2.04641672499579,1.95752938044363,2.02728951564801,2.04681035622752,1.95433459952717,2.0436075302645,1.95204675586983,1.95167348051191,1.95302430210307,1.95249985715622,1.95156887377455,1.95299999560704,1.95116967543736,1.95161080436631,2.03712559887487,2.03676697407294,1.94859921398897,2.03272773124945,2.04116518555357,1.94756951746766,2.03122273115258,2.04113828416205,2.02733060437094,2.03135250533437,2.02507117975467,2.02476776023691,2.03473124367034,2.03653954350447,2.03118786366704,2.0271833173181,2.0423650306849,2.02385583242407,2.02389504285439,2.02998427096588,2.03211663330092,2.03115976857584,2.03078440722471,2.03375976248939,2.03193508362828,2.02707089764052,1.93919521357089,2.02337091202702,2.02226969445155,2.03053155985687,1.93684510620471,2.01406427925527,2.02997424202479,2.02947972545075,2.00884275741792,1.9322048482831,1.93173556218978,1.93155422302447,1.95780389338242,1.93103638390391,2.01161955593767,1.9282597669996,1.92753462487329,1.99066882529675,2.00836724270198,2.02776941987354,2.00516174906877,2.01253759902169,2.00782462501468,1.9943900810459,2.01515618846412,2.01277226279538,1.99511078929452,1.94834707491385,1.91692874870101,1.91646582302042,1.98800252727806,1.91540152765632,1.91539125813225,1.99117675948864,1.98971484388772,1.99116462592913,1.84428423227442,1.89273258648914,1.89029018716283,1.84048898478104,1.83692944829161,1.8349535341377,1.86762523973003,1.88063586998346,1.82952406076636,1.94448313725959,1.94850619908344,1.86364239910078,1.82404867677644,1.82375033822474,1.86951039264815,1.86758393307767,1.86628649354719,1.86573945423299,1.81560429423155,1.81492373558108,1.81343411030763,1.81199649032845,1.86059150475591,1.81160380409801,1.89729159313464,1.80770338296435,1.82871518203835,1.87512246400954,1.80567418471645,1.80522193053373,1.80348890151637
2.03957111396964,1.90266617406653,1.96545895707428,1.96185020501405,1.95532960149461,1.95649563118911,1.88065914442885,1.85077990589097,1.84818604342557,1.85120145891415,1.85170151264665,1.85200596771664,1.85183949764847,1.98895734131175,1.98840963377431,2.0939493763216,1.98012856753148,1.9804729448942,1.98003725579576,1.97871639898611,2.02090757629373,1.97691047007203,1.97700002278504,1.97273359686849,2.09596247540511,2.01371437144429,1.96726219987719,1.96771743230464,1.96734786727855,2.09521545546026,2.09205555311907,1.95812474069151,1.88786798656915,1.95882808553905,1.95819239610524,1.88147622420776,1.95435352170203,1.95527041884181,2.00723755352872,1.95337718982248,1.94979777598801,1.94792996584103,1.94717863833685,1.94686049566406,1.87474652840373,1.99890327998057,1.94327292578212,1.87164555753117,1.94396206921833,1.94419462476074,1.94355879960843,1.94415336234131,1.94432564602941,1.9454343778929,2.0743685673639,1.99523425884812,1.94653273848393,1.94694042346658,1.94898639940189,1.94929692657907,2.07821134939801,1.95211048198753,1.95625707806875,1.95742787818034,1.88550028795161,1.89115340272543,1.99200384133568,2.07582114558751,1.95959661182116,2.03947581525715,1.95743690970943,2.02745494038914,2.04168785965257,2.0281075596678,2.02769317911432,2.02488422735094,1.97016275075086,1.95348539345661,1.95288278049841,1.95216100558141,1.94920259588103,1.94991285270864,1.94985692340785,1.94931283156622,2.04237909264744,2.02765156597371,2.02650300843439,2.02152018013601,2.03233824903515,2.04409831318328,2.01923550362497,2.0182868104796,2.01850125630267,1.94624759784233,1.94642582120786,2.03859697079372,2.03489791462777,1.94614679551876,2.03709137644289,2.04136451141655,2.01585158026138,2.02292902049839,2.02176886432973,2.0315447599735,1.9413483135074,2.02883674020602,2.03291250770304,1.93966812403694,2.02053451768182,2.02355241891968,2.02930413195402,2.02496211911585,2.03390413918312,1.93636166358769,2.01239357984005,2.02748413762644,2.02737134879129,2.03394331055342,2.015655032897,1.93098995039755,2.01681298222625,2.00454938441825,2.00929367291442,2.02381079989557,1.92769261957223,2.01125127255563,2.01240449595148,2.01395666602474,2.0148886872854,2.01676683850955,2.02019452418998,2.01055753041251,2.01563188255364,2.0165395671263,1.99042801963388,2.0120606809507,1.93588597817987,1.91782314829681,1.9188015452583,1.91551539003926,1.91459929372252,1.91487579240808,1.91466900814712,1.91537609355778,1.91469029607035,1.98382172675552,1.89802586726042,1.8403787751898,1.83929432987864,1.83756948898131,1.94018016356994,1.85595320254518,1.83177282582681,1.87741519402083,1.87706693146566,1.88212386252912,1.87851827932503,1.93836498009655,1.82361710741461,1.9340008155754,1.81870895403008,1.87754751653535,1.94118965273787,1.81550201314502,1.81500024557509,1.93763118252219,1.81289870891553,1.811765351587,1.81075927034777,1.94167672441237,1.80782285766757,1.80751264866199,1.80729810266709,1.89745573206574,1.80531807317933,1.80610819831031
1.85069393206181,1.87084413489751,1.84975863779446,1.8504637407457,1.8991533759908,1.95560548247074,1.88604905928193,1.85067763978414,1.85155079367146,1.93946567645807,1.84981655831868,1.85205547491438,1.85330240438257,1.98953730978467,2.10644704218689,1.99075206132257,1.98109528323859,1.98320382156685,1.98100370941603,1.98025255830612,1.97933658935121,1.97803529659595,1.97526495454103,1.97164935090015,2.01447765221556,1.96851488589318,1.96757526790848,1.96796813186165,1.9678650333943,1.96435954330329,2.01080814684061,1.95880608048054,1.9601125801944,1.96023776732424,1.95992847880411,1.9555998016005,1.9542648638375,1.95471776693139,1.95420200516816,1.95336826464895,1.87736309573064,1.94759772036528,1.94810161274898,2.08499897696076,1.94737574051134,1.94600354066412,1.94389914780792,1.8709826515953,1.94226071308023,1.94545350153326,1.99959845871751,1.94465150070457,1.94453667781855,1.94446751213737,1.87330196711721,1.94493668570059,1.94590898203642,1.94565347958953,1.95003302725913,1.94963219254566,1.95225340643097,1.95303794879371,1.95470226137682,1.95684158498171,1.95789343815677,1.89131450269058,1.99181629391816,2.0761179676387,2.07243350783539,1.96036963413121,2.05597961806555,2.05399887470389,2.05404223525457,2.05475143402614,2.04762820640765,2.02557277948028,1.9807137279497,1.95305522737672,1.95330232525169,1.95062736636554,1.94968644368094,1.94933104988459,1.94883299336005,2.03540372287529,1.94922698220043,2.02262304126967,2.02215426423546,2.02129187829354,1.94829044140036,1.94774974845084,2.02619521335815,2.02059036839331,2.01956778032227,2.03168513107582,1.94769499717009,1.94714489951236,2.03174959555352,2.02568436956038,1.94478237404929,1.94446053300791,2.02751871738104,2.02733936575818,1.94343376125704,1.94178609381255,2.03279059439576,2.02596735715207,2.03231205942168,2.03377164736424,2.01916617016663,2.03256698454995,2.01031674783097,2.01222839696715,1.93591520804229,1.9357562967205,2.02174690136024,2.02544117759467,2.02420211851483,2.02407999706847,1.93259101877138,2.00422596817371,2.00337499707333,2.00293242989398,2.00317328167321,2.01051250277783,2.00950142374044,2.00957381926807,2.01086701460723,1.92732101493246,1.92699878982777,2.03017441272339,2.00559717812748,2.00461353828703,2.00413340554921,2.00832894016477,1.99041539464393,1.91841882832265,1.91759459491463,1.91695743750431,1.91748186479276,1.91535066250675,1.91482231490006,1.9147063702776,1.91458080782626,1.99930378680158,1.98624853815279,1.99761877995999,1.89962906412971,1.84076071018957,1.91382134902004,1.83362817684469,1.83347971069372,1.8330995954752,1.83142664075504,1.87746562799038,1.87711233656866,1.88337737860107,1.87665544086782,1.87214426713897,1.82227493090158,1.82064983400789,1.81808494956989,1.88257936097467,1.94035820132333,2.01228537585796,1.81412107212998,1.90602957740817,1.81428804697742,1.8106013613881,1.81028395794412,1.80843850950627,1.80762969897661,1.80712429253829,1.8055320938662,2.01854202032572,1.80641112642191,1.90125027120433
1.85042635493987,1.87831583662843,1.95165378006488,1.9519370001813,1.89945224039386,1.89913294141816,1.89170149312754,1.95740506284404,2.02571585713813,1.85150753086661,1.85177764597618,1.85252140862548,1.8529495058509,1.91618681415281,2.09789953680453,1.9848587454797,1.98203225846582,1.98207022422221,1.9818812825003,1.90728465736576,1.97888182411151,1.97799860252583,1.97806134975932,2.10259080828272,2.01447655068779,2.11167638088094,1.97755531007084,1.96796439004284,2.01251712299191,1.89118938720796,1.96301851412889,1.96052888823072,1.963732869572,1.88533831707562,2.08181112481552,1.95532019137889,1.95383294005234,1.95618028265944,2.00653091266133,1.95151801814849,1.94851667295179,1.94743338103306,1.94825211150955,1.95479165993916,1.87454376854766,1.94508719161072,1.94389441164512,1.9446658697743,1.94388937258881,1.94469620130564,1.94497054182267,1.94488115126408,1.94471577370912,1.9452208674152,1.87106419516172,1.99424945852218,1.94593338269368,1.94687794107278,1.94936746941185,1.9507081337273,1.95129728724057,1.95392168407266,1.95407221850398,1.88115760194807,1.96052922078715,1.9645068414912,1.98955976855569,1.98798268457705,2.07241602719379,1.95986231485164,2.05456104819525,2.047618724732,2.0336055932424,2.05139983131486,1.95465322215814,2.0269213868143,2.03077761626804,2.02941294348275,1.95003139614306,1.94995014312397,1.94990920661521,1.94925140313425,1.94840134261016,2.02543557010782,2.02685879859325,2.02189827541961,2.0213467891643,2.03200526994729,2.04243361907246,2.03775856230688,2.04780901914139,2.02408280243155,2.02668055537712,1.94754697196442,2.03723811949786,2.0312275401396,2.03779461446788,2.04488140030241,2.03526644815624,2.02444401767423,2.04072021039303,2.03337848808361,1.94348899111515,2.03241968275649,2.03243183824508,2.03447984110281,2.03114419886137,2.03139773272965,2.03042888451486,1.93737035823591,2.01298688299856,2.01527849656149,2.02469627536523,2.02249438322907,2.02407961120187,2.02583194117939,2.02358532142049,2.00848499424311,2.02445451729963,2.01077028611849,2.01960970385453,2.01103729292606,2.01135649762881,2.01163266186233,2.01678106233381,2.01099673113638,2.01038814120521,2.00669048981084,2.01091002350939,1.92388425854296,2.00730623333808,2.00518766266667,2.01953349858825,2.01111365020611,2.01218149063663,1.91845769106342,1.91722408026579,1.91653211382502,1.91569394452975,1.9157659507779,1.9148681630074,1.91492216175644,1.91531474358676,1.91567422524187,1.99174157455397,1.98755174055062,1.90961465027957,1.88807069068596,1.94017050782426,1.95472090907334,1.83300243008912,1.83327889236886,1.87908285473934,1.87760294305789,1.87692990015999,2.01487303245396,1.87376017546729,1.87155962212492,1.87060916325727,1.81947102013113,1.94638844399752,1.88492496563504,1.81547306380397,2.03851871512691,1.94046017737642,1.81043716304095,1.81091768354456,1.80958138382533,1.80885068293276,2.00794057642258,1.80711060431155,1.80732129531098,1.8064578201076,1.93473724753559,1.80432865390804,1.80193483156781
1.95706716301128,1.88055527868643,1.84844566815716,1.89877848885005,2.01810753491985,1.8516874796099,1.85342226521646,1.85378127947273,1.85273236093799,1.94102982391919,1.8516363874024,1.85270411520901,1.85226470350537,1.99143439769181,2.09752643304683,2.01911165828776,2.00868687723834,2.09561973132638,1.98104653014942,1.98009058903063,1.97931926863837,1.97697264392972,1.97771690348415,1.975804945152,1.9758353919358,1.97127846617277,1.98568528165372,2.08837990047014,2.08892703024049,1.96462053690794,1.96258632882347,1.95798582557371,1.8885727177411,1.96002706366151,2.0835040086932,1.95350538895879,1.95157150004825,2.00647298127388,1.95410180094704,1.95067339846337,1.94988224992932,1.94689499974901,1.94886954339733,1.94948079535878,1.94755123775555,1.94560058083136,1.94381291571825,1.94554107534684,1.94624974515726,1.94455267083489,1.87269951228087,1.92300438121186,1.94489929327549,1.94560908978836,1.94531604217056,1.9445717338597,1.94586200040997,1.94838757220686,1.95081407920863,1.95163642864234,1.95343755838664,1.95584980178715,1.99139151231565,1.95680315172068,1.96091921764281,1.96288492828873,1.98743995503468,2.07114372012925,1.9808792712238,1.96047595296425,2.07431071839575,2.04787542706211,2.03513771642718,2.04783880920374,2.03171866449322,2.03172537036484,2.03380905298799,2.02925810336956,1.95126334046832,1.95041785688638,1.94944767491157,1.94921470694981,1.94922564696126,2.03835131767381,2.03631232460158,2.02254246026248,2.02570744329579,2.04090357231404,2.02192548358364,2.03407485449379,2.03624063182868,2.0324547165434,2.03258107849329,2.01398174863836,2.03711745535606,2.03851960362002,2.04078634916598,1.94418377678507,2.03972890742958,2.03812247007471,2.03964955404108,2.0417312919653,2.03772266871201,2.04250031094527,1.9404340919902,2.021186913953,2.02849993194731,2.03849630375281,2.04041000490598,2.03317086748512,2.01744024711338,2.02036334361923,2.02502786507731,2.02002371558732,2.01391175410289,2.01450651635603,2.0188355930227,2.02028447170373,2.01677282318053,2.00623538998856,2.00437775215847,2.01203578098325,2.01580998346396,2.02367035671834,2.01192322513203,2.01206037575101,2.01192586964318,1.99895467110966,1.92719156269213,1.92437375998045,2.00832169565488,2.00682688730614,2.00878206944308,2.00842689390679,1.91883780081576,1.9179557111781,1.91650225285645,1.91591423804027,1.91542374098548,1.91488110345607,1.91518170315438,1.91483870073222,1.9935420850108,1.99494305952614,1.9886739363062,1.98727562956805,1.94201633903245,1.94525233514785,1.83710274454159,1.83402564948926,1.83267253551626,1.83233797232816,1.82986182641818,1.87733594535978,1.87676950389507,1.87500417194457,1.85880494486458,1.81930716739437,1.878284635347,1.81916072293762,2.02115858799216,1.88546350549424,1.94173469925156,1.90099976028478,1.92549717866852,1.81190388288533,1.81176690299269,1.81027577182397,1.81026468185788,1.89539913340737,1.93487944276162,1.80789055382437,1.80667828791996,1.93417190883053,1.85280712743566,1.85306120917985
1.89058723629521,1.8852008116669,1.88086354245331,1.87807661230955,1.87223311689468,1.85285081481718,1.85367220507008,1.85383154776297,1.85290426992762,1.85303126314562,1.85288846215546,1.85339413373125,1.85322518846342,1.99023385433307,1.98575257719388,1.984386137344,1.98469165635697,1.98559369832054,1.98068432945644,1.97969032001738,1.9768225303753,1.9750801705186,1.97553740870543,1.97430473078474,1.97372669794095,1.97261936623516,1.99653301827512,2.01117269957725,1.98982133937541,1.96102139016527,1.95765137696303,1.95570780171756,1.95690390830483,1.95696823884019,1.98371003567386,1.95264956174179,1.95036356405358,1.95124661364404,1.95110764881741,1.94810634681112,1.94574263875237,1.94379893012566,1.94512800898985,1.94680133408602,1.94640930717229,1.94357495276558,1.94276778917753,1.94358979475262,1.94317957110511,1.94253241990355,1.90108017611016,1.9124364503515,1.94436045776407,1.94443956949996,1.94411869050737,1.94458890346619,1.94593805447007,1.94942992869798,1.95325051099901,1.95495919690837,1.95738242051262,1.95987522356757,1.96002669835883,1.95957989204463,1.96077072574404,1.97970832694732,1.98405147816131,1.98795282019504,1.99443454588618,2.00717396404446,2.05395421660044,2.05049395801669,2.04567572666494,2.0470139786695,2.04109643610815,2.03697606055105,2.0393323564406,1.97741253623769,1.95155948343416,1.95089659983081,1.94989130129252,1.94921357275408,1.94879976335533,2.02999429256867,2.0282600163096,2.02742072306556,2.03033919179413,2.03718225904147,2.03521460109835,2.03672225750144,2.03846416251947,2.03445201552049,2.03321825524611,2.03155816878972,2.03078635519249,2.03452058827452,2.03568649747482,2.03353557775501,2.03398074182844,2.03521754061012,2.03829159582707,2.0412924457365,2.04071845635586,2.04243421622134,2.00670395500295,2.00594329214458,2.00502527472814,2.00449531646763,2.03398068155856,2.03294048620868,2.02691599794144,2.02619542704761,2.02405159276622,2.01994539412318,2.01442837164248,2.01649185380106,2.01797763818136,2.01888803366855,2.01783013556151,2.01611026267237,2.01296121428994,2.01134870630954,2.01198863597769,2.01076174912219,2.01139316997383,2.0144097096851,2.01396822574236,1.95144995812592,1.92633871278415,1.92546171309539,1.94149167354631,1.9491243841482,1.95536050077514,1.95970524579091,1.94430976989078,1.93619990787343,1.91523212832094,1.91524665017463,1.91515294006056,1.91511069870156,1.9150125795274,1.91484461668238,1.99414966801733,1.99276746526635,1.98928575974769,1.98727438965726,1.94131425294017,1.94195553589893,1.83765578578868,1.83419362541419,1.83332917398191,1.83239567635849,1.83049188032724,1.82828077710834,1.82482774421481,1.82229174330793,1.82054526879145,1.82103355908992,1.82161115550868,1.8208152825499,1.84542256808769,1.85831071575437,1.87304891092646,1.91904049127241,1.92344321342403,1.81267537525816,1.812650775895,1.81179779925327,1.84594224538414,1.86662859715289,1.84757748155567,1.80824534069043,1.80734652845434,1.83576016794591,1.8535219522208,1.8542633937893
1.89935668400674,1.89042831248535,1.95760782270011,1.8517396822414,1.84966111320292,1.8518464068143,1.85302706681896,1.95390024716407,1.85131782932594,1.85236525077171,1.85242433996134,1.85327451610536,1.85280884368382,1.9933931167934,1.98764482271275,1.98588644873489,1.9817458782612,1.98506390200189,1.98375651820322,1.98337557386509,2.01682431424038,1.98084284937476,1.97592912049736,1.97459754755179,1.97434408802414,1.97368139958105,1.99780044922691,2.01166384312869,1.89518655892584,1.96559845847392,2.08778933878955,1.958173668627,1.96159995965379,1.95788057005193,2.10433840513743,1.95638291886713,1.95313343071761,1.95497756161236,1.95405979914558,2.00509228320635,1.88072307694448,1.94673622387633,2.07949549515312,1.94834903929745,1.94829045872643,1.87470789836484,1.94361710479432,1.94557849857795,2.09268704508353,2.09614823172941,1.87172420401803,1.90250235143213,1.94431171525374,1.94475206732283,1.87196586167545,1.94604562146401,1.94431344312615,1.87466575258831,1.87515565151161,1.8770866472184,1.99396353749854,1.96423695337929,1.88213886856024,1.8837026005509,1.96117717197174,1.98742504575221,1.98227873610883,1.96834403601024,2.07549829488631,2.04948573102456,2.04923134419807,2.04964318534332,2.04443083016608,1.95431053258771,2.04786466626732,2.0316914067969,2.03397591878591,1.9520306539946,1.95164781497548,1.95078250935954,1.94981616108103,1.94918531486999,1.94826837478135,2.03095304182138,2.02306299378757,2.02460159859049,2.03033135434093,1.94831829217004,2.03847127797894,2.03838983135118,1.94782665744297,1.97627573935117,2.04108862794455,2.02920605243575,2.02607352071884,2.03111770727971,2.03347321378191,2.02655367922971,2.0235923907748,2.03065021633455,2.03359723584822,2.03616316876273,2.02886494197726,2.03998037031401,2.03184130704536,1.94142401835444,1.96359114369456,1.94180373337409,2.02658666696926,2.02692693181785,1.93684243909712,2.02600711330598,2.0259027601575,2.02246278790865,2.02474746287648,2.01716476591804,2.02130523372203,1.93320012524631,2.01803644295028,2.01855424373183,2.02063941505601,2.01190506850178,2.01210564234068,2.01299429213122,2.0213188961885,2.01770083511456,2.01523214830305,1.92710721357084,1.92531027252511,1.92444576794715,1.92373880020663,1.94039005021765,1.92075116448617,2.00085960649031,2.0119635494769,2.00431440128592,1.91463516577432,1.91510430089535,1.91519807498101,1.91502664387961,1.91526014658643,1.91488952553319,1.99438923843619,1.91474237360988,1.98797188290232,1.98677541413998,1.94216196328778,1.9411218375207,1.83860155972098,1.83447410442738,1.83312244675706,1.83247022663132,1.83126162751357,1.8303235918284,1.82541377171044,1.82342214086715,1.82080976700774,1.82118654831279,1.8205369941436,1.81985171057195,1.81819127546721,1.81818451727708,1.81544255302804,1.93836683335231,1.93730796682169,1.81190303635755,1.81236623415983,1.81098297866074,1.94017357022969,1.93964551590762,1.80790655978809,1.80750275581765,1.80581261617452,1.80499978805987,1.85219974869598,1.91925853548585
1.85087878218824,1.88552292382337,2.02117789845464,1.96139267334676,1.85251821548852,1.8504975061594,1.85180178788434,1.85061102845385,1.8520104913017,2.02950070778479,1.8535830287607,1.85341246794371,1.85257823197809,1.99407525544535,1.98728031317508,1.91387903672077,1.94086072987444,1.91003625582175,2.0241324218303,1.98305942217291,2.01640628603917,1.979875708916,1.97556473500769,1.9730529445406,2.01733508445284,2.10040872602215,1.99987024661989,1.97099385563708,1.96714776702874,1.9662599613898,1.96574261298173,1.96179859885263,1.9619585693784,2.08500902624422,1.95923314825401,1.95823330523176,1.98062170500508,2.08162930125749,1.9543663564286,1.95384770158952,1.95365300790687,1.94995462217056,2.00582604752001,1.8752292899658,1.94777572354897,1.94859303988276,1.94569313864364,1.94716371207291,1.94630249206206,1.94653959173357,1.86994796374896,1.89109441214392,1.87135947483058,1.94454542953335,1.87177271021781,1.94526102094937,1.94407725659783,1.94448404459657,1.94941584835269,1.87729248285324,1.99382082591256,1.9678980217782,1.8814548165672,1.95966706995117,1.96098943987288,1.96750461636615,1.98257167702714,1.98960840720411,1.90941846379185,2.04478853967123,2.04692554986979,1.98648558655013,1.95732537163981,2.03675270376017,2.04610827929799,2.03615019144464,2.02951714342991,2.02805544191088,1.95092517614153,1.95041657360547,1.95019000058407,1.94964336853666,1.94908076650277,2.05150510749202,2.02471661901126,1.94811811529878,2.02897120818123,2.03798377515026,2.0300342614893,2.0426742057159,1.94820188281845,1.96395576144254,2.02868249096867,2.04464768460868,1.9459828245033,2.03419427696176,2.03372853115968,1.94529396737178,1.944431638689,2.02837440265826,1.94384893442383,2.02803354225453,2.02895931404353,2.02164940238389,2.02928018380835,2.02532262308427,2.02368695309858,2.02108664970162,2.01884991270673,2.02526766737078,2.01790092071548,2.02567666644152,2.02713936410837,2.0148897200546,1.9349468951943,2.02866916118294,2.02141057991374,1.93301650145551,2.02221559537106,2.02042903982953,2.01834886055613,2.01407003525194,2.01508816521162,2.01664413586029,2.01620886680699,2.0201816927085,2.01642062814198,2.01662088866736,2.01386158583093,1.92396190628556,2.01493737688858,1.94614992362079,1.92088386385027,2.00788470774046,1.91915093688325,2.00748436043279,1.91521440644349,1.9160281520316,1.91519848894968,1.9151421637964,1.91518050874393,1.91480131973514,1.91438915667149,1.91442286914467,2.00506343877022,1.84179641679351,1.8427763442037,1.84155980899698,1.83976637939974,1.94522019427799,1.83314685332662,1.8326721198793,1.82959586648564,1.93127809170566,1.82722568377188,1.94414040095381,1.85836672595686,1.82113512894458,1.81960793317024,1.86704179254979,1.81842832304595,1.81862393354268,1.94586414268752,1.94481061144996,1.81226482055533,1.86028033303997,1.83893976088862,1.81107297868688,1.94021195614046,1.94080252406719,1.94125467864401,1.8068938463955,1.80548496092262,1.8525203994628,1.80344258638903,1.99372807603514
1.96882723466339,1.87716905954732,1.85112319230677,1.85091437161659,1.96051837232499,1.96099977836165,1.88198831933681,1.85147719947923,1.85200456212829,1.90048741893076,1.8539705136586,1.8817502936804,1.99068667819408,1.91803093005924,1.98739118084279,1.98728182999643,1.98567886401625,2.09474110528341,1.98300867590375,1.90818743843891,2.01798297620489,1.97913787436169,1.90435908704882,2.01713243067347,1.97505809649576,2.01336797014728,2.00591493019765,2.01578062419066,1.96753465757661,1.96751400292708,1.89146938812012,1.96295272478937,1.96364145178543,2.09851587338591,1.96057649769365,2.08441000785503,1.98682410319717,2.00936948412494,2.08032584503989,1.95446053284625,2.00528538783118,1.95163841438389,1.88051070146969,1.95040506176208,1.94853077992302,2.00127846993843,1.94534267411214,1.94511723132999,1.87125115709672,1.87109697305394,1.94420303594632,1.91119581019468,1.87184634166791,1.87240196012551,1.94942885658172,1.99423980363339,1.96965449656059,1.99413357911694,1.99339978154258,1.87671571589095,2.06668300329569,1.96993285947124,1.990223276523,1.95966023289333,1.88591763095011,1.98799243545347,1.98366410730912,1.96725812461098,2.07254376852583,2.04117983161551,1.95912876152565,1.97317170755656,1.95896720114376,2.0379246746749,2.03726886470211,2.02592891274335,2.02555385561046,2.02594427248193,1.95097696600399,1.95090758227455,1.95011789216431,1.94979727919315,1.94953239866696,1.94923522312392,2.02531014023722,2.0222075384438,2.02489141876657,2.02172666066611,1.94923821714643,1.94863383210702,1.94817515787166,1.95465594047935,1.94561790196981,1.94502999810456,2.0285839028126,2.03320692211576,2.03268566440907,2.05151711021273,2.02928825114979,2.03086075465886,2.03754233194508,2.02565804246758,2.02393377365493,2.02230909836271,2.01973852557819,2.0252741851635,2.02515126352634,2.02775791327113,2.0199385060496,2.01683283313831,2.01643953239133,2.02271472231527,2.0251819658728,2.01868191223866,2.02467677588721,2.01722982082417,2.01712269167785,2.02436052844462,2.01601644882097,2.01226791263878,1.93098738487323,1.99473398721303,2.00751656681783,2.01701124750108,1.92797581823796,2.01944558757614,2.01100029793912,2.01067568791556,2.0099035605528,2.00753072125298,2.01108653511698,1.96208764046512,2.0153836431792,1.99068086667223,2.01511747663783,1.9167503418682,1.9160645199903,1.91614065185705,1.91464278198635,1.91427140848267,1.9151030150417,1.91477769810943,1.91440354916966,1.99297151161558,2.00472248097699,1.84159956441711,1.84300598748015,1.96159546646353,1.83477244553581,1.8339455566969,1.88045297990752,1.85695346111003,1.87822256981427,1.90005290482789,1.82692477290315,1.94395373314981,1.87666635227376,1.94542295413406,1.81995440189693,1.81922185051904,1.81795506456048,1.81774594270514,1.81528767395483,1.81380024024861,1.81213529914685,1.85826983072629,1.85779669085935,1.90386683887077,1.80836791328025,1.80817137956678,1.80625694427296,1.80659870745521,1.80650916360432,1.80125149763711,1.85063890558656,1.85044287982133
1.85091223153162,1.85081227050099,1.85001143314706,1.90030410309121,1.85186065939771,1.96172334518392,1.89492670281336,1.923283661318,1.90074150444801,1.91863611746285,1.85374755967074,1.89318095063757,1.90081571464183,1.98862250431209,1.98827667106805,1.98738501933459,1.98562251031985,1.98170678295063,1.98244950565615,1.90843847445119,1.98351255086888,1.98050598252645,2.02119721182497,1.97449646949574,1.97472976258503,2.01422491850524,1.9956630516876,1.97079106873685,1.89427906045142,1.96491494766384,1.9653330186912,1.9644868326771,2.01069234275686,1.96264451752744,2.08502373535685,1.95855506531369,1.95820868339519,1.95572865914948,1.95454165372045,1.95387987743654,1.95178108996001,1.95327158482197,2.00133174805367,1.94831637055837,1.94762022008674,1.94720699178735,1.94642493564972,1.94676587063094,1.87206249617809,2.09647904690687,1.94429679300666,1.94458143322837,1.9466784118927,1.94587708919807,1.94740452996699,1.94716094574209,1.94737879586787,1.94598803373705,1.94622568270186,1.9537609686318,1.87998929555439,1.91952725839468,1.8821520515319,1.95825377526459,1.9600786810216,1.98757765488796,1.98454743889379,1.96642408892915,1.98380538809911,2.03365344288231,2.03368307306179,2.03271640051344,2.03092012328533,2.02832319601283,2.03478795018352,2.02783261187783,2.02523120305557,2.0274064482452,1.95138060263072,1.95111745211658,1.95029862701113,1.95005195915211,1.94914333033227,1.94217828785307,2.05038512048016,2.0269979965939,2.02291589859925,2.02131579919738,2.02854099757209,1.94800754050886,2.03083794068139,1.95685060960392,1.94637168119613,2.01925694991539,2.04225459536236,2.03105738048046,2.03006794696515,2.05721846713112,2.01932724258072,2.02470786618593,2.01562334664384,2.01790251950077,2.02052222662849,2.0309568040507,2.04126758280475,1.94045985308468,2.02558852718838,2.03235376778446,2.03202507402715,2.02269680213685,2.01854202967209,2.02005636946429,2.02620229005996,2.01943678963583,2.01614294488085,2.01747705653272,2.01490749077837,2.0148255275788,2.01676095282316,1.93148823837631,1.93116349638153,1.99451113398253,1.99871839021088,2.01151541222142,2.01148772711508,2.02158870583358,2.00764225700348,1.92493430441696,2.00866227575379,2.00457014600939,1.9238046272923,1.95091102326048,1.92244323744498,2.01503297778904,2.01660629312332,1.9170369631284,1.91662640138316,1.91605464292782,1.9879445948175,1.91290475702798,1.91720863379509,1.91540960475244,1.91739379901882,1.99388805141819,2.0138902642949,1.83982940010373,1.84160199241416,1.83884177577711,1.83724691113317,1.83608353290395,1.83114218849417,1.83268908447448,1.83152582380155,1.94112637623161,1.82664058348423,1.82484324343076,1.84713727458523,1.81919372725204,1.82015025701204,1.81998238992643,1.81755334351619,1.81735736937674,1.81577224705836,1.917934428613,1.81207944011549,1.85804035369349,1.85779422002578,1.85782544513058,1.85519826603781,1.80781225283822,1.80548779662715,1.80610910558535,1.80543186101167,1.93930150426628,2.02202761654957,1.93639631788635
1.85105375149264,1.8510558855794,1.85108109387703,1.85168277334011,1.8515691130293,1.85208193159791,1.85288213738617,1.8531945862923,1.90061661211526,1.9017292948555,1.90265166845092,1.90287627032522,2.01202480532987,1.9936714478286,1.98929598406682,1.98578264980869,1.98521102641706,1.98230027788653,1.98236084170288,1.9837912593111,1.98318216643457,1.97990203251351,1.90522807742556,1.97536003142395,1.97412560748666,1.9734324076334,1.98761684073854,2.01714201293532,1.97091651429934,1.96579394807047,1.96648727038237,1.96565721510539,1.9667047743864,1.96152463534352,2.09209974596019,1.96024622865717,1.95896973393089,2.00946447712318,2.0106552889763,1.95255435332816,1.95136828194961,1.9534368454777,2.00413138307098,1.94887138072047,1.94831768698509,1.94749750439012,1.94709940652486,1.94793295435018,1.94789735027385,2.00043842880405,1.944348629596,1.94381426977428,1.8739837626965,2.08753830277727,1.94706488597023,1.94742703225535,1.94795438266228,1.99584257167702,1.87537411843443,1.95463434731498,1.95563336425588,1.95164905841843,1.98912379726965,1.99013977678059,1.96097015140358,1.96556954457299,1.98549534168716,1.9870564897772,1.97855274932462,2.04163466014207,2.03832543911228,2.03393779181542,2.03113538506966,2.03635516676329,2.03271480200916,2.02727800786988,1.97834112345284,1.95296086940774,1.95268440545145,1.95251984094843,1.95123852903519,1.95066610343023,1.95065536558367,1.94272792504867,1.94214987845764,2.03209218824332,2.03031675067947,2.03089883126888,2.02064815102376,1.94850708650813,2.03128208131849,1.96131805274333,1.94694403917222,2.03014322292524,2.0207471480208,2.03672772513811,2.03352429376262,2.03389026554289,2.0182614557718,2.01715600475169,2.01652417834791,2.01624201363308,2.01633850253514,2.0155328022755,1.94060267052748,2.02426757245191,2.02389176317278,2.01107565580942,2.00974691640871,2.02402560556828,2.02605505291951,2.01967458150785,2.01458063576853,1.93644345603673,2.02879384019568,2.01922324099436,2.01311151195755,1.93282259495938,2.01374754428275,1.93198431608579,1.93123982718672,1.99461904612718,2.02215634980401,1.92866946176434,2.01432107430403,2.00656579870572,2.00881545790342,2.01192345627871,1.92494803598679,1.92433481466441,2.02447033230798,1.99358246818232,2.0093684597597,2.01102994965161,2.00339356734302,2.02178457373534,1.91687443100111,1.91650831445025,1.91466238550565,1.91402746810315,1.91322254461409,1.91333642910012,1.91232985972924,2.00676312351815,2.00476498086463,1.92195102046466,1.91345804381651,1.92051252756013,1.83779804929799,1.93147114499014,1.83186693462025,1.83337464653701,2.03411590831821,1.82758351342479,1.82698937257727,1.91303930855017,1.85670251825037,1.87152138900833,1.89018551703746,1.86723883117215,1.8652504529982,1.86473068136698,1.91257581438491,1.92977501084344,1.92901257167805,1.85850969584388,1.8581287126568,1.80787336855612,1.80914694511415,1.93738450583716,1.89156606159007,1.83388129414325,1.80422554021668,1.80368033958533,2.0250978313323,1.93660930217595
1.84978053149833,1.85083321430335,1.85122841495217,1.85156041874537,2.03542901976705,1.8519027890552,1.85276482031421,1.85257659979277,2.03124830463949,1.93746697706971,1.90226745756426,1.9025102089783,1.90192245191267,1.92064772640621,1.98956419776488,1.99029241051531,1.98681506775397,1.98553029889973,1.98424318470078,1.9835784668726,1.98048015647015,1.97906678522488,1.97911850945259,1.97646908141497,1.97440997718901,1.97430498554139,1.9722264014858,1.97063281043627,1.97019146103013,1.96544276885327,1.9657436950681,1.96520815119025,1.96485982705508,1.88809971321068,2.01186056704593,1.88439210442514,1.95733982104671,1.95618247977209,1.95724396146722,2.00445504030859,1.95212596101856,1.95246561925715,1.95354988968476,1.95067525036332,1.95034394925179,1.87689964353704,1.94708302625123,1.94762149418536,1.94639714592794,1.94575562793294,2.08480587233593,1.94364863685838,1.94321168593442,1.94534534333194,1.94637659675475,1.9476290241071,1.94806571924084,1.94806243463018,1.94865239538731,1.9539610638006,1.95425496604408,1.95159236496933,1.88132174047204,1.99123234424974,1.96154053054825,2.06529602518714,1.99326108631031,1.96815956481167,1.97095285756302,2.04972552213994,1.95946129009064,2.04075995333474,2.0489644031082,2.02911120558938,2.0386281498085,1.95272963841045,1.95014567119321,1.95195205285813,1.9523354688511,1.95201650657361,1.95146396900111,1.95095350838711,1.95057094789959,2.04258119993265,2.05170023012516,2.03132659648258,2.02991888340656,2.02119913344751,2.02087685619857,2.03665351451543,1.94882899008749,1.96904848852866,2.02830342585015,1.94728334448581,1.94680695158331,2.04490755802838,2.0331962171691,2.01802199461928,1.94507523049829,2.01572590947384,2.01587710597983,2.01597408757164,2.01564554144763,2.02074103412451,1.94054496120034,1.94077305017072,2.02397857066396,2.01325806496842,2.01524348372286,1.93875105562344,2.01867020125144,2.01967631943875,2.02370697112852,2.02117996683479,2.01799246851685,2.01671779563169,2.01362594112013,2.0148183995336,1.93195377301257,2.01227594635494,1.93110318526241,1.99499930088608,2.01212937235726,1.92761977640318,1.92800518185492,2.00761039878811,2.00907478256806,2.01458709089661,1.92418805514954,2.00866471876569,1.92301465812753,1.99289147082846,2.01441813438639,1.99099994740115,1.91728747725365,2.00860707956844,1.91674411261556,1.91563612502062,1.91423148117014,1.91248120220238,1.91217620985928,1.9126292208725,1.91302743921872,1.98712552670099,2.00316810934911,2.00295986152589,1.90997721599993,1.83955625397223,1.83908372712149,1.88335906119251,1.83272848288327,1.83314233133226,1.83109878702145,1.87509683125008,1.87401994087539,1.82429427289338,1.82455044833536,1.82306076674854,1.82364484064531,1.81783064477565,1.86440594978461,1.86419795924791,1.86331467929814,1.92986866884812,1.92896523172662,1.85915250893722,1.85844538436792,1.93823946209041,1.8076203494248,1.94109301794995,1.85414231769395,1.85245288548409,1.85200467529966,1.80286054197115,1.80086944719967,1.9364083781457
1.92534025873387,1.89917869116419,1.89938386533596,1.85084839964938,1.85162229868803,1.85231640337254,1.8530748054769,1.85350636672812,1.95715399357107,2.03221382776364,1.85487830158124,1.89174482916322,2.02143238008161,1.91882254421384,2.02392973645727,1.99003211657513,1.98846215651784,2.02001929843046,1.98398606581435,1.98350112662334,1.97956937038724,1.97804421652108,1.97768985547948,2.01795305595016,1.90158969709057,1.97343472335634,1.9717234259929,1.89785149075326,1.96964802004183,1.96519483678878,1.96482261632086,1.96497360744118,2.01147442326876,1.96381721073982,1.96121632544028,1.95832340361089,1.95840861727475,1.9580949392339,1.95743143848928,1.95289397282216,1.88013414713079,1.95163785227896,1.95491986435682,1.949973219769,1.94973724330706,1.94824654312279,1.94726248407218,1.94773008911767,1.94613040233567,1.94651160126454,1.94467129310725,1.94464601075656,1.94596454280754,1.94620111767441,1.87352996926731,1.94778450918446,1.94806955362788,1.94860961506187,1.87451480285393,1.94973704353762,1.99179706225183,1.95238509741699,1.95366511412798,1.88491350353134,1.88669006607978,2.05882023661422,2.00388178581847,2.06120865150667,2.07039029436651,1.95937104111108,1.95912049573094,2.04254452729197,2.03880681640696,2.04297020862503,2.03862033310881,2.0403891327381,1.94868143244123,1.95119365466152,1.95220263843089,1.95107083507923,1.95127860705601,1.95079904183731,1.95030736662095,1.9496864804817,2.03464443360115,2.04484980664976,2.04533814120845,2.04390780122833,2.03253984473139,1.94717727435506,1.94740601945457,1.97606113286049,2.05420802447849,1.94689964180323,2.03482519127055,1.94556930906969,1.97059694068514,1.94507666870987,2.0309906580046,2.02232546808147,2.03200910974061,2.02581411317537,2.02649878841304,1.94107796703263,2.03413094476416,2.02822269835854,2.03059740083926,2.03244535387254,2.02255482141416,2.02507953438348,2.02434781044845,2.01822298762897,2.01651944537534,1.93539557171089,2.02760537652569,2.01488934469932,2.01375111068632,2.01249331552729,2.02034967551825,2.02035809787809,2.02039384933786,2.00888247635962,2.00857919597551,2.00869544199452,2.01468708974196,2.00907353147066,2.01128424583425,2.00943058744659,2.00891734483366,1.92407005609128,1.92254839018529,1.9921691783495,2.02002824416224,1.99070176139369,1.98993396975788,1.92038184812981,1.91641514723345,1.91556125682098,1.91422938477553,1.91304665426588,1.91200831842117,1.9123218454581,1.91280385927982,2.0044771446719,2.00391956386359,2.00352623542344,1.9048489478654,1.84026537610092,2.01767294265312,2.03530357536109,1.83262898769968,1.83347768162484,2.02480826540143,1.82722290501697,1.82756328397369,1.82377451852107,1.82486050376155,2.01332444542288,2.0082629158253,1.94128082667078,1.86441059453538,1.86432326356356,1.81223638736862,1.81377255413897,1.92817682247585,1.81093824855769,1.81031191821371,1.80958295780559,1.80417129793089,1.8028272249746,1.92405592739669,1.85240240772578,1.85185685911719,1.85073987779191,1.93485230240159,1.93857903525443
1.89847978071099,1.8988527457784,1.89928676105901,1.89883836269449,1.96182878458818,1.96129452845949,1.87040336752175,1.8542012819908,1.85375827066152,1.85280621048849,1.85450135800092,1.88212314657669,2.0262686532262,2.02458994963804,1.99209812286176,1.9886409422443,1.98825254012576,1.98743482359888,1.91393710776491,1.98183826498178,1.98041313899146,1.97737435550856,1.97719011827985,1.97784993322714,1.90321821275997,1.97198496011178,1.97078398162483,1.97059646380781,1.96991787427661,1.96842490863366,1.96645378213684,1.96597550449644,1.96697062725304,2.01027404306742,2.01014504019514,1.96010949464971,1.95972634294482,1.95833312770515,1.95650423831143,1.95634062548931,1.95306771880425,1.95020350644727,1.87806792575719,1.95113184953282,1.94841035659626,1.9487619486463,1.94692800009051,1.87352917096616,1.87717082279704,1.94526982937239,2.08436173169882,1.96606543551017,1.99836258703105,1.94640862981478,1.94734796947982,1.94780849478238,1.94774779131139,1.947752920347,1.94983823238661,1.95041888258029,1.95274282966137,1.95377703490669,1.95609267898185,1.95792989699946,1.96163254091379,1.96213215179633,1.98156854011766,1.9851657019473,2.08566536011206,2.05151062259871,2.05215718929629,2.04743489184726,2.04523347250082,2.0389954512583,2.03894526385318,2.04811303528328,1.94848400005035,1.95107079195934,2.02889019448766,1.9512302874573,1.95105404585158,1.95064120908959,1.95012545188303,1.94933560582048,1.94948475711252,2.0467573796233,2.04540069419715,2.01985596111265,1.94899525665064,2.03388220063703,1.94809270034854,1.98140100289941,2.04783654032165,2.02917282553219,2.04091506648286,2.03387482672887,2.03074658096127,2.03731572388182,2.03197967884024,1.94408260626885,1.94320013695239,2.02722984912622,2.02742592577287,2.03507184819675,2.03183366189885,1.94185989639553,2.03138107521504,2.02901587536732,2.02894156801551,2.0274118325905,2.01086249689048,2.01221205261034,2.01936092786563,1.93533568548386,1.93524881219602,2.02345349723454,2.01693939921789,2.01832223640028,2.01191622125872,2.01459181119438,2.01354185984008,2.0110240368672,2.02159294478932,2.0188815838548,1.92711791390508,1.92536547801643,2.01405211068773,2.00816422447398,2.00867461273034,1.92322994851563,2.006996127874,1.99182153342504,1.92083079395524,2.00621203964555,2.0068168396924,1.99128525513959,1.91599421496648,1.91487972065867,1.91518101967221,1.91357434927698,1.91218620588083,1.91209018759021,1.911963997589,1.91224624973866,1.99543620506414,1.91365714356755,1.89904210577803,1.88736709572704,1.88659604012557,1.83398641899595,1.83176166170259,1.83267911595278,1.83147597965078,1.94438017252964,1.94438017252964,1.82391869328501,1.82464117523909,1.82166554695936,1.82149436062272,1.81731954889335,2.01869650402558,1.89030240088259,2.02415170967701,1.81329178779533,1.81139247113502,1.81067232216888,1.81009812747893,1.80891489564367,1.92614145734484,1.80497559488699,1.80579202024584,1.84661280864641,1.85228776347455,1.85115837484925,1.85060737892509,1.80143865548053
1.89861343752476,1.89854879037539,1.95638164159313,1.85252234333597,1.85394090727997,1.85316446593494,1.88020086664359,1.95971269637144,1.85395742639863,1.95859268954743,1.85498838004832,1.85644230574638,1.85564811232559,1.91888337429015,2.02069351052807,2.01971202085976,1.98562700580441,1.91147569855841,1.98365607766462,1.98139157069468,1.98044966169772,1.97627613318683,1.90588439108489,1.97691796294674,1.97646026870077,1.97311603356865,1.97001931542048,1.97023540594986,1.96813192084538,2.10182804501464,1.96449878631914,1.97845673427954,2.10392323019404,1.8891617257242,1.9609716987309,1.96075977540447,1.96117975850612,1.88576302113308,2.09786940020564,1.8810706082285,1.95266707236844,1.94929357885702,2.0048026268815,1.95240419624591,1.94872279035025,1.94849457566994,1.9464339971531,1.94631250042065,1.9445378030703,1.87358869031997,1.87310422618769,1.89513346808012,1.8716470980856,1.99773499700035,1.87232306390252,1.94792995099504,1.94746857755899,1.9479699427607,1.94851357789186,1.99099069145072,1.99081712132823,1.97695492839154,1.99164258967591,1.95729792101791,1.96060842414489,1.96270140614702,1.98008223485636,1.98716518630792,2.06876800403624,2.06431645262731,1.95969637048709,2.04317282688974,2.03471211248463,2.03052802531507,2.05128345310159,1.95268407856604,1.95015359400288,1.95173525178793,2.02633599538756,1.95117114351896,1.9508178051414,1.95047965872262,1.95005947996325,1.94921236005042,2.04141911039218,2.04571390016663,2.04578625211187,2.04600836546265,2.03374127705276,2.03713884002083,2.03839622640405,2.03724489037038,2.03285590792477,2.03120146207728,2.04782504257789,2.01768142092966,2.02411717666885,2.01666789453195,2.03321729691578,2.01456917063694,2.02777027012167,2.02692063118304,2.01229683302168,1.94137995961993,2.02192634637245,2.02932132537955,2.0294432381206,2.02082621971991,2.03103319549219,2.00740819696954,2.00766553930759,2.00556593514133,2.00704067962983,2.02705092212991,2.03424923379478,2.02128481562024,2.01942926472209,2.01928578285704,2.03216399750511,2.00595960292588,2.02460970941993,2.01015712460515,2.00000412351233,2.01598809954562,1.92759144698784,2.02121814248852,2.0211550057829,2.02344477205855,2.01050134119534,2.01084211238259,2.00975904154858,2.00963780910017,2.0080440470547,2.00518416745128,2.00476360034478,1.91538256814828,1.91565968551621,1.91477552476218,1.91436964443906,1.91411659401591,1.91243956699652,1.91233166955053,1.91164389701538,1.91163541598253,1.98625719604332,1.98794309599201,1.89680919986769,1.88784636068564,1.88585568817208,1.88438161816613,1.94482432979709,1.86465358819446,1.83347552843793,1.82548975013868,1.82470801676524,1.82386556633691,1.84083629540125,1.87011723695248,1.86897074876354,1.86603744922248,1.94071116802753,1.87923879495494,1.81564685796146,1.90663791247326,1.81172429371824,1.81092186336779,1.81004716083129,1.80777683187575,1.80752451165895,1.80659356122721,1.85331174213227,1.84152713930223,1.8017046001452,1.85092409314191,2.01489234291644,1.80337309333162
1.89135336603745,1.87964528800047,1.8714022442563,1.85371433674804,1.85485697003742,1.85465257644135,1.88699523367575,1.90784646723007,1.89110512093932,1.90782343432348,1.8567274730514,1.85751314246211,1.85744985996737,1.93678147154395,1.94274455196773,1.98693084383623,1.98608019741185,1.93787142765419,1.9818349767251,1.98063940661661,1.97867754566028,1.97509741676653,1.97243786826613,1.97311691390885,1.97115594346308,1.97017400222145,1.96838331663038,1.96794045895719,1.96390527743204,1.96297384907164,1.96365886792944,1.99149860887407,2.00353758642406,1.98335437668486,1.96055223820048,1.96115866237006,1.9614430609124,1.9144138835863,1.92862307668484,1.91430309593244,1.95054404063279,1.94956587800651,1.95102554212294,1.95222999410587,1.95110357547568,1.94900073468614,1.94575906026917,1.94452934178564,1.94300260794644,1.91027644129299,1.89614323820623,1.90794756123267,1.91822501427622,1.94298894301055,1.94288989924015,1.9467209631927,1.94699428509512,1.94725193468535,1.94786695429767,1.95459099676371,1.9518788960786,1.94951185924845,1.95124437819414,1.95342380177016,1.95811926392856,1.96532076930241,1.98065123459015,1.98262119335359,2.05997692253496,2.05625076996588,2.0473512375161,2.04681961475439,2.04167518186071,2.03636249385678,2.0496980578943,1.97278728709959,1.97890275652208,1.98852743441623,1.99220132496098,1.95115266485826,1.9509252696392,1.95048627294933,1.95005059742574,1.94970519233126,2.03754616348456,2.04071520782987,2.04315210108672,2.04045732754027,2.03520131478662,2.03615076773693,2.03819795381352,2.03764892370831,2.03430666616276,2.03304732899732,2.03945486614907,2.03906221461456,2.03773403170443,2.03794467050713,2.03536838280545,2.02447660275879,2.02662577651312,2.02759954178067,2.01378442016639,2.01993108174579,2.02353819280568,2.02754124891844,2.0163355095434,2.01501642512588,2.01020945013801,2.00632386430662,2.0050057261077,2.00460381659766,2.00644053485089,2.00913464744015,2.01453507300934,2.01946414707527,2.02129561745339,2.0211178384191,2.02344920585254,2.00458943050905,2.0047524332266,2.00462872485893,2.00571115207478,2.00471912854055,2.00839580823568,2.00910762310603,2.00885545313897,2.00830217581074,2.00974441554709,2.01009077122585,2.00948441438345,2.00715669001401,2.00495414183507,2.00281722068782,2.001725299722,1.91603060629372,1.91593777533287,1.91518569809185,1.91438934697552,1.91356739287477,1.91265988808018,1.91269157767119,1.91267876450086,1.91244634580465,1.9353642569902,1.91533196381857,1.89551278156244,1.88896666345965,1.88552642106407,1.88474865014255,1.90221854397148,1.88247097629057,1.8633349358306,1.83481153659568,1.8383874521099,1.84506347023515,1.85355911405764,1.85956931739429,1.86381529773866,1.86388636291533,1.86209491103246,1.86116250705501,1.8613310648665,1.87530880789843,1.81178007856925,1.81113848358311,1.81046348344498,1.80886254422949,1.80764504743212,1.80662560102537,1.82161810418249,1.83341264303383,1.8259865617501,1.8194997303505,1.81431744716705,1.80347960340843
1.85148613325377,1.85205442297047,1.85188362793586,1.85198043218282,1.89946403160408,1.85432110929035,1.89338281612433,1.95755957980459,1.8555904977735,1.94991263717272,1.85659582790067,1.85772948177354,1.85785962349737,2.09477007097713,1.91807048674711,1.98833076851047,1.98568506688547,1.91267348614692,1.98135932996761,1.98147758455644,1.98110256710521,1.9778585476817,1.97719338468336,1.97645541048853,1.90145277008575,1.97206621701026,1.96993010630037,1.97053041437316,1.89729138847385,1.96680391541599,1.96682955651885,1.99237915536086,2.01095294204854,2.08553001467904,1.96112304571707,1.96079500640941,1.96061516943175,1.8847781769995,1.95718444970224,1.88166922820504,1.95260425999004,1.95065350569247,1.95162043094038,1.87819272619929,1.87741716126126,1.8749152732597,1.94491034516126,1.945500395114,2.07681139880788,2.09120719944845,1.87283470204481,1.91839763722061,1.94650889191351,1.94577715960428,1.94537852162495,1.99446185697915,1.96372616778615,1.8738968621301,1.94823363031245,1.9487120168393,1.95375920709006,1.95181625734813,1.95444160789285,1.88150516666709,1.96038932429252,1.96792294738446,1.97664193375842,1.96834034435392,2.07462929292468,2.04992964815926,2.03926586666938,2.04613669950107,2.04204813698101,2.03093104362227,2.05095388611972,1.95532493828156,1.98563641169421,2.03006340426721,2.02829257357314,1.95087914981021,1.95112034407706,1.95029745101464,1.9498045710812,1.94946344176265,2.02571253314653,2.02425785158129,2.04351143100687,2.04130132693372,2.03291341069747,2.05861088693604,2.04108518599875,2.03655592646153,2.02296915347381,2.01797847737412,2.0403125964159,2.03912330707574,2.03840149088125,2.04059436456343,2.0407424737853,2.02391251526133,2.03693698757064,2.02838082359022,2.01082783439321,2.0232098955408,2.02195174094487,2.02846092822699,2.00613041704221,1.93967272653477,1.93900682615999,2.02477985230447,2.0076181869164,2.00719743458062,2.01219646773865,2.01155656164422,2.01827685350173,2.02135495861892,2.02340397823557,1.93411854804919,2.02425105895471,2.00489485625648,2.00485475026029,2.00549028541174,2.00929146418729,2.00091648286673,2.01183554074161,1.92547578670032,1.99938336553864,2.0015399557513,2.01573723247241,2.01694895139841,1.92200857609307,2.00364145679806,2.00209366236405,2.00419102830173,2.00316927027462,1.91568178507052,1.91565662996151,1.91493262580522,1.91388230716801,1.91281415830736,1.91138668241904,1.91237311636611,1.91320824362217,1.91231493340661,1.98288745335275,1.89091650090755,1.89181424750684,1.89043808286969,1.83785585434114,1.88417650709564,1.93076645104458,1.90809419202874,2.0449394225399,1.82645356885523,1.87437166931057,1.87395372083132,1.85908809470059,1.823221423487,1.82188511886281,1.93429047251265,1.81751997281533,1.86125882028166,1.86257907481895,1.90605860281069,1.81212916734101,1.8104608992231,1.81050669305652,1.80860263025732,1.80682946422768,1.80491946744159,1.80653907990243,1.84050312992144,1.85255783943289,1.8025274718982,1.80183856455389,1.80195441262212
1.85146167200161,1.85187817554248,1.85123432715985,1.85249345175835,1.95533517777254,1.95671360467132,1.89607360475305,1.85441260493614,1.95678716130527,1.85520110083757,1.85610960952581,1.89409854474338,1.99268216456048,1.99194198677146,1.99122229359677,2.09445144834616,2.00973874023727,2.01858271520694,2.01773856839964,1.98426554288996,1.98255176961362,1.97993111020204,1.97858236502228,1.90458119293987,2.01566476141576,1.97372922189384,1.97134779278037,1.97149104813501,1.970431301001,1.96823861558332,2.08763485508968,1.99496509460801,2.0985356111613,1.96497609756406,1.9622885663017,1.95909286913035,1.95855626005178,1.95622672389063,1.95715770590299,1.95740106254438,1.95361716778543,1.95148841461873,1.95324905340821,2.07800052688556,2.07835455203108,1.94752653048712,1.94624355579052,1.94709798896935,1.9467425873667,1.94750713118695,1.94711350195631,1.94646592070893,1.94548810337463,1.94551259580619,1.94583314993199,1.99446185697915,1.97042680124567,2.08425552415517,1.87697688682051,1.99272389872534,1.87880546391796,1.90968118506313,1.88034647223341,1.95842848266843,2.08152309371383,1.98672485209452,1.97926178138179,1.9852123823934,1.97914233026563,1.96022420743279,2.0485641406418,2.05125656367691,1.95747558604132,2.03213117550107,2.03139954727414,2.02907915637282,2.02698874636419,2.02888861607658,2.02896309756836,2.0278051933782,1.9500662130425,1.94978887398781,1.94920726678085,2.0251365017162,2.04829887179397,2.03705453781213,2.0413835258649,2.04159171793037,2.03418790335099,2.02064816280459,2.05069288016283,2.03519567541888,2.03096334127915,2.03530895844055,2.01842173009313,2.03745793893488,2.03703830407607,2.03550474098043,2.04054614267163,2.02137331623111,2.01638269623037,2.02588244807484,2.02922995703441,2.03069024417491,1.94105865657015,2.03141960749668,2.00836828541783,1.94063243558983,2.03696409562776,2.02529223447471,2.00987660105841,2.00803843808125,2.00839550300445,2.0174278916487,2.01624294043562,2.01604254135514,2.01939014150633,2.01194805022088,2.01112917460125,2.02134980436901,2.00613552983704,2.0039011432418,2.00339883698656,2.00263520791511,2.01794556602071,1.9990889225517,2.00107930790305,1.92490529649465,2.02079667074757,1.99559833118706,1.99416697792194,1.99924512075961,1.91873561127363,2.00471293868344,1.98898913516657,1.98530407322777,1.91505370806724,1.91435472343468,1.91272247486529,1.9118046574121,1.91238181385404,1.91176887779236,1.9111245670113,1.99043083440833,1.98145846829675,1.89092475502401,1.89098090749863,1.83647001593624,1.83634574480545,1.92558944933022,1.8817808461172,1.8973182803219,1.94290290551935,1.8240059594705,1.92108211664931,1.87259049419541,1.87018347039537,1.87034698071082,1.82132506344892,1.81712703858225,1.93925334460856,1.88112352370505,1.86387122260276,1.811915153387,2.01399440641099,1.81063954374896,1.81115454179672,1.94043585600264,1.93682059772823,1.93877383360517,1.93937988997886,1.92512253852722,2.0209365176736,1.80172384235988,1.80159737870594,1.80181424028152
1.85101510067754,1.87279717537809,2.04059456848124,1.85197666553875,1.85200689333428,1.93398148582473,1.90421518250251,1.90248964989421,1.85339029051612,1.91295401126339,1.94934203635092,1.93511052355662,2.02396313203184,1.99118111610214,1.91910266072705,1.98854144121724,1.98699170483368,1.9878571819414,1.98711473213568,1.98397210580431,1.98283844360334,1.98102991244279,1.97913710303198,1.97827053541351,1.90182945203606,1.97381998560555,1.97187093231274,2.08799209864562,2.0164178366187,1.97010470081106,1.96473748727481,1.96568648635575,1.96507875182534,2.08763485508968,1.96099230438008,2.00770885087279,1.95743189378219,1.88244660288506,2.00708126184778,1.88117854887248,1.88068289207973,1.95022556933974,1.95062217229839,1.949539701382,2.0002356686312,1.94801027653977,1.94698126015216,1.87274789412599,1.94684910929641,1.94722866480097,1.94620076002351,1.94654898706809,1.94639580870545,1.8721120813153,1.87309631446414,1.87355667708499,1.89887185472827,1.87590246507862,1.9927737674564,2.07822100462925,1.87986970618425,1.91995904623773,1.95536028737606,1.98925009643753,1.98831713760801,1.96314057746723,1.97637448053195,1.98660725533993,1.98621856987532,2.04646135688254,2.05388762100044,2.05596150661039,2.05620349041795,2.03204009467551,2.04832752401114,2.02820718040113,2.0268627451751,2.02846869322982,2.02811619755457,2.02834955027503,1.95110641895946,1.96983938312489,2.02416136490826,1.95058836980548,2.02452121066665,1.94941183075643,1.98077334371801,2.03807286888572,2.02527385682754,1.94807247061817,2.03562157153086,2.03729046207998,2.02235083873069,1.9475662824269,2.03201465910758,2.03781371642911,2.03587056362435,2.01853721625094,2.01833783327842,1.94484350721681,2.01395958190944,2.02317797577571,2.03797834737645,2.02895635835859,2.02112231390666,1.94016055365851,2.01065729670718,2.03579424208719,1.93721587453605,2.03046889269696,2.01024621974054,2.00882321454374,2.01005267869435,2.02095330469167,1.93455767393487,1.93419122487626,2.02357031083076,2.01710789030413,2.00561243023236,2.01110153669155,2.00308411191244,2.00256911669491,2.01769484937954,2.03195702354558,2.0215221768981,2.01198540281519,2.00300785288236,2.01784365985328,2.02110470713499,1.99648482886819,1.99513267117455,1.99680049827086,1.9937555815132,1.91721023540372,1.98952998594378,1.99897539875629,1.91443182647437,1.91376018221504,1.91265025400786,1.91127530621629,1.98404387909994,1.91100450309728,1.91074474647982,1.90966008127165,1.98162066633351,1.90884907701805,1.88966363725476,1.83793117279687,1.8361868002143,1.92515825144143,1.88195416212964,1.86243690131575,1.82997964373916,1.94062430420705,1.82517284333506,1.8731259246188,1.87066047291176,1.87012757080488,1.94229184539924,1.94076953787195,1.91680446842356,1.89124096008214,1.91570423292363,1.81165217350196,1.81099587498307,1.81068966197122,1.81082931861667,1.80861623623967,1.80839569882989,1.80708188747731,1.80540713021306,1.92297839509585,1.92364071919261,1.80326116599609,1.80231775651387,1.80171638558147
1.97023689842464,1.88442123801813,1.85099090103063,1.85116113655625,1.93757330651075,1.9023181216719,1.90401703708564,1.90286242397395,1.85342725298755,1.90416266622478,1.90435305285,1.92407840610953,2.02352932739197,1.9913005535566,2.09505972791437,1.9878504978184,1.98581409578991,1.98702118989401,1.91211227241025,1.98393862308039,1.98364921711893,1.98111517446381,1.97926384187173,1.97928973936526,1.97610835733808,1.90140461809167,1.9722663930103,1.97315775739274,1.97360073410521,2.08632613072162,2.09581807084098,1.96570382378947,1.96483759276602,2.01092400980108,1.88796294739844,1.95953396126718,1.95803442496077,1.8835086550888,1.96086783143004,2.10151907761492,1.95211977707644,1.95050317365821,1.87826103145807,2.08525001297304,1.95453742642937,1.9472145398132,1.94722103082772,1.94619637458577,1.99925086830526,1.94754500995568,1.99752258233801,1.94687985333548,1.94702541870532,1.94590387908424,1.94586698309771,1.94669047887568,1.91112259872932,1.87509394054883,1.99359124370151,1.9513374688858,1.95192115866826,1.95216478617446,1.95417413805595,1.95778136281081,1.98874794118082,1.96402293115619,1.96933743721659,1.96821137170524,2.07153001761802,2.04991763072389,2.04918920906219,2.05409974032787,2.04977748528997,2.04536412706988,2.02771116539233,2.02850980432408,2.02776315061163,2.02842811155377,2.0291132524574,2.02944257573953,2.02876187912751,1.97731613382736,1.95150662674888,2.02601061164483,2.02557734328058,2.02180695520698,1.97202731834052,1.94885532082873,1.94933899169096,1.94846681010598,2.04081575495947,2.03919957804795,1.94630127769648,2.01825226150492,2.05478673160025,2.01790461368076,2.03418409423465,2.03520902168022,2.03690867749796,2.0287064260654,2.02311043754183,2.02170995991389,1.94157985694784,2.02506305210945,2.03646976784223,2.0208262895522,2.02142708289496,2.02323984018868,2.03349838015198,2.02123994201383,2.01028935009596,2.00899795779747,2.00992857950226,2.03120123656025,1.93427572280799,1.93430073019981,2.02643544038957,2.03989380788695,2.00556383979774,2.00372614628544,2.01019882258643,2.00436454318949,2.0154380532414,2.02468666851934,2.00835868484501,1.92456738440321,1.95338810277478,1.9244129004489,2.01525559343302,1.92125577729389,2.01562621737694,2.00366349235765,1.99217536596391,2.01750907470692,2.00165358239181,1.91409245302221,1.91378335518963,1.91302625907734,1.91212772747537,1.91191604216234,1.91199689599482,1.91063027870657,1.90973597004348,1.90967833809948,2.00740824007382,1.89070632409317,1.88873431939727,1.88833808045292,1.88647863813919,1.83413445546319,1.83365604288718,1.8332853299365,1.83159090919197,1.82718005187081,1.82463131612903,1.82412326655117,1.8245315928654,1.82266429012141,1.94063861229508,1.93966610931954,1.91552081688119,1.87987947150352,1.81464264128185,1.86166389970702,1.81121794318443,1.81053896295418,1.81149255649954,1.85886377457996,1.80727782800091,1.85764721365716,1.93818157431848,1.91862011953906,1.80458255211519,1.8037342737806,1.80210588830838,1.93410702311906
1.84955443863211,1.89555983776893,1.97266235555151,1.96470247747762,1.85159008511682,1.85207927745697,1.90623487464506,2.01917926558766,1.85428388928458,1.85435460733993,1.9042483498439,1.91768805394825,1.94039252026268,2.09688456661901,2.01863850709467,1.91681428432079,1.98304712861289,2.09724181017495,2.01583852430436,1.98290904900756,1.98007202565023,1.98064196021873,1.9797840173434,2.01494064244581,1.97603389684267,1.97357667682753,1.97307919350002,1.97322258143481,1.97356439349034,1.9693545532127,1.96903979858095,1.96579935658505,1.96489462666297,1.96436707637743,1.88776340595279,1.95996790594368,1.95822797741907,1.95812438122109,1.95637203156424,1.95536555777302,1.95212525829802,1.95116545112107,2.00396439128186,2.00439523664413,2.09501145175817,1.94917446082987,1.94815908496732,1.94770241595855,1.94816738594539,1.94684816507578,1.94736356961459,1.9467961371568,1.94589422811318,1.94677268212249,1.94665772172673,1.94793898861999,1.92329923811796,1.87425696006625,2.0912941877302,1.95244595430883,1.87916541124124,1.95241078645592,1.95692411002895,1.95766862748023,1.95836890634577,1.89000887847411,1.96944214865378,1.98736851420894,1.98575584654415,2.040635378514,2.04779324504922,2.03416379017281,1.95721221605413,2.04512888652605,1.95444080707083,2.02881241502136,2.02943882547328,2.02978835605375,2.02978456640147,2.02847189364794,2.02501367933623,1.98753615119083,2.0243157108205,2.02456867357885,2.02229003778076,1.94807106328479,1.96202999175465,1.9483038615458,2.04267999087045,2.05902652181734,1.9481261168196,2.03751926189216,2.043716011338,2.04204307975387,2.04035616533317,2.03431071613365,2.03219005786696,2.03320996966227,2.01848300685548,2.01858962735141,2.03162142742296,2.02959877888892,2.03757897615718,2.03174058729548,1.93976485558379,2.02161039914497,2.02130388371248,2.02205710698568,2.03296687529288,2.02105254848422,2.02165326683996,1.9686463660576,1.93713212923435,2.0151466972477,2.01300365691781,2.00946015454949,2.02321907493925,2.03490985046819,2.03144482602842,2.01896561064258,1.9297329255848,1.95759103779083,1.92671083322869,2.01741408860862,2.00942918687406,2.01522767047598,2.01547013030374,2.01787051333146,2.01653891446644,2.01205892736501,1.92090810106073,2.00223008697163,2.02425803548915,1.91698816508516,1.99042048762974,1.91412081547992,1.91360493260362,1.91263392966466,1.9119648364238,1.91111273821913,1.91004035063001,1.90962598553788,1.90959078895995,1.99869159825553,1.98900748161487,1.89077695097527,1.87416035458147,1.83951815850527,1.88671368991452,1.83313662467518,1.83217103515116,1.83330584069467,1.82951812906159,1.82836285152508,1.82478078579646,1.82434700117979,1.82534727648895,1.94299949109245,1.82036828268211,1.81843723643382,1.86499864157228,1.86547510875151,1.86173685329364,1.81419311585759,1.81156574765344,1.81108994996781,1.81130893100545,1.92085039062452,1.8052687320821,1.80472852563039,1.90600002620359,1.91253713629595,1.89435754858648,1.80346473397902,1.80386974505225,1.8027775091099
1.85024317622473,1.90619087957449,1.95152857306385,1.84964126584607,1.95334108799875,1.9632527788687,1.90777777337945,1.91143506619413,1.85678546856009,1.90435419227285,1.90445018837893,1.91728875886647,1.90526218313189,1.99290854895476,1.99185263289507,1.98999747066944,1.98549588662491,1.91495131026351,1.9136856523119,1.98414554947205,1.91096317111446,1.94015661425186,1.90546683676647,1.90453667621083,1.97531835035005,1.97606075803098,1.97344078095903,1.97236830735776,1.97180087026421,2.10732187159104,1.96746535587,1.96565729863942,1.96577987146549,1.96407258751358,1.96331963298759,1.88739488137075,1.95767154988176,1.95755736569777,1.95730389246536,1.95478582210404,1.95376572591649,1.95248500810191,1.95339345210267,1.95148775358329,1.94947608558771,2.08507621881069,1.96743593155902,2.09145832666131,1.9477180202891,1.87357824542351,1.94822151681682,1.94694048867451,1.94660527939063,1.87409531235671,1.87358140198425,1.94810550037048,1.94703545905533,1.99319706249861,1.95041467616646,1.9516927891735,1.88027256281666,1.95230929771819,1.95625498404936,1.95757581423983,1.88718954743319,1.88852975267332,1.96954286825849,1.98657269366576,1.98360511655904,2.04100704815126,1.95797578363732,2.03457146827723,2.05778792757871,2.04387886771388,2.05413721757831,1.95224889195329,2.0322887921613,2.029760519131,1.95129786559328,1.9504167620218,1.95004416672717,1.9506545680967,1.95062641902384,1.95043396284141,2.04332142223373,2.03842818022967,2.03724983389967,2.03563687688791,1.94864766832595,2.03433693211754,2.03167589940861,2.03277996379357,2.02980888354836,1.94606169218879,1.94579778253485,2.02945366205401,2.02844256960955,2.04393998439133,1.94439683158037,2.03130250915462,2.02524251919475,2.02790430632881,2.02956594457479,1.94150279720726,2.0281875339409,1.93833579071993,1.94803173149336,1.93752532922928,2.02193474841928,2.03306031944323,1.93691811999967,1.9580859736329,1.93618437303187,1.93538604349276,2.02029715625184,2.03856707681042,2.02328012786584,2.02221026545896,1.93332483297608,1.9320503424522,2.01955521256604,2.01525300454889,2.01725176316335,2.01463785269676,1.92770117573377,1.92668356993394,2.01220477040306,2.00817713075521,1.92207970699018,1.921899476007,2.00967029214408,2.00316219303005,2.00334581761727,1.9975692738519,1.99090681256546,1.91421393698227,1.91353779682543,1.91274269851159,1.91270750663453,1.91180163020661,1.90904151411875,1.90903541798485,1.90823113792447,1.909011747078,2.00970716685331,1.98129210493543,1.86390903913048,1.84152172928939,1.83597155003069,1.83680176224376,2.03672282075341,1.85170184136238,1.83006641980339,1.82790588570745,1.82447188625331,1.8238869761746,1.82513704925091,1.82432697697864,1.927666548319,1.92699309593991,1.86583355760951,1.86575196014682,1.93787256330323,1.81414689720249,2.0231475656279,1.80892705910597,1.80975758698138,1.80800158820052,1.89560196092807,1.80558096817904,2.02007720209311,1.91223327095156,2.01715166702695,1.80398880450321,1.80417894592695,1.85183597414744
1.96193981974746,1.92481598647697,1.95163731952397,1.85013503155647,1.84998887823732,1.9613372518203,1.90073259814789,1.85427047880123,1.85525511795682,1.90485629651932,1.85667683174172,1.92343158986095,1.99617159650408,1.99359410754015,1.99192177880266,1.99049887114016,1.98695899049422,1.98859545245599,1.98837142973055,1.91228447489571,1.98145687249793,1.97966655227662,1.98063465357526,1.90442137536065,1.90405441670753,1.97417057394951,1.97281174910881,1.97177292128542,2.01206340794307,1.97085568452772,1.9655257314802,1.96395892478133,1.96507335924263,1.9640198987079,1.96222415132898,1.96161326087842,1.95978768881348,1.96006837528086,2.00483310620698,2.00460797785484,1.95639441913105,1.95212858583958,1.95206333111701,1.95066323739243,1.95043672034595,1.94918407049432,1.94986404417139,1.94948472290571,2.08479780967955,1.99846876131401,1.94719954780334,1.94619715542777,1.94510847582978,1.87428430281863,1.94734459662437,1.9474155039197,1.94655675589676,1.94495074821055,1.95103947850478,1.95139677022005,1.99060948996744,1.95057063151971,1.95173462774964,1.95818267541875,1.96367431752708,1.96528151841813,1.97004291504536,1.97019717632586,1.98284511143402,1.95849591671379,2.05052980142871,2.03495773119227,2.03733805101356,2.03718517297085,2.04775347117026,2.04195629070467,2.03438170960312,2.03075353186078,1.95150447501421,1.95107310373077,1.95078007455431,1.95082273636209,1.95118021832933,1.95066127487084,2.04033819967844,2.04043967672148,2.0375733691944,2.03629732879145,2.03587838489171,1.94912077465678,2.03112037028483,2.03051546936132,2.03176517452722,2.0321492521056,2.03113226445926,2.04103021864799,1.97496244880845,1.94526995866229,1.94427335903895,1.94360896471106,2.02712836482337,2.02732310168615,1.94249710615765,2.03757031451384,2.02661603299183,1.938518245647,1.95862126164787,2.01882427506822,2.0144945945969,2.02196635074708,2.02299101262248,2.01953094830344,2.02535970831075,2.02747098726322,1.93391252446426,1.93226388029508,2.02560082210835,2.0285836716602,2.01445270112132,2.01492606231302,2.01411892846044,2.01416127030496,2.01497009219135,2.01436739387678,1.92739187661223,2.01563157309313,2.01143795883426,2.0140469135874,2.0080855392847,2.00850107070593,2.02174434697542,2.00343130886982,2.00722005995468,1.91862941222851,1.91524882294558,1.99334185015513,1.9135347119028,1.91323833055265,1.91314095081805,1.9108743230638,1.91027917129815,1.90940932888134,1.90942832093175,1.99749361621931,1.91092471312621,1.84400028158395,1.844166656152,1.84238959048531,1.83730988555619,1.83658206328631,1.93755390779204,1.86141198974811,1.82810812703271,1.82754890074839,1.91754827042624,2.02129376122954,1.82513585375216,1.82289933920838,1.92702528004405,1.92648217328672,1.81546128792179,1.81553689551616,1.81483096430476,1.81416072723897,1.81238816214496,1.81070879007245,1.80984827439529,1.80758692432814,1.80679749005433,1.80577504608175,1.80618404709202,1.80589270913556,1.80502558085936,1.91442320839777,1.91362504261514,1.85109300766132
1.96250625998029,1.91046026945311,1.89743142488924,1.85050049836176,1.90080618699296,1.85022217883149,1.8894292106838,1.95577805904108,1.95664209550138,1.95506727715066,1.8571981063474,1.92976884786244,1.99109248962128,1.99230828825981,2.09861285301123,1.9899688551786,1.98647152471471,2.01838251244937,2.01774563877636,1.9112352731008,2.01268132165321,1.97693228747471,1.90400180678887,1.97834313925877,1.97761488848697,1.97310614516396,1.97218973990127,2.01225647953778,1.89698252595284,1.96486921375367,1.96479362190249,1.96129125783997,1.89129558709151,1.96362843004896,1.96194300026061,2.00910882810076,1.95623865506502,1.95791742416278,1.95746542020929,1.88459486427003,1.95575836743634,1.95165515810779,1.87996035334192,1.95406468871384,2.00394331187149,1.87455338096306,1.91235903539829,1.87409958840837,2.08584701147446,1.94770748920955,1.94710477765725,1.94577637209821,1.94520116335157,1.94490779557815,1.94608711645959,2.0740772845911,1.97078952869103,2.08694933367154,1.99713633940269,1.95239170494645,1.9529179937948,1.949636656867,1.95345377359392,1.96170935778618,2.06129526690767,1.98765683137489,1.97998915545812,1.96850439814971,2.07653136597699,2.05119595230868,1.95788071930137,1.97801371226195,1.95740001596372,2.04010943591278,1.95477874016428,2.02621785540734,1.97715893822065,1.95252036607422,1.95219634852356,2.02363032718997,1.95029584555333,1.95028704337736,1.94958341311951,1.9500710218893,2.03866751684651,2.05147159754492,2.0377763598372,2.03426234191337,1.9481938724576,2.02133546569039,2.02898858010876,2.0291241671742,2.04076052586243,2.04404582655614,2.03709997791363,1.94541726945169,1.97065489902193,2.04511151654273,2.03163288710564,2.02603441883629,2.02544937722489,2.02625442729338,2.02337786614245,2.01421896370505,1.93979784431365,1.94024416017045,1.96919833562883,2.01859219941294,2.02283343720949,2.02447906169547,2.0177234189815,2.01760886625929,2.0164761804202,1.93451240978843,2.02760411480032,2.02605837661405,2.02407931771733,2.01469547467424,1.93373033605787,2.01675724365,2.02133640344792,2.015074460392,2.01698951840664,1.9274019098154,1.92723270969182,2.02016515732227,2.00765573391716,2.00725765722662,2.00714908800859,1.92094437061711,2.00857479220071,2.0046795223634,2.02865113142529,1.91746068035961,1.91563869949434,1.99148804575677,1.91289783520485,1.91181919542567,1.91088555869744,1.9115711561443,1.91031405320867,1.90955541839947,1.90908300427539,1.90822323753278,1.99839593376527,1.99073401808781,1.84406602975541,1.84281492135442,1.83707508146491,1.83633146432995,1.83378722783691,1.86856050069435,1.93219589060252,1.82649265066737,1.82498666554604,1.82483058706176,1.82563907875366,1.82136820823621,1.81977611264287,1.81696494998148,1.81611238319627,1.81594037549957,1.81533932747867,1.90568198161573,1.81302248758978,1.81017749866508,1.81046839979081,2.03114209709584,1.80792028402666,1.80668353802324,1.8066901935628,1.80619198225081,1.80505117053798,1.80431157415672,1.80455623770926,1.8051947945071
1.8499496582577,1.87686145923829,1.89741246165284,1.85198372143918,1.85211182574376,1.901491811478,1.8785410559673,1.85413048640605,1.85518776101131,1.95758282746374,1.95625202789259,1.9704413179761,1.99507322456663,2.09513696976431,1.98906034708307,1.98880568100609,1.9860820157859,1.98741215143801,1.98656243968595,1.98102777625491,1.98239543358615,1.97941808986661,1.98051094322225,2.01520131031602,1.97694732063943,1.97389597852987,1.97180118971008,1.97344445420751,1.97279132649675,1.96481597195739,2.09167074174862,1.95859608073097,1.96195644235901,1.96205816627618,1.96153448891311,2.09505972791437,1.95472709868592,1.95606434572763,1.95588466571083,2.08875486191369,1.95284793158066,1.949809250555,1.95061201803598,1.95087788292016,1.94964825246913,2.00006190772954,1.97882698258276,2.08458380201738,1.99828524539904,2.0827493080815,1.94484871963118,1.94485728241678,1.94495584092466,1.94480955257675,1.94545498965381,2.07580878939374,1.96670158221411,1.94746122628753,1.94819892792209,1.94994845561072,1.9912080994649,1.94422917963711,1.88158238773235,1.98757007964302,2.07719763421225,1.98748795900326,1.98733806113765,1.97445930018839,1.98848220259352,1.95851172472713,2.03142636180893,2.03377926975402,2.0306742981106,2.02896363360582,2.02982612167466,1.95310539049957,1.95070352774937,1.95149144258857,1.95189420291976,1.95126273471403,1.95018338115836,1.950151079876,1.94974915650555,1.94922194555941,2.04013071826213,1.94770963699537,2.04338305351283,2.04363884580249,2.02212065354797,2.0312956093176,2.04111358046819,2.02994436271084,2.01850147866571,2.04372756505465,2.03766956822992,1.94565229705555,1.96664780364276,1.94560164505005,2.03276844622393,2.03500416133783,2.03512654257448,2.0369202868172,2.04832845689235,2.01600641649069,1.94035871912482,2.02214837453275,2.02652574526001,2.02455576298027,1.93833959757135,2.00948625047682,2.01716779755283,2.0179259036821,2.01734736327915,2.01974771549327,2.01346586136334,2.02971352439597,2.02243072170867,2.01591986975149,2.01398055504567,2.0118691025959,2.02232388868299,2.0134155755236,2.01110990379793,2.01152869275595,1.92649348252618,2.00968386956478,2.00779285267407,2.00978537066117,1.92293785257544,1.91977862918606,2.01058159466434,2.0057162133113,1.91792440606059,1.99081487164087,1.99407031903323,1.9129127334183,1.91286887711462,1.91152973820148,1.91097397370137,1.90961536098593,1.90954261954269,1.90929893709046,1.90936716121537,1.9082998958236,1.99445836231008,1.84298842640173,1.84376824649593,1.84242643406906,1.83832448673393,1.83707833267028,1.88087597983309,1.87265169230851,1.93348198103282,1.93157087582301,1.82602864875802,1.92683479800486,1.85947753424596,1.82369588824022,1.94046658546643,1.93960405147552,1.9067344092888,1.81608756255371,1.8146813334075,1.93420358289922,1.81274679671415,1.81023744086844,1.81073754216881,1.81043654638143,1.80971907915752,1.80743393693689,1.80700836330823,1.80682101702026,1.80565743584842,1.80516065142844,2.02765655861767,1.8061719622892
1.85086742034578,1.85217748193873,1.8523417293973,1.85222966506611,1.85236691125056,1.85298029625642,1.85377840980824,1.85401736852624,1.85441907371459,1.95355129966182,1.96818412308835,1.97660597365229,1.99131238725963,1.98918778171658,1.9881161660509,1.98694711992545,1.98539055963481,1.98620026429971,1.98625354907019,1.98890317104694,1.99202787549561,1.99349027494747,1.99307815022981,1.99248148358929,1.97332568088707,1.97208959060628,1.97009763128445,1.97018221507544,1.96863459312834,1.9582840744181,1.95739069725497,1.95743314830673,1.95971242857074,1.96035061734836,1.96119113305326,1.99114696832621,1.95375510013732,1.95404274507477,1.95185752963859,1.94711107700818,1.94913801941766,1.94721438718573,1.94767826985722,1.94801138753546,1.95916864710335,1.96463763980386,1.96945192104345,1.97340255023754,1.97466251398497,1.97927023747498,1.94463743195451,1.9443006277873,1.94437503183422,1.9444480927302,1.9432110315297,1.93759176979386,1.9395608150204,1.94436397637735,1.94659998549372,1.94805965768174,1.94677990205132,1.94488592101703,1.94642454505445,1.98620951691383,1.98574922598382,1.98652245407773,1.98901014371206,1.99094555053688,1.99024219906917,2.00310329978238,2.00801400540945,2.03338286569964,2.03049125233113,2.02897697344001,2.0288284711656,1.95085105612182,1.94916814612415,1.94926030841326,1.95095948723429,1.95087963060551,1.95040774413863,1.95017236543277,1.95001724391806,1.95013323403711,2.03986833064174,2.03949660842898,2.04009245049006,2.03920967290926,2.03526573433595,2.03168790716891,2.03044881891219,2.03042359897486,2.03421294219948,2.03912381140833,2.03986068425211,2.01922897581334,2.01954754391903,2.01985446760484,2.03386070411247,2.03366910492239,2.03504795861168,2.03883345903556,2.03964732071195,2.02471615886186,2.02635453167667,2.02779052041224,2.03033666846704,2.02919735567746,1.96534789410119,2.0153423188564,2.01754959557189,2.02019679235381,2.01824260298116,2.0170160334754,2.01430192242059,2.02636853448509,2.02325162243629,2.02102354885529,2.01337903784808,2.01126713729316,2.00972305533913,2.00716193039789,2.00736746034289,2.00862435670498,1.94216274560204,1.95466808617874,1.98690052400375,2.00465446532901,2.00283054465825,2.00098397845422,2.00472443019322,2.0043645607592,2.00001664826691,1.99847611293058,1.93620120399062,1.91336080015041,1.91305126481281,1.91204951873201,1.91084819047518,1.90991443924064,1.9091655226544,1.9089091539704,1.90859789578192,1.90828616356973,1.90813949565348,1.84409115062781,1.84431535101392,1.8439564743025,1.8548338180702,1.86274999062825,1.86648734230166,1.86693856176788,1.9322171565857,1.93145638016038,1.92718002503409,1.92616755794304,1.88944222914302,1.88263770915588,1.87588520720764,1.85828190868648,1.84575902488677,1.81638287456845,1.81490274711835,1.81385346315107,1.8124455419029,1.81141710491223,1.81105884514647,1.81059335588404,1.8092162583909,1.8083651479012,1.8077258995276,1.8079471142633,1.80767481177123,1.80711228699995,1.80727784068734,1.80761211062061
1.84963120309846,1.85143557570881,1.85115011264975,1.85149488821095,1.85151997782753,1.85191775962489,1.85323600163416,1.85322689227739,1.85376079267733,1.95266729387,2.02759862723022,1.98653742696546,1.99421352860538,1.99347851753384,1.99109102220859,1.9895185974853,1.98732170161565,1.98937718659229,2.01482594781757,2.01376788411732,2.01400737775215,2.00551710257018,2.01196680785028,1.90386656701603,1.97556823372799,1.97434708384084,1.97122426909893,1.97281674578358,2.01085645625751,1.89426931669161,1.962847470974,1.96074782058268,1.96305525491881,2.09679766953784,1.96187750704335,2.00664677553026,1.95533826015675,1.95740987479966,2.00554610236718,1.88248034018648,1.95208648952291,1.9476583301771,2.00153915810949,1.87780723137079,2.001239845941,1.94942033974695,1.9480802055827,1.94936009274152,1.95041188931308,1.9987493137839,1.94506690030661,1.94471952018875,1.9454655844154,1.946270563104,1.94670845783571,1.87419617342271,1.94226837333282,1.94599533992738,2.07964997885299,1.94980499000419,1.949748608728,1.94702739342894,1.95457156009086,1.9886225340483,1.98797224792222,2.062936773574,2.01155593369777,2.0786748004976,1.98805561694886,2.03056270766555,1.95829645514571,2.03281903789756,2.04240101409437,2.02658827641829,2.0274543023283,1.9520027188582,1.97895030131137,2.03076554307742,1.95129178737615,1.95031880398846,1.95031400077336,1.9498283572625,1.9496104543739,1.95051762903773,2.03570538653865,2.03558556434403,2.03676928732558,2.04054975643274,2.03705904063634,2.02188898250985,2.02142592683742,2.02952912702774,2.0380531736611,1.94728045328049,2.03595909858567,2.03541240261928,2.03389676146848,2.03082989039802,2.03517329904582,2.02922718135471,2.03069704758165,2.035376086315,2.03166789965712,1.94055964437133,2.02151094288531,2.02678198879893,2.0315812096267,2.05872709660975,1.93796287329044,2.02910366913558,2.01788655337614,2.02320975943905,1.93517141132169,2.01781313269627,2.01725252060523,2.02868888618791,2.02414627807961,2.02654960545128,2.01427380676582,2.00079215427428,1.99953049885195,1.99640733636987,1.99800400547454,2.01283161092198,1.92516426166708,1.92467928756764,1.98761977188322,2.01105312942653,2.00258714264315,2.00814349820858,2.00040583056325,1.99924358679163,1.99476587838393,2.00812752561096,1.91501926224825,1.91315829648049,1.91286041739496,1.91171534673163,1.91048434526075,1.90933151355831,1.90855164801076,1.90843916492756,1.90780775575084,1.90788265596692,1.90767821816268,1.84434532067289,1.84460525050168,1.8438863292059,1.88675203755118,1.8853829217921,1.83504415139191,1.86355141302885,1.93275178192621,1.93157803211943,1.93085872835789,1.9263837478176,1.89941865675708,1.92472222925536,1.86846453366564,1.81856603405514,1.81777451966663,1.81706130267827,1.81392945510821,1.81396346275385,1.86113957736878,1.85942674593973,1.8116077216626,1.81116399853302,1.80777916301229,2.03234900100102,1.8068200865406,1.80857548187465,1.80984730649851,1.80704433158162,1.80521968626509,1.93370150340692
2.06448161057264,1.85160771948205,1.8509470829351,1.96711380310497,1.90200209515423,1.90084593249385,1.87605533348094,1.85401046485358,1.85483720399709,1.85521564964327,1.95745333900024,1.94339674118917,1.92128649458834,1.92322686121596,1.91884083114453,1.98974499447657,1.98828839687193,1.99001563690833,1.98500586605801,1.98430816321682,1.98190815601163,1.97568128771831,1.90749698438692,2.01099169067534,1.90307497686621,2.00924409547098,1.98679510650169,1.97361862897524,1.8974170113587,1.97057861322984,2.00649229173636,1.96339720062306,1.96399937810226,1.96242588565327,1.96157671830437,1.96000415716493,1.95814664165782,1.96086542560716,1.95816109195297,2.00434398615479,2.00436329661727,1.94870138615835,1.95051051863856,1.95031428236635,1.9513451784453,1.94885296774588,1.91524692095306,1.87431986297233,1.95010068397807,1.99789855190688,2.09151625804875,1.97358251467352,2.08247568751103,2.07833045300792,1.87382057969435,1.9476309754296,1.9447102781326,1.94608073553598,1.87537091665436,1.99108255389943,1.95050461737565,1.94879594322505,1.87945828131736,1.96076500931496,1.88406382655175,1.98482826680909,1.98110910452744,1.88935489027892,2.06742635307617,2.04054163500231,2.0422381294597,2.03965826671219,2.03466791795779,2.03089504932769,2.02806550066572,2.02769214250081,1.98340373971863,1.95133494194037,2.03061054608949,2.02454665411962,1.94925898713468,1.94916344857506,1.94863932142952,1.94858406339456,2.04685577583912,2.02970292409242,2.03102498899706,2.03728342710334,1.94773790645163,1.94721868045708,1.94772320250682,2.03111748979808,2.01888765883188,2.03837976990597,1.94642696514041,2.02406843664516,2.03512656939038,2.04040829860045,2.03509013826143,2.03146245102959,2.03178049466346,2.03448284062706,1.94180251400268,2.02851326328359,2.01947993354795,1.93859648233212,2.03214367087506,2.02869663459584,2.01171962313372,2.01804778973689,2.01698055628389,2.0198394007494,2.01587572052471,2.01590062315251,2.02440964540842,2.01896868597693,2.0229790746362,2.02070435471752,2.02302697142904,2.01510382691756,1.99754856285957,1.99551226163372,1.99692986770096,1.92686546664519,2.01155826488929,2.01324185051143,1.98877469622055,1.92213308265862,2.00497686544009,1.92145853714997,2.00235106629485,1.99818516937477,1.99082953131104,2.00431514257425,1.98901306888111,1.91319993779638,1.91262379041334,1.91160140989426,1.91056546778805,1.91050474333923,1.9099880414899,1.90888415505347,1.90839685953474,1.90629216002398,1.98870735578957,1.84429662383404,1.84492795265061,1.88914270137209,1.83828917057411,1.83721353563931,1.93598525733166,1.86291448178536,1.83240051677129,1.83071554002302,1.87551044522367,1.92543350060229,1.88826980437866,1.87053552943308,1.82094754299414,1.86769571441845,1.81701976818591,1.81660820399288,1.8155525032762,1.86329768390251,1.81224716032025,1.81251655950294,1.81200682752805,1.81126515054632,1.80923100564679,1.93704218015577,1.81049087424707,1.80918693379216,1.80834607290753,1.80720973432402,1.80777705454439,1.90100885716261
1.85061443196489,1.85150771250843,1.85119001878419,1.96608789955564,1.96504453459684,1.96438530780348,1.88618812314729,1.90398402354392,1.9046538775687,1.90560786797698,1.85871255908516,1.9250068231496,2.08912176070087,1.99322376337433,2.01797239070805,2.09060866631206,2.01134408986914,2.017740774858,1.9857637267513,1.98444052322353,1.98069112945532,1.97711655715203,1.9800374812517,1.9788052578273,1.97812419066696,1.97591065993376,1.99237433417052,2.10484047716198,1.97188015213839,1.96900044501242,1.96760222044099,1.96674956216135,1.89057145167518,1.96249988242157,1.96189498873846,2.09125556680523,1.95782600201063,1.95541238056964,2.08488311418586,1.95400523586574,1.95231511517207,1.95029040056769,1.95054875861986,2.00151429711132,2.00132566401829,1.87475609868849,1.90407624204219,1.87476765465086,1.94820401840263,1.94858772368574,1.8719658202139,1.96849366444027,1.99957519009455,1.94558702654378,1.871675057406,1.9460317366239,1.94513698780694,1.94671424822194,1.87531942208774,1.94835404470783,1.95086186849439,1.94983567427327,1.98836374105946,1.98859732285764,1.96125727944184,2.07135613521656,1.98224319708135,1.98669612033172,2.08147036524614,1.95705179828473,1.95644541146032,2.03803393005191,2.03826556712337,2.03855051399819,2.02881447376682,2.02780957294246,1.98538064722283,2.0265462070249,1.95079597939002,2.02383445385102,1.94915527901065,1.94892712884084,1.94861073828782,2.03866840811792,2.03786968374534,2.02935039542178,2.02641163033601,2.02195707715591,2.04455443075672,2.03864241364152,2.03748201218922,2.037581396937,2.03828801257149,2.03766180970159,2.06066793047037,1.94327918377635,2.04082240912708,2.04895161467577,2.04154082216633,2.03730075816801,2.02600097370795,2.03105607308645,1.94175342131358,2.02964428288424,2.02523980575067,2.02573171175563,2.0274070734721,1.93914366594182,1.93773071162123,2.01772091387768,1.93521206185521,1.98490487375687,2.02761282916345,2.00400798853681,2.0283246629597,1.93314118861875,2.02434159490846,2.02531192291848,2.01778959500276,2.01364741144531,2.00687166371156,2.0094238992434,2.01196876686203,2.00623608768995,2.0067478060075,2.0119288553011,1.98967648591686,1.92383481162262,2.01819325389543,2.00848646138167,1.91826254730518,2.00055911925701,2.00215937847781,1.91675162855009,1.99786136647054,1.99651165618234,1.93886742868298,1.91054923915165,1.91047476318374,1.90925002267363,1.90977883273902,1.90860340296354,1.90770400045046,1.90630078943274,1.90783353563527,1.84449614481939,1.84471730623853,1.84247972469337,1.83811384764629,1.83754316987801,1.93612238540862,1.85754279806538,1.83212097840858,1.83071658744461,1.8937766878681,1.89288817048965,1.88136811674941,1.87034508057611,1.86932918185918,1.8679710773648,1.86713175075278,1.84330618908587,1.81603814642096,1.86268508439612,1.81338584810874,1.81324705706346,1.81230740253458,1.81129952863763,1.80981600665045,1.80792458867494,2.02288687438438,1.90150243163518,1.93481988439537,1.80658165781255,1.93238839195808,1.80736274366445
1.85319751066327,1.85200019138999,1.85121147797398,1.85138165582012,1.94827118928009,1.85044335513642,1.85463316906233,1.8541386858154,1.85511031925426,1.85694621670392,1.85807864130532,1.91485246045831,1.90857184709805,1.99729705254371,1.99030469654849,1.98938738774269,1.98826555866021,1.98868133280139,1.98683790752093,1.98219032911607,2.01247864388046,1.99655638572936,2.01075998019863,1.979457481678,1.98019973792699,2.08350231300966,2.00163207774768,1.97208821550144,1.97076139556297,1.8978486988471,1.89409844169289,1.96892077838278,1.96522804420473,2.00768954041031,1.96158552157687,1.960720458792,1.95919719253854,1.88402520563436,1.95486928012274,1.95455796436151,1.95103626179078,1.95083950825706,2.09743491479978,2.00152637740451,1.95285779897472,1.94814224975912,1.94797740391082,1.94767142927813,1.99913500553036,1.950072002687,1.94610625213703,1.96264746564949,1.99532039077112,1.8730705215573,1.87270152741898,1.87345673920146,1.91075685911441,1.87506507762239,1.94917347173689,1.94917882437336,1.95145921117415,1.95099307056268,1.95251731866195,1.95780305971473,1.98891885550971,1.96248708174297,1.98305724625187,1.9855380423087,2.07381486723819,2.03032497006187,2.02929880317345,2.03261083945492,2.02898378896477,2.02875997551587,1.95254810348003,1.95183821620343,1.95203364368322,1.95142028163593,1.9510955135496,1.95001215088088,1.94893150786126,1.94867959433689,1.94834818816945,1.94859376669151,2.02118723895767,1.94746955183226,2.02388873197907,2.02137023877595,2.03018002880725,2.02031901261546,1.9459440235008,2.03374119488381,2.03343520636025,1.94623386051558,2.03669545881323,2.0481336154334,2.03956372142279,2.03298366272167,2.02220066222529,2.03669710643109,2.04481351452803,2.0307849064549,2.03327432082878,2.01849657295825,1.94073037870794,2.03078055994749,2.02372292975482,2.02453005097518,2.02101003811982,2.02697380712724,1.93507732674029,1.98499938777869,2.02831480183185,2.01862928761675,2.01077453842437,2.03147919147377,2.02491086732023,2.01739485931511,2.0321414019859,2.01241635574614,2.01701683337311,2.01081876085776,2.01315669549135,1.92476062623455,2.00551634155494,2.02194687386288,2.01100113037591,2.01144813911412,2.01093644253372,2.00827364717025,2.00723862589575,2.00254873941891,2.00342832453062,1.91518748108898,1.98946547713018,2.00816966209525,1.98310099804465,1.98656664167146,1.91045964567529,1.90986840427409,1.90988581126453,1.90883246101092,1.90869882616936,1.90698484319566,1.98559285334987,1.84460352781926,1.87764478078903,2.02604413500034,1.83783519869378,1.83631194749935,1.9359389122217,1.84768403503,1.83124736796522,1.82968551840701,1.82747629771734,1.87175286607463,1.87129917491578,1.8709768450879,1.82322526429069,1.86794300313198,1.81737512831134,1.85930895210842,2.01746170070355,2.02919064084749,1.81430984682317,1.8129341055762,1.8351698397183,1.92422006632779,1.81119185439265,1.85815793615253,1.85760037243777,1.88535418296665,1.93462034294972,1.85700996839522,1.80869087959728,1.80828759960243
1.96174995016339,1.88553981075891,1.90126506847743,1.90234034352517,1.85388234364336,1.85463752172321,1.85443869458793,1.85397337043135,1.95981890391509,1.85508277655172,1.90728506513397,1.91570626782911,2.09462524250851,1.91800196436552,1.99045116734854,1.98870204229624,1.98754601030799,1.98738431483686,2.01356983215099,1.98246767879007,1.98146531753528,1.97811191933537,1.90797642600731,1.90443819215406,1.97729839152092,2.10175087301269,2.00564985586144,2.08492173511083,1.96945836998371,1.96868883364422,1.96825781906553,1.97149995375719,1.89132558870068,1.89062986812524,1.96103605213606,1.96287949485401,1.95953623707362,1.95725787917854,1.88223898784711,1.95477720573919,1.88112863547357,1.95197804176811,1.95224808636464,1.95161824055362,1.87629136540237,1.94825411702597,1.94768327005247,1.94632547067293,1.94549666083701,1.87152168116908,1.94646907835688,1.95332790076207,1.99463212204549,1.99491917497151,1.94753267795961,1.94754787758132,1.94560409199323,2.07220579556581,1.87391746398248,1.87770943219004,1.95169301536762,1.95092891179242,1.95229277799442,1.98778054069988,1.96137375893153,2.07096035647184,2.00772946499038,2.06764965827505,2.07449485685636,1.95805992621152,2.0277123561784,2.04220775845475,2.04431354347771,2.02816523639944,2.02743417832745,1.95158119998264,1.951609066096,1.95089355184227,1.94960897876026,1.94924513211517,1.94840094823435,1.94850102021907,1.94844635713853,2.03426794209184,2.0211575357359,2.03504517193212,2.0246487409555,2.02048656060912,2.01878129124504,2.0197739134331,2.02153094331963,2.02489106346347,2.02668980157555,2.03722559882578,2.01288478526394,1.94502752173458,1.97106857776838,1.94425477196583,2.03776136291596,2.03607562931212,2.02339085019726,2.02811447976555,1.94180177707223,1.94140145394647,2.03778313812005,2.01731695589377,2.01811309423135,2.02001476648087,1.93726415069225,2.02712201071106,2.02129636085221,1.98477842340892,1.93454915839534,1.9341322800492,2.00865048801268,1.93265845096058,1.97397812961437,2.0172579943906,2.01722546255147,2.0095766635812,1.93014809967275,1.95847387347686,1.92826532647964,2.0126233635747,1.92560063135256,2.01676390555116,2.0137037176412,2.01571649226182,1.92057991110699,1.98518316312575,1.92018573538634,1.92970432162125,1.91805197746833,2.00098176098134,1.9988065681308,1.98202654770533,1.98197469481345,1.98145925371535,1.91084608067001,1.9092247858927,1.90889350733284,1.90843996461749,1.90865063225939,1.98874110240309,1.9886103118321,1.97841479828365,1.90267202700409,1.89374233810635,1.8388888653342,1.93504358054948,1.83453630095688,1.8340678526805,1.83330202891353,1.92380489138441,1.82691881625945,1.82661818757495,1.82700928016308,1.82444572442194,1.82329694829942,1.82143374153805,1.93419392020023,1.8768944205096,1.93759252833654,1.8150464927402,1.81461360475875,1.9326973593578,1.84572780628662,1.81094789809485,1.81211979194323,1.91797313171456,1.85750401185425,1.85801165329353,1.85746400879368,1.80830541082941,1.80802274178702,1.80732440611407
1.85198448617367,1.87565512553411,1.90166049060522,1.90126067008535,1.85366809458375,1.90418555058838,1.87819154496702,1.90387709529255,1.90394347741914,1.85417561984339,1.85770362872248,1.91787843781601,1.92056063668191,2.09123696423112,1.91845203736063,1.9179284183783,1.98645444130523,1.98667484798378,1.98711738832625,1.98268277767782,1.98149896474496,1.97863328012807,1.97886259007474,1.9042197265509,1.97658504947463,1.90166530923753,1.99141729732116,1.96936796617353,1.97022935645095,1.96848221385105,2.08947178950137,1.97488068807178,1.89148725325608,2.07987196462902,2.09464460425282,1.96187686769455,1.95880674218764,1.95579407268187,1.95485284846711,1.95453988143538,1.95397844771775,1.95294357338061,1.95219027919834,1.95216242557816,1.95220128377044,1.94835509654032,1.94775706995867,2.0817258535699,1.94534804151287,1.99703016724566,1.94515229086587,1.94381325014535,1.94380100587947,1.99467891711781,1.94670641071231,1.99056117014185,1.94524307654837,1.94701408483852,1.94651619909811,1.99139149344436,1.99204804916878,1.9498555240991,1.87914931293847,2.07128854859787,1.98606180766164,2.05532833235885,2.0015986009226,1.98490643735272,2.07532124464264,1.95739693366627,2.04313776809386,2.04390012407648,2.04416355472206,2.03551159664867,2.03606697879991,1.95133023679265,1.95103332074232,1.95068660073694,1.94958400952797,1.94804082664767,1.948187086282,1.94801708497519,1.94780967397761,2.0343443195542,2.04074379263617,2.02884418701848,2.00184921004655,1.94771107384052,2.03327416812633,2.04485834246359,2.01840793580962,2.01889411543223,2.01746486780242,2.03282962880577,2.02644957041705,2.04778779579565,2.03612731775515,2.0315370072192,2.02729853287635,2.04376923461495,2.03561475914184,2.02868676242786,2.03147037495805,1.94139195155009,2.02780911873406,2.0303921131501,2.01485381391856,2.01847459050392,2.03119947763899,2.02149173060453,2.02459042930921,1.98380009450226,1.93456314291093,1.93444624741356,2.02244355149911,2.01857442200083,1.97660653573847,1.93114971362734,1.93074730153574,2.01184923106819,1.99730570411823,1.99457266304177,2.01550975014326,1.92523229888983,2.01182133096714,2.00903582721318,2.00919409117452,1.92138119621216,2.00525642213745,1.91900610841463,2.01332677003284,1.93803019214422,1.91619864622434,1.91542568209141,1.99761338547643,1.98680506271232,1.98318293582031,1.910429390167,1.90993284129866,1.90870091916443,1.90840098621055,1.90837248570284,1.90933807536516,1.90762046911707,1.90728606032816,1.97799634746271,1.9090770132733,1.84223879963766,1.84074641011923,1.8358057843511,1.83501095350391,1.83405765021097,1.83195212432557,1.83064545114442,2.0192233545732,2.02150067499558,1.82703294634782,1.82526288699279,1.82156235757729,1.82166315817358,1.81528192627747,1.81767350549861,1.81695800666336,1.81549696793951,1.81465278675716,1.81314840995163,1.8555934579498,1.91540490068135,1.86060946595386,1.86033502839202,1.9173745075179,1.85866909385163,1.85790826940246,1.91555932390419,1.85798204215717,1.80715745894208
