1.94138, 2.02687, 2.02108, 1.91451, 2.02225, 1.91441, 1.90936, 1.99569, 1.9568, 1.90629, 1.90322, 2.02102, 1.89811, 2.01251, 1.98783, 1.99057, 2.00903, 2.09362, 1.88908, 1.88744, 1.88374, 1.88284, 2.07336, 2.07859, 2.0762, 1.87994, 1.88306, 1.93493, 1.94768, 2.0278, 1.94487, 2.01734, 2.01732, 2.01468, 2.01357, 2.13126, 2.04599, 2.00473, 2.00184, 2.00044, 2.12001, 1.91948, 1.99308, 1.91616, 1.99313, 1.99014, 2.11832, 1.99009, 1.98898, 1.91394, 1.99763, 1.99377, 1.92149, 1.99941, 2.00614, 2.03261, 2.1271, 2.09624, 2.08947, 2.09407, 2.00057, 2.00148, 2.00118, 1.99834, 2.07787, 2.09677, 2.0963, 2.0837, 2.08139, 1.99952, 2.09102, 2.0908, 2.00045, 2.08631, 2.07576, 2.08208, 1.99729, 2.08971, 2.08275, 2.08419, 2.08436, 2.09036, 1.9944, 1.99564, 2.08706, 2.08341, 2.08711, 2.08715, 2.08045, 2.074, 2.07331, 1.9879, 1.98605, 1.98551, 2.07298, 2.07843, 1.90427, 2.02145, 1.89713, 1.94805, 1.89085, 2.01514, 1.94167, 1.88928, 1.88893, 1.88771, 1.8874, 1.88874, 1.93858, 1.98541, 2.11212, 2.0113, 1.88772, 1.889, 1.94046, 1.8924, 1.89051, 2.08937, 1.8932, 2.00311, 1.89156, 1.92891, 1.80946, 1.92737, 1.80281, 1.80291, 1.80276, 1.79745, 1.79604, 1.91069, 1.84257, 1.79072, 1.79114, 1.79037, 1.78901, 1.78763, 1.97897, 1.78869, 1.97227, 1.78573, 1.91973, 1.8936, 1.91966, 1.78741, 1.78597, 1.7866, 1.78559, 1.78434, 1.78297, 1.7827
2.05753, 1.91986, 1.91977, 1.92066, 1.91545, 2.01, 1.9645, 2.01948, 1.90712, 1.90621, 1.90304, 1.95179, 2.00235, 1.89903, 1.96956, 1.89373, 1.89042, 1.89044, 2.00752, 1.88826, 2.07954, 1.88643, 2.0011, 1.88241, 1.88281, 1.88242, 1.88317, 1.98707, 1.9492, 1.94916, 2.02383, 1.94588, 2.04941, 2.04745, 2.04885, 2.01157, 2.13533, 2.00633, 2.00358, 2.00087, 1.92313, 1.99623, 1.99529, 1.99328, 1.9924, 1.98899, 1.9903, 1.98932, 1.99049, 1.99278, 1.99285, 1.99536, 1.92339, 2.00433, 2.01105, 2.03538, 2.03471, 2.00689, 2.08393, 2.08388, 2.00277, 2.00184, 2.00224, 2.00077, 2.07955, 2.07892, 2.09776, 2.09844, 2.09567, 2.07321, 2.08928, 2.09753, 2.08914, 1.99987, 2.09608, 2.10283, 1.99943, 2.08691, 2.07774, 2.0798, 1.99799, 2.08721, 1.99684, 2.081, 2.0828, 2.10036, 1.994, 2.06925, 2.0838, 2.07958, 2.06497, 1.98893, 1.98874, 1.98674, 1.98658, 2.08501, 1.90494, 2.02784, 2.01188, 1.89657, 2.01546, 2.11659, 1.89006, 1.88937, 1.88902, 1.8892, 1.88466, 1.8894, 2.11128, 2.01097, 1.88707, 1.88811, 1.88601, 1.97749, 2.06677, 1.99096, 1.89199, 1.89161, 1.9991, 2.07861, 1.89062, 1.81503, 1.81343, 2.1136, 1.80563, 1.79895, 1.89984, 1.79659, 1.79592, 1.7923, 1.84264, 1.84186, 1.78815, 1.78645, 1.787, 1.78675, 1.78876, 1.85092, 1.90205, 1.83767, 1.78685, 1.7852, 1.91792, 1.78716, 1.7861, 1.78727, 1.91732, 1.78246, 1.78418, 1.91152
2.05837, 1.92227, 1.92184, 2.03558, 1.91772, 1.91676, 1.91679, 1.91021, 1.91096, 1.90998, 1.9063, 1.95288, 2.00349, 2.08348, 1.89942, 1.89614, 1.89301, 1.97981, 1.98115, 2.00923, 1.88884, 1.93824, 1.88713, 2.0073, 1.8859, 1.88571, 1.88937, 2.06868, 1.98978, 2.05326, 2.05324, 2.04777, 1.94829, 2.0201, 1.94061, 2.01204, 2.04847, 2.00769, 2.13096, 2.00155, 2.04613, 2.00013, 1.99623, 1.99476, 1.9913, 1.91691, 1.99349, 1.99396, 2.04457, 1.994, 1.99422, 1.99684, 2.00054, 2.00284, 2.03914, 2.01661, 2.03813, 2.00851, 2.09283, 2.08247, 2.10291, 2.00489, 2.00389, 2.00165, 2.07983, 2.09653, 1.99975, 2.07751, 2.07921, 2.10049, 2.09127, 2.09519, 2.09659, 2.09693, 2.09955, 2.0006, 1.99992, 1.99926, 2.0907, 2.09534, 1.99845, 2.08747, 1.99714, 1.99685, 2.08345, 2.08736, 2.08089, 1.99339, 1.99188, 2.08245, 1.98988, 1.98881, 1.98787, 1.98844, 1.98697, 2.0816, 2.02414, 1.90267, 1.901, 1.89755, 1.89521, 2.01428, 1.88996, 1.88945, 1.99116, 1.88606, 1.88607, 1.88544, 1.88621, 2.10392, 2.01136, 2.00975, 1.88295, 2.09387, 1.93843, 1.88652, 1.88849, 1.98809, 1.89013, 1.94289, 1.94127, 1.8157, 1.8106, 1.92074, 1.85442, 1.85241, 1.92131, 1.79379, 1.79139, 1.92367, 1.84159, 1.78939, 1.78986, 1.78701, 1.78841, 1.78557, 1.78711, 1.9182, 1.78554, 1.83593, 1.78521, 1.78487, 1.78349, 1.784, 1.78451, 1.8336, 1.78339, 1.78197, 1.78277, 1.78307
2.05845, 1.92568, 1.92396, 1.92341, 1.91889, 1.91938, 2.10736, 1.91429, 1.91157, 1.91057, 1.90537, 2.02121, 1.90383, 2.00673, 2.101, 1.90022, 1.8962, 1.89266, 2.00751, 1.94159, 1.99908, 1.88935, 1.88721, 2.00794, 2.00501, 1.98249, 1.88953, 1.88945, 1.8899, 1.95387, 2.05628, 2.02488, 2.05176, 2.0204, 2.01745, 2.01682, 2.05152, 2.0096, 2.00733, 2.13093, 1.92648, 1.92366, 1.92201, 1.99685, 1.91688, 1.99584, 1.91706, 1.99283, 1.99061, 1.91843, 1.99669, 1.99939, 2.00072, 2.11816, 2.04189, 2.13917, 2.03709, 2.09009, 2.10369, 2.12061, 2.08234, 2.08263, 2.00476, 2.00351, 2.00291, 2.08761, 2.00313, 2.0802, 2.09013, 2.09248, 2.09104, 2.00232, 2.09693, 2.10361, 2.09697, 2.0025, 2.09014, 2.08611, 2.07723, 2.09151, 2.00046, 2.08903, 2.10383, 2.08426, 1.99562, 2.08786, 2.08187, 2.08902, 2.08782, 2.09056, 1.99027, 1.98964, 1.98746, 1.9881, 1.98639, 1.98727, 1.9066, 1.90329, 2.01154, 2.01447, 1.89419, 2.01885, 1.89045, 1.88999, 1.88935, 1.88627, 1.9342, 1.88274, 1.88468, 1.88352, 2.00992, 1.88397, 2.0118, 1.88521, 1.97651, 2.00816, 1.88702, 1.88648, 1.99998, 2.01398, 1.93909, 1.97308, 1.81286, 1.80539, 1.85498, 1.80144, 1.79801, 1.89323, 1.79287, 1.92047, 1.92088, 1.78831, 1.91813, 1.78858, 1.78617, 1.7856, 1.92071, 1.78406, 1.83674, 1.83655, 1.78392, 1.86842, 1.90025, 1.78494, 1.83406, 1.91266, 1.78547, 1.78284, 1.78176, 1.78388
1.95132, 1.92512, 1.92415, 1.97324, 2.03484, 1.9205, 1.91692, 1.91516, 1.96277, 1.90962, 1.90826, 2.026, 2.0236, 2.00134, 1.90036, 1.9012, 1.89639, 1.94596, 1.94568, 1.8929, 1.89281, 1.89245, 2.00558, 1.93837, 1.88921, 1.88963, 1.94038, 1.99749, 1.89477, 2.03071, 2.0317, 2.02597, 2.02634, 2.05135, 2.02102, 2.01763, 2.00868, 1.9323, 2.01095, 2.0053, 1.92672, 2.00414, 2.00027, 1.99586, 1.92021, 1.99442, 1.99276, 1.99397, 1.91907, 1.99728, 1.92242, 1.92442, 2.00414, 2.04188, 1.9392, 1.94158, 2.03964, 2.09728, 2.0964, 2.09318, 2.08684, 2.08234, 2.00478, 2.00526, 2.00342, 2.09715, 2.00383, 2.00487, 2.09738, 2.09478, 2.07973, 2.09997, 2.09692, 2.08557, 2.09352, 2.08946, 2.00182, 2.09734, 2.07779, 2.09917, 2.09895, 2.09919, 2.09307, 1.99922, 2.09178, 1.99726, 2.08596, 2.0798, 1.99336, 2.09344, 2.08655, 1.99107, 1.98919, 1.98992, 2.07955, 1.98691, 1.90488, 2.11108, 1.89636, 1.89692, 1.89333, 1.89161, 1.88894, 2.02081, 1.88571, 1.88501, 1.88284, 1.88386, 1.88251, 1.88243, 1.88285, 1.88472, 1.88338, 1.88413, 1.88548, 1.88408, 1.93877, 2.08069, 2.08359, 1.88645, 1.96175, 1.81345, 1.81003, 1.8057, 1.91685, 1.8005, 1.86193, 1.79539, 1.79245, 1.79348, 1.7905, 1.78625, 1.90702, 1.78656, 1.78785, 1.78551, 1.78536, 1.91764, 1.78236, 1.91447, 1.78196, 1.78425, 1.90951, 1.78308, 1.78154, 1.78217, 1.83236, 1.83197, 1.91356, 1.83151
1.95322, 1.97599, 1.92364, 1.9252, 2.03869, 2.03411, 1.91975, 1.9151, 2.10797, 1.91225, 1.91038, 2.00029, 2.00303, 1.90589, 2.02452, 1.9011, 1.90067, 1.89918, 1.89492, 1.89437, 1.94427, 2.01114, 1.8919, 1.89159, 1.89061, 1.89092, 1.99918, 1.89334, 1.98118, 2.03222, 2.03095, 2.02845, 2.02484, 2.0234, 2.01953, 1.94082, 2.01477, 2.01317, 1.93237, 1.93098, 2.0045, 2.05349, 2.0006, 1.99846, 1.99617, 1.91743, 1.99587, 2.0482, 1.99668, 2.04582, 1.9977, 2.00087, 2.04533, 1.93414, 2.01437, 1.94358, 2.12506, 2.10352, 2.01122, 2.10056, 2.09688, 2.08615, 2.00421, 2.00676, 2.00532, 2.10084, 2.00476, 2.11607, 2.09155, 2.09701, 2.09246, 2.08328, 2.09787, 2.00515, 2.00374, 2.00295, 2.0908, 2.09698, 2.00345, 2.09752, 2.09678, 1.99961, 2.07535, 2.09804, 2.08394, 2.08929, 2.08042, 2.08192, 2.08368, 2.08587, 2.0729, 1.99032, 1.98623, 1.98882, 2.0773, 2.08272, 1.90366, 2.01753, 2.10476, 1.89566, 1.89226, 1.99291, 1.88955, 1.88534, 1.88498, 1.88301, 1.88196, 1.87608, 1.88035, 1.88158, 1.87976, 1.88058, 1.88178, 1.87977, 1.88506, 1.88199, 1.88226, 1.88607, 1.88343, 1.8839, 1.9091, 1.81404, 1.91584, 1.80651, 1.80041, 1.86185, 1.86085, 1.79325, 1.91942, 1.91387, 1.78959, 1.78915, 1.78582, 1.78378, 1.78508, 1.78464, 1.78579, 1.78429, 1.9128, 1.91333, 1.7837, 1.78094, 1.78203, 1.77918, 1.78193, 1.90087, 1.78181, 1.78264, 1.83336, 1.83056
2.00081, 1.97884, 1.92713, 1.9277, 2.04144, 1.97316, 1.92201, 1.91994, 1.91684, 2.10917, 1.91247, 1.95908, 1.90806, 2.01115, 2.01232, 1.9034, 1.89829, 2.02461, 1.89687, 1.94604, 1.89464, 1.94373, 2.00839, 1.89202, 1.89276, 1.89383, 1.99592, 1.89682, 2.0712, 1.95906, 2.03218, 2.13817, 2.02733, 2.02732, 2.02238, 2.05762, 2.01525, 2.01505, 2.01225, 2.01059, 2.00641, 2.00529, 2.00064, 1.99807, 1.99604, 1.92231, 2.13561, 1.99675, 1.99589, 1.99796, 1.92309, 2.12036, 2.00448, 2.00877, 1.93761, 2.04503, 2.1391, 2.09692, 2.08996, 2.08657, 2.01013, 2.0888, 2.00691, 2.00722, 2.10042, 2.08631, 2.09752, 2.08753, 2.10035, 2.08952, 2.09385, 2.08063, 2.11159, 2.0925, 2.0971, 2.09347, 2.00292, 2.00362, 2.00351, 2.10148, 2.09074, 2.1008, 2.08191, 2.08992, 1.9996, 2.08541, 2.08585, 2.09697, 2.08265, 1.99094, 2.06731, 2.06677, 1.98884, 1.98933, 1.98697, 1.98641, 2.01532, 1.90142, 1.89606, 1.89488, 2.01748, 1.88855, 1.88601, 1.93453, 2.10469, 1.8823, 2.00833, 1.87842, 1.88041, 2.01462, 1.87669, 1.87914, 1.88, 1.88215, 2.01013, 1.88314, 1.8837, 1.99054, 1.88332, 1.88233, 1.90905, 1.80968, 1.80669, 1.80597, 1.91041, 1.91369, 1.91482, 1.91021, 1.91496, 1.78678, 1.78902, 1.91641, 1.91346, 1.90667, 1.91472, 1.78137, 1.9158, 1.91445, 1.78186, 1.78243, 1.91708, 1.91694, 1.78215, 1.91302, 1.78059, 1.91566, 1.78001, 1.9139, 1.91266, 1.83221
1.95195, 2.0498, 2.04413, 1.92717, 1.92413, 1.97238, 2.02437, 2.02795, 1.91884, 2.10495, 1.96388, 2.03378, 1.90734, 1.90718, 1.9564, 1.95557, 1.9022, 1.95477, 2.01128, 1.8938, 1.89499, 1.94562, 1.89399, 1.89476, 1.89349, 1.89428, 1.8947, 1.89654, 1.89954, 2.06415, 2.03414, 2.14089, 2.1382, 2.02412, 2.02699, 2.05852, 1.94188, 2.14538, 2.05871, 2.01087, 2.05831, 2.0559, 2.00378, 2.00165, 2.1413, 1.92175, 2.05195, 2.05106, 1.99726, 1.99768, 2.00141, 1.9274, 2.00671, 2.01139, 2.01704, 2.01813, 2.14251, 2.01541, 2.10738, 2.09036, 2.08772, 2.08992, 2.00839, 2.00941, 2.08547, 2.0821, 2.10167, 2.0826, 2.09618, 2.08324, 2.09579, 2.0874, 2.10401, 2.10054, 2.00392, 2.00624, 2.09273, 2.00377, 2.0041, 2.09451, 2.07987, 2.08675, 2.08558, 2.001, 1.99685, 1.9971, 2.08941, 2.09963, 2.07364, 1.99351, 1.99005, 1.99298, 1.98947, 1.98513, 1.98697, 2.07563, 2.01313, 1.90097, 1.89389, 1.89247, 2.01675, 2.09508, 1.88578, 1.88415, 1.88233, 1.87886, 1.87968, 1.87968, 2.0151, 1.95244, 1.87664, 1.9876, 1.93085, 1.88234, 1.88029, 1.88157, 1.87947, 1.93216, 1.9325, 1.8823, 1.91154, 1.9096, 1.80614, 1.80069, 1.91656, 1.79556, 1.79606, 1.79262, 1.90323, 1.78878, 1.78586, 1.78765, 1.78528, 1.78431, 1.78243, 1.78406, 1.7808, 1.78335, 1.96459, 1.78113, 1.77924, 1.78194, 1.78191, 1.78177, 1.78312, 1.78026, 1.91047, 1.77908, 1.91058, 1.78033
1.9577, 1.93067, 1.93071, 1.9283, 1.92647, 1.92455, 1.92239, 1.92247, 1.91804, 1.91801, 1.91693, 2.09761, 1.91085, 2.03097, 2.03059, 1.90593, 1.95432, 2.01118, 1.95428, 2.09961, 2.02021, 2.01348, 2.0143, 1.89398, 1.89388, 1.89594, 1.89581, 2.07598, 1.94865, 2.03883, 2.03453, 2.06464, 1.95361, 1.95198, 2.02425, 2.02063, 2.01932, 2.01619, 2.05922, 1.93436, 1.93421, 1.93136, 2.00651, 2.00339, 1.99996, 2.05711, 2.00041, 2.05168, 2.00179, 2.00003, 2.00118, 2.00459, 2.00645, 2.01384, 2.01507, 2.02132, 2.04547, 2.01695, 2.10772, 2.10626, 2.11859, 2.01066, 2.01256, 2.08735, 2.08653, 2.10025, 2.0811, 2.00735, 2.09667, 2.08405, 2.09396, 2.09323, 2.00664, 2.09101, 2.09857, 2.09132, 2.0039, 2.09118, 2.0038, 2.09422, 2.00092, 2.09564, 2.07692, 2.08342, 1.99743, 2.09658, 2.08572, 2.08578, 2.07921, 2.08893, 2.08222, 1.98969, 1.98808, 1.9843, 2.06289, 2.06253, 1.90378, 1.90099, 1.94747, 1.89261, 1.89133, 1.88663, 1.88407, 2.01685, 1.88044, 1.93072, 1.8794, 1.87842, 1.87846, 1.93524, 1.87868, 2.01102, 1.87685, 1.88002, 1.88139, 1.88073, 1.87892, 1.97048, 1.88041, 2.0062, 1.8136, 1.91015, 1.80464, 1.80285, 1.9088, 1.79589, 1.89077, 1.79002, 1.79034, 1.78618, 1.78676, 1.78562, 1.90727, 1.78254, 1.78484, 1.91029, 1.78031, 1.83199, 1.83156, 1.77924, 1.78177, 1.77839, 1.90193, 1.90605, 1.78069, 1.84178, 1.90217, 1.78109, 1.77948, 1.91214
1.95874, 1.93152, 1.93136, 1.92773, 1.92564, 1.92578, 2.04227, 2.04117, 1.9723, 1.91965, 1.91818, 1.91416, 1.91309, 1.95993, 1.90894, 1.90656, 2.02866, 1.90287, 1.90112, 1.89995, 1.90038, 1.89902, 1.89671, 2.11034, 1.96032, 1.89603, 1.89835, 1.89987, 1.90067, 2.06684, 2.03754, 2.03482, 2.03252, 2.06481, 2.0312, 1.94876, 2.02022, 2.01754, 2.0613, 1.9361, 2.00996, 2.01044, 2.00643, 1.92715, 2.00358, 2.0035, 1.99962, 1.99974, 1.92476, 2.00181, 1.92729, 1.92885, 2.04871, 2.01165, 2.04797, 2.02121, 2.13438, 2.09519, 2.11382, 2.08965, 2.01392, 2.01117, 2.01004, 2.01145, 2.08564, 2.09774, 2.00831, 2.09641, 2.09704, 2.00728, 2.00759, 2.09082, 2.09437, 2.0869, 2.10122, 2.09302, 2.08727, 2.00438, 2.09024, 2.09361, 2.08323, 2.10002, 2.09218, 2.09406, 1.99805, 1.99787, 1.99598, 2.08272, 2.09335, 2.08459, 1.98909, 1.99084, 1.98864, 1.98601, 1.98634, 2.06988, 1.90488, 2.01728, 1.94786, 1.94499, 1.93964, 1.88723, 1.88524, 1.88002, 1.98466, 1.87942, 1.87772, 1.87869, 1.87568, 1.87768, 1.8785, 1.8766, 1.87824, 1.87924, 1.87833, 1.87674, 1.87656, 1.87914, 1.92726, 1.99608, 1.81322, 1.80682, 1.8035, 1.80181, 1.91015, 1.79301, 1.8424, 1.84244, 1.78698, 1.78594, 1.90148, 1.90014, 1.78465, 1.78249, 1.90144, 1.78249, 1.83143, 1.78155, 1.78158, 1.77861, 1.77894, 1.77887, 1.77758, 1.77873, 1.78221, 1.89978, 1.8329, 1.77702, 1.7799, 1.78053
1.95592, 1.93234, 1.9314, 1.93067, 1.9294, 1.92639, 1.92806, 1.92365, 2.04629, 1.91959, 1.96729, 1.91254, 2.11807, 1.9109, 1.90982, 1.90787, 1.90714, 1.90517, 1.98082, 1.90299, 2.01774, 2.01795, 1.89879, 1.89989, 1.95249, 1.89771, 1.89906, 1.89926, 1.90295, 2.041, 2.03917, 1.96437, 2.06546, 2.02842, 2.0272, 2.02333, 2.02079, 2.01792, 2.01728, 1.93706, 2.15186, 2.00824, 2.15607, 1.93016, 1.92656, 2.13516, 2.05483, 2.05606, 2.00255, 1.92687, 2.0047, 2.00738, 2.0087, 2.01317, 2.01848, 2.0251, 2.14133, 2.10551, 2.11393, 2.11539, 2.10551, 2.01155, 2.01141, 2.01077, 2.01077, 2.08624, 2.00939, 2.09684, 2.09373, 2.09322, 2.10448, 2.09227, 2.09026, 2.09654, 2.08729, 2.10133, 2.09775, 2.0863, 2.08589, 2.09484, 2.09423, 2.00241, 2.0846, 2.09077, 1.99839, 1.99725, 1.99654, 1.99284, 2.07875, 2.07342, 2.07542, 1.98698, 1.98731, 1.98563, 1.98393, 2.09263, 1.96107, 1.9008, 1.89596, 1.94946, 2.01476, 1.88918, 1.93375, 1.88209, 1.8785, 1.87639, 2.10456, 1.87588, 1.87577, 1.87669, 1.87556, 1.87832, 2.01393, 1.87701, 1.8761, 1.99341, 1.97087, 1.96167, 1.87824, 1.87694, 1.80896, 1.80568, 1.80128, 1.79654, 1.79516, 1.79005, 1.79184, 1.8397, 1.78534, 1.78686, 1.90341, 1.78338, 1.78034, 1.78384, 2.02767, 1.78215, 1.83116, 1.77997, 1.89328, 1.77852, 1.7781, 1.77777, 1.77639, 1.91059, 1.77561, 1.7766, 1.7772, 1.77868, 1.77901, 1.90299
1.94624, 1.93284, 1.93184, 2.2071, 1.98064, 2.05161, 1.97584, 2.02465, 2.02049, 2.04336, 1.91956, 1.9161, 1.91491, 1.91123, 1.90915, 1.9079, 1.90612, 1.90495, 1.95492, 2.0213, 1.9516, 1.90253, 1.89961, 1.95271, 1.89839, 1.89922, 1.90157, 1.90033, 2.07576, 2.04077, 2.03911, 2.0349, 2.06636, 1.95557, 2.1465, 2.1697, 2.15232, 2.01834, 2.01586, 2.01521, 1.93608, 1.93399, 2.00484, 2.00681, 2.00698, 2.05838, 2.00353, 2.00623, 2.00209, 1.92727, 1.93, 2.13554, 1.93307, 2.01728, 2.04843, 2.04874, 2.04529, 2.11705, 2.11717, 2.1033, 2.11069, 2.09017, 2.01373, 2.01239, 2.01148, 2.11395, 2.01043, 2.0904, 2.09776, 2.00828, 2.11768, 2.00823, 2.00756, 2.00709, 2.10048, 2.10023, 2.07997, 2.08137, 2.09258, 2.08818, 2.09635, 2.08672, 2.08336, 2.00016, 1.99791, 2.09728, 2.09237, 2.09143, 1.99119, 2.07339, 2.07072, 1.98792, 1.98728, 1.98437, 2.08442, 1.98592, 2.01758, 1.9012, 1.89791, 1.89369, 1.94809, 1.88566, 1.98629, 1.8821, 1.87838, 2.01743, 1.87667, 1.92527, 1.87724, 1.92466, 1.87522, 1.87471, 1.87518, 1.87621, 1.8763, 1.87504, 1.87528, 1.99794, 1.97921, 1.97253, 1.80812, 1.85435, 1.85369, 1.79643, 1.79483, 1.79241, 1.78867, 1.78869, 1.78422, 1.78417, 1.7819, 1.78143, 1.78196, 1.89714, 1.77849, 1.78007, 1.8714, 1.8309, 1.77955, 1.91316, 1.77667, 1.77865, 1.77646, 1.90518, 1.77676, 1.77874, 1.87679, 1.77786, 1.87973, 1.9097
1.95199, 2.04469, 1.93747, 1.93416, 1.93119, 1.92983, 2.04177, 1.97655, 1.92651, 1.92114, 1.92237, 1.91782, 1.91489, 1.91363, 1.90952, 1.95976, 1.90662, 1.90688, 1.95638, 1.90507, 1.90287, 1.90198, 1.90304, 1.95034, 1.9012, 1.90089, 1.90054, 2.08432, 1.9045, 2.15033, 1.96632, 1.96203, 2.07039, 2.03221, 2.03172, 1.95225, 2.02342, 2.02362, 2.01834, 2.01691, 2.01299, 2.01118, 2.06253, 2.00752, 2.00435, 1.92788, 1.92806, 2.00226, 2.00442, 1.9298, 2.05466, 2.00727, 2.00802, 2.01703, 2.04677, 2.02649, 2.13441, 2.02066, 2.103, 2.09658, 2.01817, 2.01426, 2.01147, 2.01335, 2.09032, 2.09423, 2.01121, 2.10044, 2.09945, 2.01019, 2.0901, 2.00814, 2.10368, 2.09724, 2.10597, 2.00507, 2.00488, 2.09301, 2.09961, 2.08049, 2.09455, 2.08886, 2.0966, 2.07386, 2.07632, 1.99693, 2.085, 2.08628, 2.07948, 2.08505, 2.06516, 1.9865, 1.986, 1.98442, 2.08634, 2.08033, 1.95704, 1.89918, 1.89894, 2.01787, 1.88897, 2.10338, 1.88244, 1.88208, 1.88149, 1.87772, 1.87534, 1.92685, 1.87514, 1.87588, 1.87524, 1.97197, 2.01005, 1.87361, 1.87504, 2.0042, 1.87329, 1.87518, 1.87438, 1.87126, 1.80431, 1.80342, 1.87907, 1.79455, 1.79315, 1.78986, 1.90064, 1.90382, 1.90342, 1.91163, 1.78129, 1.77939, 1.90145, 1.89657, 1.78051, 1.77829, 1.77905, 1.77917, 1.7774, 1.77585, 1.77484, 1.77631, 1.77627, 1.77601, 1.77863, 1.91122, 1.9083, 1.77533, 1.90152, 1.77903
1.95209, 1.98916, 1.98675, 2.04126, 1.93561, 1.92993, 1.92715, 1.92872, 1.92639, 1.92208, 1.97416, 1.9201, 1.91689, 1.91308, 2.04029, 1.96162, 2.11483, 1.90785, 1.9065, 2.02684, 1.90437, 1.90385, 1.90334, 1.90395, 1.89995, 2.09092, 2.00965, 1.90625, 2.08268, 2.04533, 2.04454, 2.14871, 2.03593, 2.1476, 2.03014, 2.02891, 2.02722, 2.06636, 2.02068, 2.01699, 1.93904, 2.01195, 1.93492, 2.06427, 2.00607, 1.93024, 2.00599, 2.00556, 2.00411, 2.00435, 2.01092, 2.00908, 1.93501, 2.01324, 2.05288, 2.12526, 2.04817, 2.10816, 2.10767, 2.11028, 2.1007, 2.01596, 2.01329, 2.01137, 2.01285, 2.09541, 2.01162, 2.01109, 2.01044, 2.01144, 2.01075, 2.0954, 2.10386, 2.00772, 2.115, 2.09652, 2.09049, 2.08318, 2.08745, 2.09311, 2.07862, 2.00065, 2.08323, 2.08451, 2.08628, 2.07722, 2.09431, 2.06843, 2.08963, 2.08691, 1.98772, 1.98719, 1.98315, 1.98333, 1.98429, 2.06028, 1.90423, 1.89978, 1.89754, 1.89149, 1.9406, 2.00037, 1.88308, 1.88186, 2.01782, 1.87802, 1.87693, 1.87598, 1.87465, 1.8739, 1.87444, 2.09811, 1.87178, 2.09415, 1.87234, 2.00341, 1.87472, 1.99848, 2.08665, 2.07313, 2.00981, 1.80217, 1.90255, 1.903, 1.78996, 1.89626, 1.84036, 1.78687, 1.91145, 1.77999, 1.77951, 1.77992, 1.78011, 1.77959, 1.7823, 1.77879, 1.77714, 1.77713, 1.90749, 1.77702, 1.77495, 1.90972, 1.87843, 1.77648, 1.77653, 1.91, 1.7771, 1.77796, 1.90465, 1.77827
1.96321, 2.04141, 2.0576, 1.93693, 1.93742, 1.93109, 1.93154, 1.93032, 1.97662, 1.97509, 1.97443, 1.97124, 1.96929, 1.96597, 1.9134, 1.96281, 1.9607, 1.95948, 1.9588, 1.90688, 1.9036, 1.90309, 1.90291, 1.99969, 1.9045, 1.90262, 1.90438, 2.01091, 2.08384, 2.1586, 2.04338, 2.07206, 2.04049, 2.15222, 2.03516, 2.03145, 2.02999, 2.02434, 2.0687, 2.06632, 2.01497, 2.06534, 2.01202, 2.00901, 2.13926, 1.9312, 1.93058, 2.00453, 2.00443, 2.00737, 2.00693, 2.01137, 2.05486, 2.14364, 2.02333, 2.02772, 1.95802, 2.02071, 2.10302, 2.10591, 2.10759, 2.01478, 2.01504, 2.01372, 2.01401, 2.08634, 2.01106, 2.11057, 2.09998, 2.01167, 2.09812, 2.01047, 2.0946, 2.09735, 2.00705, 2.09099, 2.00434, 2.08145, 2.08773, 2.09709, 2.07752, 2.09428, 2.09046, 2.10034, 2.09051, 2.08114, 2.08671, 2.06901, 2.08998, 2.06875, 1.98734, 1.98714, 1.98609, 1.98559, 2.06264, 2.07575, 1.90629, 1.90207, 1.89567, 1.89349, 1.88967, 1.93824, 1.93486, 1.93198, 1.88148, 1.8777, 1.92826, 1.93601, 1.87472, 1.87397, 1.87538, 1.87394, 1.87118, 1.87258, 1.87278, 1.98854, 1.87229, 1.87193, 1.87034, 1.87153, 1.80383, 1.80089, 1.797, 1.79225, 1.78926, 1.78585, 1.90991, 1.90818, 1.91004, 1.77934, 1.90933, 1.78006, 1.90337, 1.89676, 1.77865, 1.90352, 1.77932, 1.77697, 1.90624, 1.77475, 1.7738, 1.77492, 1.77497, 1.77525, 1.77199, 1.77496, 1.77534, 1.77513, 1.9, 1.88994
1.96936, 1.93943, 1.94124, 1.94074, 1.9376, 1.93408, 1.93276, 1.98111, 2.04138, 1.92559, 1.92421, 1.92094, 1.91964, 1.91454, 1.91513, 1.91359, 1.90959, 2.11369, 2.10738, 2.01238, 1.90476, 1.90538, 1.99675, 1.90382, 1.90682, 1.90652, 2.00396, 1.90749, 2.0068, 2.07732, 2.04475, 2.04565, 2.04113, 2.03596, 2.03771, 2.14871, 1.95189, 2.02441, 2.02137, 2.01915, 2.01699, 2.01489, 1.93721, 2.01041, 2.15586, 2.00715, 2.06301, 2.00638, 2.00584, 2.00745, 2.00765, 2.05639, 2.0121, 2.01817, 2.02213, 2.02864, 2.14645, 2.11345, 2.10419, 2.12415, 2.09625, 2.01702, 2.01694, 2.01268, 2.01474, 2.11117, 2.10838, 2.01265, 2.10992, 2.01083, 2.01205, 2.09783, 2.08606, 2.09326, 2.1116, 2.09715, 2.00538, 2.10414, 2.09459, 2.0897, 2.0899, 2.00108, 2.09061, 2.09, 1.99819, 2.09377, 1.99359, 1.99158, 2.06317, 2.0823, 2.0765, 1.98664, 1.98593, 1.98475, 2.0653, 1.98317, 1.95522, 1.95135, 1.89825, 1.94414, 1.941, 1.93794, 1.88336, 1.88295, 1.88229, 1.87846, 1.87769, 1.8761, 1.8752, 2.10392, 1.87199, 2.00756, 1.87018, 1.87211, 1.86946, 1.87169, 1.92054, 1.87248, 1.87135, 2.08966, 1.80318, 1.84843, 1.7953, 1.79095, 1.90772, 1.78308, 1.87611, 1.7829, 1.90837, 1.90715, 1.7779, 1.82773, 1.77829, 1.77917, 1.77695, 1.9088, 1.77576, 1.77821, 1.7754, 1.90739, 1.77558, 1.77349, 1.90744, 1.77422, 1.88717, 1.77412, 1.91612, 1.77203, 1.77405, 1.77601
1.97556, 2.04248, 1.94081, 2.04457, 1.93884, 2.21495, 1.93428, 1.93064, 2.03616, 1.92793, 1.92471, 1.92271, 1.92058, 2.01337, 1.91439, 1.91368, 1.96343, 1.91083, 1.90995, 2.12486, 1.9581, 1.95799, 1.95575, 1.90767, 1.90662, 1.90691, 1.90804, 1.90836, 1.91109, 2.07881, 1.96954, 2.04278, 2.07489, 2.03885, 2.03782, 1.95614, 1.95513, 2.02758, 2.02487, 2.02031, 2.06976, 2.01452, 2.01487, 2.01062, 2.00876, 2.00893, 2.00604, 2.00595, 2.00971, 2.01054, 2.00766, 2.0128, 2.01428, 2.01705, 2.0214, 2.02731, 2.1314, 2.09958, 2.12142, 2.09524, 2.09377, 2.01753, 2.0164, 2.01737, 2.10403, 2.01486, 2.01497, 2.09782, 2.09823, 2.01194, 2.10048, 2.09619, 2.08736, 2.09411, 2.00777, 2.00687, 2.09292, 2.09078, 2.097, 2.00305, 2.08742, 2.00083, 2.08256, 2.08811, 2.08756, 1.99324, 2.08672, 2.09005, 2.0739, 2.08671, 2.06434, 2.06273, 1.98433, 1.98317, 1.983, 2.06359, 2.09085, 1.90038, 2.10364, 2.01431, 1.89261, 1.8874, 2.01373, 1.88271, 1.88015, 1.87945, 1.8761, 1.87365, 1.92401, 1.87387, 2.00681, 1.8717, 1.86978, 1.87015, 1.92103, 1.86945, 1.86786, 1.86797, 1.86869, 1.86938, 1.88737, 1.91761, 1.79296, 1.78983, 1.90464, 1.78411, 1.78226, 1.78152, 1.77839, 1.90018, 1.77741, 1.77534, 1.91313, 1.77708, 1.7757, 1.77409, 1.77572, 1.77567, 1.88867, 1.77489, 1.90917, 1.86858, 1.77525, 1.90932, 1.82617, 1.77348, 1.77236, 1.90095, 1.89589, 1.89419
1.9716, 1.944, 1.9961, 2.00013, 2.06167, 1.93918, 1.93547, 1.93423, 1.98036, 1.97892, 1.97801, 1.92403, 1.92154, 2.13534, 2.03097, 1.96545, 2.02837, 1.91281, 1.96298, 1.9088, 1.90855, 2.10346, 1.90787, 1.90857, 1.90643, 1.90826, 1.90733, 2.01027, 1.90947, 2.08044, 2.07849, 2.07889, 2.04278, 2.07619, 2.04124, 2.03428, 2.17071, 2.02543, 2.17224, 2.02315, 2.01999, 2.01557, 2.01298, 1.9379, 2.06592, 2.15225, 1.93172, 1.92927, 2.00764, 2.06303, 2.1407, 2.01009, 2.01554, 2.01764, 2.02426, 2.05481, 1.95623, 2.11964, 2.09841, 2.13205, 2.11795, 2.09352, 2.01706, 2.0169, 2.10388, 2.11463, 2.01422, 2.11342, 2.01479, 2.11026, 2.01226, 2.01134, 2.01166, 2.08682, 2.10268, 2.09755, 2.10029, 2.00368, 2.09199, 2.09557, 2.00245, 2.08469, 2.08472, 2.07999, 1.99666, 1.99299, 1.99323, 2.08327, 2.07331, 2.08708, 1.9866, 2.06496, 1.98296, 1.98398, 2.05991, 2.07739, 1.95847, 1.90134, 1.89914, 1.89639, 1.89012, 1.88974, 1.88662, 1.93483, 1.8805, 2.09497, 1.87772, 1.87829, 2.09404, 1.87327, 1.8695, 1.87151, 1.87137, 1.87107, 2.094, 1.9615, 1.86748, 1.86763, 1.99712, 1.99094, 1.79786, 1.79569, 1.78948, 1.89574, 1.91319, 1.91145, 1.78112, 1.90094, 1.77794, 1.82636, 1.88672, 1.90388, 1.77463, 1.77249, 1.77138, 1.77258, 1.83434, 1.77224, 1.82274, 1.82383, 1.90602, 1.77321, 1.82372, 1.76991, 1.88751, 1.77224, 1.77128, 1.90357, 1.7717, 1.89919
1.97426, 2.00352, 1.94386, 2.06948, 1.99029, 1.93647, 1.93335, 1.93293, 2.0588, 2.1296, 2.04645, 1.92944, 1.9237, 1.92223, 1.9198, 1.91647, 1.96514, 2.13171, 1.91159, 2.00447, 2.10868, 1.91076, 2.03043, 1.90854, 1.91006, 2.01735, 1.9979, 1.91084, 1.91235, 2.05442, 2.04982, 2.04675, 2.04264, 2.04119, 2.03746, 2.03443, 2.16451, 2.07459, 2.15208, 2.07315, 2.15448, 2.14832, 2.14764, 2.01448, 2.01416, 2.00993, 2.01118, 2.00736, 2.00694, 1.9345, 2.06171, 2.01187, 2.15952, 2.0186, 2.02476, 2.02517, 2.13119, 2.124, 2.129, 2.02016, 2.02106, 2.0189, 2.01729, 2.01708, 2.10962, 2.09362, 2.01631, 2.01419, 2.08712, 2.01292, 2.10467, 2.11071, 2.09755, 2.10788, 2.09492, 2.0908, 2.10074, 2.09964, 2.08955, 2.1077, 2.08928, 2.08573, 2.08933, 2.08949, 2.08044, 2.07357, 2.08029, 2.07991, 2.08953, 2.09356, 2.06377, 1.98569, 1.98364, 1.98258, 2.07663, 2.05948, 1.90854, 1.90301, 2.00961, 2.01002, 1.9579, 1.88975, 1.93572, 1.88207, 1.93089, 1.8763, 1.875, 1.8758, 1.87222, 1.87315, 1.87035, 1.87003, 1.86968, 1.86834, 1.86981, 1.86721, 1.86805, 1.99968, 1.86837, 1.86767, 1.7979, 1.95531, 2.02811, 1.78357, 1.78442, 1.77925, 1.7788, 1.77628, 1.77259, 1.90464, 1.77504, 1.77335, 1.77506, 1.77093, 1.76941, 1.90681, 1.77316, 1.77068, 1.82135, 1.82212, 1.8825, 1.90113, 1.77094, 1.77466, 1.90513, 1.77474, 1.90084, 1.77054, 1.90804, 1.7684
1.9556, 1.99599, 1.94209, 2.04519, 1.99096, 2.05351, 2.06655, 1.98433, 1.93453, 2.13082, 2.03163, 1.92728, 2.04403, 1.92236, 1.92393, 1.98315, 1.9161, 1.91387, 1.91278, 1.96196, 1.91224, 1.90994, 1.96055, 1.91204, 2.00876, 2.01712, 1.9102, 1.91276, 1.96234, 1.97734, 1.97329, 2.04767, 2.0465, 2.04201, 2.03843, 2.0761, 2.15856, 2.0282, 2.16004, 1.94723, 1.9449, 2.01745, 2.06942, 2.01447, 2.06891, 2.01181, 2.01, 2.00788, 2.06436, 2.01102, 2.01226, 2.0127, 2.01471, 2.01783, 2.02419, 2.02853, 2.15074, 2.11122, 2.11123, 2.02157, 2.10323, 2.01762, 2.01646, 2.09296, 2.10219, 2.10057, 2.09039, 2.12218, 2.08812, 2.11512, 2.10693, 2.01266, 2.10001, 2.10051, 2.1095, 2.10118, 2.09481, 2.09407, 2.08647, 2.00238, 2.00287, 2.10029, 1.9996, 2.0972, 1.99623, 2.08308, 2.09084, 1.9887, 2.08084, 2.08819, 2.06286, 1.98559, 1.98392, 1.98339, 1.98144, 2.0625, 1.95829, 1.90441, 1.94885, 1.94553, 1.94162, 1.88959, 1.8843, 1.93472, 1.88053, 1.96483, 1.87719, 1.9242, 1.92498, 1.87238, 1.87471, 1.87111, 1.86856, 1.86854, 1.869, 1.86633, 1.86865, 1.86652, 1.86557, 1.86665, 1.79538, 1.84397, 1.88565, 1.8349, 1.8332, 1.78065, 1.89473, 1.77617, 1.774, 1.87662, 1.77278, 1.878, 1.90321, 1.90254, 1.77051, 1.76927, 1.77155, 1.90183, 1.77148, 1.76838, 1.77184, 1.77234, 1.77011, 1.87313, 1.90262, 1.76866, 1.87362, 1.76771, 1.768, 1.90366
1.95875, 2.06373, 1.94463, 2.06986, 1.94072, 1.98949, 2.06006, 1.93587, 1.98561, 2.05851, 1.9789, 1.97892, 2.13279, 1.92397, 1.92394, 1.92055, 2.12158, 2.04416, 2.11754, 1.91374, 1.91054, 1.91275, 1.91218, 1.96039, 1.9102, 2.10438, 1.91025, 2.00051, 2.03201, 2.0534, 2.05317, 2.04644, 2.04515, 2.0397, 2.03876, 2.03587, 2.03189, 2.15166, 1.95174, 2.02352, 2.16348, 2.01849, 2.01636, 2.01401, 2.06922, 2.01258, 2.01165, 2.00901, 2.01288, 1.93295, 2.00996, 2.01371, 2.01693, 2.02019, 2.02537, 2.05502, 2.14168, 2.11381, 2.10154, 2.1037, 2.09586, 2.09451, 2.01847, 2.01725, 2.01692, 2.01598, 2.10118, 2.11596, 2.11555, 2.01506, 2.10238, 2.0134, 2.1038, 2.10165, 2.10713, 2.10663, 2.08348, 2.07969, 2.08722, 2.09072, 2.09466, 2.09278, 2.08704, 2.1004, 2.08289, 2.08633, 2.08358, 2.07587, 2.07543, 2.08267, 2.09442, 1.98478, 1.98401, 1.98065, 2.06253, 2.05511, 1.90665, 1.90158, 1.95711, 1.94485, 1.89011, 1.88867, 1.88619, 1.88286, 1.88183, 1.87873, 2.01035, 1.8724, 1.87143, 1.87279, 1.92035, 1.94428, 1.86779, 2.00356, 1.8679, 1.96195, 1.86837, 2.0586, 1.97936, 1.87213, 1.79419, 1.79019, 1.7864, 1.78234, 1.77913, 1.77945, 1.7761, 1.95384, 1.77223, 1.77212, 1.77093, 1.76889, 1.76974, 1.76911, 1.90346, 1.76753, 1.76705, 1.76818, 1.76743, 1.76841, 1.76684, 1.76542, 1.76837, 1.76908, 1.90256, 1.90619, 1.7686, 1.76767, 1.90171, 1.76781
1.95992, 1.95004, 1.94544, 1.94329, 1.94319, 1.99232, 1.98934, 2.04478, 2.0457, 2.04198, 1.9822, 1.93127, 2.05625, 2.0501, 1.92217, 1.96964, 2.02922, 1.91535, 1.91802, 1.91301, 1.91076, 1.9106, 1.91057, 1.91253, 2.1032, 2.01764, 1.90997, 1.91358, 1.9153, 2.05357, 2.05285, 2.0851, 2.08328, 2.04495, 2.03801, 2.03656, 2.03464, 1.95475, 2.1531, 2.02663, 2.02417, 2.07354, 2.075, 1.93829, 2.01358, 2.01116, 2.06932, 2.00999, 2.1581, 2.01091, 2.01076, 1.93793, 2.06138, 2.05831, 2.02427, 2.0285, 2.05516, 2.11024, 2.1037, 2.12374, 2.09691, 2.09638, 2.09668, 2.01776, 2.01636, 2.12123, 2.10345, 2.01447, 2.10192, 2.10862, 2.10879, 2.08684, 2.11496, 2.01069, 2.09871, 2.10031, 2.00651, 2.0789, 2.09379, 2.08702, 2.0868, 2.09239, 2.07721, 1.99866, 1.99657, 2.08112, 2.08355, 2.08033, 1.99144, 2.07762, 2.07731, 1.98312, 1.98183, 1.98009, 1.98184, 2.08295, 1.90433, 1.90216, 1.89977, 1.89559, 1.88999, 1.88686, 1.8855, 2.10145, 1.87935, 2.00726, 1.87529, 1.92718, 1.87286, 2.09476, 1.86936, 2.00376, 1.91968, 1.91698, 2.00081, 1.86445, 1.97571, 1.86853, 1.91753, 1.8651, 1.8831, 1.83925, 1.78638, 1.89796, 1.78134, 1.77811, 1.77641, 1.77469, 1.89056, 1.77114, 1.76995, 1.90021, 1.76514, 1.76831, 1.76747, 1.76646, 1.76628, 1.76764, 1.76833, 1.90397, 1.76659, 1.76738, 1.88968, 1.76455, 1.76613, 1.76711, 1.76769, 1.76744, 1.76909, 1.76613
1.97978, 1.94897, 2.05621, 1.94462, 1.9455, 2.06551, 2.14528, 1.93905, 1.98629, 1.98404, 1.93422, 2.13133, 1.93059, 1.92428, 1.97555, 1.97249, 1.96965, 1.98743, 1.9655, 1.96527, 1.96331, 1.91339, 2.13236, 1.9639, 2.01821, 1.91144, 1.91397, 2.00412, 1.9146, 2.05581, 2.05105, 2.08466, 2.04774, 2.04799, 2.03879, 2.04218, 2.03562, 2.07906, 2.02729, 2.16305, 2.02031, 2.02167, 2.01868, 2.07359, 1.93732, 2.0136, 2.01186, 2.06723, 2.0672, 2.01199, 2.06577, 2.01196, 1.94102, 2.15138, 1.94938, 2.03152, 2.13621, 2.11751, 2.10229, 2.10063, 2.10388, 2.10339, 2.09617, 2.01745, 2.10364, 2.12176, 2.11384, 2.01519, 2.11206, 2.11281, 2.01414, 2.10202, 2.09705, 2.01179, 2.11076, 2.00973, 2.09313, 2.09385, 2.0959, 2.00342, 2.00325, 2.09403, 2.09091, 2.09275, 2.08437, 2.07692, 2.07519, 2.07701, 2.07927, 2.08326, 2.07761, 1.98377, 1.9821, 1.98274, 2.05839, 2.05664, 1.90608, 1.90351, 1.90068, 1.89469, 2.01691, 1.88701, 2.09802, 1.88271, 2.10061, 2.0125, 1.98563, 1.87216, 1.87482, 1.87094, 2.00125, 1.86914, 1.86474, 1.8684, 1.91613, 1.86431, 1.86433, 1.86502, 1.86587, 1.86248, 1.89072, 1.88321, 1.78518, 1.78102, 1.77859, 2.01895, 1.77304, 1.7714, 1.76893, 1.77057, 1.8752, 1.76571, 1.90257, 1.76489, 1.88595, 1.81365, 1.76494, 1.76491, 2.02012, 1.76692, 1.76591, 1.93778, 1.81701, 1.88713, 1.81714, 1.99924, 1.87662, 1.76829, 1.76802, 1.77009
1.97717, 1.99966, 1.94863, 1.94549, 1.99667, 1.94238, 2.03311, 1.93756, 2.14259, 2.13522, 2.05664, 2.0568, 1.97905, 1.92956, 1.92727, 1.92195, 1.92133, 1.9185, 1.96797, 2.02433, 1.96398, 1.91631, 1.91414, 1.96388, 1.91272, 1.91365, 1.91515, 1.91508, 2.07998, 2.06194, 2.05525, 2.04789, 2.04752, 2.04497, 2.08408, 2.08344, 1.96153, 2.03036, 2.03047, 2.02739, 2.02432, 1.94526, 2.18072, 2.07405, 2.07226, 2.07057, 2.01125, 2.0115, 2.01078, 1.93557, 2.06479, 2.0158, 2.01744, 1.94457, 2.05939, 2.0329, 2.14488, 2.12063, 2.12852, 2.13117, 2.11506, 2.02037, 2.01936, 2.01575, 2.10349, 2.09994, 2.01887, 2.09089, 2.10014, 2.10708, 2.10274, 2.0974, 2.08717, 2.012, 2.11077, 2.10483, 2.00796, 2.09738, 2.0829, 2.0967, 2.10722, 2.09072, 2.10302, 2.08714, 2.09553, 1.99643, 1.99334, 2.08017, 2.06405, 2.08916, 2.08939, 2.06253, 2.06186, 1.98276, 1.98231, 2.05762, 1.99962, 1.90139, 2.10373, 1.89381, 1.89243, 1.88847, 1.93451, 1.88155, 1.93073, 1.92804, 1.87666, 1.87259, 1.87128, 2.00233, 2.00168, 2.00027, 1.86637, 1.86245, 1.86303, 1.86517, 1.91344, 1.86162, 1.86358, 1.84218, 1.88129, 1.89661, 1.78207, 1.8994, 1.77714, 1.77364, 1.77082, 1.76819, 1.76735, 1.90553, 1.89831, 1.76324, 1.76489, 1.76345, 1.76417, 1.76509, 2.00736, 1.76427, 1.89997, 1.90497, 1.7648, 1.76412, 1.81648, 1.8144, 1.81571, 1.76488, 1.76387, 1.7666, 1.7671, 1.7662
1.97588, 2.00085, 1.94878, 2.05398, 1.94823, 1.94391, 1.99017, 2.05194, 1.98929, 1.93519, 1.98718, 2.13244, 1.93216, 1.93063, 2.05157, 1.925, 1.9735, 1.92111, 1.9165, 1.91304, 2.00276, 2.04139, 1.91403, 1.91541, 1.96493, 1.96615, 2.09649, 1.91498, 1.91815, 2.05672, 2.05213, 2.05165, 2.04946, 2.16317, 2.04248, 2.0405, 1.95964, 1.95533, 2.02675, 2.16346, 2.02527, 1.94493, 1.94506, 2.01496, 2.01476, 2.01337, 2.01436, 2.01191, 2.15805, 2.01446, 2.01436, 2.01341, 2.06168, 1.9453, 2.0272, 2.05979, 2.06099, 2.11909, 2.11084, 2.11474, 2.09778, 2.02221, 2.02017, 2.01845, 2.10821, 2.10774, 2.10775, 2.10148, 2.11494, 2.10002, 2.10691, 2.09403, 2.09578, 2.09831, 2.10042, 2.0904, 2.00723, 2.09767, 2.10164, 2.00361, 2.0872, 2.08413, 1.99919, 1.99823, 1.9979, 1.99566, 2.06942, 2.0834, 2.06374, 2.08444, 2.08368, 1.98358, 2.05741, 2.05948, 2.06042, 2.08937, 1.90533, 2.01218, 1.8979, 1.89316, 2.0146, 1.8878, 1.88193, 1.87976, 1.87919, 1.87694, 1.92532, 1.87152, 1.87064, 1.86843, 1.86716, 1.86521, 1.86806, 1.97226, 1.86312, 1.86462, 1.86017, 1.8613, 1.99667, 1.86082, 1.78553, 1.78479, 1.88033, 1.77906, 1.77321, 1.77004, 1.89915, 1.89906, 1.76841, 1.86419, 1.76404, 1.76328, 1.85298, 1.76246, 1.86306, 1.7602, 1.76123, 1.75877, 1.8975, 1.75894, 1.76111, 1.75993, 1.76208, 1.81457, 1.81487, 1.76306, 1.76468, 1.89422, 1.763, 1.76578
1.97718, 1.9996, 1.94864, 1.99721, 1.94571, 1.94233, 1.94171, 1.99175, 1.98943, 2.04649, 1.93505, 1.98516, 1.93092, 1.93069, 2.04857, 2.12882, 2.12756, 1.97144, 1.91996, 1.91518, 2.04101, 1.91653, 1.96533, 2.13866, 1.91454, 2.02506, 1.91662, 2.00823, 1.918, 2.05954, 2.05553, 2.04994, 2.04893, 2.08724, 2.04152, 2.03886, 2.03763, 2.03429, 2.02964, 2.02758, 2.02426, 1.94586, 1.94421, 2.01706, 2.01546, 2.14852, 1.93754, 2.0122, 2.06894, 2.06938, 2.01351, 2.01414, 2.0184, 2.02151, 2.02706, 1.95794, 2.14985, 2.10271, 2.02761, 2.12114, 2.11327, 2.02202, 2.01893, 2.01714, 2.11034, 2.01745, 2.09128, 2.01679, 2.09056, 2.11352, 2.01512, 2.01408, 2.0131, 2.01167, 2.00952, 2.10676, 2.0941, 2.09666, 2.00405, 2.00339, 2.09333, 2.07778, 2.08124, 2.07391, 2.08032, 1.99483, 1.99493, 2.0892, 2.07437, 2.07962, 1.98621, 1.98286, 1.98255, 1.98137, 2.07006, 2.06964, 1.90514, 1.8972, 1.89671, 1.94354, 1.94936, 1.88633, 1.88404, 1.8799, 2.10069, 2.00711, 1.87394, 2.00924, 1.8688, 1.86942, 1.96802, 1.86637, 1.8662, 1.86498, 2.00087, 1.8607, 1.86027, 1.862, 2.09561, 1.971, 1.78592, 1.78158, 1.77946, 1.77559, 1.89951, 1.89933, 1.7687, 1.89566, 1.87633, 1.90164, 1.76185, 1.81363, 1.75901, 1.90153, 1.90221, 1.9076, 1.90026, 1.76073, 1.76217, 1.76152, 1.7617, 1.89725, 1.76178, 1.89654, 1.76125, 1.89437, 1.76327, 1.76542, 1.76558, 1.89195
1.96028, 2.07652, 1.94856, 1.95088, 1.94826, 1.94311, 1.94327, 1.94066, 1.93844, 1.93612, 2.06031, 1.93482, 1.98561, 1.9817, 2.0499, 1.92837, 1.92324, 2.02981, 1.97019, 1.96914, 1.91727, 1.91386, 1.91323, 2.02447, 1.96562, 1.96518, 1.91688, 2.00904, 1.91729, 2.06023, 2.09007, 2.16926, 2.04879, 2.04719, 2.17336, 2.18729, 2.16283, 2.08318, 2.03074, 2.02775, 2.15879, 2.02195, 2.02118, 2.01878, 2.01766, 2.01425, 2.01327, 2.01293, 2.01354, 2.06552, 2.01399, 2.01626, 2.01791, 2.02144, 2.02475, 2.05822, 2.05532, 2.02816, 2.14764, 2.12455, 2.09938, 2.09408, 2.01986, 2.01741, 2.11842, 2.09413, 2.11329, 2.08934, 2.11677, 2.11447, 2.10916, 2.1108, 2.11199, 2.1107, 2.10738, 2.09688, 2.09315, 2.09444, 2.09061, 2.08662, 2.08386, 2.08256, 2.09344, 2.07979, 2.06902, 2.09015, 1.99424, 2.08194, 2.09135, 2.08143, 2.06628, 1.98577, 1.98223, 2.06355, 2.05941, 2.06101, 2.08999, 2.01462, 1.99029, 1.94203, 1.94062, 1.88313, 2.01358, 1.88009, 1.87664, 1.87537, 1.87276, 1.9628, 1.86916, 1.86852, 1.91724, 1.91516, 1.91355, 2.00324, 1.86471, 1.9124, 1.86195, 1.99481, 1.86036, 1.88914, 1.7836, 1.88941, 1.77796, 1.88586, 1.76829, 1.82005, 1.8833, 1.88419, 1.76298, 1.76192, 1.7606, 1.76051, 1.75954, 1.90121, 1.75937, 1.75929, 1.89956, 1.75877, 1.81756, 1.90324, 1.75934, 1.75961, 1.75863, 1.76109, 1.8959, 1.76269, 1.75923, 1.89141, 1.89023, 1.76797
1.96173, 2.07398, 1.94837, 1.94824, 2.07515, 1.94436, 1.94307, 1.94404, 1.93847, 1.93981, 2.14166, 1.93763, 1.93444, 1.93111, 1.98412, 1.93103, 2.12763, 1.92304, 1.92052, 1.92045, 1.91766, 1.91496, 1.9144, 1.96539, 1.91446, 2.10095, 1.91611, 1.91798, 1.9172, 2.06233, 2.05805, 2.09029, 2.08803, 2.04677, 2.04467, 2.08422, 2.17989, 2.03455, 2.03107, 2.16615, 2.0273, 2.02278, 2.07552, 1.94355, 2.01722, 2.01775, 1.93735, 2.15166, 2.01142, 2.01402, 2.06583, 2.01407, 2.15287, 2.06244, 1.949, 2.03181, 2.15518, 2.11377, 2.11345, 2.11017, 2.02107, 2.02034, 2.0178, 2.01871, 2.0182, 2.10003, 2.0169, 2.10298, 2.11475, 2.1009, 2.10339, 2.09392, 2.10389, 2.01052, 2.00808, 2.08801, 2.00898, 2.08986, 2.10397, 2.10126, 2.10073, 2.00062, 2.09126, 2.09112, 1.99668, 1.99608, 1.99264, 1.99068, 2.07596, 2.07585, 2.0725, 1.98368, 1.98343, 1.98125, 1.98015, 2.08288, 1.905, 1.89856, 1.89578, 1.89395, 1.98668, 2.09658, 1.88418, 1.88032, 2.00555, 2.08718, 2.08679, 2.01038, 1.86851, 1.91672, 1.86533, 2.08261, 1.86122, 1.86311, 2.09329, 1.8615, 1.86038, 1.9105, 1.85901, 1.78583, 1.7834, 1.89702, 1.87262, 1.77299, 1.76831, 1.81891, 1.81706, 1.76365, 1.76136, 1.76222, 1.76123, 1.75817, 1.75811, 1.75657, 1.75651, 1.7584, 1.75766, 1.75847, 1.75836, 1.75882, 2.00709, 1.75893, 1.89546, 1.89272, 1.86309, 1.99346, 1.88937, 1.94393, 1.76303, 1.88603
1.97641, 1.95059, 1.95073, 1.94957, 1.94842, 1.94524, 1.94289, 1.94198, 2.06468, 1.94122, 1.93822, 1.93798, 1.93458, 1.9857, 1.93399, 1.99636, 1.92629, 2.04984, 1.9237, 1.91965, 1.91681, 1.91529, 2.03924, 1.91564, 1.91458, 2.03101, 1.91768, 1.9174, 1.96834, 1.98549, 2.09356, 1.98028, 2.05251, 2.0487, 2.04497, 1.96518, 1.96032, 2.03591, 2.03183, 2.081, 2.15941, 2.07969, 2.02218, 2.01807, 2.01733, 1.94011, 2.01713, 2.01425, 2.01372, 2.0172, 2.01488, 2.01397, 2.01873, 1.94594, 2.02747, 2.05867, 2.05518, 2.10571, 2.11398, 2.12024, 2.1188, 2.09772, 2.01874, 2.0186, 2.12146, 2.09873, 2.09431, 2.0171, 2.10027, 2.10425, 2.10604, 2.01435, 2.10343, 2.09406, 2.09997, 2.00767, 2.10452, 2.08377, 2.00318, 2.00414, 2.09655, 2.09275, 2.10596, 2.08806, 2.08866, 2.08152, 2.08394, 2.08224, 2.09326, 2.07172, 1.9834, 1.98284, 1.98189, 1.98102, 2.07074, 2.06608, 2.0301, 2.00425, 1.89554, 1.96573, 1.88828, 2.01309, 2.10069, 1.87859, 1.98569, 1.92401, 1.9698, 1.87151, 1.8689, 1.8662, 1.91449, 1.86525, 1.9142, 2.08026, 1.86253, 1.8579, 1.85886, 1.85816, 1.9101, 1.94016, 1.78089, 1.7778, 1.77515, 1.77134, 1.76929, 1.83479, 1.8319, 1.89858, 1.76093, 1.89527, 1.75716, 1.75569, 1.89735, 1.75631, 1.75621, 1.89791, 2.00982, 1.75674, 1.89592, 1.75829, 1.75678, 1.75541, 1.75854, 1.88807, 1.89118, 1.76091, 1.88781, 1.76099, 1.76338, 1.76268
1.97793, 2.00131, 2.00236, 2.07714, 1.94842, 2.03785, 1.94525, 1.94305, 1.94136, 2.1395, 1.98946, 1.93932, 1.93514, 1.93744, 1.9359, 1.92975, 1.93145, 1.92677, 1.92131, 1.91848, 1.91841, 1.96496, 2.03103, 1.91423, 1.91689, 1.96608, 1.91667, 1.96837, 2.08214, 1.98722, 2.05711, 2.05073, 2.09132, 1.97314, 2.04247, 2.04282, 2.03822, 2.03525, 2.16838, 2.03014, 2.17229, 2.08016, 2.02042, 2.07631, 2.01843, 2.01573, 2.01646, 2.06933, 1.93851, 2.01461, 2.01512, 2.06508, 2.0221, 2.02356, 2.05917, 2.03231, 2.04214, 2.02776, 2.11832, 2.02534, 2.09771, 2.02141, 2.01988, 2.01848, 2.01027, 2.10695, 2.09183, 2.01754, 2.01654, 2.1098, 2.09029, 2.01197, 2.08846, 2.08798, 2.08574, 2.09815, 2.08622, 2.09605, 2.00595, 2.00333, 2.10063, 2.00074, 2.00037, 2.09471, 2.08072, 2.09139, 2.08109, 1.99169, 2.08346, 2.0662, 2.05578, 1.98322, 1.97955, 1.9789, 1.97991, 2.06299, 1.98772, 1.89704, 2.09067, 1.89228, 1.98108, 1.9365, 1.93193, 1.9795, 1.99698, 1.99578, 1.87159, 2.00452, 1.86781, 1.86677, 1.96294, 1.86485, 1.86282, 1.86215, 1.99839, 1.86146, 1.85989, 1.85797, 1.91307, 1.90055, 1.89806, 1.89007, 1.88587, 1.89649, 1.88801, 1.87205, 1.76164, 1.75957, 1.90235, 1.89786, 1.75483, 1.8543, 1.75446, 1.89331, 1.8947, 1.75487, 1.89232, 1.89333, 1.89165, 1.80585, 1.75354, 1.75563, 1.75549, 1.75774, 1.75782, 1.76058, 1.75977, 1.88514, 1.88258, 1.87289
1.9616, 1.95161, 2.06903, 1.9492, 1.99989, 1.94366, 1.94492, 1.94501, 2.13222, 1.99145, 2.05474, 1.94126, 2.14217, 1.93786, 1.93463, 2.02765, 1.93092, 1.92565, 1.92586, 1.92239, 1.968, 1.96629, 1.96548, 1.91624, 1.91679, 1.91733, 1.91822, 1.91848, 1.96865, 2.09391, 2.06073, 2.05673, 2.05213, 2.04844, 2.08922, 1.96728, 2.03828, 2.08416, 2.03268, 2.03081, 2.02757, 2.02733, 1.94785, 2.02364, 2.01788, 2.01469, 2.01434, 2.01454, 2.07054, 2.01423, 2.0161, 2.15955, 2.01878, 2.02201, 1.951, 2.13134, 2.05637, 2.02873, 2.02744, 2.11149, 2.11087, 2.02069, 2.01916, 2.01969, 2.01758, 2.11547, 2.11453, 2.11115, 2.01514, 2.01529, 2.10723, 2.10135, 2.0132, 2.10013, 2.09419, 2.09802, 2.10261, 2.10481, 2.09609, 2.09448, 2.08711, 2.0847, 2.0901, 2.0893, 2.07881, 2.08007, 2.0808, 1.99145, 1.98865, 2.06062, 1.98587, 1.98231, 1.97979, 1.9795, 1.97944, 2.07355, 1.90359, 1.89934, 1.89553, 1.89044, 1.88821, 2.08327, 2.10056, 1.87549, 1.87857, 1.87491, 1.87216, 1.86591, 1.91674, 2.00259, 2.00622, 2.09799, 1.85968, 1.85991, 1.86036, 1.86077, 1.86431, 1.85999, 1.86062, 1.8325, 1.77668, 1.77595, 1.77206, 1.76539, 1.76275, 1.76243, 1.75904, 1.75831, 1.75744, 1.75489, 1.75396, 1.75371, 1.75497, 1.7547, 1.75459, 1.75172, 1.89158, 1.75318, 1.75479, 1.7559, 1.88594, 1.75525, 1.75421, 1.75558, 1.75622, 1.88488, 1.75759, 1.88243, 1.76133, 1.76174
1.97661, 1.95267, 1.95019, 1.95073, 2.00063, 1.99827, 1.99758, 2.14327, 1.94132, 1.942, 1.99112, 1.98995, 1.93997, 1.98717, 1.93708, 1.93332, 2.13132, 1.92969, 1.92431, 1.92039, 1.91823, 2.03874, 1.96497, 1.96552, 2.03202, 1.91728, 2.02796, 2.02855, 2.10021, 1.98601, 2.09089, 1.97894, 2.05225, 2.05114, 2.04834, 2.08585, 2.03901, 2.03765, 2.03458, 2.03062, 2.03014, 2.02603, 2.02251, 2.02262, 2.01857, 2.01709, 2.0145, 2.06976, 2.01394, 2.06605, 2.01682, 2.01724, 1.94474, 2.0219, 2.02642, 2.03152, 2.05903, 2.11519, 2.02747, 2.11125, 2.12024, 2.09826, 2.01919, 2.01826, 2.01707, 2.10907, 2.10268, 2.11389, 2.10823, 2.01466, 2.09715, 2.10446, 2.08588, 2.08371, 2.10484, 2.08411, 2.09435, 2.00685, 2.07871, 2.08677, 2.09984, 2.0001, 2.08432, 2.07087, 2.09308, 2.09009, 2.08457, 2.091, 2.0867, 2.07395, 2.06305, 1.98242, 1.98049, 1.97973, 1.97887, 2.05977, 1.95289, 1.89849, 1.89566, 2.01233, 1.88797, 1.93561, 1.88412, 2.10126, 1.97311, 1.87494, 2.0038, 1.91864, 1.91624, 1.91578, 1.86472, 1.86313, 1.86258, 1.86128, 1.96147, 1.85948, 1.86143, 1.90936, 1.91324, 1.94264, 1.88042, 1.77163, 1.76908, 2.01709, 1.76211, 1.76001, 1.75845, 1.80603, 1.75853, 1.75339, 1.75147, 1.85101, 1.89384, 1.74875, 1.80257, 1.80336, 1.80228, 1.75291, 1.75009, 1.75262, 1.75428, 1.75185, 1.88719, 1.7533, 1.75722, 1.75749, 1.80644, 1.8623, 1.75785, 1.76051
2.02701, 1.95104, 2.0012, 1.95093, 2.0746, 1.99716, 1.99446, 1.94424, 2.06478, 1.94063, 2.05998, 1.94489, 2.13561, 1.93776, 1.98468, 2.05552, 1.93063, 2.04746, 1.92351, 2.03449, 2.04156, 2.04077, 1.91522, 1.91653, 1.91681, 1.918, 1.91952, 2.01921, 1.92068, 2.16677, 1.98373, 2.09015, 2.05506, 2.04885, 2.04806, 2.1907, 2.04229, 2.03796, 2.03647, 2.15875, 2.02826, 2.02493, 2.02533, 2.02061, 2.15899, 2.01849, 2.01461, 2.01501, 1.93845, 2.01419, 2.01655, 2.15312, 1.94259, 1.9452, 2.02757, 2.03066, 2.05481, 2.0284, 2.11167, 2.02464, 2.10203, 2.1009, 2.09852, 2.01793, 2.01882, 2.10485, 2.11003, 2.01693, 2.09738, 2.10935, 2.10895, 2.0903, 2.08756, 2.08602, 2.10812, 2.09408, 2.10011, 2.09008, 2.08807, 2.09005, 2.07959, 2.0768, 2.08239, 1.99739, 2.07234, 1.99387, 2.06804, 2.08547, 2.06182, 2.06015, 2.05592, 1.98136, 1.97923, 1.97674, 2.05506, 2.05182, 1.99587, 1.99396, 1.89279, 1.89203, 1.93924, 1.88536, 1.87895, 1.92823, 1.87634, 1.87289, 2.00399, 2.00707, 1.86553, 1.86494, 1.8632, 2.00042, 1.86148, 1.96003, 1.99615, 1.85953, 1.85889, 1.86145, 1.85942, 1.87987, 1.87801, 1.77111, 1.89313, 1.76442, 1.76173, 1.75763, 1.75398, 1.75498, 1.89941, 1.75263, 1.75094, 2.01446, 1.74943, 1.75023, 1.79999, 1.87565, 1.81385, 1.75086, 1.75044, 1.7512, 1.75117, 1.75095, 1.75309, 1.88221, 1.75389, 1.75495, 1.75456, 1.75505, 1.75843, 1.76106
1.96038, 1.95448, 2.00302, 1.99996, 1.94901, 1.9479, 1.94635, 1.94239, 2.12879, 2.12953, 2.06018, 1.93811, 1.93848, 2.13139, 1.93251, 2.0468, 2.04586, 1.92528, 1.92424, 1.97013, 1.91823, 1.91669, 1.91494, 1.91603, 1.91669, 2.00042, 1.92, 1.97861, 1.91755, 2.0627, 2.17044, 2.05559, 2.05314, 2.08821, 1.973, 2.16201, 2.08585, 1.96129, 2.03376, 1.95447, 2.02778, 1.94898, 2.17007, 2.0203, 2.01573, 2.0688, 2.14619, 2.01575, 2.0139, 2.01423, 2.01443, 1.94051, 2.01951, 2.02225, 2.0266, 1.95455, 2.1436, 2.11815, 2.13116, 2.13189, 2.02388, 2.09924, 2.10117, 2.09482, 2.09478, 2.09736, 2.10327, 2.0157, 2.09294, 2.01496, 2.0983, 2.10458, 2.01172, 2.00889, 2.0929, 2.08677, 2.00582, 2.09839, 2.08228, 2.09087, 2.00194, 2.07686, 2.07952, 2.09356, 2.07988, 1.99464, 1.9906, 2.08077, 2.06102, 2.06067, 1.98266, 1.98122, 1.97924, 1.97841, 1.976, 2.07192, 1.90342, 1.8984, 1.89463, 1.88978, 1.88834, 1.88533, 2.00707, 1.98343, 1.92638, 1.8719, 1.87153, 1.86974, 2.10426, 1.86588, 1.86381, 1.99881, 1.86246, 1.91703, 2.08986, 1.86026, 1.86199, 1.8595, 1.86015, 1.77562, 1.77185, 1.76871, 1.89666, 1.88179, 1.75873, 1.75746, 1.75431, 1.86382, 1.90075, 1.89928, 1.8996, 1.74748, 1.89903, 1.74618, 1.79778, 1.74827, 1.79755, 1.88949, 1.8859, 1.84288, 1.74975, 1.7488, 1.74783, 1.7528, 1.74986, 1.75139, 1.84894, 1.86682, 1.75399, 1.80653
1.97691, 2.00271, 1.9511, 1.95013, 2.04765, 2.04886, 1.94802, 1.94589, 1.94218, 1.94254, 1.94063, 1.93731, 1.93583, 2.13294, 1.93104, 1.93109, 1.92765, 1.92511, 2.04914, 1.96947, 1.96882, 1.91671, 2.04388, 2.04087, 2.03384, 1.91654, 1.96955, 1.97083, 1.92292, 2.06018, 1.98396, 2.08703, 2.08741, 2.04921, 2.08387, 2.04628, 2.04283, 2.08309, 1.95869, 2.03352, 2.02851, 2.02706, 2.02368, 1.94486, 2.07325, 2.01698, 2.01691, 2.01435, 2.01517, 2.01396, 2.06605, 2.01751, 2.06205, 2.02464, 2.05919, 1.95538, 2.05384, 2.02814, 2.1171, 2.02513, 2.02222, 2.09939, 2.09891, 2.09524, 2.09501, 2.09258, 2.11367, 2.11705, 2.10161, 2.11238, 2.10207, 2.08225, 2.09722, 2.11007, 2.09278, 2.00657, 2.00547, 2.1017, 2.09413, 2.08486, 2.07818, 2.08484, 2.09986, 2.09406, 2.087, 2.08876, 2.08702, 2.08916, 2.09404, 2.06669, 2.0559, 1.98101, 1.97857, 1.9756, 2.05908, 1.9755, 1.9537, 1.89698, 2.01271, 1.89239, 1.88806, 2.01136, 1.88191, 1.87868, 1.87692, 1.87435, 1.92126, 1.92333, 1.8661, 1.86623, 1.86554, 1.86467, 1.86309, 1.86491, 1.86352, 2.08737, 1.86103, 1.86538, 1.86183, 1.77446, 1.89779, 1.76545, 1.89664, 1.8961, 1.75804, 1.89489, 1.90287, 1.75068, 1.89672, 1.89975, 1.74742, 1.89156, 1.74715, 1.74756, 1.74768, 1.79687, 1.79634, 1.7458, 1.88764, 1.88323, 1.74888, 1.74837, 1.8796, 1.75058, 1.876, 1.75104, 1.75508, 1.75218, 1.75482, 1.86763
1.97692, 2.00691, 2.00302, 1.95233, 1.94883, 1.94952, 1.94547, 1.99339, 1.94192, 2.126, 1.93903, 2.06263, 1.93834, 2.13243, 1.98183, 1.98005, 1.92604, 1.92409, 1.92116, 1.91997, 1.91682, 1.9651, 1.91733, 2.01994, 1.91462, 1.91438, 1.92002, 1.92091, 2.06613, 2.06296, 2.16651, 2.05815, 1.97945, 1.97191, 2.04594, 2.04348, 2.0418, 2.04159, 2.03441, 2.0312, 2.03054, 2.02876, 2.07533, 2.02079, 2.02003, 2.01749, 1.93853, 2.01584, 2.01387, 2.01352, 2.01636, 2.012, 2.01878, 2.02039, 2.02624, 1.95797, 2.05612, 2.0282, 2.11806, 2.10748, 2.09794, 2.01981, 2.01978, 2.01997, 2.1045, 2.11358, 2.10692, 2.09756, 2.1032, 2.10509, 2.1167, 2.01367, 2.01146, 2.01071, 2.10915, 2.00664, 2.08798, 2.09253, 2.08706, 2.09941, 1.99994, 2.08944, 2.09383, 2.09257, 2.08386, 1.99373, 2.08383, 2.07926, 2.09404, 1.98619, 2.06387, 1.98167, 1.97867, 1.9761, 1.97743, 2.06567, 2.0045, 1.90006, 2.0048, 1.9858, 1.8869, 1.88606, 1.99388, 1.87907, 1.87727, 1.87445, 1.87015, 1.86895, 1.86765, 1.98197, 1.91637, 1.8664, 1.86545, 1.86625, 1.86525, 2.07941, 1.86319, 1.86498, 1.85998, 1.77251, 1.8886, 1.86773, 1.76262, 1.75984, 1.75644, 1.75452, 1.852, 1.75022, 1.74803, 1.74577, 1.74491, 1.74424, 1.74442, 1.89335, 1.7441, 1.887, 1.74748, 1.74385, 1.88648, 1.74586, 1.74618, 1.87952, 1.74781, 1.87936, 1.87936, 1.74877, 1.74891, 1.74858, 1.88872, 1.88622
1.97717, 2.0841, 1.95241, 1.95261, 1.9494, 1.94778, 2.06922, 2.06663, 1.9426, 1.93907, 1.93635, 1.93653, 1.93313, 1.93209, 1.97933, 1.97855, 1.92444, 1.92082, 1.92164, 1.92051, 1.91738, 1.91545, 1.91455, 1.91741, 1.91747, 1.91718, 2.02312, 2.02201, 1.92338, 2.06628, 2.05977, 2.08901, 2.05131, 2.05236, 2.04793, 2.04668, 2.18317, 2.17767, 2.1658, 2.03132, 2.02737, 2.02501, 1.94821, 2.02028, 2.0206, 2.01699, 1.93933, 2.01735, 2.01243, 2.01724, 1.94103, 2.01689, 1.94096, 2.02236, 2.14764, 2.15965, 2.14809, 2.12038, 2.12731, 2.10112, 2.10084, 2.02029, 2.02058, 2.01708, 2.0193, 2.01569, 2.09164, 2.11108, 2.11301, 2.01471, 2.01314, 2.01378, 2.01117, 2.10737, 2.08474, 2.00747, 2.08225, 2.0801, 2.09438, 2.09818, 2.00282, 1.99993, 2.08587, 1.99662, 2.08623, 2.08246, 1.9894, 2.07845, 1.98585, 2.07654, 2.07967, 1.97903, 1.9758, 1.97651, 1.97499, 2.06757, 1.90623, 1.90272, 1.94627, 1.99932, 1.89016, 1.98063, 2.00701, 1.87965, 1.87654, 1.87335, 2.09763, 1.87185, 1.86908, 1.86811, 1.86678, 1.86723, 1.86582, 1.94639, 1.91774, 1.86531, 1.86556, 1.86639, 1.86599, 1.77005, 1.76588, 1.76273, 1.75936, 1.89687, 1.75577, 1.75336, 1.74892, 1.74419, 1.74467, 1.74468, 1.74378, 1.89325, 1.74259, 1.74133, 1.88877, 1.73965, 1.74239, 1.74352, 1.88134, 1.83787, 1.88123, 1.97617, 1.74581, 1.87674, 1.87502, 1.74631, 1.80037, 1.74974, 1.87335, 1.87603
1.97605, 1.95117, 2.07122, 1.94865, 2.00082, 1.94774, 1.99629, 1.94265, 1.94243, 2.14379, 1.93866, 1.93641, 1.93387, 2.14158, 1.92954, 2.05833, 2.05128, 2.03632, 2.01639, 1.91693, 1.91653, 1.91692, 1.91713, 1.91407, 1.96691, 1.96848, 1.91788, 2.02552, 1.9239, 2.06215, 2.08756, 2.05678, 2.05787, 2.05347, 2.08112, 2.04382, 2.04376, 1.96151, 2.17003, 2.17553, 2.02793, 2.02672, 1.94652, 2.02358, 2.07253, 2.07026, 2.01689, 2.01524, 2.01347, 2.01493, 2.01812, 2.01509, 2.15285, 2.02276, 2.02764, 1.95163, 2.06212, 2.02593, 2.11299, 2.09859, 2.09666, 2.09293, 2.09524, 2.01569, 2.01838, 2.01704, 2.10528, 2.10057, 2.09138, 2.10009, 2.11038, 2.10657, 2.0996, 2.00947, 2.08836, 2.09621, 2.09691, 2.08844, 2.07644, 2.08661, 2.09213, 2.09101, 1.99713, 2.06806, 2.07946, 2.10159, 2.07708, 2.0728, 1.98594, 2.0724, 2.07725, 1.97784, 2.05317, 1.97564, 1.97421, 1.97362, 1.95528, 1.90086, 1.89783, 1.89427, 1.99299, 1.93546, 1.93314, 1.8803, 1.92943, 1.92428, 1.87365, 1.87008, 2.08025, 1.87095, 1.86714, 1.86912, 1.91922, 1.8692, 1.91717, 1.86866, 1.86809, 1.98764, 1.86806, 1.8671, 1.76323, 1.75986, 1.8988, 1.883, 1.75153, 1.7494, 1.7445, 1.89721, 1.745, 1.89682, 1.74195, 1.74012, 1.7414, 1.74052, 1.74057, 1.74067, 1.74076, 1.7405, 1.7407, 1.74095, 1.74358, 1.74195, 1.74421, 1.79332, 1.74547, 1.87632, 1.74801, 1.74656, 1.74861, 1.86504
1.97891, 2.00338, 2.00308, 2.07256, 1.95049, 2.06397, 2.06869, 1.94386, 1.94249, 1.9392, 2.13652, 1.93818, 1.92983, 1.93076, 1.92868, 1.92589, 1.92299, 1.92199, 2.01873, 2.04655, 1.91734, 1.91608, 1.91694, 1.9168, 2.01757, 2.03189, 1.9702, 1.9232, 1.92383, 1.987, 2.16259, 2.05731, 2.05416, 2.05201, 2.04664, 2.04462, 2.04218, 2.07947, 2.03352, 2.03126, 2.02869, 2.02391, 2.02276, 2.02075, 2.1559, 2.01778, 2.01819, 1.93853, 1.93772, 2.06608, 2.01129, 2.01378, 2.01634, 2.02115, 1.94823, 2.03152, 2.15691, 2.12118, 2.02503, 2.11407, 2.0982, 2.01882, 2.01885, 2.0174, 2.01718, 2.09138, 2.0903, 2.1096, 2.09023, 2.01505, 2.10731, 2.12511, 2.11444, 2.00924, 2.00932, 2.09352, 2.09174, 2.08986, 2.08703, 2.09078, 2.00111, 2.09238, 1.99754, 1.9956, 2.08919, 2.08202, 2.08189, 2.08647, 1.98392, 1.98245, 2.05308, 1.97511, 1.97579, 1.97572, 1.97658, 2.05851, 1.90684, 1.90114, 1.89659, 1.8934, 1.95873, 1.9359, 1.93295, 1.87983, 1.87849, 1.87567, 1.87498, 1.87175, 2.00328, 1.86996, 1.87011, 1.87182, 1.92007, 1.92053, 1.86903, 1.86913, 1.86689, 1.91862, 1.86639, 1.76221, 1.76124, 1.87148, 1.75585, 1.75114, 1.87399, 1.89701, 1.89543, 1.89381, 1.74425, 1.74052, 1.74056, 1.89522, 1.88673, 1.7379, 1.73813, 1.73787, 1.73788, 1.73936, 1.74007, 1.73667, 1.73907, 1.83701, 1.74183, 1.79278, 1.74222, 1.74374, 1.7449, 1.87443, 1.74518, 1.7454
1.97362, 1.94978, 1.95498, 1.9493, 1.94869, 1.94834, 1.94626, 1.94397, 1.94117, 1.93823, 1.93528, 1.93358, 1.93152, 2.04239, 2.04028, 1.92299, 1.92091, 2.03731, 2.0377, 1.96889, 1.91726, 1.91998, 1.91664, 1.91698, 1.96809, 1.91791, 1.91956, 1.97398, 1.97371, 2.05993, 2.05974, 2.05681, 2.05215, 2.05147, 2.04761, 2.17494, 2.0389, 2.0363, 2.03516, 2.03432, 2.02808, 2.02547, 2.15216, 2.01991, 2.0731, 2.07248, 2.01417, 2.01468, 2.06412, 2.01483, 2.01478, 2.14733, 2.01729, 2.02116, 2.05697, 2.1431, 2.0546, 2.02735, 2.02431, 2.09806, 2.01982, 2.01767, 2.01711, 2.01612, 2.10383, 2.11457, 2.08991, 2.10745, 2.0935, 2.10436, 2.01362, 2.10129, 2.01055, 2.10123, 2.09427, 2.00643, 2.08987, 2.09791, 2.09717, 2.08782, 2.00024, 2.0872, 2.10486, 1.99658, 2.08649, 2.08175, 2.08967, 1.98741, 1.98625, 2.0669, 1.97914, 1.97671, 1.97599, 1.97595, 2.058, 2.04668, 1.95665, 1.90124, 1.89635, 2.00566, 1.88925, 1.88669, 1.88597, 2.00595, 1.87856, 1.87654, 1.87404, 1.92409, 1.92168, 1.87206, 1.92132, 1.87213, 1.86999, 1.87041, 1.86931, 1.86887, 1.92031, 1.86871, 1.91977, 1.81289, 1.75907, 1.75404, 1.75361, 1.75108, 1.88666, 1.7457, 1.74174, 1.74246, 1.84539, 1.84133, 1.7383, 1.73586, 1.89296, 1.73542, 1.73656, 1.88393, 1.7372, 1.88579, 1.73616, 1.73729, 1.73771, 1.88039, 1.74142, 1.74454, 1.74258, 1.74383, 1.8629, 1.74017, 1.87116, 1.74592
1.95941, 2.06965, 1.95081, 2.06978, 2.06602, 2.0652, 1.99443, 1.9914, 1.99127, 1.98694, 1.98574, 2.13617, 1.92959, 1.92902, 1.92824, 1.92301, 1.92287, 1.91932, 1.92063, 1.96711, 2.10146, 1.91734, 1.91793, 1.91677, 1.96929, 2.11207, 1.92054, 1.91904, 1.98784, 2.17664, 2.05951, 2.05456, 2.08045, 1.9757, 1.96816, 2.15689, 2.03877, 2.15465, 2.15615, 2.02889, 2.07688, 2.02646, 2.07288, 2.14846, 2.06939, 2.02043, 2.01402, 2.01704, 2.01536, 2.01433, 2.01329, 2.01431, 2.01849, 2.02233, 2.02445, 2.03405, 2.14821, 2.11084, 2.11692, 2.11113, 2.01922, 2.01876, 2.01619, 2.01586, 2.01466, 2.01378, 2.01468, 2.11851, 2.01433, 2.10401, 2.01317, 2.01078, 2.09449, 2.09158, 2.10361, 2.10009, 2.09281, 2.00339, 2.08985, 2.09228, 2.08551, 2.10099, 2.08326, 2.0695, 1.99331, 2.08122, 2.07599, 2.08229, 1.98476, 2.06498, 2.05548, 1.97728, 2.05292, 1.97427, 1.97528, 2.05591, 1.90535, 1.90296, 2.08989, 1.89364, 1.88998, 1.88576, 1.8839, 1.88537, 1.93168, 1.9623, 1.8773, 1.94808, 1.87562, 1.87321, 1.92458, 1.8691, 1.86982, 1.87053, 1.87151, 1.8718, 1.92103, 1.86983, 2.05057, 1.75955, 1.75637, 1.75255, 1.75055, 1.74633, 1.744, 1.7437, 1.74122, 1.74057, 1.89562, 1.73787, 1.73332, 1.89543, 1.73253, 1.73412, 1.88906, 1.85362, 1.78284, 1.78263, 1.88602, 1.73487, 1.73557, 1.73717, 1.73819, 1.73854, 1.73837, 1.87246, 1.74328, 1.85458, 1.74201, 1.86639
1.974, 1.95134, 1.94878, 1.9466, 2.06636, 1.94496, 1.94321, 2.02508, 1.98985, 1.93496, 1.9345, 2.03782, 2.05494, 1.928, 2.03741, 1.9228, 1.92387, 1.92024, 2.05256, 1.96827, 1.92065, 2.02387, 1.91954, 2.1144, 2.02698, 1.91952, 2.02542, 1.92199, 2.0666, 2.06174, 2.08438, 2.05735, 1.97571, 1.97392, 2.04833, 2.07762, 2.04492, 2.03621, 2.03418, 2.17302, 1.95445, 2.0759, 2.07253, 2.02051, 2.01831, 2.01863, 2.01567, 2.01341, 2.01369, 2.06372, 2.01241, 1.93797, 1.94178, 1.94355, 2.02673, 1.95262, 2.13613, 2.02345, 2.11247, 2.12137, 2.11198, 2.01744, 2.01668, 2.0152, 2.09301, 2.08808, 2.11685, 2.01378, 2.11164, 2.01295, 2.10122, 2.10098, 2.01019, 2.09462, 2.08765, 2.09133, 2.00597, 2.10684, 2.00349, 2.08922, 2.11472, 2.08396, 2.08304, 2.08064, 2.07356, 1.99011, 2.07933, 1.98745, 2.0742, 2.06355, 2.05841, 2.05794, 1.97562, 1.97218, 1.97355, 2.08122, 1.90385, 1.90166, 1.89765, 2.09268, 1.89056, 2.00147, 2.00061, 1.88019, 1.88005, 1.87578, 1.8771, 1.87873, 2.00136, 1.8761, 1.87525, 1.87482, 1.87365, 1.87506, 1.87007, 1.87175, 2.08066, 2.08002, 1.87125, 1.83416, 1.75224, 1.90801, 1.74736, 1.79583, 1.7416, 1.74108, 1.73697, 1.73708, 1.736, 1.73504, 1.89666, 1.89539, 1.73376, 1.73077, 1.7306, 1.72991, 1.88872, 1.73028, 1.73274, 1.73136, 1.88173, 1.87687, 1.87523, 1.87522, 1.73742, 1.73703, 1.74043, 1.74082, 1.74179, 1.73951
1.97511, 1.94819, 1.94583, 2.0584, 2.06283, 1.94297, 1.94221, 2.06273, 1.93942, 1.98628, 2.06182, 1.93154, 1.92903, 1.92571, 2.03749, 2.03785, 1.92075, 1.92247, 1.91796, 1.92009, 1.91874, 1.92038, 1.91706, 1.91877, 1.9176, 1.91722, 1.92069, 2.0213, 2.06329, 2.06494, 2.05987, 2.0552, 2.04671, 2.05011, 1.97095, 1.9661, 2.0415, 2.03632, 2.0765, 2.02818, 1.95185, 2.0254, 1.94757, 2.01838, 2.01738, 2.01667, 2.01708, 1.9373, 1.93542, 2.01151, 1.93726, 1.93819, 2.01657, 2.01925, 2.02169, 2.02872, 2.12747, 2.10028, 2.10013, 2.10108, 2.10381, 2.0153, 2.01414, 2.0149, 2.11834, 2.01147, 2.11297, 2.10732, 2.01147, 2.01306, 2.09763, 2.00994, 2.00951, 2.09984, 2.09061, 2.08762, 2.10655, 2.00375, 2.0906, 2.00025, 1.9993, 2.08767, 2.09469, 1.99364, 2.06928, 2.08073, 2.06857, 2.09294, 2.08319, 1.98075, 1.97811, 1.97614, 1.97339, 1.97217, 2.04918, 2.06584, 1.90704, 1.90064, 2.00381, 1.89539, 1.88904, 1.88661, 1.93575, 1.93389, 1.88228, 1.93119, 1.99989, 1.8766, 1.87627, 1.97651, 1.87373, 1.87592, 1.87313, 1.92906, 1.92898, 2.07657, 1.8732, 1.98594, 1.87373, 1.75251, 1.74994, 1.79763, 1.88905, 1.74211, 1.73999, 1.73807, 1.78984, 1.73485, 1.7346, 1.8044, 1.73063, 1.73016, 1.72836, 1.72721, 1.72802, 1.88682, 1.72728, 1.72869, 1.7298, 1.73111, 1.88311, 1.73094, 1.73582, 1.73524, 1.73689, 1.73718, 1.73697, 1.73684, 1.86194, 1.73899
1.95714, 1.94814, 1.94745, 1.94681, 1.94476, 2.14098, 1.9414, 1.93951, 1.98628, 2.06542, 1.93337, 1.98198, 1.92734, 2.05447, 1.92725, 2.03669, 1.92304, 2.04653, 1.91984, 1.91761, 2.04245, 1.91736, 1.96939, 1.92034, 1.9199, 1.91967, 1.91777, 1.9186, 1.9716, 2.06288, 2.05819, 2.05539, 2.05176, 2.05122, 2.07578, 2.04112, 2.07731, 2.03453, 2.03496, 2.02972, 2.07375, 2.02452, 2.07169, 2.02112, 2.15423, 2.06931, 2.01427, 2.01368, 2.0112, 2.01097, 2.0136, 2.06083, 2.0592, 2.01718, 2.02171, 2.02535, 2.13458, 2.09708, 2.02249, 2.10476, 2.11862, 2.09738, 2.01316, 2.01355, 2.01339, 2.01106, 2.1286, 2.10722, 2.10431, 2.01112, 2.08785, 2.01019, 2.10149, 2.00844, 2.00784, 2.09627, 2.09582, 2.09657, 2.09105, 2.00013, 2.08911, 2.0936, 2.09657, 2.09256, 2.10069, 2.07591, 1.9866, 2.09062, 2.0761, 1.98004, 1.97734, 1.97374, 1.97311, 1.97282, 1.97111, 2.06573, 1.90683, 1.90166, 1.89726, 1.94491, 1.88961, 1.88801, 1.88653, 2.00484, 2.00283, 2.00296, 1.88002, 1.88038, 1.87786, 1.87702, 1.87569, 2.10313, 1.87568, 1.87366, 1.87567, 2.0832, 1.87518, 1.98443, 1.87641, 1.91126, 1.90366, 1.79544, 1.79315, 1.78962, 1.90607, 1.73398, 1.73072, 1.73367, 1.72959, 1.72969, 1.7297, 1.7285, 1.72648, 1.88995, 1.72647, 1.72449, 1.94057, 1.72666, 1.77843, 1.72615, 1.72707, 1.73119, 1.73334, 1.73244, 1.73592, 1.78517, 1.81777, 1.73712, 1.73718, 1.86568
1.95878, 2.04593, 2.06689, 2.06192, 1.94367, 1.94189, 1.94165, 1.94071, 1.93816, 2.0559, 1.93395, 1.93197, 2.05567, 1.92707, 1.92709, 1.92383, 1.92175, 1.91958, 1.9196, 1.91783, 2.12754, 2.11469, 1.9189, 1.96906, 1.92053, 2.09275, 2.03274, 2.01765, 2.01874, 2.08067, 2.15671, 2.05612, 2.07626, 1.97326, 2.04457, 2.04566, 2.04204, 2.03701, 1.95691, 2.03146, 2.02562, 2.02359, 2.02403, 2.01836, 2.0176, 2.01619, 2.01714, 1.93453, 2.0138, 2.16323, 2.14414, 1.93638, 1.93797, 1.94253, 2.05558, 2.02763, 2.14235, 2.10884, 2.02077, 2.11097, 2.09249, 2.01583, 2.01399, 2.0122, 2.01418, 2.0109, 2.09631, 2.01304, 2.01031, 2.10114, 2.0861, 2.10366, 2.00988, 2.09531, 2.09694, 2.09481, 2.09073, 2.10114, 2.09502, 1.9997, 1.99692, 2.07614, 2.08717, 2.07952, 2.08162, 1.98827, 1.98597, 1.98453, 2.0701, 2.06865, 2.07221, 1.97366, 1.97177, 1.97232, 1.97236, 1.97217, 2.07568, 2.10237, 1.8987, 1.94474, 1.89281, 1.88892, 1.9944, 1.99641, 1.88314, 2.00004, 2.08833, 1.8779, 1.87913, 1.87887, 1.87854, 1.98301, 1.87775, 1.87852, 1.87561, 1.875, 1.87556, 1.87513, 1.90648, 1.75023, 1.74442, 1.74374, 1.80045, 1.73428, 1.90453, 1.73187, 1.72788, 1.90293, 1.72687, 1.7275, 1.89596, 1.89585, 1.7238, 1.89243, 1.72379, 1.72278, 1.72362, 1.88632, 1.72201, 1.88637, 1.72461, 1.72735, 1.72951, 1.72925, 1.73367, 1.73405, 1.73509, 1.73702, 1.86674, 1.73781
1.97292, 1.94535, 2.06554, 1.94241, 1.94412, 1.94138, 1.94261, 2.06225, 1.9379, 1.93228, 1.93302, 1.93039, 2.13091, 2.03698, 1.92577, 1.99763, 1.92181, 1.96966, 1.92097, 1.91715, 1.91685, 1.9184, 2.03148, 1.91991, 1.91854, 1.99302, 1.91961, 1.91894, 1.98647, 2.06321, 2.07843, 1.97823, 2.04931, 2.07458, 2.04448, 2.07438, 1.96206, 2.03447, 2.03112, 2.02897, 2.02494, 2.07231, 2.02085, 2.01826, 2.01377, 1.93795, 1.93586, 2.06394, 2.01183, 2.06185, 2.01132, 2.01339, 2.01496, 2.05673, 2.05849, 1.95281, 2.05151, 2.12079, 2.02133, 2.09906, 2.10708, 2.01341, 2.01353, 2.09269, 2.09255, 2.01156, 2.01184, 2.1107, 2.09349, 2.01051, 2.00829, 2.09297, 2.09617, 2.09354, 2.10086, 2.00317, 2.08952, 2.00103, 2.00099, 2.0963, 2.08324, 2.08627, 2.08512, 2.0775, 1.98926, 1.98794, 2.07657, 1.98229, 2.07335, 2.07386, 2.06495, 1.97249, 1.97183, 1.9693, 2.0698, 1.96172, 1.90694, 1.90035, 1.89789, 1.89411, 1.88942, 1.88812, 2.00307, 1.98768, 1.98506, 1.88206, 1.8825, 1.87962, 1.87898, 1.87778, 1.99711, 1.87921, 1.92809, 1.92712, 1.87697, 1.87776, 1.87619, 1.87552, 1.8756, 1.74221, 1.74326, 1.73884, 1.73674, 1.7372, 1.90852, 1.90732, 1.72641, 1.72368, 1.90289, 1.7246, 1.72158, 1.8973, 1.89387, 1.82007, 1.72136, 1.71863, 1.72074, 1.782, 1.88311, 1.72165, 1.72288, 1.72532, 1.72441, 1.82785, 1.72916, 1.87086, 1.8669, 1.73339, 1.86607, 1.86364
1.96141, 1.94766, 2.05978, 2.06301, 1.94561, 1.93934, 2.05559, 2.05668, 1.98689, 1.93523, 1.934, 1.9311, 2.05287, 1.92672, 2.12599, 1.92334, 2.11061, 2.11122, 1.92007, 2.11884, 1.9206, 1.91703, 1.91647, 1.91823, 2.02836, 2.02868, 1.91882, 1.91876, 1.98569, 2.05945, 1.98249, 2.15863, 1.97324, 2.04626, 2.04565, 1.96542, 2.03595, 2.03109, 2.03204, 2.02836, 2.02455, 2.02189, 2.0219, 2.01734, 2.01536, 1.93758, 2.01033, 2.01084, 2.06417, 2.15255, 2.13579, 2.0113, 1.93728, 2.01691, 2.01576, 2.05222, 2.05288, 2.02337, 2.12065, 2.10839, 2.08845, 2.09331, 2.01284, 2.01084, 2.01245, 2.00999, 2.01013, 2.00813, 2.09023, 2.09744, 2.1078, 2.10304, 2.09352, 2.08808, 2.08681, 2.09449, 2.07961, 2.09288, 2.07971, 2.07325, 2.07905, 1.99387, 2.07473, 2.07591, 1.99009, 2.08591, 1.98686, 1.98274, 2.06181, 1.97959, 1.9752, 1.97296, 1.97205, 1.97204, 2.08309, 1.97013, 1.90676, 2.00081, 1.8998, 1.89605, 1.98807, 1.88935, 1.887, 1.99486, 1.88351, 1.93443, 1.88607, 1.88017, 1.87993, 1.88098, 1.99318, 1.87919, 1.92824, 1.99375, 1.99084, 1.87668, 1.87528, 1.87568, 1.90838, 1.7424, 1.73924, 1.73488, 1.73391, 1.90645, 1.72688, 1.77587, 1.72295, 1.72199, 1.72138, 1.82377, 1.89999, 1.89928, 1.71863, 1.71787, 1.88905, 1.72014, 1.8884, 1.88479, 1.88219, 1.71757, 1.87925, 1.87952, 1.87594, 1.72372, 1.72563, 1.72901, 1.72943, 1.86573, 1.73224, 1.86561
1.96281, 1.94752, 1.9454, 1.94318, 1.94355, 1.93899, 1.93925, 2.05635, 1.93514, 1.98339, 1.98232, 1.93245, 2.05494, 1.92457, 2.04988, 1.97246, 1.97009, 1.91951, 2.01068, 1.91766, 2.02525, 1.96832, 1.91822, 2.01338, 1.92039, 1.92019, 1.91774, 1.92068, 1.97966, 2.06194, 2.05707, 2.07377, 2.04969, 2.04778, 2.04146, 1.9648, 2.15232, 2.03273, 2.06994, 2.02792, 2.02484, 1.94866, 2.0699, 1.94097, 2.01612, 2.0169, 2.01043, 2.01059, 2.00848, 2.00859, 1.93362, 2.00978, 1.93541, 2.01646, 2.14949, 2.02612, 2.0327, 2.11463, 2.11418, 2.10583, 2.11179, 2.013, 2.01165, 2.00967, 2.00696, 2.1044, 2.00848, 2.08339, 2.10718, 2.10016, 2.09675, 2.0986, 2.08678, 2.08103, 2.0797, 2.07915, 2.07798, 2.08721, 2.08239, 2.07323, 2.08052, 2.0696, 2.09027, 1.98994, 2.07382, 2.07956, 2.06112, 2.07949, 2.06003, 2.06085, 2.06891, 1.9729, 1.97174, 1.96898, 2.06706, 2.07691, 1.90618, 1.95368, 2.00449, 1.89544, 1.89055, 1.8895, 1.8892, 1.88688, 1.88534, 1.93428, 1.88312, 1.99267, 1.98838, 1.88336, 1.93104, 1.93071, 1.87935, 2.0683, 1.87678, 1.87491, 1.87814, 1.87845, 1.74529, 1.90819, 1.90701, 1.84756, 1.73058, 1.72764, 1.7266, 1.72255, 1.90346, 1.7184, 1.81581, 1.81447, 1.71649, 1.71404, 1.84205, 1.71562, 1.71326, 1.88931, 1.71744, 1.71675, 1.71615, 1.71688, 1.88118, 1.87732, 1.71988, 1.72124, 1.72341, 1.72569, 1.87246, 1.8275, 1.8314, 1.86123
1.95519, 2.05657, 1.94416, 1.94152, 1.93938, 1.93862, 1.9383, 1.93839, 1.93459, 2.02093, 1.93185, 1.98265, 1.92703, 2.04292, 2.04621, 2.12806, 1.92013, 1.91776, 1.91656, 1.91629, 2.03795, 1.92085, 2.02087, 1.91879, 1.92054, 1.98949, 1.92187, 1.97174, 2.06432, 2.06253, 2.07319, 1.97745, 2.0492, 2.04738, 1.96618, 2.15375, 2.14518, 2.03055, 1.95235, 2.02759, 2.06652, 2.02338, 1.94377, 2.01636, 2.01387, 2.01039, 2.01083, 2.00941, 2.00981, 1.93781, 2.00992, 2.01102, 2.05603, 2.14862, 1.94149, 2.12504, 2.04962, 2.02027, 2.10432, 2.10406, 2.09041, 2.01158, 2.01072, 2.0094, 2.09715, 2.00787, 2.00802, 2.00666, 2.11188, 2.09455, 2.09579, 2.08978, 2.09608, 2.00354, 2.09484, 2.00186, 2.09276, 2.09036, 2.09722, 2.09684, 2.08402, 2.08614, 2.06831, 2.06672, 2.08479, 1.98654, 2.07263, 1.9802, 2.06149, 2.06001, 2.06923, 1.9716, 1.97211, 1.96973, 2.07236, 1.90767, 1.90658, 1.90019, 1.94863, 2.00081, 1.89255, 1.89045, 2.08036, 1.88679, 1.88585, 1.88543, 1.98596, 1.93353, 1.99757, 1.87995, 1.88108, 1.8818, 1.88284, 1.87998, 1.99004, 1.87965, 1.92733, 1.8774, 1.91019, 1.90603, 1.90941, 1.90728, 1.72784, 1.72424, 1.72309, 1.71997, 1.71729, 1.71504, 1.89742, 1.89535, 1.71396, 1.76283, 1.71326, 1.89018, 1.7146, 1.76545, 1.71248, 1.71253, 1.7143, 1.71312, 1.70963, 1.87873, 1.717, 1.71928, 1.87301, 1.72244, 1.7232, 1.77545, 1.86115, 1.7284
1.97274, 1.94253, 1.99308, 1.94779, 1.9412, 1.93888, 1.98944, 1.98711, 1.93758, 1.93534, 1.93245, 2.05032, 1.97827, 2.03832, 1.92421, 1.92352, 1.91993, 2.11821, 1.91633, 2.11177, 2.12104, 1.91374, 1.91729, 1.91718, 2.03813, 1.96961, 1.92118, 2.01163, 1.92193, 2.05682, 2.05375, 2.06891, 2.05194, 2.0696, 2.04126, 2.04135, 2.06805, 1.95564, 1.95452, 2.02643, 2.02461, 2.06562, 2.01736, 2.15202, 2.01368, 1.93612, 2.0627, 2.1486, 2.06248, 2.15633, 2.0574, 2.01009, 1.93418, 2.05445, 2.02069, 2.05166, 2.14514, 2.13413, 2.01695, 2.10896, 2.09953, 2.08877, 2.0088, 2.00802, 2.00659, 2.00744, 2.00697, 2.09878, 2.10457, 2.09268, 2.0064, 2.00404, 2.09319, 2.09338, 2.00045, 2.09479, 2.08995, 2.09313, 1.99665, 2.07597, 1.99327, 2.08289, 2.08394, 2.09503, 1.98761, 1.984, 2.08599, 2.0667, 2.07187, 2.04842, 1.97286, 1.97019, 1.96868, 1.96702, 1.96921, 1.90693, 1.90387, 1.90013, 1.99724, 1.99433, 1.94187, 1.89066, 1.99636, 1.88606, 1.88563, 1.88668, 1.88446, 2.08948, 1.9957, 1.88325, 1.88179, 1.88109, 1.93075, 1.98686, 1.88015, 1.87995, 1.9797, 1.87435, 1.73892, 1.73526, 1.73247, 1.94903, 1.72468, 1.84121, 1.76956, 1.71832, 1.71422, 1.71443, 1.71207, 1.71051, 1.89107, 1.70951, 1.71057, 1.71088, 1.71008, 1.70929, 1.70709, 1.70756, 1.70967, 1.88517, 1.71236, 1.7135, 1.87609, 1.71624, 1.71973, 1.72092, 1.87076, 1.72399, 1.72684, 1.86216
1.95546, 1.94487, 2.04858, 1.94436, 1.9431, 2.0498, 1.93805, 2.03892, 1.99945, 1.93293, 2.04599, 1.98033, 1.97989, 2.04358, 1.92419, 1.92145, 1.92284, 1.92044, 2.03873, 1.91439, 2.03471, 1.91748, 1.91622, 1.91658, 1.91815, 1.9686, 1.91954, 1.9205, 2.07248, 2.0717, 2.0535, 2.05051, 2.04727, 2.06827, 2.04057, 2.03865, 2.03103, 1.95583, 2.15472, 2.0254, 1.9479, 2.01877, 2.01889, 2.06195, 2.01312, 2.01026, 2.00793, 2.00637, 2.00727, 2.00555, 2.00677, 2.01026, 2.01055, 2.01368, 2.04893, 2.04834, 2.04839, 2.01867, 2.12119, 2.09009, 2.10746, 2.00958, 2.00857, 2.00686, 2.0104, 2.09394, 2.1047, 2.0792, 2.09629, 2.00378, 2.08276, 2.00329, 2.08634, 2.00068, 1.99964, 2.08132, 2.0971, 1.99406, 1.99388, 2.08023, 2.08109, 2.08306, 2.07787, 2.07947, 2.08336, 2.08233, 2.08006, 1.97725, 2.08713, 1.97528, 2.06014, 1.97182, 1.96908, 1.96837, 1.96695, 1.96746, 1.90252, 1.90042, 1.89911, 1.94471, 1.8921, 1.89012, 1.88915, 1.93854, 1.88753, 1.88442, 1.88415, 1.88495, 1.88412, 1.88526, 1.88445, 1.88268, 1.88062, 1.88247, 1.93024, 2.07078, 1.88014, 1.87826, 1.73704, 1.73204, 1.72967, 1.72465, 1.72041, 1.72022, 1.9035, 1.71598, 1.71093, 1.71157, 1.71053, 1.70961, 1.70736, 1.70764, 1.70816, 1.71034, 1.70751, 1.76975, 1.70805, 1.70718, 1.88119, 1.70993, 1.7092, 1.88048, 1.71243, 1.71288, 1.71598, 1.71618, 1.72286, 1.86346, 1.72194, 1.85538
1.95217, 1.94492, 1.94371, 2.05271, 2.04834, 1.93864, 2.04432, 2.04517, 1.93194, 1.98163, 1.98273, 1.99001, 2.01938, 1.92571, 2.03952, 1.9213, 1.91952, 1.96548, 2.11757, 1.91318, 1.91712, 1.91414, 1.96537, 1.91536, 1.98553, 1.96708, 1.92013, 1.9198, 2.05963, 2.05734, 2.15373, 2.05012, 2.04587, 2.04584, 1.9635, 2.03799, 2.03795, 2.03146, 1.95295, 1.94865, 2.02422, 2.01855, 2.14978, 2.01377, 2.0136, 2.01155, 2.00729, 2.0065, 2.00665, 2.0066, 2.00593, 2.00738, 2.00863, 2.01193, 2.02049, 2.01994, 2.02835, 2.11505, 2.01625, 2.11019, 2.01179, 2.01147, 2.00796, 2.00539, 2.00368, 2.00643, 2.07936, 2.07693, 2.08818, 2.08613, 2.07879, 2.08301, 2.08764, 2.09983, 2.08901, 2.08792, 2.08061, 2.07327, 2.07808, 2.08215, 1.99113, 2.07515, 2.07106, 2.07905, 2.05897, 2.07623, 2.06683, 1.97675, 2.07152, 2.06723, 2.05635, 1.97, 1.96907, 1.96523, 1.96571, 1.95504, 1.9531, 1.94933, 2.08383, 1.89233, 1.89243, 1.89055, 1.88895, 1.93747, 1.9594, 1.94419, 1.88369, 2.07996, 1.88337, 1.88407, 1.88228, 1.88131, 1.88301, 1.93156, 1.96489, 1.87723, 1.87737, 1.87628, 1.7829, 1.72709, 1.72632, 1.72314, 1.90691, 1.7169, 1.9023, 1.89884, 1.71011, 1.75818, 1.75542, 1.70641, 1.80897, 1.70318, 1.70367, 1.89277, 1.70409, 1.70503, 1.88195, 1.70529, 1.70537, 1.87912, 1.75879, 1.77984, 1.7596, 1.71302, 1.71309, 1.71725, 1.71877, 1.71985, 1.72034, 1.72335
1.9521, 1.9439, 1.94062, 2.07043, 2.02487, 1.93943, 1.93509, 2.04879, 1.93481, 1.93175, 2.02464, 2.04358, 1.92814, 2.02046, 1.92354, 1.92376, 1.98049, 1.91507, 1.9651, 1.96653, 1.96409, 1.91403, 2.02547, 2.01918, 1.99976, 1.91773, 1.92175, 1.9203, 2.06738, 2.05937, 2.06537, 2.14563, 2.06245, 2.04129, 2.04149, 2.035, 2.03355, 2.03455, 1.94887, 2.06035, 2.02129, 2.02224, 1.94102, 2.15488, 2.06081, 2.01067, 1.92983, 2.0082, 2.00723, 2.00389, 1.9289, 2.00736, 2.00916, 2.04976, 2.02069, 2.02108, 2.04189, 2.09302, 2.0897, 2.09964, 2.09619, 2.00888, 2.00712, 2.00573, 2.00446, 2.00344, 2.0044, 2.003, 2.1007, 2.08961, 2.09357, 2.08485, 2.08263, 2.09375, 2.08447, 2.09094, 1.99404, 2.07603, 2.0772, 2.09234, 2.0658, 1.98741, 2.07971, 2.07684, 2.08603, 2.08576, 2.06621, 2.06568, 1.97607, 2.05772, 2.05618, 1.96611, 1.96696, 1.96648, 1.96671, 2.04967, 1.90127, 1.89829, 1.89601, 2.09302, 1.9457, 1.99741, 1.93929, 1.93758, 1.93667, 1.93516, 2.08086, 1.88537, 1.8845, 1.88353, 1.88315, 2.07862, 1.99797, 1.88157, 1.92894, 1.8808, 1.87812, 1.87821, 1.72831, 1.72468, 1.72278, 1.71703, 1.81687, 1.71416, 1.71069, 1.70952, 1.94694, 1.77904, 1.70462, 1.70387, 1.75186, 1.89071, 1.70217, 1.70055, 1.81719, 1.70297, 1.88441, 1.82018, 1.8791, 1.70557, 1.75669, 1.8755, 1.75843, 1.76139, 1.82183, 1.71155, 1.71343, 1.85837, 1.85784, 1.71794
1.95147, 1.94102, 1.93859, 2.04742, 2.04751, 1.93858, 1.93524, 1.93291, 1.93083, 1.92808, 1.92875, 1.92776, 2.01734, 2.04172, 1.92438, 1.92159, 1.96885, 1.91767, 1.91574, 1.96305, 1.91384, 1.91102, 1.96384, 1.9165, 1.96517, 1.91606, 1.96731, 1.92061, 2.06692, 2.06255, 2.13967, 2.05167, 2.04299, 2.04445, 2.15464, 2.06158, 2.03173, 2.03136, 2.02655, 2.02503, 2.14319, 2.14469, 2.14623, 2.01474, 2.01103, 2.00746, 2.00654, 2.0066, 2.00351, 1.92809, 2.00724, 2.00677, 2.00711, 2.01044, 1.93889, 2.01674, 2.13199, 2.01434, 2.01323, 2.10426, 2.09879, 2.00702, 2.00576, 2.00458, 2.09066, 2.09245, 2.10381, 2.00167, 2.09675, 2.0014, 2.08973, 1.99911, 2.08708, 2.08942, 2.08373, 2.07954, 1.9926, 2.0822, 1.98947, 1.98846, 2.06415, 2.06532, 2.07608, 2.07449, 2.08668, 2.072, 2.05291, 2.06767, 2.0662, 2.05835, 1.97048, 1.97178, 1.96848, 2.04463, 2.05931, 2.06523, 1.9003, 1.89984, 1.89955, 1.94272, 1.99193, 1.99278, 2.08917, 2.08463, 1.8873, 1.8865, 1.88598, 1.88625, 1.88517, 1.93346, 1.88243, 1.88261, 1.87812, 2.06495, 2.07347, 1.87972, 1.877, 1.97249, 1.72795, 1.72157, 1.71737, 1.90635, 1.71629, 1.81628, 1.70918, 1.7078, 1.7047, 1.89312, 1.69944, 1.70071, 1.69997, 1.69991, 1.70021, 1.7964, 1.69981, 1.88245, 1.70075, 1.70089, 1.88073, 1.69983, 1.70328, 1.82027, 1.70683, 1.87128, 1.86689, 1.71015, 1.71058, 1.85768, 1.85251, 1.84872
1.96949, 2.04639, 2.04524, 1.93868, 2.2277, 1.93435, 1.93307, 1.93274, 1.9804, 1.93112, 2.035, 1.97696, 1.97599, 1.97364, 1.92186, 1.97173, 2.02094, 1.9169, 1.91441, 1.91445, 2.02776, 1.91295, 2.02728, 1.9619, 2.00429, 1.91448, 1.91536, 1.91793, 2.06278, 2.05282, 2.06403, 2.05604, 2.05868, 2.04259, 2.03867, 1.95795, 2.03183, 2.03154, 2.0269, 1.94783, 1.94244, 2.01838, 2.01449, 2.01166, 2.0125, 2.14343, 2.00627, 2.0519, 1.92859, 1.92774, 2.00291, 2.00366, 2.00508, 2.00747, 2.01391, 2.01566, 2.04214, 2.014, 2.10856, 2.08561, 2.08415, 2.08477, 2.00484, 2.00284, 2.00324, 2.07775, 2.09717, 2.08973, 2.00096, 2.08565, 2.09229, 1.99676, 2.0946, 2.09517, 2.07694, 2.09242, 2.08194, 1.98999, 1.98701, 2.07404, 1.98633, 2.07596, 2.08132, 2.06006, 2.07978, 1.97902, 2.06528, 2.07865, 2.05699, 2.05793, 1.96929, 1.96809, 1.96436, 1.96364, 1.96376, 1.90108, 1.90107, 1.89941, 1.89547, 1.89285, 1.88985, 1.99694, 1.88688, 1.8893, 1.88847, 2.07413, 1.88443, 1.88466, 1.88481, 1.97595, 1.88284, 1.88017, 1.87967, 1.87859, 1.87563, 1.87928, 1.97281, 1.97151, 1.72338, 1.90503, 1.71583, 1.71077, 1.71043, 1.89338, 1.81542, 1.70371, 1.69868, 1.69994, 1.69751, 1.69911, 1.69824, 1.69571, 1.79088, 1.69715, 1.69627, 1.69655, 1.69868, 1.87883, 1.87534, 1.70092, 1.7005, 1.69984, 1.75415, 1.70561, 1.70764, 1.70789, 1.81129, 1.8574, 1.7136, 1.85116
1.96787, 2.04109, 1.94102, 1.93663, 2.04124, 1.93325, 2.04077, 1.93182, 1.93016, 1.9788, 1.9773, 1.93075, 1.97437, 1.92119, 1.91994, 1.96742, 1.91749, 1.98246, 1.91315, 2.03171, 1.9115, 2.10226, 2.03178, 1.91002, 1.96199, 1.96259, 1.91654, 2.01494, 2.01679, 2.13936, 2.05153, 2.05922, 2.05824, 2.04177, 2.0556, 2.05549, 2.05853, 2.02852, 1.94827, 2.13915, 2.05829, 2.02091, 2.0158, 2.13157, 2.00736, 2.05343, 2.05518, 2.00309, 2.00358, 2.00188, 2.04878, 2.00397, 1.92811, 2.04573, 2.04221, 2.01585, 2.14786, 2.08063, 2.01068, 2.08333, 2.09831, 2.0816, 2.00319, 2.00212, 2.10291, 2.09071, 2.08697, 2.00101, 2.09589, 2.08935, 2.08534, 1.99948, 1.99589, 2.07696, 2.08979, 2.09015, 2.08402, 1.98908, 2.08346, 1.98586, 2.07411, 2.06709, 2.06866, 2.0782, 2.07658, 1.97978, 1.97556, 1.97384, 2.06609, 2.05706, 1.96667, 1.96642, 1.96537, 1.96371, 2.04172, 2.0411, 1.89836, 1.89614, 1.89483, 1.89258, 1.89145, 1.89015, 1.99121, 1.8877, 1.8867, 1.88582, 1.88399, 1.98309, 1.977, 1.88256, 1.88573, 1.87859, 1.88017, 2.06312, 2.0702, 1.87522, 1.87531, 1.87535, 1.71986, 1.71477, 1.90023, 1.71221, 1.70664, 1.70598, 1.70317, 1.70279, 1.80188, 1.6999, 1.69737, 1.69611, 1.88595, 1.69581, 1.69343, 1.69381, 1.69184, 1.69518, 1.69381, 1.69667, 1.69595, 1.69607, 1.74904, 1.85055, 1.75046, 1.70001, 1.75266, 1.75556, 1.70821, 1.70641, 1.84845, 1.71083
2.05643, 1.93825, 1.93821, 1.93557, 2.03231, 1.93413, 1.93474, 1.98029, 1.9307, 1.92763, 1.92611, 1.92372, 1.92134, 2.03656, 2.2109, 2.03585, 1.91434, 2.03134, 2.03097, 1.91074, 1.91144, 1.90894, 1.91026, 2.10029, 1.96148, 1.9613, 1.96269, 1.91712, 2.05292, 2.05981, 2.04809, 2.04447, 2.04214, 2.05631, 2.03754, 2.13481, 2.02905, 2.02502, 2.0237, 2.01438, 2.01738, 2.14167, 1.93512, 1.93526, 2.00728, 2.00766, 2.00445, 2.12826, 2.00054, 2.0021, 2.14196, 2.00327, 1.92765, 2.01104, 2.12439, 2.13165, 2.03868, 2.0111, 2.1044, 2.00682, 2.08227, 2.00433, 2.004, 2.00024, 2.0008, 1.99999, 2.09368, 2.08259, 2.09437, 2.0722, 2.0833, 2.08089, 1.99456, 1.99299, 1.99065, 2.07208, 2.08426, 2.07967, 1.98448, 2.06679, 1.98289, 2.07597, 2.06959, 2.06998, 1.97829, 2.06011, 2.05868, 1.97183, 1.97158, 1.96862, 2.04222, 1.96474, 1.96197, 1.96313, 1.96155, 2.03688, 2.0665, 1.89653, 2.08007, 1.89209, 1.98682, 1.88929, 1.88802, 1.88569, 1.93531, 1.93447, 1.984, 1.88423, 1.9788, 1.87999, 1.87752, 1.87938, 1.87927, 1.87672, 1.95801, 1.92424, 1.87535, 1.92086, 1.81859, 1.71345, 1.71051, 1.8963, 1.70281, 1.89005, 1.70302, 1.74904, 1.69628, 1.69647, 1.69598, 1.69351, 1.88565, 1.79239, 1.88099, 1.69081, 1.87943, 1.69209, 1.69063, 1.69216, 1.87288, 1.69537, 1.74651, 1.69708, 1.74875, 1.69945, 1.75186, 1.83793, 1.70501, 1.85061, 1.70658, 1.70942
1.94783, 1.93857, 1.98825, 2.03322, 1.98283, 1.97999, 1.98038, 1.97848, 1.9253, 2.02537, 1.92447, 1.9236, 1.97021, 1.91764, 1.91776, 1.9161, 1.91482, 2.02838, 1.91259, 1.91311, 1.90816, 1.90744, 1.90765, 1.90984, 1.90975, 1.96111, 1.96223, 1.91216, 2.05968, 2.04859, 1.97118, 2.04935, 2.04195, 2.03878, 1.9626, 2.14773, 2.1319, 2.02704, 2.02326, 2.02087, 2.12769, 2.05471, 2.05293, 1.93097, 2.0062, 2.00561, 2.00291, 1.99973, 2.14187, 2.04598, 1.9239, 1.92506, 2.00198, 2.00698, 2.04256, 2.03696, 2.12453, 2.09753, 2.10038, 2.10217, 2.00379, 2.00307, 2.00155, 1.99952, 2.00089, 2.09744, 2.07555, 2.07394, 1.99768, 1.99678, 2.08811, 2.07291, 2.08071, 2.07289, 1.99075, 1.99, 1.98625, 1.98576, 2.06949, 1.98268, 2.06584, 2.07598, 2.06617, 2.07011, 1.97926, 1.97689, 2.05899, 2.0595, 2.06013, 2.05217, 2.04066, 1.9641, 1.96123, 1.95896, 2.05942, 2.05071, 1.90029, 2.09002, 1.89307, 1.99896, 1.9979, 1.93691, 1.93685, 1.88623, 1.93441, 1.93387, 1.98183, 1.88211, 1.88249, 1.877, 1.87861, 1.87526, 1.87716, 1.92408, 1.87214, 1.87259, 1.86888, 1.86887, 1.71389, 1.70937, 1.8958, 1.70371, 1.7538, 1.75081, 1.6977, 1.69618, 1.69298, 1.69333, 1.69155, 1.69346, 1.69049, 1.87808, 1.88328, 1.68976, 1.69003, 1.6891, 1.68986, 1.68859, 1.87192, 1.87017, 1.69323, 1.74463, 1.69428, 1.8439, 1.76248, 1.69944, 1.85272, 1.7028, 1.75522, 1.70876
1.96212, 1.93686, 1.93308, 1.93266, 1.93254, 1.97911, 1.97935, 1.97602, 1.92752, 1.92367, 1.92279, 1.92336, 1.96891, 1.96632, 1.96726, 1.91609, 1.91328, 1.9618, 1.95917, 1.9083, 1.90896, 1.9062, 1.90623, 2.02472, 1.90695, 1.9104, 1.91114, 1.91339, 2.05415, 2.04909, 2.13201, 2.04452, 1.96189, 2.03975, 1.95935, 2.03214, 1.95248, 2.02368, 2.01985, 1.94241, 2.05264, 2.01388, 1.93495, 2.14601, 2.13548, 1.92691, 2.05131, 1.99836, 2.00296, 2.04628, 2.00104, 1.92441, 1.92697, 2.00692, 1.93193, 2.03491, 2.13579, 2.00727, 2.10195, 2.10119, 2.09166, 2.00121, 1.99995, 1.99814, 2.07361, 2.07438, 1.99742, 1.99518, 1.99629, 1.99616, 2.08875, 2.08743, 1.99255, 1.99124, 2.07971, 1.98614, 2.08296, 1.98311, 2.07701, 1.98182, 2.0811, 2.08381, 2.06181, 2.07422, 2.07442, 1.97349, 1.9723, 2.06402, 2.04744, 2.06561, 2.05991, 1.96123, 1.95885, 1.95979, 1.95798, 1.89886, 1.89666, 1.89133, 1.89196, 1.93832, 1.93728, 1.88626, 2.00974, 1.88563, 1.88193, 1.88183, 1.88182, 1.8786, 1.92927, 2.05773, 1.9761, 1.97217, 1.8753, 1.87217, 1.86982, 1.86902, 1.8669, 1.86481, 1.71082, 1.70662, 1.70515, 1.70099, 1.69706, 1.69602, 1.88179, 1.69446, 1.69296, 1.68993, 1.69083, 1.68725, 1.68763, 1.68758, 1.68578, 1.68555, 1.87428, 1.68778, 1.68556, 1.68578, 1.8678, 1.86369, 1.68805, 1.86497, 1.69308, 1.69218, 1.69584, 1.84853, 1.69871, 1.70023, 1.70349, 1.70556
1.94299, 2.05618, 2.0376, 1.93283, 1.93089, 1.92943, 1.9788, 1.92392, 2.01818, 1.9998, 2.0156, 2.01651, 1.91688, 1.9156, 2.00688, 1.91085, 2.03109, 1.95976, 1.90751, 1.90764, 1.95499, 1.90631, 2.02017, 2.02072, 1.90737, 1.90871, 1.9105, 2.00963, 2.04897, 2.05608, 1.96878, 2.05145, 2.03842, 2.03751, 2.0494, 2.13845, 2.12851, 2.052, 2.02102, 2.01763, 2.01556, 2.01114, 2.04963, 1.9302, 2.00562, 1.9246, 2.00183, 2.12054, 1.99956, 2.04429, 2.0443, 2.13431, 1.92419, 1.92787, 1.9289, 2.03785, 2.13843, 2.08123, 2.08106, 2.07785, 2.00256, 2.00006, 1.99825, 1.99685, 2.07427, 2.08005, 2.07256, 2.08714, 2.09572, 2.0927, 2.08422, 1.99068, 2.08605, 2.07639, 2.08797, 2.09029, 2.06781, 2.08226, 2.07901, 2.07716, 2.07554, 2.07602, 1.97884, 2.08336, 2.06586, 1.97162, 2.06914, 1.96915, 2.05961, 2.04539, 2.03523, 1.95864, 1.95788, 1.9565, 1.9577, 1.89696, 1.8966, 1.9426, 1.88898, 1.98918, 1.88596, 1.88317, 1.88076, 1.88119, 1.87976, 1.97855, 1.87513, 1.87774, 1.87362, 1.87256, 1.87408, 1.87262, 1.87112, 1.87186, 1.86606, 1.86847, 1.86443, 2.05929, 1.80603, 1.80208, 1.70085, 1.69942, 1.69611, 1.69148, 1.69208, 1.6923, 1.6897, 1.68575, 1.68848, 1.68764, 1.87921, 1.68558, 1.68632, 1.68527, 1.68604, 1.68265, 1.86656, 1.87229, 1.68853, 1.68607, 1.68741, 1.68563, 1.68713, 1.69034, 1.80494, 1.6928, 1.80386, 1.70008, 1.83716, 1.70104
1.94199, 1.9333, 2.0349, 2.03604, 1.93034, 1.92756, 1.92847, 2.03456, 1.92185, 1.92282, 2.00382, 1.91841, 1.96638, 1.91426, 1.91142, 2.02942, 2.03394, 2.02489, 1.90434, 2.02532, 1.95305, 1.95386, 1.90548, 1.95342, 1.95438, 1.907, 2.01792, 1.91003, 2.05019, 2.13237, 2.05192, 2.04296, 2.04853, 2.03609, 2.03243, 2.04836, 2.02503, 2.02433, 2.02016, 1.9407, 2.01257, 1.9351, 2.13276, 2.00478, 2.00247, 2.00329, 2.04529, 1.99701, 2.13259, 1.9973, 2.04072, 1.99937, 2.03777, 2.00155, 1.92886, 2.11407, 2.03368, 2.09729, 2.09007, 2.00268, 2.0766, 2.07726, 2.07625, 2.07024, 2.06944, 2.09761, 2.08652, 2.09862, 2.08335, 2.09077, 2.07763, 2.08411, 2.07786, 2.087, 1.98396, 2.06221, 1.9828, 1.98213, 2.07199, 2.06313, 1.97782, 1.97664, 1.97514, 2.06577, 2.05996, 1.97145, 1.96863, 2.05915, 2.06304, 2.0464, 1.95904, 1.9593, 1.95833, 1.95813, 1.95552, 1.89603, 1.89241, 1.89185, 1.88768, 1.88615, 1.88409, 1.88111, 1.93041, 1.87864, 1.87849, 1.87614, 1.87432, 1.87414, 1.87188, 2.06171, 1.962, 2.06908, 1.86607, 1.86771, 2.05328, 1.86452, 1.86207, 1.95857, 1.70642, 1.70074, 1.69832, 1.69464, 1.69388, 1.69031, 1.69103, 1.68819, 1.6854, 1.68432, 1.68345, 1.92458, 1.68376, 1.73417, 1.68251, 1.68098, 1.86936, 1.68159, 1.67975, 1.68158, 1.85931, 1.68265, 1.85892, 1.85921, 1.85621, 1.85088, 1.84549, 1.84424, 1.69275, 1.69637, 1.81018, 1.80827
1.94172, 1.93215, 1.93445, 1.9281, 1.92764, 1.93076, 1.92545, 1.92104, 2.18748, 1.9195, 1.91666, 1.91746, 1.96397, 1.91393, 1.96293, 1.90803, 1.90689, 1.90982, 1.90416, 1.90479, 1.89911, 1.90386, 2.0337, 1.95185, 2.07575, 2.09067, 2.09027, 2.08386, 2.04707, 2.05528, 2.04576, 2.04067, 2.03581, 2.03426, 2.03163, 2.02871, 2.04923, 2.02149, 2.0198, 2.01436, 2.01267, 2.00791, 2.0069, 2.00336, 2.00356, 1.99748, 1.99658, 1.92025, 2.13539, 1.91737, 1.9938, 2.03717, 2.03456, 2.12451, 2.00336, 2.01148, 2.12005, 2.11383, 2.07731, 2.08166, 2.07371, 2.07842, 2.07275, 2.07099, 2.07012, 2.07725, 2.06677, 2.06659, 1.99072, 2.08401, 2.07782, 2.0806, 2.07276, 2.07545, 2.07457, 1.98249, 1.9808, 2.06844, 2.07307, 2.07005, 1.97668, 2.06542, 2.06975, 1.97279, 2.0767, 1.97018, 2.05547, 2.05848, 2.05166, 2.0495, 2.0356, 1.9585, 1.95564, 1.95532, 1.95485, 1.89665, 1.89298, 1.88906, 2.05663, 1.88395, 1.88154, 1.87915, 1.9973, 1.9827, 1.97338, 1.87107, 1.87186, 1.87056, 1.87051, 1.96924, 1.86913, 1.86414, 1.86458, 1.86187, 1.86047, 1.8586, 1.96234, 1.85537, 1.70064, 1.88269, 1.69231, 1.69229, 1.6895, 1.68752, 1.6853, 1.76879, 1.73464, 1.68286, 1.87399, 1.68117, 1.74264, 1.94222, 1.73182, 1.6824, 1.86605, 1.67764, 1.67813, 1.85891, 1.67819, 1.67985, 1.85588, 1.85212, 1.84904, 1.68558, 1.68836, 1.84111, 1.6895, 1.69346, 1.69516, 1.8288
1.93806, 1.93001, 1.93155, 1.92562, 1.92558, 1.92713, 1.92598, 1.92083, 2.02931, 1.92045, 1.91644, 1.91427, 2.02686, 1.96176, 2.01102, 2.00971, 1.90831, 1.90749, 1.90422, 2.02365, 1.90227, 2.02177, 2.01559, 2.01445, 2.01065, 2.01317, 2.17596, 1.90986, 2.04601, 2.04572, 2.04599, 2.03781, 2.04893, 2.03504, 2.14219, 2.02595, 2.02472, 2.04599, 2.01848, 2.01349, 2.12872, 2.00762, 2.00436, 2.04704, 2.00235, 1.99717, 2.04425, 1.92072, 2.1149, 2.13084, 1.91742, 1.99746, 2.0031, 1.9994, 2.03321, 2.00815, 1.93409, 2.00044, 2.09581, 2.07328, 2.07459, 1.99465, 2.06967, 2.06835, 2.06663, 2.09429, 2.07558, 1.99121, 2.09344, 2.08435, 2.07702, 2.08114, 2.07662, 2.07776, 2.07345, 1.98185, 2.06964, 2.07158, 2.06971, 2.05936, 2.07591, 1.97282, 2.05969, 2.0566, 2.06494, 2.06687, 2.05967, 2.05312, 1.96176, 2.03718, 2.03449, 1.95543, 1.95628, 1.95329, 2.04262, 2.06973, 1.88948, 1.93934, 1.88353, 1.87903, 1.87742, 1.87532, 1.87513, 1.87158, 1.87072, 1.99665, 1.86771, 1.97173, 1.86641, 1.86161, 1.91352, 1.86278, 2.05854, 1.96594, 1.85799, 1.85508, 1.85445, 1.85007, 1.88406, 1.69374, 1.69253, 1.68928, 1.86817, 1.68366, 1.87458, 1.68157, 1.68077, 1.68075, 1.67818, 1.67649, 1.67883, 1.72825, 1.73412, 1.67598, 1.6762, 1.67471, 1.67796, 1.67676, 1.85254, 1.85433, 1.85211, 1.68083, 1.84518, 1.84736, 1.68531, 1.8374, 1.68708, 1.69232, 1.69303, 1.69178
2.04271, 1.95425, 1.93029, 1.9301, 1.92584, 1.9223, 1.91889, 2.02863, 2.02901, 2.02549, 2.01496, 2.02489, 2.01455, 2.02273, 1.90819, 2.01041, 2.01685, 1.90366, 1.90317, 1.90197, 1.90126, 2.02164, 1.89931, 2.00343, 1.97564, 2.01789, 1.97052, 2.08223, 2.05168, 2.05096, 2.03841, 2.03817, 2.0445, 2.03213, 2.04468, 2.12191, 2.02443, 2.02002, 2.01815, 2.04292, 1.93615, 1.92975, 2.00509, 2.00376, 1.92177, 1.99944, 1.91752, 1.99382, 2.03827, 1.99236, 1.9943, 1.99472, 1.99702, 1.99656, 2.00137, 2.02818, 2.01726, 2.09215, 2.08674, 2.09011, 2.09041, 2.071, 1.99261, 1.98987, 2.068, 2.07991, 2.08302, 2.07921, 1.98866, 1.98632, 2.07732, 1.98306, 2.0799, 1.9823, 2.07967, 2.07116, 2.08737, 1.97676, 1.97625, 2.07313, 2.06918, 2.07346, 2.05925, 2.05758, 2.05976, 2.06961, 1.96784, 2.04859, 2.04363, 2.04558, 2.03862, 1.95477, 1.95219, 1.95121, 1.95027, 2.06443, 1.93864, 1.88451, 1.87992, 1.87616, 1.8753, 1.96487, 1.86986, 1.86958, 1.86707, 2.06994, 1.86393, 1.86446, 1.86269, 1.85924, 1.85618, 1.85659, 1.85566, 1.8542, 1.97175, 1.84958, 2.05351, 1.84663, 1.87565, 1.69067, 1.68592, 1.68549, 1.86916, 1.87223, 1.67922, 1.67951, 1.75109, 1.67658, 1.8582, 1.6748, 1.67567, 1.67233, 1.67144, 1.67271, 1.85465, 1.67152, 1.67145, 1.67276, 1.67281, 1.67244, 1.67319, 1.84425, 1.67806, 1.68227, 1.68325, 1.68237, 1.83254, 1.68539, 1.68746, 1.69034
1.93736, 1.92922, 1.92761, 1.98727, 2.04828, 1.92121, 1.92133, 1.92125, 1.91799, 1.9145, 1.96308, 1.91337, 1.91311, 2.01424, 1.90709, 1.90683, 1.90441, 2.00758, 1.90337, 1.89812, 2.02, 1.89443, 1.8976, 2.01442, 1.99706, 2.0007, 2.08621, 1.90739, 2.04663, 2.04158, 2.0481, 2.03585, 2.03926, 2.03425, 2.02948, 2.02691, 2.02028, 2.01736, 2.01395, 2.01331, 2.01004, 1.92834, 1.92787, 2.00092, 1.99958, 1.99551, 1.99418, 2.13433, 1.99261, 1.99143, 1.91641, 1.99221, 1.91847, 1.92018, 1.92235, 1.92472, 2.10975, 2.07612, 2.08723, 2.08935, 1.99279, 2.06705, 1.99029, 1.98753, 2.08507, 2.0894, 2.08769, 2.0759, 2.07974, 2.08082, 2.08076, 2.07973, 2.07272, 1.98132, 2.06233, 2.06537, 2.07317, 1.97679, 2.06261, 1.97354, 2.06283, 2.07101, 2.06489, 2.05967, 2.05703, 2.04349, 2.05164, 2.05388, 1.95827, 2.03135, 2.03898, 2.02868, 2.02932, 1.95004, 1.94876, 2.04931, 1.88436, 1.88208, 1.98541, 1.98398, 1.9824, 1.86883, 1.8661, 1.86537, 1.91288, 1.91056, 1.86095, 1.8573, 1.96838, 2.06011, 1.8531, 1.85257, 1.85165, 1.84998, 1.85023, 1.84627, 1.95051, 1.79975, 1.74102, 1.68747, 1.7344, 1.68093, 1.68043, 1.67662, 1.67735, 1.91144, 1.67539, 1.6737, 1.85926, 1.67116, 1.66967, 1.66997, 1.67126, 1.66919, 1.66903, 1.66907, 1.79398, 1.66826, 1.66902, 1.67152, 1.67179, 1.84083, 1.67413, 1.83596, 1.67917, 1.77801, 1.68288, 1.68399, 1.68474, 1.68754
1.95809, 1.93501, 1.97612, 1.92708, 1.97233, 1.91826, 1.92113, 2.10234, 1.9148, 1.91468, 2.01013, 2.02586, 1.91064, 1.91054, 1.95704, 2.01419, 1.90501, 1.90273, 1.89805, 1.89746, 1.89671, 1.89691, 2.0105, 1.89717, 1.89664, 2.00853, 1.90388, 2.08064, 2.04127, 2.12568, 2.04582, 2.12344, 2.04476, 2.03011, 2.04321, 2.04506, 2.01853, 2.12459, 2.04215, 2.04108, 2.00911, 2.00585, 2.0013, 1.99989, 1.91741, 1.99438, 1.99384, 2.03596, 1.98967, 1.99132, 1.99322, 1.91296, 1.99294, 1.91857, 2.02544, 2.00717, 2.12458, 2.08012, 2.08709, 2.09118, 2.0735, 1.98716, 1.98598, 1.98517, 1.98597, 2.06179, 1.98353, 2.08175, 2.08973, 2.08567, 2.075, 2.06964, 2.06089, 1.97908, 2.05987, 2.05995, 2.06785, 2.05632, 2.06181, 2.05172, 2.05441, 2.06516, 2.05852, 1.96601, 2.05397, 2.05988, 1.96254, 2.05413, 2.05616, 2.05117, 1.95446, 2.03097, 2.03237, 1.9466, 1.94581, 2.06136, 1.88329, 1.97313, 1.97244, 1.97604, 1.86871, 1.86436, 1.86241, 1.86059, 1.85703, 1.91476, 1.85255, 1.85506, 1.85158, 1.85135, 1.84841, 1.89679, 1.89671, 1.84481, 1.84054, 1.84073, 2.0421, 1.74263, 1.6882, 1.80904, 1.68076, 1.8643, 1.72661, 1.72534, 1.79947, 1.67123, 1.67161, 1.66929, 1.66946, 1.66879, 1.66728, 1.66657, 1.66515, 1.66582, 1.66835, 1.66812, 1.71656, 1.66421, 1.66577, 1.66512, 1.6695, 1.7207, 1.67268, 1.67449, 1.82498, 1.67981, 1.7752, 1.68002, 1.81772, 1.68364
1.9345, 1.92745, 1.92637, 1.92472, 1.92425, 2.01765, 1.91673, 1.9151, 1.91454, 1.91225, 1.96298, 1.90936, 1.90791, 1.9564, 1.95468, 2.01678, 1.90315, 1.89808, 2.01568, 1.89782, 1.94593, 1.89635, 1.94507, 2.02895, 1.89624, 1.95028, 2.07653, 1.90486, 2.04298, 2.0449, 2.03565, 2.03216, 2.02927, 1.95108, 2.03802, 2.03923, 2.02068, 2.01467, 2.01142, 2.01118, 2.00882, 2.12504, 1.92375, 2.03835, 1.99621, 1.99669, 1.99592, 1.99076, 1.91125, 1.9114, 1.98737, 1.98733, 1.99, 1.9961, 2.12068, 2.00062, 2.02109, 2.09715, 2.08076, 2.08596, 2.06205, 1.98655, 1.98411, 1.98202, 1.98183, 2.08417, 2.08118, 2.07306, 2.0689, 2.05247, 2.07717, 1.97963, 1.9805, 2.0619, 1.97559, 2.05911, 2.05543, 1.97198, 2.04957, 2.05387, 2.05654, 2.05719, 2.05579, 2.05268, 1.96511, 2.04843, 1.96003, 2.04544, 2.04251, 2.03209, 2.03853, 1.94859, 1.94879, 1.94717, 2.03834, 1.88319, 1.87899, 1.87325, 1.87157, 1.86509, 1.86251, 1.86172, 1.85818, 2.07847, 1.85245, 1.85082, 1.84863, 2.06271, 1.84529, 1.96468, 1.95953, 1.96029, 1.93726, 1.83779, 1.83567, 2.03971, 1.83064, 1.73712, 1.7343, 1.85855, 1.67912, 1.67495, 1.6716, 1.67058, 1.83682, 1.66686, 1.66442, 1.66743, 1.73414, 1.66087, 1.66474, 1.6647, 1.83894, 1.78003, 1.66147, 1.71275, 1.79324, 1.83706, 1.83541, 1.66315, 1.66598, 1.66686, 1.8263, 1.82399, 1.67576, 1.67816, 1.82108, 1.81477, 1.68067, 1.68048
1.95171, 1.92643, 1.92492, 2.01924, 1.91836, 1.99437, 1.92151, 2.0294, 2.01838, 1.91053, 2.02185, 1.91041, 1.9065, 1.90749, 1.90243, 1.90266, 1.90147, 1.89731, 2.02469, 1.98649, 1.94486, 1.94424, 1.95348, 1.89648, 2.08366, 2.00227, 2.08077, 1.90359, 2.04576, 2.04372, 2.0331, 1.95553, 2.04188, 2.02683, 2.02231, 2.02034, 2.03922, 2.03892, 2.01136, 2.03613, 2.12153, 1.92401, 1.99995, 1.99435, 1.99462, 1.98982, 1.98945, 1.98985, 1.91037, 1.98666, 1.98649, 1.98798, 1.91337, 2.10014, 1.99599, 1.92403, 2.09254, 2.09184, 2.06555, 2.07962, 2.0794, 1.98274, 1.9853, 1.98148, 1.97921, 2.08608, 1.97924, 2.06198, 1.97857, 2.07, 2.06418, 1.97642, 2.07736, 2.04934, 2.05952, 2.04907, 2.04804, 2.04555, 2.07226, 2.04135, 1.96719, 2.05212, 2.05485, 2.05901, 1.96132, 2.04575, 2.03125, 2.05003, 2.04603, 2.04825, 1.94832, 2.05258, 1.94607, 1.94503, 1.94248, 1.88119, 2.08014, 1.97926, 1.97976, 1.86209, 1.85899, 1.85535, 1.85232, 1.85148, 1.96981, 1.84615, 1.84455, 1.84177, 1.96869, 1.83587, 1.88642, 1.95868, 1.94394, 1.94207, 1.82943, 1.82572, 1.8253, 1.68602, 1.68209, 1.67907, 1.67263, 1.67163, 1.66873, 1.66806, 1.66769, 1.66369, 1.66495, 1.66217, 1.66237, 1.66077, 1.66204, 1.65913, 1.66053, 1.83382, 1.75746, 1.83075, 1.71009, 1.65901, 1.65955, 1.65909, 1.66257, 1.66279, 1.66557, 1.6686, 1.67116, 1.67494, 1.67441, 1.67377, 1.76894, 1.67786
1.9303, 1.92105, 1.97921, 1.92152, 1.92008, 1.91637, 1.9156, 1.91585, 1.91322, 1.91033, 1.90769, 1.90742, 1.9046, 1.90568, 2.00071, 1.89894, 1.89983, 1.89786, 1.89622, 1.8945, 1.94272, 2.01328, 1.89253, 1.89295, 1.89635, 1.89595, 1.89767, 2.06867, 2.03945, 2.03277, 2.12139, 2.03133, 1.95029, 2.02409, 2.01916, 2.11403, 2.01741, 2.0352, 2.03609, 1.93062, 2.03514, 1.99762, 1.99683, 1.99626, 1.99233, 1.99092, 1.99108, 1.9087, 2.02924, 2.03064, 1.98922, 1.98784, 1.98745, 1.99119, 1.9945, 1.99629, 2.00285, 2.1147, 2.0757, 2.0778, 2.08006, 1.9827, 1.98117, 1.98013, 1.97874, 2.07317, 2.07719, 2.06946, 1.97753, 2.06539, 1.97637, 2.06724, 1.97425, 2.06, 2.05234, 2.06343, 1.96908, 2.07028, 1.96711, 1.9651, 2.06259, 1.96544, 2.05249, 2.04396, 2.04754, 2.04455, 2.03522, 2.05393, 2.04326, 1.95141, 1.94936, 1.94643, 1.94447, 1.94285, 1.93859, 1.95168, 1.87051, 1.86769, 1.86298, 1.97081, 1.96932, 1.85076, 1.84815, 1.84281, 1.84287, 1.83785, 1.83703, 2.05638, 1.88443, 1.83081, 1.88029, 1.82725, 1.8269, 1.82506, 1.82237, 1.94565, 1.95162, 1.85134, 1.67923, 1.67238, 1.77432, 1.66826, 1.8461, 1.66273, 1.66373, 1.65853, 1.66134, 1.6582, 1.65775, 1.6588, 1.65858, 1.65456, 1.77061, 1.6555, 1.70593, 1.76062, 1.6551, 1.65632, 1.81757, 1.65855, 1.66094, 1.81743, 1.66389, 1.66575, 1.66915, 1.6708, 1.78152, 1.67297, 1.67546, 1.78818
1.9271, 1.93151, 1.91965, 1.96866, 1.91652, 2.01694, 2.0264, 1.91636, 1.91042, 1.90683, 1.90783, 1.95422, 1.99415, 1.90379, 1.90667, 1.8972, 1.89819, 2.00309, 1.89598, 2.0179, 2.0181, 1.88943, 1.8896, 1.88909, 1.89186, 1.89573, 1.89964, 1.89736, 2.03821, 2.03228, 2.0354, 2.12099, 2.12071, 2.11253, 2.03489, 2.01627, 2.01418, 1.93393, 2.03422, 1.92787, 2.0009, 2.03372, 1.99643, 2.11477, 1.99258, 1.98924, 1.98667, 2.11013, 1.98341, 1.90693, 1.98359, 2.02469, 1.98771, 2.11474, 2.01819, 1.99733, 2.01679, 2.114, 2.06285, 2.06034, 2.05845, 2.05724, 1.97984, 1.97983, 1.97684, 2.07184, 1.97613, 2.06153, 2.06324, 2.07498, 2.07522, 1.97378, 2.07529, 2.06827, 2.06966, 2.05795, 2.06097, 2.04156, 2.05832, 2.04272, 1.96462, 1.96202, 2.06009, 2.04517, 2.0559, 2.05367, 2.05148, 2.05874, 2.03491, 1.9476, 1.94494, 1.94169, 1.94161, 1.94072, 1.93915, 1.86822, 1.86772, 1.965, 1.85476, 1.85459, 1.96717, 1.90244, 1.89386, 1.90379, 1.88669, 1.8324, 1.83066, 1.8268, 1.82574, 1.82478, 1.87225, 2.04124, 1.81832, 1.95053, 1.94988, 1.81278, 1.90639, 1.67698, 1.67871, 1.67002, 1.66786, 1.76345, 1.65948, 1.65809, 1.66068, 1.6575, 1.65675, 1.6566, 1.70579, 1.70484, 1.82163, 1.65407, 1.65116, 1.65118, 1.7379, 1.65273, 1.65454, 1.6537, 1.65383, 1.65616, 1.75906, 1.80776, 1.75657, 1.80281, 1.66779, 1.66911, 1.66806, 1.6721, 1.67145, 1.80007
1.94316, 1.92013, 1.91972, 1.91865, 1.9143, 2.01604, 1.91198, 1.91198, 2.02329, 1.9925, 1.95621, 1.90417, 1.90197, 1.95061, 1.89999, 2.00998, 1.89659, 1.89289, 1.8945, 1.99968, 2.01132, 1.88906, 1.8901, 2.00377, 1.89099, 1.99902, 1.89695, 1.89637, 2.03796, 2.03913, 2.02906, 2.03067, 2.11202, 2.11134, 2.03452, 2.01541, 2.01326, 2.03202, 2.03065, 2.00792, 2.00055, 1.99775, 1.99469, 1.99141, 1.98928, 1.90838, 2.11757, 1.90663, 1.98409, 1.98362, 1.90424, 2.02233, 1.98401, 2.02113, 1.99258, 1.9958, 2.11395, 2.01035, 2.06058, 2.08439, 2.08366, 2.05904, 2.0542, 1.9769, 2.05049, 2.07312, 2.05031, 2.04928, 2.06218, 2.06616, 2.05887, 2.05714, 2.06688, 2.06559, 2.05652, 2.04116, 2.05853, 2.04999, 2.05942, 2.04841, 2.04598, 2.04643, 2.04726, 2.04567, 1.95414, 2.03897, 2.03602, 2.0393, 2.04073, 2.04806, 1.94433, 1.94179, 1.94117, 1.93952, 1.94079, 1.86472, 1.8583, 1.85567, 1.85121, 1.84454, 1.93081, 1.83853, 1.83624, 1.83128, 1.9288, 1.82701, 1.82386, 1.82079, 1.81928, 1.81729, 1.81643, 1.95351, 1.81101, 2.04265, 1.80887, 2.03426, 1.80324, 1.6779, 1.66984, 1.66671, 1.66411, 1.66112, 1.65874, 1.65716, 1.71356, 1.65423, 1.81871, 1.65, 1.6518, 1.70156, 1.65043, 1.64771, 1.81326, 1.6458, 1.7334, 1.64721, 1.64819, 1.7669, 1.65216, 1.80598, 1.71132, 1.65451, 1.65863, 1.79775, 1.66354, 1.79922, 1.76878, 1.67139, 1.67184, 1.79204
