1.91161759503339,1.86285476059293,1.86339807908252,0,1.86266071827522,1.86290327117236,1.91422746420659,1.86765730795625,1.92942097768326,2.10229327853087,2.09905277182511,2.00062480616685,1.99519162127097,0,1.99391094197409,2.0203783141097,2.01901031576984,1.91678882280035,1.98740082221493,1.91042423477947,1.98780831108212,2.09310537478731,2.01666240372556,0,1.9781255994284,2.01702138201332,2.091776184911,2.09230009916881,2.01472198054846,1.96904441895959,1.97145054369919,2.01740946664874,1.96744356983848,0,1.96660918787233,1.96380527638142,1.96332987270303,1.96110808816526,1.88635328526758,2.00746479786612,2.101264854247,1.95990502579546,1.95470469168084,0,1.95490843611443,2.1020701298655,2.00738718093903,1.95701379526158,1.95366656528109,1.95414196895948,1.95692647621861,1.88030886707092,1.95473379802849,0,1.95554877576287,2.00236148491035,2.07124650769731,1.96277685209756,1.96386348907674,1.96474638162232,1.96983029034631,1.99534685512514,1.89690918735099,0,2.08109415532108,2.06724923595249,2.06219443357615,2.05462678318547,2.06119511563994,2.05091087280133,2.06787017136916,2.05140568071149,1.96009906811317,0,1.95866315496212,1.95718843334752,1.95658690216262,1.95702349737747,1.95705260372512,1.95533532921339,1.95547115883579,1.95434571339307,2.0459821979315,0,2.06227205050323,2.03015804692227,2.03794884597832,2.04432313611508,1.95518979747511,2.03834663272962,1.95388001183057,1.95420988377068,2.03299106476083,0,1.95166792940868,2.03801676078951,2.03041030193529,2.03473744562022,2.03436876521657,2.04258645737158,1.94908716658314,1.94614742546984,1.94692359474068,0,2.02657796616052,2.03159396007332,1.94371219438258,1.94362487533961,2.02781983699387,1.94425551287217,2.02418154353681,2.02489950011234,1.94031645382266,0,2.03840484542493,1.93769688253358,2.02210529073731,2.01097696381666,2.01832146554198,1.93452429063902,2.01819533803546,2.0238516715967,2.01483840593909,0,1.92998370040462,1.93000310463639,2.02196946111492,2.01456674669429,1.92489008956474,2.0043989292463,2.00563109796376,1.99436694142071,1.99699621482567,0,1.91823443806729,1.91848669308031,1.91560516466232,1.91561486677821,1.91686643972744,1.91807920421312,1.91612907892014,1.9964431942202,1.8515129871228,0,1.9497857189269,1.84751571537798,2.0417714796372,1.84378040076206,1.83785240795603,1.83715385561228,1.83640679268909,1.83558211283883,1.8332633071422,0,1.83028475756535,2.02814970893397,1.82943097136743,1.82946977983097,1.8243664668752,1.87484657582739,1.82301787276712,1.90555377260496,1.90426339119219,0,1.86964624171277,1.8915536193822,1.89019532315823,1.82052442898455,1.81987438722022,1.818622814271,1.86863722166068,1.86776403123099,1.81775932595719,0,1.81369413940117,1.813538905547,1.8183511550262,1.81603234932957,1.81372324574883,1.81573158373712,1.81773992172542,1.93381603617938,1.86366973832731,0,1.86638633077525,1.86457203510466,1.8142083515431,1.99034056332823,1.84022942634798,1.70921205343036,1.70626261020117,1.7045065272259,1.70269223155531,0,1.85347281453167,1.6990248317506,1.69682245144459,1.69853972595632,1.69393122091072,1.69228186121018,1.69253411622321,1.69193258503831,1.690603395162,0,1.69089445863856,1.68878909949141,1.68857565294193,1.84001597979849,1.68734348422447,1.73498087322221,1.68442314734294,1.68285140456949
1.86219501671272,1.86204948497444,1.86170020880256,0,2.04188790502782,2.04169386271011,2.03778391000826,2.14776709568614,1.93143901778744,2.00215774047675,2.00336080284655,1.9971805550275,1.92322132563243,0,1.92117417918059,1.99411468640769,1.91832175711026,2.02180452514486,2.01699227566566,1.98574176039851,1.98452899591282,2.10541735984599,2.09726758250218,0,1.98350057162896,2.01540112866044,1.97706806879688,1.97697104763803,2.08929244324431,1.89689948523511,1.89659871964266,2.01354802452632,1.96761820792442,0,1.89131106648506,1.96440680756632,1.963756765802,1.96260221401162,2.10104170558164,1.95881838881628,2.09229039705293,1.95930349461056,1.95713992276809,0,2.08105534685753,2.00791109519685,1.87857218832742,1.95412256472771,2.00403995095854,1.94992154854929,1.88073576016988,1.95518009535923,1.88155073790426,0,1.95364716104932,1.95654809369908,1.88414120284569,1.88399567110741,1.96330076635538,1.96659948575644,1.89309625580799,1.97055794903772,1.97131471407679,0,2.08220019653202,2.05497605935734,1.96474638162232,2.05568431381699,1.96363063829548,1.96300970287881,2.04862117345235,1.96019608927202,1.95964306866655,0,1.9579354962707,1.95866315496212,1.95687796563919,1.95678094448033,1.95533532921339,1.95551966941522,2.02782953910975,1.95450094724724,2.03792944174654,0,2.0384242496567,1.95614060483189,2.04157743731949,2.05877928878446,2.05250201980655,1.9533949060363,1.95374418220817,2.03431055252126,2.04327530759945,0,2.03550391277517,2.03830782426608,1.951386568048,1.95051337761831,1.95032903741648,2.02788775180507,2.03179770450692,1.9470400201313,1.94725346668078,0,1.94683627569771,2.03088570561368,1.94494436310004,2.03743463383638,2.02894528243658,2.02781013487798,2.02414273507327,2.02991549402513,2.03397097846527,0,2.02772281583501,2.01488691651851,2.02660707250818,2.02214409920086,2.02153286590007,1.93390335522235,1.93317569653094,2.0204462289209,1.93053672101009,0,1.92859629783299,2.01290768487787,1.92730591642022,1.92546251440198,2.01167551616042,1.9969768105939,1.99756863966292,1.99556030167462,1.9971805550275,0,1.91817622537198,1.91799188517015,1.91802099151781,1.91718660955166,1.91539171811284,1.91463495307378,1.99394004832175,1.98582907944148,1.85011588243529,0,1.84969869145221,1.84867026716835,1.8440908684704,1.8421504452933,1.84067572367871,1.94703031801542,1.95030963318471,1.83369020024116,1.83274909500026,0,1.83127437338567,1.83109003318385,1.82968322638045,1.92393928220796,1.827180080482,2.01705048836098,1.82262008601582,1.82271710717467,1.91434388959721,0,1.82266859659524,1.82013634434913,1.86929696554089,1.81939898354183,1.869626837481,1.81927285603532,1.8198258766408,1.92735442699965,1.9380170523578,0,1.81954451528012,1.81964153643897,1.88470392556705,1.88615924294987,1.81747796459651,1.81686673129572,1.93371901502053,1.93113825219499,1.92662676830824,0,1.86637662865936,1.81733243285823,1.81702196514989,1.81763319845068,1.70816422491473,1.83801734392608,1.70394380450454,1.703904996041,1.70102346762301,0,1.69846210902924,1.85020320147826,1.74529422240849,1.69286398816331,1.74296571459597,1.69221394639899,1.69025411899012,1.68987573647058,1.68678076150311,0,1.68925480105391,1.68810024926354,1.68574263510337,1.68857565294193,1.68515080603435,1.68392833943278,1.6843843388794,1.68487914678956
1.96739505925905,1.86291297328824,1.85995382794317,0,1.86502803455128,1.96674501749473,1.86512505571014,1.86647364981822,2.00457356733224,2.00492284350412,2.09803404965714,1.92488038744885,1.99758804389469,0,2.02119329184408,2.01989320831542,1.91716720531989,1.91746797091234,1.98665375929175,1.98719707778133,2.01612878735185,1.98341325258599,1.97994959721487,0,1.97798976980601,1.97504032657682,1.97620458048308,2.08939916651905,1.97340066899217,1.8995093544083,1.97016016228642,2.09146571720266,2.01461525727372,0,1.96497923240357,2.01090904900546,1.96198127859495,1.96108868393349,2.09429873504122,1.95747949682409,1.88418971342512,1.95766383702591,1.95738247566523,0,1.95682945505976,1.95411286261182,1.95502486150506,2.0046026736799,1.95557788211053,1.9536568631652,1.95141567439566,1.95397703298943,1.95421958588656,0,1.88093950460348,2.00052778500799,1.88641149796289,1.88711975242253,1.96218502302855,1.96237906534626,2.08504291648647,1.89644348578849,2.07485569480671,0,2.07277944200721,2.07212940024289,2.05737248198106,2.05009589506694,2.04749572800963,2.05818745971544,2.04798083380391,2.05546116515162,1.95832358090612,0,1.95708171007278,1.95734366720169,1.95697498679804,1.95608239213658,1.95534503132928,1.95500545727329,2.02786834757329,1.95542264825636,2.02570477573083,0,1.95482111707146,2.04566202810728,2.04447836996925,2.04500228422706,1.95331728910921,2.04273198910986,2.0350867217921,2.03852127081556,2.04744721743021,0,2.03823020733899,1.95060069666128,2.04343054145362,2.0513280637844,1.94979542104278,2.03135140717618,2.02814970893397,2.04475973132993,2.02081490932455,0,1.9464384889464,2.0343493609848,2.06060328657093,1.94409057690211,1.94357636476018,2.02794596450038,2.03055583367357,2.02233814151857,2.0210477601058,0,2.04458509324399,2.01246138754714,2.02797507084803,2.01902972000162,2.02563686091963,2.00766854229971,2.02814000681809,1.93287493093849,2.01823414649901,0,1.92997399828873,2.0312058754379,2.02333745945477,2.012558408706,2.01352862029454,1.99634617306135,1.99482294086733,2.00157561352362,1.99579315245587,0,1.99404677159649,1.91771052380947,1.91749707725999,1.91509095252039,1.91691495030686,1.91400431554122,2.00063450828273,1.99699621482567,1.84912626661497,0,1.84932030893268,2.03864739832207,1.84510959063838,1.84400354942743,1.84106380831413,1.9397537311013,1.83716355772816,2.03197234259286,1.94447866153753,0,1.83039148084009,1.94560410698025,1.93315629229917,1.87641831860084,1.82983846023462,1.82647182602236,1.82665616622418,1.82629718793642,1.82365821241556,0,1.8232992341278,1.82298876641947,1.82027217397153,1.94315917377711,1.81936987719418,1.8220282569468,1.82059234379575,1.81900119679053,1.92708276775486,0,1.8201557485809,1.8184869846486,1.81893328197933,1.82005872742205,1.81894298409522,1.81603234932957,2.0274608587061,1.81794366615901,1.81384937325534,0,1.81743915613297,2.00207042143378,2.02560775457198,1.81670179532567,1.70632082289648,1.70373035795506,1.70232355115166,1.85323026163453,1.85240558178426,0,1.69690977048756,1.69568730388599,1.74265524688763,1.74326648018842,1.7421410347457,1.69002126820887,1.84707912016313,1.6922721590943,1.84866056505246,0,1.68886671641849,1.68514110391847,1.73874529418578,1.68527693354086,1.68377310557861,1.68347233998616,1.67910638783769,1.84022942634798
0,0,0,0,0,0,0,0,0,0,0,0,0,0,0,0,0,0,0,0,0,0,0,0,0,0,0,0,0,0,0,0,0,0,0,0,0,0,0,0,0,0,0,0,0,0,0,0,0,0,0,0,0,0,0,0,0,0,0,0,0,0,0,0,0,0,0,0,0,0,0,0,0,0,0,0,0,0,0,0,0,0,0,0,0,0,0,0,0,0,0,0,0,0,0,0,0,0,0,0,0,0,0,0,0,0,0,0,0,0,0,0,0,0,0,0,0,0,0,0,0,0,0,0,0,0,0,0,0,0,0,0,0,0,0,0,0,0,0,0,0,0,0,0,0,0,0,0,0,0,0,0,0,0,0,0,0,0,0,0,0,0,0,0,0,0,0,0,0,0,0,0,0,0,0,0,0,0,0,0,0,0,0,0,0,0,0,0,0,0,0,0,0,0,0,0,0,0,0,0,0,0,0,0,0,0,0,0,0,0,0,0
1.8622047188286,2.04116024633641,1.85824625554732,0,1.86424216316456,1.86442650336638,2.05685826983913,1.86576539535858,2.00344812188952,2.00261373992337,2.00186667700019,2.00024642364731,1.99507519588035,0,2.01796248725421,2.0179721893701,1.99001069138812,1.91726422647874,1.98940916020322,1.9128788700985,2.10631965662334,1.98392746472792,1.98057053263155,0,2.01594444715003,1.9758553043112,1.97718449418751,2.0951137127756,1.8993735247859,1.97093633155726,1.97055794903772,1.9691705464661,2.01035602839999,0,1.96526059376425,1.96175812992959,2.01038513474765,1.9617484278137,1.88423822400454,1.88411209649803,1.88415090496158,1.95698468891393,1.95792579415482,0,2.09200903569225,1.95412256472771,1.95395762875765,2.09242622667532,1.95470469168084,1.95449124513136,1.9533269912251,1.95385090548291,1.95463677686964,0,1.88341354415428,1.96039013158973,1.95745039047643,1.96081702468869,1.88806085766343,1.96396051023559,2.0912425685373,1.97048033211064,2.0652311958483,0,2.07080021036657,2.07260480392127,2.05940992631701,2.05188108438987,2.0518616801581,2.05017351199403,2.03594050799002,1.95917736710405,1.95791609203893,0,1.95842060206498,1.95621822175897,1.95451064936313,1.95560698845819,1.9542583943501,2.03054613155769,2.05856584223498,2.04452688054868,2.03791003751477,0,2.04505079480649,1.95495694669386,2.03753165499524,1.95330758699333,2.04744721743021,2.04520602866066,2.04396415782732,2.05927409669462,1.95163882306102,0,2.03325302188974,2.03584348683116,2.0446433059393,2.03759956980644,1.94903865600371,2.0360181249171,2.03472774350433,2.0191073369287,2.03467923292491,0,2.02480247895348,2.03305897957203,2.03895786603041,1.94379951342555,2.03807497348483,2.037890633283,2.03491208370616,1.940287347475,2.03129319448087,0,1.9372796915505,2.02817881528163,1.93611543764424,2.02040742045735,2.02014546332845,2.01665270160967,1.93169127280046,1.9319338256976,1.93024565753352,0,2.01535261808102,1.92766489470798,2.02238665209799,1.92553042921318,2.01771023224119,2.01340249278803,2.0107538151513,1.99093239239725,1.91693435453864,0,1.9961133222801,1.91668209952561,1.913684145717,1.91477078269617,1.91449912345138,1.91399461342533,1.98840014015113,1.98771128992326,1.85341460183635,0,1.84972779779987,1.84740899210324,2.03029387654467,1.84281018917352,2.0265294555811,1.93767747830181,1.93752224444764,1.83568883611357,1.83365139177762,0,1.95989532367957,1.94468240597113,1.87798035925841,1.87622427628313,1.82685020854189,1.82772339897158,1.82567625251975,1.87456521446671,1.82557923136089,0,1.82446348803406,1.93983134802839,1.94125755906355,1.94077245326928,2.03583378471528,1.94335321609482,1.81913702641293,1.91439240017664,2.03634799685721,0,1.93702743653748,1.81957362162777,1.81664358263036,1.8733039394016,1.8725665785943,1.81609056202488,2.02845047452642,1.81981617452491,1.81777873018896,0,2.02047533526855,1.81909821794938,1.81754587940771,1.81787575134781,1.70274074213474,1.70291538022068,1.70264372097588,1.84584695144567,1.7466234122848,0,1.83536866628935,1.83306926482449,1.8350679006969,1.68950705606693,1.69223335063076,1.69028322533777,1.85389000551474,1.84679775880245,1.68541276316326,0,1.73667874350217,1.68360816960856,1.68390893520101,1.68114383217365,1.68540306104737,1.68157072527261,1.83836662009796,1.83882261954458
1.86297118598356,1.86161288975959,1.86217561248095,0,1.8630779092583,1.96028340831499,1.96360153194783,1.86366973832731,2.00130395427883,2.00363246209135,2.09398826733289,1.99707383175276,1.99525953608217,0,2.01878716710448,2.01766172166176,1.99286311345846,1.98999128715635,2.01815652957192,1.91340278435632,2.10551438100485,1.98370431606256,1.90637845245523,0,1.97868832214976,1.97614636778776,1.97733002592579,2.01474138478023,1.89853914281975,1.96841378142703,2.01514887364742,1.89482323243561,2.01062768764478,0,1.96446502026164,1.96336868116658,1.8878086026504,1.95881838881628,2.09815047504776,1.95877958035274,1.95676154024856,1.95781907088008,2.0100843691552,0,1.95268665157666,1.95416137319125,2.0048646308088,2.00485492869292,1.95235677963655,1.95354043777458,1.95376358643994,1.95418077742302,1.95445243666781,0,1.88027005860738,1.95797430473425,1.96048715274859,1.88531515886783,1.96159319395953,1.99395945255352,2.07082931671423,1.89479412608795,2.09234860974824,0,1.99511400434389,2.07862011577028,2.03739582537284,2.03692042169445,2.03472774350433,2.0380264629054,1.95974979194129,2.03437846733246,1.95863404861446,0,1.95708171007278,1.95651898735142,1.95329788487744,1.95474350014438,2.03121557755379,2.03008042999519,1.9511828236144,1.95329788487744,1.95376358643994,0,2.04982423582215,2.04934883214376,2.0355524233546,2.03940416336114,2.05175495688336,2.04630236775572,2.03209847009937,1.9521918436665,2.0319432362452,0,2.03457250965017,1.9495819744933,1.95012529298289,2.03430085040537,1.94984393162221,2.03435906310068,2.03663906033377,2.03846305812025,2.02598613709151,0,2.04158713943537,1.94501227791124,2.02450171336103,2.0304685146306,2.0314775346827,2.02966323901211,2.01854461420734,1.93993807130313,2.03408740385589,0,2.02166869552247,1.93821109467551,2.02118358972819,2.02134852569825,2.00768794653148,2.01538172442867,2.01391670492996,1.93160395375749,1.9308665929502,0,1.92963442423274,1.92702455505954,2.01704078624509,1.92537519535901,1.92422064356864,1.92326013409597,1.92169809343841,1.91958303217537,1.91735154552171,0,1.91699256723395,1.91628431277431,1.91433418748133,1.91599324929774,2.00576692758615,1.99035996756,2.001459188133,1.85406464360068,1.85337579337281,0,2.02531669109541,1.89688008100333,1.84519690968134,1.93729909578227,2.03181710873869,1.83949206554068,1.93339884519631,1.88327771453188,1.88226869447979,0,1.88164775906312,1.88037678188212,1.8874108158991,1.82822790899763,1.82865480209659,1.82701514451194,1.82734501645205,1.87304198227269,1.94047168767683,0,1.82307608546243,1.82433736052755,1.81997140837908,2.02188214207195,1.8206893649546,1.91780754496833,1.81810860212907,1.93712445769633,1.81965123855486,0,1.82048562052101,1.81934077084652,1.87402189597713,1.8726344934055,1.87160606912164,1.87335244998103,1.87095602735731,1.81857430369157,1.81769141114599,0,1.81844817618506,1.81990349356788,1.8196900470184,1.81906911160173,1.70026670258394,1.70254669981703,1.70050925548108,1.84906805391965,1.69916066137299,0,1.74272316169883,1.83243862729193,1.83358347696642,1.83380662563178,1.68900254604089,1.85277426218791,1.68736288845624,1.685519486438,1.73791091221963,0,1.68384102038981,1.68310365958251,1.68388953096924,1.67962059997962,1.68296782996012,1.75058187556608,1.67895115398353,1.84614771703812
1.86262190981168,1.86450412029346,1.86041952950567,0,1.86321373888069,1.86249578230517,1.86384437641325,1.92013605278085,2.10114842885638,1.92762608624444,2.01862223113443,1.99792761795068,1.99670515134911,0,1.99715144867984,2.01735125395343,2.01821474226723,2.01700197778155,1.91208329659589,2.01466376785315,1.98095861726696,1.98085189399222,2.01479959747554,0,1.9814049145977,1.9032543711401,1.97484628425911,1.9033902007625,1.97487539060676,1.97016016228642,1.9709072252096,1.96643454978639,2.0921739716623,0,1.96385378696085,1.96458144565226,2.01096726170078,1.96280595844522,2.00859994542472,1.95668392332148,1.95561669057407,1.88048350515686,1.9562667323384,0,1.95547115883579,1.95391882029411,1.87956180414774,1.95445243666781,1.95130895112092,1.95390911817823,1.95374418220817,1.95495694669386,2.00048897654445,0,2.00048897654445,1.95441362820427,1.95890570785925,1.88636298738347,1.99767536293766,1.96573599744264,1.96477548796997,1.99361017638164,1.99398855890117,0,1.99421170756654,2.03844365388848,2.03669727302909,1.96420306313273,2.05149299975445,2.05155121244977,2.05482082550318,2.04094679978693,1.95782877299596,0,1.95711081642044,1.95385090548291,1.95413226684359,1.95449124513136,1.95404494780062,1.95514128689568,1.95075593051544,2.04867938614766,1.95259933253369,0,2.04909657713074,1.95364716104932,1.95360835258578,2.0430424568182,2.03910339776869,2.02276503461753,1.9515903124816,2.05010559718283,2.02476367048994,0,2.0451090075018,2.02159107859538,2.04578815561379,2.04370220069841,2.03729880421399,1.95065890935659,2.04161624578303,2.02854749568528,2.03469863715668,0,1.94481823559353,1.94413908748154,2.03558152970226,2.02483158530114,2.03826901580254,1.94134487810652,1.94011270938906,2.03175889604337,2.02429796892743,0,2.02552043552901,2.02312401290529,2.02451141547692,2.01752589203937,2.03367021287282,2.01875806075682,2.02404571391441,2.00476760964995,2.0243852879704,0,2.01889389037922,2.01902001788573,2.01226734522943,2.01793338090656,1.92314370870535,1.92093162628346,2.00839620099112,1.91935018139412,1.99348404887513,0,1.91734184340583,1.91504244194097,1.91957333005949,1.91527529272222,1.91569248370529,2.0015271029442,1.91316023145918,1.98540218634252,1.85089205170613,0,1.85081443477904,1.84931060681679,1.8941634885554,1.84425580444045,1.8893512390762,1.88845864441473,1.88588758370508,1.91656567413499,1.83327300925808,0,1.83113854376327,1.83043999141952,2.03110885427905,1.87707806248106,1.87682580746803,1.82693752758486,1.8257053588674,1.82601582657574,1.94404206632269,0,2.03444638214365,1.94256734470809,1.82245515004576,1.81993259991554,1.94093738923933,1.82184391674498,1.82037889724627,1.94266436586695,2.03125438601733,0,1.81906911160173,1.82038859936215,1.92227051827565,1.87304198227269,1.87208147280003,1.87159636700576,1.82054383321632,1.81837055925797,1.81729362439468,0,1.81939898354183,1.81882655870459,1.81990349356788,1.81779813442073,1.69997563910738,1.85447213246787,1.85670361912153,1.84945613855507,1.69593955889901,0,1.7422768643681,1.83311777540391,1.83296254154975,1.73720265775999,1.68884731218672,1.68608220915936,1.68515080603435,1.68349174421793,1.73646529695269,0,1.68195880990803,1.68216255434162,1.83664934558623,1.68116323640542,1.84600218529984,1.68211404376219,1.67764136833898,1.67792272969966
1.86493101339243,1.8643488864393,1.86383467429737,0,1.97588441065885,1.95814894282018,1.91660448259853,1.91322814627038,2.00061510405096,1.99803434122542,1.99752012908349,2.00017850883611,2.00026582787908,0,1.99436694142071,1.99080626489073,1.99069954161599,1.91670150375738,1.98775009838681,1.98580967520971,1.98514022921361,1.98157955268364,1.90781436560628,0,1.97863010945445,1.97524407101041,1.97392458324999,1.97300288224087,1.89846152589267,1.96992731150517,1.9695683332174,1.96790927140098,1.89261115001372,0,1.96319404308064,1.96169991723427,1.96080732257281,1.96085583315224,2.09199933357636,1.96051625909624,1.96016698292437,1.95609209425246,2.00804692481924,0,1.95524801017042,1.95493754246209,1.87742733865293,1.95288069389437,1.95096937706492,1.95211422673941,1.87762138097064,2.00225476163561,2.00103229503404,0,1.99880080838037,1.95367626739697,1.95688766775507,1.95811983647253,1.96384408484497,1.96317463884887,1.9647560837382,1.99426992026185,2.08905959246306,0,2.08155985688358,2.03469863715668,2.06215562511261,2.05432601759302,2.05096908549664,2.03530987045746,2.04734049415547,1.95744068836054,1.95653839158319,0,1.95608239213658,2.03111855639493,1.95543235037225,1.95562639268996,1.95364716104932,2.04084007651219,2.04136399077001,2.05444244298364,1.9532590764139,0,2.05095938338075,2.04247003198095,2.03948178028822,1.95187167384227,2.03523225353038,1.95119252573029,1.95189107807405,2.02404571391441,2.02279414096518,0,2.05886660782743,2.0411699484523,1.94982452739044,1.94812665711048,2.050260831037,2.02584060535323,2.03380604249521,2.03258357589364,2.03898697237806,0,2.03109915216316,2.02809149623866,2.02836315548345,2.02964383478034,2.03724059151867,1.9410926230935,2.02248367325685,2.01750648780759,1.93983134802839,0,2.01379057742345,1.93703713865337,2.01795278513833,2.01911703904458,2.01494512921383,2.01382938588699,2.02019397390787,2.01178223943516,2.011287431525,0,2.01466376785315,2.00943432739087,1.9275193629697,2.00955075278149,1.92394898432384,2.00529152390777,2.01902972000162,1.92018456336027,1.91627461065842,0,1.91544022869227,1.91483869750737,1.91465435730555,1.91494542078211,1.91422746420659,1.99135928549621,2.01492572498205,1.85533562078168,1.85404523936891,0,1.85029052052123,2.01739006241697,1.84486703774124,1.89069013106839,1.88863328250067,1.88691600798894,1.88513081866601,1.88321950183657,1.9469721053201,0,1.94348904571721,1.93818198832785,1.94025824112735,1.93903577452578,1.94503168214301,1.83029445968124,1.82567625251975,1.94405176843857,1.82478365785828,0,1.82567625251975,1.82573446521506,1.87271211033259,1.87132470776096,1.87145083526747,1.87095602735731,1.8221640865692,1.82069906707049,1.81961243009132,0,1.82270740505879,1.82085430092466,1.8226297881317,1.9140819324683,1.82248425639342,1.82060204591164,1.81917583487647,1.81911762218116,1.82084459880877,0,1.90028552367914,1.87296436534561,1.92617076886162,1.81818621905615,1.82121327921242,1.69839419421804,1.85379298435589,1.84773886404334,1.68944884337162,0,1.74193729031211,1.73940503806599,1.686790463619,1.68516050815024,1.68603369857993,1.68308425535074,1.68250212839761,1.85012558455117,1.73384572566361,0,1.73380691720007,1.67922281322832,1.83338943464871,1.6777674958455,1.67624426365147,1.67679728425695,1.67693311387934,1.67587558324783
1.86331076003955,2.03104093946785,1.86335927061898,0,1.97422534884244,2.02615107306156,1.95834298513789,1.96004085541785,2.11634194233305,2.02326954464357,1.92476396205822,2.09197992934459,2.01710870105629,0,2.01690495662269,2.01605117042477,2.01513917153154,1.91499393136154,1.9141498472795,1.98510142075007,1.98192882885551,1.97860100310679,1.98253036004041,0,2.10056630190325,1.97758228093882,1.90056688503982,1.90028552367914,1.89772416508537,1.89706442120516,2.09968340935767,1.96564867839967,1.96481429643351,0,1.96474638162232,1.96100136489052,2.08128819763879,1.96022519561968,1.96008936599728,2.00928879565259,1.95798400685013,1.9576056243306,1.956130902716,0,1.88016333533264,2.00536914083485,1.87826172061908,1.95309414044385,2.09429873504122,1.87730121114642,1.87798035925841,2.08103594262576,2.00161442198717,0,1.95405464991651,1.95750860317174,1.88050290938863,1.95805192166133,1.96072000352984,1.96314553250121,1.96555165724081,1.96723982540489,2.0777372232247,0,2.07704837299683,2.07344888800331,2.04641879314635,2.05171614841982,2.04412909379737,2.03435906310068,2.0320111510564,1.95634434926548,1.95611149848423,0,1.9603416210103,1.9560629879048,1.95369567162875,1.95382179913526,1.95678094448033,1.95381209701937,2.0503287458482,2.05788669412299,2.03465982869313,0,2.05530593129745,2.04095650190282,2.03625097569835,2.04540977309425,2.04452688054868,1.95068801570425,2.03423293559417,2.03078868445483,2.04112143787287,0,2.03823990945488,1.94966929353627,2.03250595896656,2.04526424135597,1.94895133696074,2.02373524620608,1.94729227514433,2.03348587267099,2.02771311371913,0,2.02756758198084,2.02844077241054,2.02538460590661,2.02436588373863,2.03804586713717,2.03278732032724,1.94063662364688,2.02463754298343,2.02317252348472,0,2.02202767381023,2.02455022394046,2.02561745668786,2.01667210584144,2.02497711703942,2.02041712257324,2.02112537703288,1.93041059350358,2.01819533803546,0,2.0312737902491,1.92716038468194,2.01902972000162,2.01005526280754,2.01078292149895,2.02802358142746,2.00859024330883,2.00512658793771,1.91827324653083,0,1.91698286511806,1.91423716632247,1.9134124864722,1.91406252823653,1.91716720531989,1.91431478324955,2.00361305785958,1.85621851332726,2.01428538533361,0,1.85094056228555,2.04012211993666,1.84630295089229,1.84326618862013,1.8896811110163,1.83959878881542,1.92687902332126,1.83575675092477,1.94617653181749,0,1.83263266960964,1.93697892595805,1.93700803230571,1.93831781795025,1.82971233272811,1.82813088783877,1.93503850278095,1.91957333005949,1.82632629428407,0,1.82382314838562,1.82306638334655,1.82341565951843,1.8235029785614,1.82369702087911,1.82132000248716,1.82305668123066,1.82258127755227,1.93051731677832,0,1.82080579034523,1.8226977029429,1.91720601378343,1.82181481039732,1.82171778923847,1.82257157543639,1.87017985808647,1.81985498298845,1.82285293679707,0,1.82081549246112,1.93099272045671,1.82207676752623,1.81904000525407,1.85022260571003,1.79304803679685,1.69378568917243,1.69486262403572,1.69250500987555,0,1.69016679994715,1.74792349581345,1.68553889066977,1.68294842572835,1.68427761560466,1.68494706160076,1.84905835180377,1.84722465190141,1.67888323917233,0,1.6771659646606,1.67765107045487,1.67679728425695,1.67559422188715,1.67373141563713,1.67695251811111,1.74894221798143,1.84055929828808
1.91165640349693,1.91286916798262,1.86431978009164,0,1.86359212140023,1.86339807908252,1.95726605027461,1.95803251742956,2.00177935795722,2.00415637634916,2.09475473448784,1.99586106726707,1.99383332504701,0,1.99459979220196,2.01572129848466,2.01411074724767,1.98943826655088,1.99047639295063,1.98413120916152,1.98330652931125,1.98341325258599,1.98065785167451,0,2.09419201176648,1.90316705209713,1.97556424083463,1.97670909050912,1.97187743679815,1.96988850304162,1.96797718621218,1.96564867839967,2.01081202784661,0,1.89024383373766,1.88910868617906,2.10538825349834,1.88488826576887,1.95744068836054,1.95553907364699,1.95495694669386,1.95466588321729,1.95681005082799,0,2.00534973660308,1.87987227185608,1.88077456863343,1.95096937706492,2.09706383806859,1.87777661482481,1.87807738041726,1.9997225093895,1.95311354467562,0,2.08433466202683,1.95801311319779,1.95638315772903,1.95856613380326,1.96392170177205,1.9945027710431,2.08280172771692,2.07723271319865,1.89805403702548,0,1.9914272003074,2.0786686263497,2.0570135036933,2.05052278816591,2.04257675525569,2.04429402976742,2.04498287999529,1.95602417944126,1.95572341384881,0,1.95487932976678,1.95329788487744,1.95382179913526,1.95310384255973,1.95322997006624,1.95208512039176,2.04053931091974,1.95133805746857,1.95012529298289,0,2.06833587293166,1.95204631192821,1.95227916270947,2.02640332807459,2.04187820291194,2.04768977032734,2.04118935268407,2.02417184142092,2.02301728963055,0,2.04418730649268,2.04392534936378,2.03825931368665,2.03694952804211,1.94729227514433,2.03737642114107,1.94511900118598,2.0314096198715,1.94375100284612,0,1.94328530128362,1.94358606687607,1.94377040707789,2.02361882081545,1.94218896218856,1.94121875060001,1.94212104737736,1.938084967169,2.03089540772957,0,2.02141644050945,2.03081779080248,2.02143584474122,2.01712810528806,2.01338308855626,1.93011953002701,2.01688555239092,2.01759380685056,2.02765490102381,0,1.9263163005999,1.92607374770276,2.00723194708486,2.01040453897942,1.92117417918059,2.01479959747554,1.91696346088629,1.91638133393316,1.91756499207119,0,1.91685673761155,1.91484839962326,1.91366474148523,1.91262661508548,1.91399461342533,1.91371325206465,1.99932472263819,1.85530651443402,1.85409374994834,0,1.85022260571003,1.84886430948606,1.84401325154332,1.84419759174514,1.88915719675849,1.88761456033269,1.88526664828841,1.83644560115264,1.83405888064481,0,1.83273939288438,1.94426521498805,1.83002280043644,1.93428173774189,1.9310606352679,1.83033326814478,1.82668527257184,1.93978283744896,1.92342507006603,0,1.82614195408225,1.82579267791037,1.82491948748068,1.82594791176454,1.82322161720072,1.82317310662129,1.82028187608741,1.82413361609395,1.92449230281343,0,1.92268770925873,1.81913702641293,1.99095179662902,1.87027687924533,1.91992260623137,2.02016486756022,1.82131030037128,1.82141702364602,1.82070876918638,0,1.81897209044287,1.82036919513038,1.82053413110044,1.82147523634133,1.69646347315683,1.69573581446542,1.69063250150965,1.85047486072305,1.69197139350185,0,1.68867267410078,1.68645088956301,1.68519931661378,1.84715673709021,1.68384102038981,1.68175506547443,1.68031915232338,1.78640208741529,1.67837872914628,0,1.67835932491451,1.8479038000134,1.84626414242875,1.72648181970653,1.84688507784542,1.6756233282348,1.72412420554635,1.67357618178297
1.93369961078876,1.93460190756611,1.86351450447314,0,1.86291297328824,1.86281595212939,1.86292267540413,1.95663541274205,2.11019080086165,2.0025264208804,1.99947025437647,1.92427885626395,2.01703108412921,0,1.91966064910246,1.9902920527488,1.98888524594541,2.09192171664928,2.01452793823075,1.98447078321751,1.98378193298964,1.98127878709119,2.0884968697417,0,1.90446713562579,1.97477836944791,1.97383726420702,1.97725240899871,1.9708393103984,1.9701019495911,1.9652217853007,1.9662308053528,2.09780119887588,0,1.96169991723427,1.9612827262512,2.00886190255363,1.95929379249467,1.8841315007298,1.95421958588656,2.08379134353724,1.95482111707146,1.87986256974019,0,1.95388971394646,2.00376829171374,2.00340931342598,1.95168733364045,1.95082384532664,2.00150769871243,2.00135246485826,1.95333669334098,1.95409345838005,0,1.95408375626417,1.95570400961704,1.99767536293766,1.88550920118554,1.96352391502074,1.99686038520328,1.99334821925273,1.96433889275513,1.99185409340637,0,2.08130760187056,1.96369855310668,2.05851733165555,2.04491496518409,2.05477231492375,2.03823990945488,2.04254764890804,2.04561351752785,1.95456886205844,0,1.95378299067172,1.9536568631652,1.95182316326285,2.02750936928553,1.95029993106883,2.0301386426905,2.04150952250829,1.95209482250764,1.95307473621208,0,2.04235360659033,1.95106639822378,2.04882491788595,2.02368673562665,1.95153209978628,2.03766748461764,2.03887054698744,2.03775480366061,2.02230903517091,0,2.03129319448087,2.04851445017761,1.9472437645649,1.94706912647896,2.0445753911281,2.03955939721531,2.02919753744961,1.94532274561957,2.02764519890793,0,2.05517980379094,1.94274198279403,2.0208440156722,1.9430330462706,2.03157455584155,2.03409710597178,1.93970522052187,2.02165899340658,2.02368673562665,0,2.01764231742999,1.93450488640725,2.01980588927245,2.02265831134279,2.01758410473468,1.93114795431087,1.93010982791113,1.93075016755957,1.92796566030043,0,2.01648776563962,1.92517145092541,1.92454081339286,2.01297559968907,2.00805662693513,1.92027188240324,2.01193747328932,2.00377799382963,1.9147513784644,0,1.91547903715581,1.91500363347742,1.91330576319746,1.91159819080162,1.91177282888756,2.00136216697414,2.00969628451978,1.8531138362439,1.85236677332072,0,1.85042635014362,1.8475642259574,1.84419759174514,1.84217955164096,1.93157484740984,1.83904576820995,1.8385412581839,1.83414619968778,1.94156802677189,0,1.83282671192735,1.94313976954534,1.82960560945337,1.93026506176529,1.9289261697731,1.82872271690779,1.82763607992861,1.82734501645205,1.82789803705752,0,1.82588969906923,1.82516204037781,1.87459432081437,1.8735076838352,1.82370672299499,1.82299846853535,1.82574416733094,1.93864768989036,1.82498740229188,0,1.82250366062519,1.99130107280089,1.87173219662815,1.87102394216851,1.8697626671034,2.0104142410953,1.82282383044941,1.82253276697285,1.82181481039732,0,1.82307608546243,1.82267829871113,1.90791138676513,1.82094161996763,1.81958332374366,1.69431930554614,1.69015709783126,1.6923400739055,1.74884519682257,0,1.77705894981757,1.68614042185467,1.68502467852784,1.68541276316326,1.6805714073364,1.85365715473349,1.67877651589759,1.85117341306681,1.84980541472695,0,1.67413890450432,1.84803962963579,1.67263507654207,1.84737018363969,2.03521284929861,1.67416801085198,1.6722858003702,1.67243133210848
1.86222412306037,1.95427779858188,1.96111779028114,0,1.86232114421923,1.86366003621143,1.86438769490284,1.86425186528044,2.00128455004706,1.99799553276188,1.99780149044417,1.99613272651187,2.09440545831596,0,2.09376511866752,2.09491967045789,2.0911746537261,2.08954469825734,1.98166687172661,1.98317069968886,2.0122867494612,1.98021155434378,1.9783972586732,0,1.90327377537187,1.90112960776118,1.97343947745571,1.97248867009893,1.97170279871221,1.97072288500778,1.96941309936323,1.97006314112756,2.0088813067854,0,1.96257310766397,1.96222383149209,1.96309702192178,2.01070530457187,2.09773328406469,1.9573339650858,1.9558689455871,2.00394292979968,2.0039332276838,0,1.95210452462353,1.95207541827587,2.00434071655099,2.00567960854319,1.951386568048,2.08524666092006,2.00040165750148,1.95179405691519,1.95346282084749,0,1.95474350014438,1.95584954135532,1.95679064659622,1.95748919893997,1.95762502856237,1.95762502856237,1.99179588071105,1.99091298816547,1.97660236723438,0,2.08431525779506,1.96353361713663,2.06413485675324,2.06173843412953,2.06083613735218,2.041703564826,1.95798400685013,2.0337478297999,1.95451064936313,0,1.95361805470166,1.95342401238395,1.95255082195426,1.95126044054149,1.95062980300893,2.05429691124536,2.04118935268407,1.95137686593211,1.95229856694124,0,1.95139627016389,1.94968869776804,2.02350239542483,2.02161048282716,2.03814288829602,2.06814183061395,2.03453370118662,2.02205678015789,2.03483446677907,0,2.02781013487798,2.02927515437669,2.0349508921697,2.03103123735196,2.04511870961769,2.02788775180507,2.03443668002777,2.03153574737801,2.02691754021652,0,2.0202424844873,2.03229251241708,1.94195611140731,2.03487327524262,2.02488009588056,2.01452793823075,1.93888054067161,2.03805556925306,2.02996400460456,0,2.01565338367347,2.02018427179199,2.02153286590007,2.01595414926592,2.02147465320476,2.02476367048994,2.01123892094557,1.92735442699965,1.92831493647231,0,1.92685961908949,2.01681763757972,2.01240317485183,2.01451823611486,2.01744827511228,1.99140779607563,2.00549526834136,2.0088133919742,1.91757469418708,0,1.9140819324683,1.91380057110762,1.91392669861413,1.91336397589278,1.91169521196047,2.0003240405744,2.00103229503404,1.85376387800823,1.85136745538451,0,1.8983062920385,1.94580785141385,1.94421670440863,1.84352814574904,1.84013240518912,1.84018091576855,1.95095967494904,2.034417275796,1.83323420079454,0,1.83209905323594,1.94311066319768,1.83157513897812,1.830653437969,1.82912050365909,1.87979465492899,1.89919888669997,1.87729150903054,1.93269059073667,0,1.8265106344859,1.91108397865969,1.87454581023494,1.89856824916741,1.82970263061222,1.8258411884898,1.82568595463563,2.00846411580232,2.02882885704596,0,1.82310519181009,1.87265389763727,1.8197579618296,1.87126649506565,1.82325072354837,1.82400748858744,1.82327012778014,1.82165957654315,1.82053413110044,0,1.82091251361997,1.82218349080097,1.82306638334655,1.82207676752623,1.69547385733651,1.69376628494066,1.85004796762409,1.6873919948039,1.68616952820233,0,2.02768400737147,1.68477242351482,1.68476272139893,1.68269617071532,1.85280336853557,1.67827200587154,1.84775826827511,1.675691243046,1.72443467325469,0,1.67403218122958,1.84641937628292,1.89972280095778,1.84376099653029,1.67159695014233,1.67155814167878,1.67015133487539,1.76385437009742
2.04433283823097,1.86328165369189,1.8622726336398,0,1.86302939867887,1.8628741648247,1.97059675750126,1.862340548451,2.00234208067858,2.01912674116047,1.99617153497541,1.92326013409597,2.09437635196831,0,2.01407193878413,1.91771052380947,1.9148192932756,1.98828371476051,1.98548950538549,1.98609103657039,2.09802434754125,1.98075487283337,1.97983317182425,0,1.97669938839324,1.97513734773567,1.9721782023906,1.97253718067836,1.96934518455204,1.96891829145308,1.9668323365377,1.96575540167441,1.88900196290432,0,1.96237906534626,1.96193276801552,1.96059387602333,1.95823626186315,1.95772204972122,1.95539354190871,1.88128878077536,1.87920282585998,2.00572811912261,0,1.95141567439566,1.95051337761831,2.00370037690255,2.07852309461142,1.95034844164825,1.94868937983183,1.95032903741648,1.87745644500059,1.87900878354227,0,1.87937746394592,1.99808285180485,1.95661600851028,1.95754741163528,2.08560563920783,1.99695740636213,1.96364034041137,1.89163123630929,1.97176101140752,0,2.08534368207892,1.91293708279382,1.96336868116658,2.04067514054214,2.05778967296414,2.04798083380391,2.03401948904469,1.9550636699686,2.0262577963363,0,1.95375388432406,1.9537926927876,1.95405464991651,1.95143507862743,1.9502514204894,1.95107610033966,2.05142508494326,2.05242440287946,2.057547120067,0,1.95079473897899,2.04382832820492,2.03712416612805,2.0336120001775,2.02979906863451,2.03511582813975,2.03736671902519,2.0324089378077,2.03764808038586,0,2.04382832820492,2.0338157446111,2.02488979799645,2.02851838933762,2.02537490379072,2.02207618438966,2.0208440156722,2.04547768790545,2.01821474226723,0,2.01802069994952,2.01604146830889,2.02847958087408,2.03821080310722,2.02815941104986,2.0124904938948,2.01111279343906,2.01967005965006,2.02172690821778,0,2.00802752058747,2.01494512921383,2.01331517374506,2.0136935562646,2.0172348285628,2.02402630968264,2.01726393491046,2.00696028784007,1.92749025662205,0,2.01456674669429,1.92431766472749,2.00801781847159,2.00403995095854,2.01071500668775,1.9202330739397,1.99150481723449,1.91689554607509,1.98847775707822,0,1.91390729438236,1.91319903992272,1.91432448536544,1.91387818803471,1.91284976375085,2.02148435532064,2.02248367325685,1.85511247211631,1.85285187911499,0,1.84831128888059,1.84724405613318,1.84423640020868,1.84357665632847,1.84033614962272,1.83925921475943,1.9471079349425,2.03419412713063,1.83344764734402,0,1.83316628598334,1.93699833018982,1.83049820411483,1.93624156515075,1.8293145459768,1.83021684275415,1.87767959366596,1.87642802071673,1.87594291492245,0,1.82611284773459,1.82414331820984,1.82872271690779,1.82614195408225,1.87439057638078,1.82669497468772,1.82761667569684,1.82582178425803,1.923512389109,0,1.9353392683734,1.8253075721161,1.87123738871799,1.8229014473765,1.82324102143249,1.93070165698014,1.82130059825539,1.81968034490251,1.81980647240903,0,2.0213776320459,1.82176629981789,1.92387136739676,1.82154315115253,1.85193017810587,1.69045786342371,1.69187437234299,1.85004796762409,1.8055831705209,0,1.68519931661378,1.84993154223346,2.02653915769698,1.67962059997962,1.67868919685462,1.67692341176346,1.7244249711388,1.72288233471301,1.72219348448514,0,1.76953010789043,1.67259626807853,1.67227609825431,1.66999610102122,1.66929754867747,1.66924903809804,1.84620592973344,1.84350874151727
0,0,0,0,0,0,0,0,0,0,0,0,0,0,0,0,0,0,0,0,0,0,0,0,0,0,0,0,0,0,0,0,0,0,0,0,0,0,0,0,0,0,0,0,0,0,0,0,0,0,0,0,0,0,0,0,0,0,0,0,0,0,0,0,0,0,0,0,0,0,0,0,0,0,0,0,0,0,0,0,0,0,0,0,0,0,0,0,0,0,0,0,0,0,0,0,0,0,0,0,0,0,0,0,0,0,0,0,0,0,0,0,0,0,0,0,0,0,0,0,0,0,0,0,0,0,0,0,0,0,0,0,0,0,0,0,0,0,0,0,0,0,0,0,0,0,0,0,0,0,0,0,0,0,0,0,0,0,0,0,0,0,0,0,0,0,0,0,0,0,0,0,0,0,0,0,0,0,0,0,0,0,0,0,0,0,0,0,0,0,0,0,0,0,0,0,0,0,0,0,0,0,0,0,0,0,0,0,0,0,0,0
1.86483399223357,2.04221777696793,1.94705942436307,0,1.86318463253304,1.95977889828895,1.86687143656952,1.9210383495582,2.01630342543779,2.01699227566566,1.99471621759258,2.0148287038232,1.99108762625141,0,1.91802099151781,1.99005920196755,1.99032115909646,2.01217032407058,1.98291844467583,1.98268559389458,2.01397491762528,2.10171115157774,1.98007572472139,0,1.90387530655677,1.97761138728647,1.97349769015103,1.97234313836065,1.97132441619268,1.96861752586062,1.96418365890096,1.96503744509888,1.89158272572986,0,1.96191336378375,1.9594781326965,1.96095285431109,1.95850792110795,1.95642196619257,1.95746009259232,1.87993048455139,1.95475320226026,1.95297771505322,0,1.95204631192821,1.95068801570425,1.87876623064513,1.94933942159616,1.95049397338654,1.95086265379018,1.9495819744933,1.95009618663523,1.95016410144643,0,1.88008571840556,2.09267848168835,1.95524801017042,1.88242392833396,1.88488826576887,1.88693541222071,1.99435723930482,1.96668680479941,1.97326483936977,0,1.98905988403135,1.91193776485761,2.0685784258288,2.06180634894073,2.05049368181825,2.04418730649268,2.04368279646664,1.95509277631626,1.95333669334098,0,1.95268665157666,1.95206571615998,1.95090146225373,1.95088205802195,1.95162912094514,1.95065890935659,2.04667104815937,1.94980512315867,1.94783559363391,0,2.03264178858895,1.95065890935659,1.95008648451935,2.04800994015157,2.05403495411645,2.03948178028822,2.04438134881039,2.01891329461099,2.03762867615409,0,2.0415677352036,2.03744433595227,2.0281982195134,2.03061404636889,2.02372554409019,2.02466664933108,2.02548162706546,2.02501592550296,2.02499652127119,0,2.02473456414228,2.02578239265791,2.01900061365396,2.01167551616042,2.03202085317228,2.01191806905755,2.02174631244955,2.03164247065275,1.936813989988,0,2.01750648780759,2.02161048282716,1.93403918484475,1.93310778171974,2.01156879288568,2.00827007348461,2.01892299672688,2.01347040759923,2.01592504291826,0,1.9240460054827,2.01002615645988,2.01740946664874,2.01060828341301,2.00736777670726,2.00385561075671,1.99816046873193,1.99813136238428,1.91517827156336,0,1.91434388959721,1.9134124864722,1.91095785115318,1.9101428734188,1.9125489981584,1.91056976651776,1.98513052709772,1.85494753614626,2.01400402397293,0,2.0116173034651,1.84743809845089,1.8935619573705,1.84318857169305,1.84114142524121,1.83946295919302,1.83819198201202,1.92780072433038,1.83307896694037,0,1.83569853822945,1.83357377485053,1.83140050089218,1.8304496935354,1.83135199031276,1.83033326814478,1.82874212113956,1.89287310714263,1.87639891436907,0,1.87562274509823,1.82902348250024,1.82722859106142,1.82595761388042,1.82808237725935,1.82670467680361,1.82624867735699,1.8274420376109,1.82431795629578,0,1.92690812966892,1.92710217198663,1.82274621352233,2.0106179855289,1.82313429815775,1.82271710717467,1.82206706541034,1.82014604646502,1.92466694089937,0,1.82332834047546,1.92458932397229,1.92326983621186,1.69582313350839,1.69314534952399,1.6898660343547,1.77800005505846,1.68580084779868,1.68327829766845,0,1.84971809568398,1.72954768832634,1.67854366511633,1.67760255987544,1.67703983715408,1.675691243046,1.67295524636629,1.6720820559366,1.84082125541699,0,1.6716842691853,1.67152903533113,1.84583724932979,1.76312671140601,1.66648393507067,1.76793896088521,1.66556223406155,1.66628989275296
1.86623109692108,1.86302939867887,1.91458644249435,0,1.86181663419318,1.86673560694713,2.03612484819184,1.86670650059947,1.92608344981865,1.99931502052231,2.00030463634263,1.99519162127097,1.99515281280743,0,2.09166946163626,2.01421747052241,1.98812848090634,1.98702243969539,1.98398567742324,2.00768794653148,1.98221019021619,2.09886843162329,1.98055112839977,0,1.90314764786536,1.90141096912186,1.97265360606899,1.97107216117965,1.96787046293744,1.96741446349083,2.08590640480028,1.96579421013795,1.96396051023559,0,1.95989532367957,1.95952664327592,1.95949753692827,1.95799370896602,1.95665481697382,2.00421458904448,1.95349192719515,2.00489373715646,1.95181346114696,0,1.9527933748514,1.95267694946077,1.95389941606234,1.95035814376414,1.95101788764435,1.94974691046335,1.94990214431752,1.99687008731916,1.95133805746857,0,1.87820350792377,1.87848486928445,1.95718843334752,1.95774145395299,1.95764443279414,1.96078791834104,1.99057341410948,1.89196110824939,2.08377193930547,0,2.08459661915574,2.06568719529492,1.96095285431109,2.05444244298364,1.96052596121213,2.04746662166198,2.04068484265802,1.95662571062616,1.95413226684359,0,1.9537247779764,1.95555847787876,1.95123133419383,1.9512507384256,1.95003797393992,2.05294831713728,2.05446184721541,1.95012529298289,1.94998946336049,0,1.94899014542429,2.04354696684424,2.02073729239746,2.04224688331559,1.94975661257924,2.04229539389501,2.04101471459813,2.02148435532064,2.01852520997557,0,2.03402919116058,2.03985046069187,2.02404571391441,2.01823414649901,2.0436439880031,2.01811772110838,2.01749678569171,2.03430085040537,2.01763261531411,0,2.03205966163582,2.01499363979325,2.03164247065275,2.03063345060066,2.03844365388848,2.01250989812657,2.01491602286617,1.93544599164815,2.01736095606931,0,2.01432419379715,2.02509354243004,2.02065967547038,2.02001933582194,2.0086096475406,1.92986727501399,1.93088599718197,2.01869014594562,1.99800523487777,0,2.01796248725421,2.00739688305492,2.00478701388172,1.99421170756654,2.00078004002101,1.91765231111416,2.01732214760577,2.03103123735196,1.91634252546962,0,1.91417895362716,1.91332516742923,1.9116078929175,1.91097725538495,1.91088023422609,2.01007466703931,1.98402448588678,2.02726681638839,2.04212075580907,0,1.84802022540402,1.84632235512406,1.84167504161491,1.94485704405707,1.88806085766343,1.83968610785839,1.83817257778025,1.83528134724638,1.83350586003933,0,1.8366008350068,1.92412362240978,1.83247743575547,1.83294313731797,1.83104152260442,1.83134228819687,1.87797065714252,1.93270029285255,1.8307892675914,0,1.82812118572289,1.93686250056743,1.93292344151792,1.93121586912207,1.8746428313938,1.82881003595076,1.82629718793642,1.91868073539802,1.82490978536479,0,1.95023201625763,1.94838861423938,1.82595761388042,1.82446348803406,1.82497770017599,1.93243833572364,1.93090540141374,1.82493889171245,1.92676259793063,0,1.82218349080097,1.82105804535825,1.8210968538218,1.82111625805357,1.6910011819133,1.68941003490808,1.8518428590629,1.85272575160848,1.79458097110676,0,1.79247561195961,1.68178417182209,1.72641390489533,1.67676817790929,1.6752934562947,1.6739545643025,1.67189771573478,1.6710148231892,1.84632235512406,0,1.84955315971393,1.66614436101468,1.66698844509672,1.66582419119046,1.66621227582588,1.66626078640531,1.94698180743599,1.83811436508494
1.86324284522835,1.86301969656298,1.91278184893965,0,1.91332516742923,1.86667739425181,1.86644454347056,1.86480488588591,2.00147859236477,1.99685068308739,2.0875654666167,1.92289145369232,1.99323179386211,0,2.01060828341301,1.98980694695453,1.98840984226702,2.01053066648593,1.98517903767715,1.98332593354302,1.90742628097086,2.08313159965703,1.98079368129691,0,2.00716403227366,1.97342007322394,1.90006237501377,1.89463889223379,2.01011347550285,1.96822944122521,1.96758910157676,1.89110732205147,1.96541582761841,0,1.96077821622515,1.96038042947385,2.11446943396715,1.88457779806054,2.00498105619943,1.95449124513136,1.88220077966859,1.95242469444775,1.95164852517691,0,1.95221124789827,1.95257022618603,1.95037754799591,1.95023201625763,2.00071212520982,1.87636980802141,1.95292920447379,1.95204631192821,1.95038725011179,0,1.95373448009229,1.87798035925841,1.95532562709751,1.95694588045038,1.88350086319725,1.8866055402806,2.08838044435108,1.89141778975981,1.97092662944137,0,2.07027629610876,1.91150116964276,2.04800023803568,1.95982740886837,2.04319769067236,2.04303275470231,2.02911021840664,2.03788093116712,1.9531911616027,0,1.9521918436665,1.95396733087354,1.95070741993602,1.95046486703888,1.94868937983183,1.94834980577584,2.03235072511239,1.94902895388783,2.0374249317205,0,2.04712704760599,2.05715903543158,1.94776767882271,2.03410680808766,2.04064603419448,2.03822050522311,2.03082749291837,2.03415531866709,2.02871243165533,0,1.94445925730576,2.02431737315921,1.94681687146594,2.01727363702634,2.01703108412921,2.03367021287282,2.03335004304859,2.01524589480628,2.02596673285974,0,2.03703684708508,2.03828842003431,2.05539325034042,2.01324725893387,2.03164247065275,2.02507413819827,2.03166187488452,2.02812060258632,1.93525194933044,0,2.03411651020355,2.02399720333498,2.0075424147932,2.00536914083485,2.0238516715967,2.01800129571775,2.01470257631669,2.01423687475419,2.00816335020987,0,2.03102153523608,2.00967688028801,2.00732896824372,2.01518768211096,1.99186379552225,1.99124286010558,1.91740005610114,1.9945027710431,1.91530439906987,0,1.91292738067793,1.91031751150473,1.91345129493575,1.91177282888756,2.01299500392084,2.01199568598464,1.91051155382244,1.84938822374388,1.85136745538451,0,1.85090175382201,1.84468269753941,1.89307685157622,1.92606404558688,1.83941444861359,1.83853155606802,1.83592168689482,1.83757104659535,1.83458279490262,0,1.83341854099636,1.94360547110784,2.04432313611508,1.8320602447724,1.83147811781927,1.8289167592255,1.93254505899838,1.9307307633278,2.01159789923333,0,1.82949888617863,1.87801916772195,1.93152633683041,1.8262389752411,1.87592351069068,1.92675289581475,1.82992577927759,1.82889735499373,1.87341066267634,0,1.92804327722752,1.82683080431012,1.82641361332704,1.82613225196636,1.82447319014994,1.82317310662129,1.82386195684916,1.82369702087911,1.99379451658346,0,1.82270740505879,1.92449230281343,1.82185361886086,1.8204274078257,1.69178705330002,1.85276456007202,1.85208541196004,1.85419077110719,1.792951015638,0,1.79123374112627,1.79867526401044,1.67498298858636,1.85067860515665,1.6728873315551,1.67343065004468,1.67157754591056,1.66931695290924,1.85300711296916,0,1.84679775880245,1.66704665779203,1.66605704197171,1.66542640443916,1.66621227582588,1.7627968394659,1.83973461843782,1.66424274630113
1.86336897273486,1.92964412634862,1.9570040931457,0,1.91339308224043,1.8641451420057,1.865813905938,2.00082855060044,1.99966429669418,1.99935382898585,2.01159789923333,2.08429585356329,2.01148147384271,0,1.91774933227302,1.99033086121234,2.00835739252758,2.0093470083479,2.00809543539867,2.09437635196831,1.98094891515108,1.98000780991019,1.90440892293047,0,1.97528287947395,1.89899514226637,1.89796671798251,1.89970339672601,2.10642637989808,1.96883097241011,2.08478095935756,2.00450565252104,1.96339778751423,0,1.96360153194783,1.96039983370562,1.96144766222125,2.0850914270659,1.9555293715311,2.00285629282051,2.00373918536609,2.00117782677232,1.87852367774799,0,1.95038725011179,1.87701014766986,1.9505812924295,1.94780648728626,1.94834980577584,1.95012529298289,1.9513186532368,1.87593321280657,1.95106639822378,0,1.95105669610789,1.95016410144643,1.99190260398579,1.99175707224751,1.88420911765689,1.96200068282672,1.96186485320433,1.96349480867309,1.98701273757951,0,1.98864269304827,1.9605453654439,1.95950723904415,2.05255053038597,2.0399668860825,1.95507337208449,2.0306722590642,2.03064315271654,2.03055583367357,0,1.95262843888134,1.95107610033966,1.95029022895294,1.94963048507273,1.94870878406361,2.04026765167495,2.04712704760599,1.947913210561,1.94864086925241,0,2.0259958392074,1.9481751676899,2.05448125144719,2.05463648530135,1.94786469998157,2.04766066397969,2.03153574737801,2.05212363728701,2.0275287735173,0,1.94601159584744,1.94694299897245,2.02744145447433,2.02716009311365,2.02214409920086,2.0215813764795,2.0392974400864,2.01217032407058,2.03472774350433,0,2.03699803862154,2.02193065265138,2.03188502354989,2.02574358419437,2.03551361489106,2.02469575567874,2.02327924675946,2.02723771004074,1.93502880066507,0,2.00411756788562,2.02794596450038,2.03241863992359,2.01149117595859,1.99842242586084,2.01417866205887,2.0146249593896,2.0152944053857,2.02770341160324,0,2.01279125948725,1.92254217752045,1.92035920144621,1.92118388129648,1.99136898761209,1.92041741414153,1.91496482501388,1.91352891186283,1.91064738344484,0,1.91075410671958,1.91141385059979,1.91088993634198,1.91222882833417,1.91039512843182,1.90963836339275,2.01057917706536,1.85189136964233,1.85140626384806,0,1.84873818197955,1.84453716580113,1.90176994740962,1.8997130988419,1.8390069597464,1.83794942911489,1.94151951619246,1.92107715802174,1.83358347696642,0,1.93743492540467,1.83189530880234,1.8305176083466,2.01072470880364,1.82914961000675,1.93730879789816,1.93624156515075,1.83037207660832,1.82858688728539,0,1.82985786446639,1.82918841847029,1.82695693181663,1.94956257026153,1.82780101589867,1.82676288949892,1.8252396573049,1.93581467205179,1.82467693458354,0,1.91048244747479,1.87469134197323,1.82642331544293,1.82474484939474,1.93244803783953,1.93034267869238,1.8257053588674,1.82367761664733,1.82267829871113,0,1.87045151733127,1.90649487784585,1.82303727699889,1.81998111049496,1.68863386563724,1.68666433611249,1.6853836568156,1.85275485795614,1.85231826274129,0,1.78114354060536,1.67530315841058,1.67506060551345,1.6744881806762,1.67175218399649,1.85037783956419,1.6707431639444,1.66663916892484,1.66658095622953,0,1.66510623461494,1.89679276196037,1.66064326130761,1.84363486902378,1.84122874428418,1.83881291742869,1.66357330030503,1.66256428025294
1.86444590759815,1.91219972198652,2.03535838103689,0,1.86590122498097,1.86284505847705,1.86584301228566,1.86613407576223,2.00070242309393,1.92294966638764,2.01272334467605,2.0847518530099,1.99127196645324,0,2.00783347826976,2.00917237026196,1.99070924373188,1.98536337787898,1.91175342465579,1.98029887338675,1.97909581101695,2.0915724404774,2.00847381791821,0,2.0079402015445,1.97677700532032,1.97170279871221,1.89685097465568,2.0063393524234,1.96686144288535,1.96681293230592,1.96713310213015,1.96238876746214,0,2.00494224773589,1.95991472791134,1.96037072735796,1.95650928523554,2.00390412133614,1.95417107530713,2.09071865427948,1.9515223976704,2.0030600372541,0,1.95065890935659,2.08626538308804,1.94809755076282,1.94918418774199,1.94893193272897,1.99854855336735,1.9970447254051,1.94991184643341,1.95014469721466,0,1.87679670112038,1.87731091326231,1.88027005860738,1.99399826101706,2.08244274942916,1.9606811950663,1.9597400898254,1.96213651244912,1.98604252599096,0,1.99348404887513,2.08111355955285,2.04841742901876,1.95872136765743,1.95773175183711,2.03475684985199,2.02831464490403,2.03818169675957,2.02832434701991,0,2.02923634591315,1.95061039877716,1.94899984754017,1.95056188819773,1.94798112537219,1.94756393438912,1.94992154854929,1.94818486980579,2.0475830470526,0,2.0300707278793,2.03433965886891,2.05088176645367,1.94726316879667,2.05777026873237,2.03270970340015,2.0336120001775,1.94758333862089,1.94729227514433,0,2.0453806667466,2.03723088940279,2.03068196118009,2.03179770450692,2.03338885151214,1.94328530128362,2.03093421619311,2.03527106199392,2.02811090047043,0,2.02671379578292,2.03319480919443,2.03089540772957,2.03213727856291,1.93701773442159,2.01438240649247,1.93653262862732,1.93458250333434,2.02670409366704,0,2.02106716433757,2.03139021563973,2.03086630138191,2.01668180795733,2.02025218660319,2.02737353966313,2.01719602009926,1.92542370593844,1.92501621707125,0,2.00755211690908,2.00123603946763,2.01753559415525,2.00556318315256,1.91886507559985,1.99862617029444,1.91600295141363,2.01403313032059,1.91284006163496,0,1.91382967745528,1.91415954939539,1.91157878656985,1.91003615014405,1.91053095805421,1.90870696026774,1.90750389789794,2.00208982566556,1.84922328777382,0,1.84978601049518,1.84381920922561,2.03444638214365,1.84007419249381,1.93724088308696,1.93624156515075,1.83752253601592,1.88579056254622,1.88341354415428,0,2.01179194155104,1.93885143432395,1.83075045912785,1.83117735222682,1.83046909776718,1.8313228839651,1.83004220466821,1.83011011947941,1.83015863005884,0,1.82803386667992,1.93649382016378,1.93820139255962,1.93737671270936,1.93534897048929,1.82671437891949,1.82731591010439,1.82746144184267,2.03210817221525,0,1.83011011947941,1.87440027849666,1.82366791453145,1.93042029561946,1.93089569929785,1.82516204037781,1.8711015590956,1.87727210479877,1.82266859659524,0,1.82126178979185,1.87282853572321,1.82214468233743,1.68911897143152,1.68655761283775,1.84930090470091,1.68300663842366,1.68162893796792,1.89382391449941,0,1.72551160811798,1.72386224841744,1.72238752680285,1.78890523331375,1.78716855457025,1.66924903809804,1.71683791651635,1.66558163829332,1.75890629099582,0,1.66535848962796,1.66306879027898,1.66420393783759,1.84310125265008,1.66143883481022,1.66254487602117,1.66182691944564,1.66203066387924
1.86309731349007,1.86376675948617,1.91316993357507,0,1.94048138979271,1.94256734470809,1.94364427957138,2.00106140138169,2.00751330844554,1.99753953331526,2.00996794376457,2.08768189200732,2.08619746827684,0,1.99291162403788,1.98773069415503,1.98838073591936,1.98465512341934,1.98777920473446,1.90757181270914,2.0056019916161,1.90323496690833,1.97763079151824,0,2.005272119676,2.09614213705947,2.00515569428537,1.89612331596427,1.89377540391998,2.09529805297743,2.09252324783418,1.96352391502074,2.00756181902497,0,2.0050004604312,1.95676154024856,1.95841089994909,1.95764443279414,2.09837362371313,1.8807939728652,2.00716403227366,1.9506492072407,1.95062980300893,0,1.87424504464249,1.94814606134225,1.9470400201313,1.94856325232532,2.000188210952,1.94737959418729,2.08094862358279,1.94912597504668,1.95030963318471,0,1.87632129744199,1.87690342439512,1.99400796313294,1.99356166580221,1.95706230584101,1.88513081866601,1.9601475786926,1.89151481091866,1.98677018468237,0,1.9860134196433,2.05238559441592,2.0326805970525,2.04493436941587,2.0522012542141,2.03079838657071,2.04187820291194,2.03619276300304,1.9514544828592,0,1.94982452739044,1.9519201844217,1.9481751676899,1.94814606134225,1.94881550733835,1.94761244496855,2.03910339776869,2.03763837826998,2.03868620678561,0,1.94648699952583,2.04093709767105,2.0417714796372,1.94685567992948,2.03425233982594,2.02814000681809,2.03468893504079,2.03698833650565,1.94422640652451,0,2.02796536873215,2.04069454477391,2.04455598689633,1.94383832188909,2.03738612325696,2.03171038546395,2.02770341160324,1.93990896495547,2.02228963093914,0,1.93834692429791,2.02520996782067,2.02076639874512,2.02148435532064,1.93684309633566,2.01660419103024,2.02160078071127,2.02323073618003,2.03786152693535,0,2.02172690821778,2.03527106199392,2.0213776320459,1.93031357234472,2.01497423556148,2.01840878458494,2.01545934135576,2.04481794402524,1.92232873097097,0,2.02186273784018,2.02546222283369,1.92073758396575,1.92007784008553,2.00342871765775,2.00177935795722,1.9143535917131,1.91431478324955,1.91337367800866,0,1.91299529548913,1.91063768132895,1.91019138399822,1.91065708556073,1.91046304324302,2.00309884571765,2.0124904938948,1.85288098546265,1.84644848263057,0,2.02751907140142,1.84618652550166,2.03837573907728,2.04501198634295,1.84075334060579,1.84062721309928,1.83808525873728,2.01701167989743,1.836668749818,0,1.83369990235704,1.83332151983751,1.88348145896548,1.83212815958359,1.93728939366639,1.83095420356145,2.02439499008629,1.93747373386821,1.83032356602889,0,1.82820850476586,1.82785922859398,1.8793192512506,1.82652033660178,1.87655414822324,1.92956650942154,1.83001309832056,1.82795624975283,1.82905258884789,0,1.82675318738303,1.82680169796246,1.82717037836611,1.82384255261739,1.82262008601582,1.92539459959078,1.92327953832774,1.9256468546038,1.82303727699889,0,1.823367148939,1.82133940671893,1.82127149190773,1.73604810596962,1.68550978432211,1.84980541472695,1.72918871003858,1.67933923861894,1.72613254353465,0,1.72454139652943,1.72248454796171,1.67211116228426,1.67026776026601,1.66912291059153,1.6689385703897,1.71625578956322,1.77995988246733,1.84597307895218,0,1.84338261401076,1.66382555531805,1.66204036599512,1.6601193470498,1.84239299819044,1.65919764604067,1.65711169112529,1.83262296749375
1.9099391289852,1.91070559614015,1.86288386694059,0,1.91093844692141,1.86491160916065,2.03014834480638,1.99750072485172,1.9981798729637,1.92338626160248,2.01148147384271,1.99061222257302,1.99070924373188,0,1.99019503158995,1.98782771531389,1.98580967520971,2.00718343650544,2.00746479786612,1.98129819132296,1.97997870356253,1.9798622781719,2.08106504897342,0,1.97135352254033,2.08835133800342,1.89779207989657,2.00423399327625,2.00329288803536,1.96486280701294,1.96794807986453,1.89021472739,1.95919677133582,0,2.0945800964019,2.00551467257313,1.88190971619203,1.95649958311965,2.00190548546373,1.9543263091613,1.95534503132928,1.87732061537819,1.87803857195372,0,1.94812665711048,1.94774827459094,1.94682657358182,1.94815576345813,1.94751542380969,1.94674895665474,2.08683780792528,1.94739899841907,1.87594291492245,0,1.9514544828592,1.95158061036571,1.9554614567199,1.95448154301547,2.06498864295117,1.98836133168759,1.98831282110816,1.96430978640747,1.98663435505997,0,1.9873523116355,1.95912885652462,1.95789668780716,2.05793520470242,2.03726969786633,2.028401963947,2.02793626238449,2.05172585053571,1.95226946059358,0,1.95048427127065,1.94981482527455,1.9489125284972,1.94763184920032,1.94758333862089,2.0582165660631,1.94785499786568,2.03405829750823,1.94677806300239,0,2.03569795509288,2.04175207540543,2.01715721163572,2.03522255141449,2.04408058321794,1.94554589428494,2.03857948351087,2.04108262940933,2.03467923292491,0,1.94375100284612,2.02468605356285,2.03420382924652,1.94372189649847,1.94034556017032,1.9403552622862,1.94081126173282,2.01956333637532,2.02606375401859,0,2.02529728686364,2.02145524897299,1.93575645935648,2.01544963923987,2.02877064435064,2.02001933582194,2.01915584750813,1.93344735577573,2.02357031023602,0,2.02038801622558,2.01573100060055,2.03549421065929,1.92968293481217,2.00905594487133,2.01982529350423,2.01632282966956,2.01593474503415,2.01781695551593,0,2.01887448614745,2.02092163259929,1.91931137293058,2.0257241799626,2.00776556345857,1.91690524819098,1.99888812742334,1.99949936072413,1.91359682667403,0,1.91371325206465,1.91125861674563,1.91211240294355,1.91037572420005,1.90886219412191,2.01130683575677,2.00931790200024,1.89962577979893,2.04455598689633,0,1.84722465190141,1.84551707950557,1.84320797592482,2.04796142957214,1.8411511273571,1.88745932647853,1.8380076418102,1.83679487732451,1.88275380027407,0,1.83454398643908,1.83314688175157,1.88303516163474,1.88247243891339,1.87967822953837,1.88022154802795,1.8312549691539,1.83043999141952,1.82875182325544,0,1.83007131101587,1.83017803429061,1.82968322638045,2.04828159939636,1.83041088507186,1.82955709887394,1.83023624698592,1.82948918406274,1.82820850476586,0,1.82555982712912,1.82646212390647,1.93771628676535,1.82698603816429,1.82620016677756,1.87394427905004,1.82463812612,2.00969628451978,1.92325043198009,0,1.82595761388042,1.82340595740254,1.82320221296895,1.68640237898358,1.85615059851606,1.68202672471922,1.6799698761515,1.67900936667884,1.67554571130772,0,1.85230856062541,1.66987967563059,1.6714805247517,1.76851138572246,1.6684728688272,1.84969869145221,1.84687537572953,1.66485397960191,1.66260308871648,0,1.65989619838443,1.66176870675033,1.65955662432844,1.66050743168521,1.84392593250035,1.65872224236228,1.65967304971906,1.71198685857361
1.86169050668667,1.91048244747479,2.03258357589364,0,2.03433965886891,1.86376675948617,2.04161624578303,1.99869408510563,2.01134564422031,2.08251066424036,2.08230691980676,2.00417578058094,1.99198022091288,0,1.99468711124493,1.91463495307378,1.98717767354956,1.98497529324356,2.00447654617339,1.97907640678518,1.98054142628389,1.97467164617317,1.97859130099091,0,1.97517615619921,1.97234313836065,1.97140203311976,1.89551208266348,1.89259174578195,1.96451353084106,1.96830705815229,2.0044668440575,1.96121481144,0,1.95844970841263,1.95900272901811,1.95688766775507,1.88252094949281,1.95378299067172,1.87961031472717,2.00043076384914,1.95187167384227,2.07563186407755,0,1.99921799936345,1.94718555186958,1.94926180466908,1.94799082748808,1.9473116793761,1.94913567716257,1.94871848617949,1.94735048783964,1.8753122773899,0,1.8762436805149,1.87727210479877,1.95270605580843,1.9530553319803,1.99420200545065,2.06360124037954,1.96051625909624,1.96452323295695,2.0616220087389,0,1.98351997586073,1.91016227765057,2.04716585606953,1.95745039047643,2.02844077241054,2.02762579467616,1.95317175737093,2.02460843663577,1.9514544828592,0,1.95117312149852,1.9507850368631,1.94834010365996,1.94617653181749,1.94711763705839,1.9467101481912,1.94708853071073,2.04231479812678,2.01827295496255,0,2.01932078347818,2.01873865652505,2.03820110099134,2.02020367602376,2.01715721163572,2.03356348959808,1.9446338953917,2.01516827787919,2.02473456414228,0,2.02516145724124,1.94310096108179,2.05258933884952,2.0252584784001,2.03521284929861,1.9404910919086,1.93977313533307,2.03103123735196,2.02417184142092,0,2.02178512091309,1.93656173497498,2.03673608149263,2.0155660646305,1.93626096938253,2.01951482579589,2.03122527966967,1.93176888972755,1.93174948549577,0,2.01025900724114,2.01568249002112,1.92753876720147,2.02069848393392,2.01283977006667,1.99788880948714,2.01134564422031,2.01139415479974,2.00840590310701,0,1.92079579666106,2.00965747605624,2.00685356456533,2.02491890434411,2.00557288526845,1.91492601655034,1.91447001710372,1.91419835785893,1.91404312400476,0,1.91330576319746,1.91022049034588,1.90981300147869,1.909871214174,1.9094734274227,1.9104727453589,1.99523042973452,1.84908745815143,1.89685097465568,0,1.84781648097043,1.84542005834671,1.94882520945423,1.84227657279981,1.88845864441473,1.93088599718197,1.93779390369243,1.9372796915505,1.8368045794404,0,1.83421411449897,1.83421411449897,1.83610602709664,1.83302075424506,1.82990637504582,1.87983346339253,1.82990637504582,1.83047879988306,1.83084748028671,0,1.82886824864607,1.82943097136743,1.93606692706482,1.83001309832056,2.01574070271644,1.82840254708357,1.92868361687596,1.82881003595076,1.87473985255265,0,1.8276457820445,1.92933365864029,1.82707335720726,1.87632129744199,1.87537049008521,1.87424504464249,1.87246955743545,1.82317310662129,1.82328953201192,0,1.92018456336027,1.820825194577,1.82153344903664,1.68373429711507,1.68200732048745,1.85427809015016,1.67854366511633,1.8478358852022,1.67334333100171,0,1.85344370818401,1.85128013634155,1.66690112605375,1.66901618731679,1.66627048852119,1.84800082117225,1.84605069587927,1.66155526020085,1.6625254717894,0,1.65866402966697,1.65784905193259,1.65880956140525,1.707378353528,1.82359029760437,1.70629171654883,1.65945960316958,1.6562385006956
1.92735442699965,1.9110742765438,1.86193305958381,0,1.86504743878305,2.03192383201343,1.95746009259232,1.99785970313948,1.92424004780041,1.99788880948714,1.99262056056132,2.00603858683095,1.98881733113421,0,1.98995247869281,1.98799265128394,1.98478125092585,1.98649852543758,1.98557682442846,1.97796066345835,1.97883385388804,2.09536596778863,1.9768546222474,0,2.00322497322416,2.00346752612129,2.00359365362781,1.89497846628978,1.96892799356896,1.96581361436972,1.96500833875122,1.96365974464314,1.95951694116004,0,1.95712051853632,1.95858553803503,1.96106927970172,2.00230327221504,1.95344341661572,1.95394792664177,1.95419047953891,2.0033316964989,1.95086265379018,0,1.94676836088651,1.87420623617895,1.87478836313208,2.08128819763879,1.94612802123807,1.94855355020944,1.94693329685656,1.94767065766386,1.94693329685656,0,1.94853414597767,1.94797142325631,1.94945584698679,1.9507171220519,1.88264707699932,1.9601475786926,1.9600117490702,1.96414485043742,2.07103306114783,0,1.96978177976688,2.07039272149938,2.03059464213712,2.0570814185045,2.0312058754379,2.04820398246927,2.03197234259286,2.03660995398612,1.95153209978628,0,1.95007678240346,1.94830129519642,1.94746691323026,1.9469721053201,1.94585636199327,2.02776162429855,2.04225658543147,1.94690419050891,2.04438134881039,0,1.94659372280057,2.01566308578935,2.03165217276863,2.03763837826998,2.02455992605634,2.02504503185062,2.03379634037933,2.0172348285628,2.02341507638186,0,2.02064027123861,2.02812060258632,2.02099924952637,1.94018062420026,2.0221829076644,2.02842136817877,2.03139021563973,1.93750284021587,2.01820504015135,0,1.93488326892679,2.01028811358879,2.01414955571122,1.93577586358825,2.02363822504722,2.01807891264484,2.02011635698079,1.93307867537209,2.02455992605634,0,2.01595414926592,1.9283925533994,2.01804980629718,2.01815652957192,2.01718631798337,1.99774327774886,2.00960896547681,1.92432736684338,2.01553695828284,0,2.01123892094557,1.92029128663501,2.00184727276842,2.00088676329575,1.91709929050869,2.00514599216948,2.00133306062649,1.99500728106915,1.91326695473392,0,1.91272363624433,1.91097725538495,1.90825096082112,1.90798900369222,1.90821215235758,2.01446972553544,1.996714853465,1.89701591062573,1.89642408155672,0,1.89440604145253,1.89224246961007,1.84311095476597,1.84095708503939,1.93878351951275,1.83810466296905,1.83681428155628,1.83697921752634,1.83596049535836,0,1.83403947641303,1.83347675369168,1.83462160336616,1.83115794799505,1.83009071524764,1.90070271466222,1.89795701586662,1.83136169242864,1.83008101313176,0,1.8283152280406,2.00603858683095,2.01869014594562,1.82895556768904,1.82845105766299,1.82970263061222,1.82763607992861,1.82763607992861,1.92710217198663,0,1.82484187055359,1.82927573751326,1.87446819330786,1.87327483305394,1.82527846576844,1.87377934307999,1.87234342992894,1.82272680929056,1.8231634045054,0,1.82136851306659,1.91724482224697,2.0042630996239,1.68215285222574,1.68067813061114,1.72945066716749,1.67680698637283,1.67301345906161,1.6722858003702,0,1.67167456706941,1.66896767673736,1.66693023240141,1.66663916892484,1.75259991567026,1.66226351466049,1.84746720479855,1.6603813041787,1.6597797729938,0,1.8434893372855,1.70629171654883,1.70643724828711,1.6582468386839,1.82069906707049,1.65437569444559,1.82325072354837,1.75556876313122
0,0,0,0,0,0,0,0,0,0,0,0,0,0,0,0,0,0,0,0,0,0,0,0,0,0,0,0,0,0,0,0,0,0,0,0,0,0,0,0,0,0,0,0,0,0,0,0,0,0,0,0,0,0,0,0,0,0,0,0,0,0,0,0,0,0,0,0,0,0,0,0,0,0,0,0,0,0,0,0,0,0,0,0,0,0,0,0,0,0,0,0,0,0,0,0,0,0,0,0,0,0,0,0,0,0,0,0,0,0,0,0,0,0,0,0,0,0,0,0,0,0,0,0,0,0,0,0,0,0,0,0,0,0,0,0,0,0,0,0,0,0,0,0,0,0,0,0,0,0,0,0,0,0,0,0,0,0,0,0,0,0,0,0,0,0,0,0,0,0,0,0,0,0,0,0,0,0,0,0,0,0,0,0,0,0,0,0,0,0,0,0,0,0,0,0,0,0,0,0,0,0,0,0,0,0,0,0,0,0,0,0
1.85988591313197,1.86301969656298,1.86277714366585,0,1.86311671772184,1.86388318487679,1.86440709913461,2.00901713640779,1.99645289633609,2.00864845600414,2.00351603670072,2.07832905229371,1.91413044304773,0,2.07775662745647,2.00356454728015,1.98393716684381,1.98752694972144,1.9850141017071,1.97952270411591,1.97858159887502,2.00277867589342,2.08807967875863,0,1.97387607267056,1.97519556043099,1.99973221150538,2.0878274237456,1.89369778699289,1.89439633933665,1.96352391502074,1.88864298461656,1.96270893728636,0,2.08192853728723,1.95668392332148,1.95779966664831,1.88211346062562,2.0021286341291,1.87999839936259,1.95266724734488,1.95006708028757,1.94842742270293,0,1.99961578611476,1.94747661534615,1.95201720558056,1.87367261980525,1.87265389763727,1.94617653181749,1.94678776511828,1.94796172114042,1.9497178041157,0,1.94964018718861,1.95324937429801,1.95035814376414,2.06461026043163,1.99144660453918,1.88162835483135,1.95976919617306,1.96169991723427,1.9863529936993,0,2.07800888246949,2.0342135313624,2.02891617608893,2.04904806655131,2.04989215063335,2.04653521853697,2.04282901026872,1.95113431303498,1.94993125066518,0,1.94790350844511,1.95423899011833,1.94723406244901,1.94778708305448,1.94502198002712,1.94554589428494,2.0457784534979,1.94441074672633,2.03860858985853,0,1.94524512869249,1.94457568269639,1.94569142602322,2.02479277683759,2.01780725340004,2.03184621508634,2.01669151007321,1.94450776788519,2.01561457520992,0,2.01495483132971,2.03052672732592,1.94036496440209,2.02236724786622,2.02975055805508,2.02827583644048,2.03401948904469,2.02226052459148,2.02560775457198,0,2.01521678845862,2.01652657410316,2.01958274060709,2.02935277130377,2.01394581127762,2.01385849223465,2.00693118149241,1.93076957179134,2.0116173034651,0,2.02260980076336,2.01798189148598,2.01444061918778,2.00602888471506,2.02028129295084,2.01322785470209,2.02671379578292,2.01160760134922,2.01357713087397,0,1.92079579666106,2.00731926612783,2.00093527387518,2.00574752335438,1.91597384506597,1.99753953331526,1.91479988904383,2.01465406573726,1.98495588901179,0,1.91045334112713,1.90985180994223,1.91117129770266,1.909871214174,1.91058917074953,1.98056083051566,1.99801493699365,1.8495046491345,1.84752541749386,0,1.84566261124385,1.84332440131545,2.03110885427905,2.03192383201343,1.83950176765656,1.83993836287141,1.83679487732451,1.836668749818,1.94045228344506,0,1.93967611417422,1.83349615792345,1.8808618876764,1.88037678188212,1.88036707976624,1.83269088230495,1.90977419301515,1.87995959089904,1.9360766291807,0,1.82944067348331,1.83096390567734,1.82946977983097,1.92995459405696,1.87734972172585,1.87618546781959,1.82978024753931,1.82698603816429,1.82782042013044,0,1.82779131378278,1.82656884718121,1.88719736934962,1.8739054705865,1.87359500287817,1.87372113038468,1.87132470776096,1.92423034568452,1.82327982989603,0,1.82208646964212,1.82101923689471,1.82252306485696,1.72968351794874,1.67893174975175,1.67680698637283,1.67497328647048,1.67187831150301,1.66940427195221,0,1.66724070010974,1.85004796762409,1.7629326690883,1.84870907563189,1.66288445007716,1.66214708926986,1.65833415772687,1.6621858977334,1.65753858422426,0,1.84293631668003,1.70678652445899,1.65371595056537,1.65650045782451,1.70307061407485,1.70308031619073,1.7032355500449,1.70132423321546
1.9088039814266,1.86359212140023,1.86289356905647,0,1.86387348276091,1.86345629177783,1.865813905938,1.99703502328922,1.9977820862124,1.99763655447412,2.00138157120591,1.98876882055478,2.00404965307442,0,2.00471909907052,1.91458644249435,2.00080914636867,1.98637239793107,1.98042500089326,1.98354908220839,2.08283083406458,1.97855249252736,1.97386637055467,0,1.89857795128329,1.97052884269007,2.08464512973516,2.08409210912969,2.00021731729966,1.96483370066529,1.96459114776815,1.8872749862767,1.96049685486447,0,1.96020579138791,1.96003115330197,1.95781907088008,1.95375388432406,2.00056659347153,1.87798035925841,1.87731091326231,1.94955286814564,1.87466223562557,0,1.94680716935005,1.94664223338,1.95063950512482,2.08594521326382,2.0722555277494,1.94613772335395,1.94538095831488,1.94810725287871,1.94924240043731,0,2.07821262690309,1.99119434952615,1.99007860619932,1.95193958865347,1.95374418220817,1.96006025964963,1.95935200518998,1.98610073868627,1.98236542407036,0,1.98119146804822,2.03766748461764,2.03861829197441,2.04751513224141,2.05093997914898,2.0251905635889,2.0414998203924,2.04172296905777,1.95341431026807,0,1.95260903464957,1.94801023171985,1.94754453015735,1.94703031801542,1.94679746723416,2.03725029363456,1.94588546834093,2.02584060535323,1.94562351121202,0,2.02694664656417,2.0428387123846,1.94401295997503,2.04006390724135,2.03866680255384,2.01463466150549,1.94167475004663,2.04135428865412,2.02793626238449,0,2.0477867914862,2.04844653536641,2.03242834203947,2.0311379606267,2.0251226487777,2.01708929682452,2.01523619269039,2.01873865652505,1.93711475558045,0,1.93457280121845,1.93421382293069,2.02434647950686,2.01882597556802,2.01688555239092,2.0349508921697,2.01509066095211,2.01679823334795,2.01146206961094,0,2.02105746222168,2.01705048836098,2.02314341713706,2.01447942765132,2.02178512091309,2.02033950564616,2.01697287143389,2.00926939142082,2.01113219767083,0,2.00728045766429,1.99960608399887,2.01132623998854,2.00382650440906,2.0074065851708,1.99267877325663,2.00302122879056,1.91280125317142,1.91169521196047,0,1.91003615014405,1.90952193800212,1.90981300147869,1.90782406772216,1.90795989734456,1.97888236446747,2.00228386798327,1.84736048152381,1.8465649080212,0,2.02174631244955,1.8464290783988,1.8438871240368,1.84007419249381,1.83948236342479,1.84038466020214,1.83538807052112,1.93482505623147,1.93955968878359,0,1.88458750017642,1.88191941830791,1.88228809871156,1.88080367498108,1.88056112208394,1.87932895336649,1.83088628875025,1.87810648676492,1.83049820411483,0,1.83304986059272,1.82905258884789,2.02172690821778,1.91514916521571,1.91418865574304,1.87596231915422,1.87571976625709,1.87638921225319,2.00723194708486,0,1.82664646410829,1.92325043198009,1.82700544239606,1.87338155632868,1.82618076254579,1.8727024082167,1.82592850753277,1.82325072354837,1.82129089613951,0,1.82273651140644,1.82254246908873,2.0051362900536,1.78242421990224,1.67545839226475,1.67653532712804,1.6728873315551,1.67235371518139,1.67052971739492,0,1.66688172182198,1.66512563884671,1.6647278520954,1.6635927045368,1.66175900463444,1.65949841163312,1.65741245671774,1.65788786039613,1.84050108559277,0,1.7142668558067,1.72858717885368,1.72593850121694,1.65400701404194,1.65258080300677,1.65488020447163,1.65375475902892,1.65143595333228
1.90755240847737,1.86059416759161,1.85998293429083,0,1.94499287367946,1.86366003621143,1.94500257579535,1.92303698543061,1.9932997086733,2.00480641811349,2.10265225681863,2.07868803058148,2.08101653839399,0,1.98592610060033,1.9837431245261,1.98510142075007,1.90840619467529,1.98154074422009,1.97988168240368,1.97891147081513,2.00174054949368,2.07058676381709,0,1.97195505372523,1.89753012276766,1.96878246183068,1.96634723074342,2.08833193377165,1.96394110600382,1.96576510379029,1.88713915665431,1.88282171508526,0,2.08259798328333,1.95738247566523,1.99919859513168,1.95135746170034,1.95324937429801,2.07936717869346,1.87686461593157,1.94878640099069,1.94866997560006,0,1.94747661534615,1.94861176290475,1.94713704129016,1.94857295444121,1.99398855890117,1.99418260121888,1.94398385362737,1.9963073645978,1.94669074395942,0,1.9467101481912,1.94834980577584,1.95093056860138,1.95034844164825,1.98868150151181,1.87986256974019,1.95833328302201,1.9835393800925,1.98421852820449,0,2.067375363459,1.95788698569128,2.04377011550961,2.04416790226091,2.037890633283,2.03500910486501,1.9511828236144,2.03787122905123,1.94885431580189,0,1.94902895388783,1.94897074119251,1.94644819106229,1.94567202179145,2.02854749568528,2.03337914939625,2.02748996505376,1.9447018102029,2.03762867615409,0,2.03686220899914,2.03676518784029,2.02529728686364,2.03137081140795,2.04161624578303,2.0387638237127,2.04869879037944,2.03118647120613,1.94194640929142,0,2.02796536873215,2.02216350343263,2.02089252625163,2.0183699761214,2.04051020457208,2.01248079177891,2.00955075278149,2.0177005301253,1.93498999220153,0,2.0174385729964,2.01796248725421,2.03172978969572,2.02127090877116,2.01997082524251,2.02424945834801,2.01722512644691,2.02694664656417,2.01424657687007,0,1.92829553224054,2.02026188871907,2.01403313032059,1.92747085239027,2.03182681085457,2.00329288803536,2.00631994819163,2.02743175235845,2.01398461974116,0,1.99222277381001,1.99023384005349,2.0037973980614,1.99702532117333,1.91489691020268,1.91465435730555,1.99902395704574,2.00371007901843,1.9116078929175,0,1.90994883110109,1.90882338565837,1.98809937455868,1.90741657885497,1.98077427706514,1.99892693588689,1.9823363177227,1.84796201270871,1.84583724932979,0,1.84555588796911,1.84447895310582,1.84273257224643,2.03412621231943,1.88804145343166,1.88743992224676,1.88645030642644,1.93551390645934,1.93398097214944,0,2.02474426625817,2.02466664933108,1.83310807328803,1.82970263061222,1.82808237725935,1.83300135001329,1.83265207384141,1.8311191395315,1.83052731046249,0,1.83126467126979,1.92819851108169,1.82598672022808,1.87729150903054,1.87650563764381,1.82883914229841,1.82881973806664,1.91342218858809,1.82896526980493,0,1.8276457820445,1.91970915968189,2.01759380685056,2.00282718647285,1.82653974083355,1.82310519181009,1.82387165896504,2.01502274614091,2.01752589203937,0,2.01543993712399,1.82247455427753,1.81927285603532,1.67578826420486,1.77239223207665,1.76562985730447,1.67085958933503,1.84477971869827,1.66757057204985,0,1.85030022263711,1.66712427471912,1.66340836433498,1.76458202878883,1.65997381531151,1.76653215408182,1.75704348474581,1.65828564714744,1.74685626306605,0,1.65560786316304,1.65394880134663,1.65479288542866,1.70237206173109,1.70100406339124,1.65180463373593,1.65214420779192,1.76031309779922
1.90687326036539,1.86066208240281,1.86017697660854,0,1.86143825167365,1.90971598031983,1.94091798500756,1.94166504793074,2.07891117924684,1.92013605278085,2.08514963976121,1.99153392358215,2.08157926111535,0,1.98944796866677,1.98469393188288,1.91314082722741,1.99974191362127,1.99849034067204,1.99806344757308,1.99816046873193,2.09139780239146,1.97657326088672,0,2.00144948601711,1.89681216619214,1.96981088611454,1.99742310792464,1.96531880645956,1.89019532315823,1.9619521722473,1.96336868116658,1.88123056808004,0,1.88385984148501,1.88387924571678,1.95690707198684,1.95469498956495,1.99777238409651,1.87803857195372,1.9455070858214,1.99521102550275,1.94747661534615,0,1.8739054705865,1.94693329685656,1.94730197726021,1.94495406521592,1.87144113315159,1.94614742546984,1.94845652905058,1.87119858025445,1.99131077491678,0,1.94636087201932,1.98794414070452,1.98979724483864,1.99122345587381,2.06616259897331,2.07489450327025,1.95542264825636,1.96144766222125,1.96229174630329,0,2.08102624050988,1.90737777039143,2.04489556095232,2.05215274363467,2.04021914109552,2.03967582260593,2.02470545779463,2.03783242058769,1.9471079349425,0,1.94972750623158,1.94749601957792,1.9473116793761,1.94430402345159,1.94744750899849,1.94459508692816,2.02108656856934,2.02978936651862,2.03331123458505,0,2.03280672455901,2.03824961157077,2.03143872621915,1.94323679070419,2.03585318894705,2.04002509877781,2.03872501524915,1.94051049614037,2.02763549679204,0,2.03478595619965,1.93985075226016,2.00763943595205,1.93745432963644,2.01879686922036,2.01752589203937,2.01160760134922,1.93511611970804,1.93405858907652,0,2.03059464213712,2.02100895164225,1.93201144262468,2.02856689991705,1.92971204115982,1.93068225274837,1.93030387022884,2.01811772110838,2.00013970037257,0,1.92796566030043,2.00663041589996,2.00811483963044,2.01428538533361,2.01278155737136,2.01615789369951,1.92241605001394,2.00551467257313,2.01138445268385,0,1.92021366970793,2.00448624828927,1.99479383451967,1.91676941856858,2.00204131508613,1.91474167634852,1.91333486954512,1.91035631996828,1.91105487231203,0,1.90972568243572,1.90735836615966,1.9070673026831,1.90703819633544,1.90842559890706,1.99828659623844,2.00396233403145,1.93496088585387,1.84555588796911,0,2.03190442778166,1.84233478549513,1.84334380554722,1.84062721309928,1.88675107201889,1.88626596622461,1.88531515886783,1.88403447957095,1.83584406996774,0,1.93279731401141,1.83166245802109,1.83151692628281,2.02423975623212,1.83127437338567,1.83157513897812,1.82986756658228,1.92801417087986,1.92828583012466,0,1.8292466311656,1.83028475756535,1.82934365232446,1.87708776459694,1.91499393136154,1.87687431804746,1.87609814877662,1.87619516993548,1.8275099524221,0,1.82607403927105,1.82325072354837,2.01681763757972,2.0136256414534,1.82341565951843,2.01187926059401,2.01792367879067,1.82238723523456,1.82056323744809,0,2.01481900170731,1.91577980274826,1.81801158097021,1.67445907432854,1.90298271189531,1.67272239558504,1.67169397130118,1.66852137940663,1.66591151023343,0,1.84948524490273,1.66284564161362,1.66318521566961,1.65970215606672,1.65918794392479,1.6581110090615,1.6556369695107,1.83984134171256,1.83770687621775,0,1.65284276013568,1.65172701680885,1.65021348673071,1.64953433861873,1.83609632498076,1.74345082039024,1.65069859252499,1.649088041288
1.94638997836697,2.0342814461736,1.85958514753952,0,2.04040348129734,1.86283535636116,1.86290327117236,1.86391229122445,1.99572523764468,1.99665664076968,1.99195111456522,1.99050549929828,1.98714856720191,0,1.99807314968896,1.99798583064599,1.98558652654434,1.98364610336724,1.98025036280732,2.08831252953988,1.98167657384249,1.90192518126379,1.97249837221482,0,1.97121769291794,1.96752118676557,1.97409922133593,1.96815182429812,1.96658978364056,1.96244698015746,1.96204919340615,1.88623685987695,1.95999234483843,0,1.95775115606888,2.00028523211085,1.95727575239049,1.95184256749462,1.99690889578271,1.94997005912872,2.08070607068566,1.94779678517037,1.94655491433703,0,1.94617653181749,1.94471151231879,1.9965790238426,1.94410998113388,2.07788275496298,1.9445659805805,1.87272181244847,1.94375100284612,1.94510929907009,0,1.94647729740994,1.94506078849066,1.94674895665474,1.94842742270293,1.87699074343809,1.95451064936313,1.98751724760555,1.95773175183711,1.98060934109509,0,1.9814728294089,1.90707700479898,1.95409345838005,2.04483734825701,2.055005165705,2.02471515991051,2.03808467560071,2.02677200847823,1.94788410421334,0,1.9482430825011,1.94721465821724,1.94573993660265,1.94673925453885,1.94682657358182,1.94407117267034,2.01715721163572,2.03424263771006,2.03198204470874,0,2.04214016004085,2.04749572800963,1.94387713035263,1.94241211085392,2.03633829474132,1.94273228067815,2.04213045792496,2.03784212270358,2.02668468943526,0,1.94038436863386,2.02822732586106,1.93791032908306,2.03146783256681,2.021115674917,2.01752589203937,2.02824673009283,2.03098272677254,2.02127090877116,0,2.01738036030108,1.93335033461688,2.01162700558099,2.00534973660308,1.92852838302179,2.01468317208492,2.02122239819174,2.01514887364742,2.00359365362781,0,2.01216062195469,2.01839908246906,2.01669151007321,1.99748132061995,1.92279443253347,1.92323102774832,1.92240634789805,1.99782089467594,1.91815682114021,0,2.00447654617339,2.00220625105618,2.0110157722802,1.91546933503993,1.99986804112778,2.00354514304838,1.91071529825604,1.91030780938885,1.90968687397218,0,1.90836738621175,1.9074650894344,1.90661130323648,1.98747843914201,1.98348116739719,1.98116236170056,2.00003297709783,2.02213439708497,1.84594397260453,0,1.84558499431676,1.84392593250035,1.89085506703845,1.88990425968167,1.89331940447336,1.88588758370508,1.83662994135446,1.83458279490262,1.93771628676535,0,1.83271028653672,1.83249683998724,1.83215726593125,1.83281700981146,1.93715356404399,1.83064373585311,1.82628748582053,1.83054671469426,1.82784952647809,0,1.82957650310571,1.8320602447724,1.8301877364065,1.83152662839869,1.83002280043644,1.82913020577498,1.82825701534528,1.87501151179745,1.82486127478536,0,1.82642331544293,1.82617106042991,1.82599642234397,1.8239686801239,1.8237649356903,1.82230961830748,2.0080760311669,1.8225618733205,1.82093191785174,0,1.91395580496179,1.81773021960953,1.67466281876214,1.85262873044963,1.67196563054597,1.66986997351471,1.84972779779987,1.71618787475202,1.66321432201727,0,1.66434946957587,1.66074998458235,1.84018091576855,1.83876440684927,1.70615588692643,1.76255428656877,1.65371595056537,1.65506454467346,1.65219271837135,0,1.83518432608752,1.65193076124244,1.74937881319628,1.74948553647102,1.7483600910283,1.64905893494034,1.64589604516167,1.64936940264868
1.90536943240314,1.85786787302779,1.85947842426478,0,1.85861493595097,1.9518522696105,1.95810043224076,2.01122921882968,1.99402736736472,1.99125256222147,2.07569007677286,1.9914951151186,1.99981953054835,0,1.91177282888756,1.99804404334131,1.98482005938939,1.98099742573051,1.99768506505354,1.97791215287892,1.97677700532032,2.07439969536009,1.89948024806064,0,1.89728756987052,1.9701698644023,1.96996611996871,1.96823914334109,1.96430978640747,1.96240817169391,1.88666375297592,2.08362640756719,2.08185092036014,0,1.99582225880353,1.95539354190871,1.95165822729279,1.95228886482535,1.95108580245555,1.87626308474667,1.99512370645978,1.99726787407047,1.94628325509223,0,1.94430402345159,1.94270317433049,1.94291662087997,1.94380921554144,1.86932607188855,1.86940368881564,1.94366368380315,1.94480853347764,1.94644819106229,0,1.94711763705839,1.94741840265084,1.95094027071727,1.94730197726021,1.87785423175189,1.87864010313862,1.98468422976699,1.9575377095194,1.88760485821681,0,2.06493043025585,1.95430690492953,1.95335609757275,1.95308443832796,2.03317540496266,2.02573388207849,2.03071106752774,2.02292997058758,2.02059176065918,0,2.02105746222168,2.0215813764795,1.94422640652451,1.94660342491645,1.94394504516383,1.94307185473414,2.0241233308415,2.02740264601079,2.03036179135586,0,2.03021625961758,2.03719208093925,1.94263525951929,1.94117024002058,2.02919753744961,2.02433677739098,2.02522937205244,2.02521966993656,2.03431055252126,0,1.93711475558045,2.03475684985199,1.93653262862732,2.0215813764795,2.03123498178556,2.02517115935713,1.93497058796976,2.02545252071781,2.01767142377765,0,2.01640044659665,2.02804298565923,2.01099636804843,1.92949859461034,1.92975084962336,2.00878428562654,2.01193747328932,2.01346070548335,2.0116852182763,0,1.99678276827619,2.00517509851714,2.00497135408354,1.99531774877749,1.99361017638164,2.00424369539213,2.00558258738433,2.01163670769687,2.02455022394046,0,2.00459297156401,1.98921511788551,2.018573720555,2.01054036860181,1.91458644249435,1.99921799936345,2.00147859236477,1.91062797921307,1.90851291795003,0,1.90763002540445,1.90696057940836,1.90673743074299,1.90682474978596,1.98094891515108,1.97776662114064,1.98440286840631,1.93332122826922,2.03061404636889,0,1.84303333783888,1.91743886456468,1.8897490258275,1.83789121641957,1.89336791505279,2.02607345613448,1.8362030482555,1.83575675092477,1.83557241072294,0,1.93399067426532,1.83216696804714,1.83112884164739,1.83291403097032,1.83339913676459,1.83348645580756,2.01511976729976,1.83043028930363,1.93195322992937,0,2.02113507914877,1.82957650310571,1.91858371423917,1.82963471580102,1.91718660955166,1.91924345811938,1.82749054819033,1.92298847485118,1.92327953832774,0,1.92120328552825,1.91984498930428,1.8232992341278,1.82268800082701,1.82361940395202,1.82273651140644,1.8235029785614,1.82279472410176,1.82019455704444,0,1.82092221573586,1.914955122898,1.91337367800866,1.67296494848218,1.66867661326079,1.66902588943267,1.71585800281192,1.6647278520954,1.71231673051372,0,1.66214708926986,1.6593819862425,1.65833415772687,1.65693705303936,1.656374330318,1.70525359014908,1.6542301627073,1.83717325984405,1.83260356326198,0,1.65186284643125,1.64961195554581,1.75356042514292,1.64827306355362,1.64739017100804,1.64546915206271,1.64611919382704,1.64739017100804
1.9043216038875,1.90623292071694,1.8560535773572,0,1.86273833520231,1.86131212416714,1.95642196619257,1.95736307143346,2.00556318315256,1.9909614987449,2.08516904399298,1.91593503660243,1.98500439959121,0,1.98535367576309,1.98272440235812,1.90694117517658,1.98249155157687,1.97797036557423,1.99596779054181,1.9787271306133,1.97503062446093,1.99770446928532,0,1.97354620073045,1.99654991749494,1.9680353989075,1.89186408709054,1.88990425968167,2.06893740411656,1.99740370369287,1.99812166026839,1.95779966664831,0,1.87960061261128,1.87977525069722,1.96033191889442,2.06914114855016,1.99737459734521,1.99448336681133,1.94722436033313,1.94748631746203,1.99361017638164,0,1.99485204721498,2.07525348155801,1.94337262032659,1.87014104962293,1.94626385086046,1.94414878959743,1.94251883412866,1.94461449115993,1.94335321609482,0,2.07863952000205,1.947573636505,1.87213968549534,1.98589699425268,1.95049397338654,1.98221019021619,1.98344235893365,1.95664511485793,1.95789668780716,0,1.98411180492975,2.01994171889485,2.0491256834784,2.02593762651208,1.95089176013784,2.02222171612794,2.02208588650554,2.04088858709162,2.01989320831542,0,2.02188214207195,1.94496376733181,1.94438164037868,1.94513840541775,1.94294572722763,2.04049080034031,2.02090222836751,2.03220519337411,2.02588911593265,0,2.02492860645999,1.9410926230935,1.9428972166482,2.03435906310068,2.01477049112789,1.93987015649193,2.02421064988447,2.02335686368654,2.02121269607585,0,1.94045228344506,1.93696922384217,1.93711475558045,2.01569219213701,2.02534579744307,2.02835345336757,1.93366080232522,2.01784606186359,2.0312058754379,0,2.01849610362791,2.02202767381023,1.93031357234472,2.0308760034978,1.92836344705174,1.92782012856215,2.02353150177248,2.01283977006667,1.9261804709775,0,2.0058057360497,2.00951194431795,2.01697287143389,1.92454081339286,2.01475108689612,2.01706019047686,2.02160078071127,2.01123892094557,2.01281066371902,0,1.9178948640113,1.91636192970139,2.00188608123196,2.00549526834136,2.00541765141428,1.99512370645978,1.90981300147869,1.90956074646567,1.90832857774821,0,1.90758151482503,1.90703819633544,1.90765913175211,1.90654338842528,1.97837785444143,1.99005920196755,1.98170568019015,1.84664252494828,2.04073335323745,0,1.84454686791702,1.8416168289196,1.83988985229198,1.8393465338024,1.83763896140655,1.83669785616566,1.83664934558623,1.8360672186331,1.8361351334443,0,1.83407828487658,1.8317206707164,1.83070194854843,1.83296254154975,1.83269088230495,1.83250654210313,1.83036237449244,1.83063403373723,1.92950829672623,0,1.8293145459768,1.90153709662837,1.92478336629,1.92998370040462,1.92272651772227,2.00866786023592,1.82802416456403,1.82895556768904,1.8237649356903,0,1.82285293679707,1.82279472410176,1.82531727423198,2.00381680229317,1.82482246632182,2.00928879565259,1.93132259239681,1.82168868289081,1.82128119402362,0,1.82045651417335,1.81990349356788,1.67039388777253,1.66922963386627,1.66571746791572,1.66514504307848,1.84584695144567,1.79273756908852,1.66407781033107,0,1.66096343113183,1.65847968946515,1.65561756527893,1.65624820281149,1.65418165212788,1.65434658809793,1.83214756381537,1.65271663262917,1.74913626029914,0,1.8337969235159,1.65165910199765,1.64951493438696,1.64839919106013,1.64713791599501,1.64663340596897,1.64516838647026,1.8300519067841
