1.79372, 1.79365, 1.7959, 1.79354, 1.7955, 1.88696, 1.79166, 1.79145, 1.79246, 1.792, 2.0657, 1.78873, 1.88645, 1.78954, 1.78877, 1.79, 1.79305, 1.78913, 1.79098, 1.88761, 1.79092, 1.79039, 1.89319, 1.79018, 1.97224, 1.7897, 1.78939, 1.79019, 1.79013, 1.7906, 1.87762, 1.78544, 1.83886, 1.83876, 1.83745, 1.83762, 1.89085, 1.89952, 1.78631, 1.83543, 1.78616, 1.78531, 1.7869, 1.78774, 1.78777, 2.05227, 1.78861, 1.86257, 1.86289, 1.866, 1.86569, 2.02088, 2.02326, 2.0173, 1.86467, 2.01717, 2.04271, 2.01755, 1.86658, 1.86374, 2.04244, 2.01822, 1.86589, 2.02876, 1.94054, 1.94423, 2.03828, 1.86277, 1.86188, 1.93728, 1.93725, 1.93737, 1.9549, 1.95151, 2.02904, 1.93798, 1.86142, 1.95642, 1.9418, 1.94085, 2.04599, 1.94141, 1.95945, 1.95929, 1.94978, 1.96134, 2.05195, 2.05036, 2.03526, 2.01808, 2.0144, 2.03169, 2.01762, 2.01794, 2.01694, 2.01663, 2.02122, 2.01902, 2.02056, 2.01767, 2.01869, 2.02244, 2.02132, 2.01954, 2.02127, 2.02317, 2.04851, 1.94674, 2.03546, 2.04384, 1.95482, 2.04822, 2.03508, 2.03166, 1.95538, 2.03432, 2.03262, 2.03803, 2.03353, 2.03562, 2.05312, 1.96005, 2.05933, 2.04164, 2.04983, 2.03826, 2.04988, 2.04827, 2.05163, 2.0496, 2.05411, 2.04606, 2.04101, 2.04833, 2.05012, 2.05079, 1.96408, 1.96553, 2.05241, 2.04269, 2.04206, 2.0618, 2.06723, 2.04663, 2.0516, 2.04881, 2.04696, 2.0497, 2.04999, 2.04891, 1.97232, 2.05115, 2.06898, 2.07188, 1.95566, 1.9567, 1.9561, 1.90425, 1.95684, 2.0945, 2.08528, 1.90414, 2.11351, 2.10538, 1.91085, 1.90864, 1.9082, 1.91011, 1.91378, 2.00081, 1.96297, 1.96254, 2.09648, 1.96104, 1.96229, 1.9137, 1.96509, 1.91113, 1.95932, 1.90952, 2.00203, 1.90722, 1.90578, 1.90699, 1.90711, 1.90642, 2.11306, 1.90769, 1.90519, 1.90702, 2.08754, 2.11125, 1.90359, 1.90717, 1.90617, 1.95801, 1.83802, 1.83684, 1.83604, 1.83212, 1.8319, 1.92326, 1.92152, 1.99319, 1.87492, 1.82347, 1.82199, 1.82046, 1.82117, 1.8197, 1.90981, 1.94255, 1.81667, 1.94126, 1.81555, 1.81182, 1.81597, 1.91801, 1.80979, 1.85881, 1.81072, 1.85882, 1.80749, 1.80848, 1.80645, 1.90958, 1.93883, 1.80641, 1.8543, 1.80345, 1.80096, 1.79703, 1.9434, 1.9435, 1.79261, 1.79271, 1.78844, 1.78629, 1.78719, 1.78786
1.79639, 2.05138, 1.79355, 1.79439, 2.07639, 1.79536, 1.79198, 1.79288, 1.79093, 1.7916, 1.79332, 1.79229, 1.79257, 1.79125, 1.79247, 1.90613, 1.89086, 1.79262, 1.89626, 1.79147, 1.79314, 1.79115, 1.79223, 1.78846, 1.79042, 1.79077, 1.79058, 1.78912, 1.7923, 1.79013, 1.78914, 1.78977, 1.78787, 1.79211, 1.78644, 1.78493, 1.8358, 1.8846, 1.78225, 1.78239, 1.78273, 1.78515, 1.78479, 1.78424, 1.78495, 1.89949, 1.79047, 1.86566, 1.86325, 1.86559, 1.86842, 1.86386, 2.02746, 2.02045, 2.02205, 2.02073, 2.04635, 2.02332, 2.02361, 1.86598, 1.86628, 2.04763, 1.93753, 1.93775, 1.93876, 1.93858, 1.94483, 1.93519, 1.9378, 1.94757, 1.94875, 1.95139, 1.94971, 1.93996, 1.93716, 1.95453, 1.93713, 1.95871, 1.95692, 1.94226, 1.94188, 1.95674, 1.94805, 1.94609, 1.95504, 1.95986, 1.96028, 2.03419, 2.03413, 2.03382, 2.01445, 2.01364, 2.01712, 2.02989, 2.03563, 1.94104, 1.94081, 2.02264, 2.02215, 2.02252, 2.02211, 2.02177, 2.03145, 2.02493, 2.02155, 2.04301, 2.02093, 2.02947, 2.04632, 1.94999, 1.94944, 2.0394, 2.03533, 2.0478, 2.04339, 2.0309, 2.0331, 2.03303, 2.03466, 2.03412, 1.96188, 2.03771, 1.96208, 2.03986, 1.96198, 2.04522, 2.03871, 2.03892, 2.03995, 2.04836, 2.0537, 2.04306, 1.9649, 2.04192, 2.0425, 2.04238, 1.96384, 2.06555, 2.06297, 2.04757, 2.0478, 1.96825, 2.06474, 2.04455, 2.0518, 2.05187, 1.97256, 1.96999, 2.05425, 2.05229, 2.04978, 2.05117, 2.06533, 2.06534, 1.90117, 1.95692, 1.90529, 1.90317, 1.90316, 1.90287, 1.90451, 2.00306, 1.90458, 2.0072, 1.9079, 1.90636, 1.95797, 1.96035, 1.95896, 2.1038, 1.91006, 1.91029, 1.91101, 1.96334, 1.96367, 1.90993, 1.9619, 1.96265, 1.96213, 1.90801, 1.91108, 1.90945, 1.91091, 1.95853, 1.90733, 1.90547, 1.90507, 2.11048, 2.10071, 1.90325, 2.10522, 2.08919, 1.90623, 1.90531, 1.90659, 1.90714, 1.83734, 1.83768, 1.88496, 1.83298, 1.83059, 1.82863, 1.82631, 1.82649, 1.87365, 1.82141, 1.81927, 1.81951, 1.81755, 1.81683, 1.81797, 1.94524, 1.91028, 1.81365, 1.81465, 1.81114, 1.81046, 1.81273, 1.94807, 1.81176, 1.80823, 1.81048, 1.93849, 1.93719, 1.80723, 1.94104, 1.80669, 1.80344, 1.80368, 1.80029, 1.8006, 1.93859, 1.79839, 1.94223, 1.79367, 1.79507, 1.78836, 1.7845, 1.78476, 1.78449
1.79765, 1.90081, 1.79663, 1.79629, 1.7963, 1.79627, 1.79407, 1.78872, 1.79353, 1.79129, 1.78988, 1.79112, 1.84451, 1.84137, 1.79136, 1.7945, 1.78966, 1.8941, 1.78983, 2.05888, 2.0487, 1.79067, 1.78951, 1.7912, 1.79593, 1.78985, 1.7906, 1.79004, 1.78966, 1.79156, 1.78935, 1.8906, 1.89274, 1.78781, 1.85203, 1.7829, 1.89882, 1.78388, 1.8983, 1.78377, 1.78262, 1.78502, 1.78598, 1.83347, 1.78621, 1.78605, 1.78885, 1.86955, 1.86559, 2.01802, 1.86431, 2.02017, 2.02363, 1.86545, 2.01804, 1.86522, 1.86612, 2.0215, 1.94222, 1.94095, 1.94102, 2.04097, 2.04886, 1.94026, 1.93789, 1.93843, 2.02466, 1.94896, 1.94825, 1.94984, 1.94967, 1.9401, 1.9405, 1.93914, 1.93768, 1.94127, 1.93896, 1.93833, 1.95887, 1.95767, 1.94123, 1.94284, 2.04235, 1.94767, 1.96207, 1.95142, 1.9596, 1.95713, 2.047, 1.93832, 1.93801, 2.01415, 1.9378, 1.94156, 2.03087, 1.94073, 2.02092, 2.01794, 1.94118, 2.0211, 2.02378, 2.02725, 2.03982, 2.02108, 2.038, 2.04595, 2.02402, 2.02613, 2.06196, 2.04897, 2.05493, 2.04809, 2.02888, 2.02726, 2.03104, 2.05314, 2.03314, 2.03266, 2.06623, 2.03768, 2.03728, 2.034, 2.05889, 2.03794, 2.05674, 2.06143, 2.05206, 2.05882, 2.04535, 2.04987, 2.03885, 2.05565, 2.05919, 1.96762, 2.04592, 2.04123, 2.04614, 2.04246, 2.0491, 2.06293, 2.04497, 2.04446, 2.04476, 2.0486, 2.04752, 1.97142, 1.96914, 1.97036, 1.96935, 1.97285, 2.06028, 2.06946, 1.97297, 2.05268, 1.90576, 1.96042, 1.90059, 1.90346, 1.9013, 2.08768, 1.90441, 1.90627, 1.95472, 2.01381, 2.01259, 1.95903, 1.90599, 1.97983, 1.91021, 1.91037, 1.90981, 1.91217, 1.91357, 1.91314, 1.90979, 1.91104, 2.09637, 1.91072, 1.90809, 1.91113, 1.90898, 2.01343, 1.90826, 1.9067, 1.90926, 1.90639, 1.90636, 1.90401, 1.90261, 1.90378, 1.90501, 2.09028, 1.90341, 1.90536, 1.90452, 1.90701, 1.93956, 1.92854, 1.83422, 1.83364, 1.8281, 1.83051, 1.82742, 1.87701, 1.82299, 1.82176, 1.9291, 1.93953, 1.93048, 1.8183, 1.91491, 1.91246, 1.8144, 1.94767, 1.81211, 1.86353, 1.9339, 1.81298, 1.81028, 1.80999, 1.80901, 1.94407, 1.8087, 1.94238, 1.94237, 1.80643, 2.12115, 1.80229, 1.92533, 1.80462, 1.95059, 1.94791, 1.799, 1.93817, 1.79538, 1.79088, 1.78967, 1.78879, 1.78297, 1.78581
1.79708, 1.79472, 1.79399, 1.79542, 1.79666, 1.79383, 1.79646, 1.7949, 1.96746, 1.79389, 2.06091, 1.79342, 1.7905, 1.79076, 1.7917, 1.79282, 1.78981, 1.79014, 1.79378, 1.79253, 1.7911, 1.78774, 1.79302, 1.79091, 1.97286, 1.84364, 1.84243, 1.8412, 1.79169, 1.90902, 1.91147, 1.78685, 1.84036, 1.89996, 1.91539, 1.7856, 1.78182, 1.78284, 1.77934, 1.78286, 1.78145, 1.7828, 1.78364, 1.78311, 1.78531, 1.78591, 1.78656, 2.01954, 1.86829, 1.86658, 1.86727, 2.02731, 1.86587, 1.94864, 1.86882, 1.86627, 1.86573, 2.02412, 1.94244, 1.94448, 1.9386, 2.05153, 1.94785, 1.9477, 2.02448, 1.94089, 1.86251, 1.94807, 1.9397, 1.9371, 1.95152, 1.95158, 1.86235, 1.95803, 1.86245, 1.95473, 1.9408, 1.93914, 1.86373, 1.86498, 1.8643, 1.95899, 1.95831, 1.94788, 1.94902, 1.95124, 1.88004, 2.03942, 2.0664, 2.02473, 2.0137, 1.9375, 2.02442, 2.02112, 1.94104, 2.01804, 2.02284, 1.94256, 2.02171, 2.02068, 2.02045, 1.94448, 2.02023, 2.02198, 2.02413, 2.02848, 1.9478, 2.03431, 2.03502, 2.03677, 2.03849, 2.04445, 2.02919, 2.05521, 2.0624, 2.03227, 2.05249, 2.04149, 2.05784, 2.05136, 1.95915, 2.06074, 2.04791, 2.03763, 2.03772, 2.05206, 2.05861, 2.05448, 2.04883, 2.04865, 1.96501, 2.05793, 2.05031, 2.06341, 2.0661, 2.05931, 2.06171, 2.06277, 2.04842, 2.05682, 2.04175, 2.05984, 2.04759, 2.06263, 2.04514, 2.05125, 1.96658, 1.96803, 1.96992, 1.97155, 2.06623, 1.97293, 2.06239, 2.07398, 1.90445, 1.97173, 1.89991, 1.90303, 1.95461, 1.95477, 1.95431, 1.90414, 1.95502, 1.97287, 2.00688, 1.9063, 2.04063, 1.90995, 1.91149, 1.91046, 2.08915, 2.10035, 1.91135, 2.0897, 2.08695, 2.10461, 2.11334, 1.91138, 2.08823, 1.91087, 1.96305, 2.08742, 1.90802, 2.11329, 2.08686, 1.90748, 1.90516, 1.9044, 2.09043, 1.90583, 2.09778, 1.90715, 1.90508, 1.90419, 1.9073, 1.957, 1.84105, 1.83446, 2.02286, 1.8325, 1.83022, 1.94077, 1.82425, 1.94275, 1.94162, 1.82155, 1.82034, 1.94268, 1.82028, 1.81533, 1.81948, 1.81652, 1.81587, 1.81508, 1.8132, 1.81358, 1.81021, 1.86019, 1.80802, 1.81029, 1.94781, 1.94472, 1.81039, 1.80596, 1.80389, 1.85865, 1.85699, 1.93924, 1.79934, 1.93857, 1.80077, 1.80294, 1.79975, 1.9204, 1.79748, 1.79398, 1.94188, 1.92937, 1.78928, 1.94376
1.79671, 1.79869, 1.79668, 1.7996, 1.79875, 1.79753, 1.79721, 2.0598, 1.79257, 2.04977, 2.05157, 1.79359, 1.79342, 1.79242, 1.7946, 1.79328, 1.79045, 1.79152, 1.79263, 1.79328, 1.79175, 1.79317, 1.79199, 1.79237, 1.79247, 1.79107, 1.79554, 1.79067, 1.78913, 1.83939, 1.83884, 1.83931, 1.78434, 1.7847, 1.78405, 1.89293, 1.78082, 1.78552, 1.78121, 1.77973, 2.07949, 1.78221, 1.77972, 1.78166, 1.78482, 1.78394, 1.78556, 1.86869, 2.02087, 1.8686, 1.86836, 1.86687, 2.02116, 2.02127, 2.02098, 1.86613, 2.02395, 1.86511, 1.86557, 1.9403, 1.94752, 1.8657, 1.86562, 1.93807, 1.86425, 2.04142, 2.02419, 1.93725, 1.86275, 1.95107, 1.93734, 2.04437, 2.0415, 1.93841, 1.86237, 1.86084, 1.93731, 1.93837, 1.93855, 1.95965, 2.03469, 2.03566, 1.94579, 1.94644, 2.03926, 2.04823, 1.8791, 1.96621, 2.06096, 2.03886, 2.0207, 2.01504, 2.02499, 2.02817, 2.03092, 2.01829, 1.93914, 1.94194, 1.9427, 1.94299, 1.94407, 2.02713, 2.02568, 2.02302, 2.0232, 2.04263, 2.05927, 2.04107, 2.05963, 1.95138, 2.06493, 1.95455, 2.02952, 2.03147, 2.03192, 2.03108, 2.04561, 2.0385, 2.05638, 2.04875, 2.04766, 2.04858, 2.04539, 2.04614, 1.96123, 2.04202, 2.04835, 2.05787, 2.05803, 2.05639, 2.05674, 2.06489, 1.96647, 2.04607, 2.04182, 2.06986, 2.06204, 1.96788, 2.04181, 2.04967, 2.04633, 2.04178, 2.04432, 2.04519, 2.04539, 1.96825, 1.97002, 1.97001, 1.97237, 1.97002, 2.0548, 2.06392, 2.05224, 2.04949, 1.9025, 1.90041, 1.9001, 1.89966, 2.11164, 1.90301, 1.90292, 1.90616, 1.90122, 2.09064, 2.01142, 1.95797, 1.90724, 1.90839, 1.90996, 1.9638, 1.96321, 1.91206, 1.91091, 1.91106, 1.91335, 2.10043, 1.91225, 1.91283, 2.10978, 1.90984, 2.00637, 1.91063, 1.91048, 1.90986, 1.90967, 2.1049, 2.11025, 1.90627, 1.90612, 1.90656, 1.97349, 1.97122, 1.90335, 1.90742, 1.90633, 1.90662, 1.83895, 1.83583, 1.83021, 1.93751, 1.83101, 2.03103, 1.82746, 1.82357, 1.94768, 1.94485, 1.81989, 1.99539, 1.81805, 1.94545, 1.81397, 1.9496, 1.86556, 1.86441, 1.86395, 1.86478, 1.86159, 1.92866, 1.80835, 1.81092, 1.8584, 1.85884, 1.8067, 1.80457, 1.80475, 1.85732, 1.91044, 1.93918, 1.93599, 1.80136, 1.80235, 1.80082, 1.80065, 1.79745, 1.79599, 1.93397, 1.92819, 1.84435, 1.91312, 1.84405
1.79935, 1.80128, 1.80016, 1.79898, 1.80281, 1.80089, 1.79943, 1.79926, 2.06667, 1.79383, 1.89429, 1.79676, 1.89247, 1.79648, 1.79345, 1.84591, 1.88545, 1.79453, 1.79592, 1.79285, 1.79601, 1.79397, 1.79257, 1.79561, 1.79322, 1.79551, 1.79123, 1.79196, 1.78883, 1.84069, 1.78954, 1.78683, 1.78894, 1.89582, 1.83417, 1.78226, 1.78213, 1.7819, 1.77935, 1.78295, 1.78185, 2.07753, 2.0811, 1.78309, 1.78362, 1.83427, 1.78496, 2.02474, 1.86994, 1.86991, 1.94582, 1.86645, 2.02481, 1.94457, 1.94697, 1.86884, 2.02411, 1.86672, 2.05145, 1.94107, 1.94658, 1.94842, 2.02676, 1.94868, 2.02145, 1.94783, 1.93873, 1.94318, 1.9507, 1.9392, 1.9379, 1.86227, 1.93714, 1.8614, 1.86159, 1.94085, 1.95602, 1.95983, 1.95889, 1.95874, 1.94166, 1.96158, 1.94371, 1.9623, 2.04568, 1.95424, 1.96302, 1.88149, 2.04335, 2.04422, 1.94066, 2.02796, 2.02758, 2.01912, 2.03186, 2.02064, 1.94121, 1.94434, 1.94099, 1.94792, 2.02483, 2.02395, 2.02451, 2.03609, 2.02402, 2.03254, 1.94486, 2.0243, 2.0248, 2.04292, 2.03538, 2.02883, 2.05519, 2.05359, 2.03116, 1.9581, 2.05389, 1.95689, 2.0518, 2.03541, 2.0423, 2.04542, 1.96144, 2.05878, 2.0362, 1.9652, 2.04533, 1.96343, 1.96485, 2.05827, 1.96566, 2.0379, 2.07255, 2.04026, 2.06675, 1.96643, 2.06109, 1.9663, 2.04224, 2.04665, 2.04585, 2.04444, 2.04206, 2.04852, 2.04783, 2.04719, 2.04799, 1.96947, 1.96835, 1.97126, 1.97151, 2.04737, 2.07472, 1.97359, 1.90082, 1.89988, 1.89986, 1.9027, 1.90065, 1.90264, 1.90183, 2.09362, 1.90337, 1.90263, 1.901, 2.09113, 2.09829, 1.90938, 1.9083, 1.9115, 2.00382, 1.9625, 1.91105, 1.91057, 1.91319, 1.91516, 1.91438, 1.91256, 1.96255, 1.91301, 1.91148, 1.91099, 1.96141, 1.90984, 1.90985, 2.10662, 1.90643, 1.90733, 1.95573, 1.90687, 1.97566, 1.9553, 1.90487, 1.91019, 1.90797, 1.90633, 1.83741, 1.94737, 1.83346, 1.83263, 1.82816, 1.82748, 1.87625, 1.82406, 1.94577, 1.82026, 1.81991, 1.81844, 1.8199, 1.81929, 1.8145, 1.81645, 1.94461, 1.81135, 1.81344, 1.81014, 1.94847, 1.9469, 1.808, 1.94402, 1.93907, 1.8077, 1.80822, 1.9407, 1.93856, 1.8057, 1.80642, 1.9385, 1.93881, 1.94143, 1.80057, 1.80064, 1.80302, 1.79861, 1.93779, 1.79794, 1.79582, 1.79565, 1.91783, 1.91448
1.803, 1.80267, 1.8834, 1.80073, 1.88732, 1.86912, 1.79927, 1.79961, 1.79753, 1.79707, 1.79912, 1.79767, 1.79695, 1.79744, 1.79529, 1.79612, 1.79231, 1.79395, 1.79478, 1.79596, 1.79327, 1.79356, 1.84512, 1.8453, 1.79532, 1.84389, 1.7937, 1.79314, 1.78877, 1.78991, 1.79057, 1.89805, 1.8959, 1.83699, 1.8371, 1.78336, 1.78529, 1.78214, 1.78607, 1.78407, 1.78174, 1.78119, 2.0704, 1.78567, 1.78645, 1.83617, 1.83772, 1.86963, 2.02136, 1.8679, 2.02432, 2.01875, 1.86897, 2.0251, 2.02073, 1.86897, 2.04721, 1.93807, 1.94712, 1.9494, 1.94821, 1.94933, 1.94235, 1.94012, 1.95129, 1.95057, 1.94058, 1.94929, 1.93782, 1.86164, 1.93915, 2.04847, 1.86208, 1.93883, 2.04901, 2.05238, 1.96225, 1.93722, 1.94149, 1.96211, 1.94527, 1.96304, 1.9632, 1.94646, 1.96172, 2.03951, 2.04615, 2.05837, 2.04638, 2.0383, 2.01713, 2.03789, 2.02957, 2.02891, 2.0204, 2.03222, 1.94311, 1.94273, 1.94471, 1.94405, 2.0217, 2.0261, 2.03769, 1.94507, 1.94652, 2.03827, 2.04128, 2.03086, 1.95247, 2.02513, 2.0269, 1.95261, 2.03086, 2.03232, 2.03633, 2.03195, 1.95802, 2.03482, 2.04422, 2.03601, 2.04891, 2.04741, 2.03442, 2.06328, 2.05928, 2.04953, 2.05214, 2.0454, 2.06191, 2.04393, 2.05597, 2.0517, 2.0645, 1.96548, 2.04813, 2.05547, 2.04184, 2.0489, 2.06487, 2.05502, 2.06899, 2.06014, 2.04503, 1.96656, 2.04476, 2.04801, 2.04892, 2.04637, 2.05174, 2.05002, 2.05071, 2.0472, 2.04547, 2.05984, 1.90334, 2.10701, 1.90291, 2.09063, 1.90066, 1.89989, 1.9029, 2.09118, 1.90415, 1.9059, 1.90653, 1.90291, 1.90969, 1.90758, 1.90974, 1.98449, 1.91001, 1.91111, 1.91136, 1.91155, 1.96451, 1.96459, 1.96148, 2.1077, 1.91274, 1.963, 1.96314, 2.00329, 1.91053, 2.09587, 2.11512, 1.91019, 1.90955, 1.90851, 1.95849, 1.95782, 2.08945, 2.08909, 2.08338, 1.90769, 1.9095, 1.90769, 1.8386, 1.83665, 1.83173, 1.88544, 1.92968, 1.92992, 1.82762, 1.82485, 1.94611, 1.99739, 1.81887, 1.81679, 1.81704, 1.945, 1.81629, 1.81541, 1.92978, 1.81279, 1.81062, 1.94296, 1.9439, 1.94196, 1.80971, 1.80812, 1.80949, 1.8055, 1.80928, 1.86878, 1.85599, 1.80337, 1.93245, 1.8037, 1.80276, 1.80437, 1.9031, 1.85186, 1.91685, 1.93442, 1.90197, 1.79867, 1.92612, 1.92627, 1.79679, 1.79638
1.80227, 1.88595, 1.80333, 1.97882, 1.80184, 1.79953, 1.80091, 1.97726, 1.79824, 1.79804, 1.79916, 1.80073, 1.9038, 1.90512, 1.88691, 1.79329, 2.06893, 1.79576, 1.79631, 1.79175, 1.79239, 1.79628, 1.7961, 1.84723, 1.84455, 1.79237, 1.79321, 1.79275, 1.79453, 1.7919, 1.78984, 1.79068, 1.78855, 1.78964, 1.78924, 1.7869, 1.78629, 1.90369, 1.78378, 2.07005, 2.0697, 2.06542, 1.78576, 1.78742, 1.78431, 1.78667, 1.88631, 1.87007, 1.86963, 1.87136, 1.94424, 1.87143, 2.02302, 1.86976, 1.86775, 2.04461, 1.9484, 1.94746, 1.94854, 1.94917, 1.86563, 1.86508, 1.94261, 1.93786, 1.95111, 1.9517, 1.95198, 1.95418, 1.93926, 1.93983, 1.86073, 1.86095, 1.93742, 1.9384, 1.93968, 1.95826, 1.93867, 1.93995, 1.94091, 1.96191, 1.96251, 1.86575, 2.0586, 1.96626, 1.96672, 1.96118, 1.95926, 1.95919, 2.05807, 2.03492, 2.01523, 1.94196, 2.01924, 2.01859, 2.01826, 2.02, 1.94261, 1.94247, 2.01796, 2.0205, 2.02778, 2.02855, 2.02055, 2.05242, 2.04787, 1.94831, 2.01974, 2.02142, 2.02741, 2.0277, 2.02753, 2.02781, 2.0318, 2.03136, 2.03495, 2.06568, 1.95705, 2.0348, 1.95927, 2.02974, 2.03042, 2.05624, 2.06121, 2.04675, 2.03614, 2.03558, 2.05935, 1.96531, 2.04032, 2.04013, 2.03837, 2.03929, 2.05549, 2.05834, 2.05598, 2.04095, 1.96698, 2.04402, 2.05514, 2.04575, 2.06206, 2.06361, 2.04235, 2.04926, 1.96858, 1.96644, 2.05216, 2.04749, 2.04948, 1.96931, 2.04849, 2.06087, 2.06673, 2.04866, 1.9513, 1.90217, 2.10662, 1.95136, 2.01365, 1.95143, 2.07047, 1.90377, 1.90263, 1.90492, 1.9058, 1.90622, 1.95802, 1.90773, 1.90779, 1.90951, 1.91347, 2.08891, 2.10517, 2.10485, 1.91307, 1.96853, 1.96582, 1.964, 1.91354, 1.91271, 1.91259, 1.96382, 1.96136, 1.90816, 1.91292, 1.96161, 1.91131, 1.91031, 1.90846, 1.90789, 2.08655, 2.08672, 1.91055, 1.90692, 1.90599, 1.90762, 1.83883, 1.94309, 1.83519, 1.882, 1.87925, 1.87813, 1.8781, 1.87645, 1.82074, 1.91367, 1.94798, 1.81965, 1.81947, 1.81718, 1.81495, 1.95067, 1.94746, 1.94535, 1.81071, 1.81082, 1.81004, 1.81028, 1.91603, 1.91293, 1.80657, 1.94296, 1.80597, 1.80631, 1.80628, 1.80659, 1.80619, 1.85964, 1.85325, 1.80322, 1.8013, 1.80119, 1.80001, 1.93453, 1.93741, 1.79971, 1.79852, 1.90737, 1.79893, 1.92051
1.8055, 1.80493, 1.80483, 1.80538, 1.80533, 1.80316, 1.80108, 1.79983, 1.80023, 1.79816, 1.79986, 1.79614, 1.79765, 1.79596, 1.79716, 1.7981, 1.7985, 1.79396, 1.79735, 1.79611, 1.79985, 1.89953, 1.90616, 1.79415, 1.79275, 1.846, 1.84418, 1.79612, 1.7946, 1.7958, 1.79241, 1.79054, 1.90365, 1.78812, 2.08374, 1.9067, 1.79006, 1.90282, 1.78533, 1.78824, 1.78329, 1.83741, 1.83764, 1.78777, 1.78972, 1.79018, 1.8407, 2.0244, 1.86968, 1.87141, 1.86918, 2.03106, 2.02487, 2.0312, 1.94767, 1.94318, 1.94902, 1.94758, 1.94899, 1.94168, 1.9425, 1.94118, 1.95165, 1.95133, 1.948, 1.95202, 1.9418, 1.93543, 1.95354, 1.95619, 2.03475, 1.94082, 1.93835, 1.95884, 1.95836, 1.93851, 1.95873, 1.93891, 1.94079, 1.9414, 1.94162, 1.96271, 1.94565, 1.94812, 1.96501, 1.96277, 1.96464, 2.04197, 2.05654, 2.01705, 2.01819, 2.01908, 2.01787, 2.02078, 2.02168, 2.02036, 2.017, 1.94393, 1.94143, 2.02492, 2.01977, 2.0301, 2.02386, 2.02377, 2.02383, 1.94583, 2.02505, 2.0434, 2.04499, 2.02737, 2.02894, 2.05304, 2.03142, 2.03162, 2.03069, 2.0493, 2.0514, 2.04519, 1.96, 2.03502, 2.04948, 1.95842, 2.0403, 2.03813, 1.96454, 2.04825, 2.04158, 2.0564, 1.96604, 2.06147, 2.04792, 2.04218, 2.04282, 2.05236, 2.04959, 2.04841, 2.04137, 2.0442, 2.04939, 2.0655, 2.04541, 2.07035, 2.04623, 2.04537, 2.04449, 2.04319, 2.05234, 2.05288, 1.97257, 1.97055, 2.04239, 1.97106, 2.05296, 1.90382, 1.90314, 1.90414, 1.90262, 1.95355, 1.90328, 2.01689, 1.90647, 1.95877, 1.9027, 1.90544, 1.9045, 1.95825, 1.95871, 1.95886, 1.959, 2.01032, 1.9111, 2.00771, 2.00499, 2.10347, 1.91406, 1.91413, 1.91442, 1.91296, 1.91231, 1.91342, 1.96239, 1.91133, 1.91169, 1.91182, 1.91279, 1.96681, 2.01137, 2.00236, 2.10543, 1.91237, 1.90984, 1.91022, 1.9081, 1.91037, 1.91001, 1.90995, 1.94092, 1.94098, 1.94444, 2.11355, 1.83045, 1.82805, 1.82572, 1.82698, 1.82334, 1.82167, 1.94416, 1.81871, 2.03486, 1.91409, 1.81271, 1.94788, 1.81268, 1.81176, 1.8107, 1.80957, 1.94743, 1.86205, 1.80971, 1.807, 1.85869, 1.80456, 1.94032, 1.93796, 1.80412, 1.80442, 1.93536, 1.85602, 1.85334, 1.85245, 1.80085, 1.80265, 1.80182, 1.80117, 1.80273, 1.84906, 1.80312, 1.92611, 1.92939, 1.7987
1.80658, 1.80438, 1.8082, 1.80438, 1.80194, 1.90479, 1.85548, 2.05682, 1.80323, 2.0545, 1.80236, 1.80196, 1.88688, 1.80267, 1.79997, 1.90049, 1.79863, 1.7999, 1.79585, 1.79811, 1.79611, 1.90681, 1.79782, 1.79934, 1.90126, 2.08247, 1.79863, 1.79254, 1.9151, 1.91639, 1.89571, 1.7933, 1.79308, 1.79308, 1.90748, 1.79135, 1.79174, 1.79066, 1.91731, 1.78884, 1.86023, 1.85073, 1.84191, 1.79056, 1.79131, 1.7943, 1.79405, 2.02543, 2.02494, 2.01853, 1.94308, 1.94534, 1.87254, 1.94468, 1.94582, 2.05978, 1.8685, 1.94879, 2.02838, 1.94405, 1.95064, 1.94201, 1.95074, 1.94796, 1.94152, 1.93961, 2.03002, 1.95544, 1.94067, 1.94161, 2.03445, 1.9571, 1.86262, 1.93564, 1.95763, 1.94081, 1.94124, 2.03945, 1.94154, 1.94239, 2.04182, 2.04138, 1.96749, 1.9508, 1.95335, 1.95549, 1.95555, 1.95894, 1.89936, 2.0174, 2.04172, 2.02003, 2.01933, 2.05526, 2.01656, 2.03002, 1.94368, 1.94298, 1.94425, 2.02736, 2.02648, 2.02181, 2.0215, 2.02456, 2.05355, 2.02431, 1.94786, 2.02789, 2.02489, 2.04603, 2.03, 2.02932, 1.95263, 1.95583, 1.9549, 1.95578, 1.95748, 2.04125, 1.9594, 2.05666, 2.03669, 2.05602, 2.05157, 2.05924, 2.04465, 1.96411, 2.0546, 2.05659, 2.07398, 2.05384, 2.05769, 2.04226, 2.04257, 2.04137, 2.03915, 1.96641, 1.966, 2.04286, 2.05247, 2.04808, 2.04338, 2.0447, 1.9658, 2.04423, 2.0428, 1.96622, 1.96981, 1.96688, 1.96355, 1.9693, 2.04576, 1.97065, 2.07227, 2.057, 1.9057, 2.07944, 1.90563, 1.9031, 1.90651, 1.90295, 1.9031, 1.90503, 1.90482, 1.90739, 1.90505, 2.01034, 1.9078, 1.90952, 1.9613, 1.91162, 1.91065, 1.91106, 2.08559, 1.91367, 2.08671, 1.91089, 1.96407, 1.91169, 2.10115, 1.91499, 1.91373, 1.91346, 2.09021, 1.91066, 1.96259, 1.91155, 1.91098, 1.91282, 1.90855, 1.90836, 1.91047, 2.09046, 1.91242, 1.90991, 1.90924, 1.89703, 1.92846, 1.95762, 1.83622, 1.93897, 1.9428, 1.82836, 1.8281, 1.94096, 1.93925, 1.81998, 1.94027, 1.81692, 1.94338, 1.94516, 1.81667, 1.81326, 1.81347, 1.8103, 1.94507, 1.80839, 1.81022, 1.81027, 1.9406, 1.80681, 1.80767, 1.80691, 1.94163, 1.80651, 2.1128, 1.80696, 1.80716, 1.86915, 1.8048, 1.92664, 1.9289, 1.85778, 1.80314, 1.80273, 1.80185, 1.80141, 1.80141, 1.92483, 1.80005, 1.79944
1.86078, 1.80618, 1.80663, 1.80899, 1.80765, 1.80484, 1.80382, 1.80287, 1.80418, 1.80377, 1.80287, 1.80216, 1.80025, 1.80248, 1.80236, 1.8012, 1.79831, 1.97848, 1.79997, 2.07703, 1.7997, 1.80055, 1.79884, 1.79894, 1.79861, 1.7978, 1.79673, 1.79692, 1.79645, 1.89347, 1.79965, 1.79519, 1.90126, 1.90385, 1.90975, 1.91407, 1.7941, 1.91296, 1.90298, 1.8912, 1.90129, 1.85495, 1.79278, 1.79238, 2.06085, 1.79559, 1.80001, 1.87286, 2.03213, 1.86535, 1.87098, 1.95066, 1.87357, 1.94897, 2.02567, 2.02839, 2.02799, 1.94253, 1.94526, 1.94476, 1.94136, 1.9448, 1.94477, 2.03076, 1.93908, 1.9424, 1.95463, 1.95586, 1.93818, 1.86203, 1.86043, 1.95852, 1.86209, 1.93793, 1.96126, 1.86142, 1.86184, 1.93833, 1.94035, 1.96317, 1.94519, 1.96439, 1.94446, 1.95079, 1.96645, 1.9662, 2.05878, 1.96452, 2.07937, 2.0307, 2.02105, 2.02132, 2.02062, 2.02816, 2.02679, 2.02337, 1.94386, 1.94422, 1.94306, 1.94764, 2.02673, 2.02201, 2.02198, 2.03175, 2.04241, 2.02597, 2.03866, 2.04112, 2.0258, 2.02763, 1.95183, 2.0532, 2.06276, 2.05536, 1.95486, 1.95629, 2.05567, 1.95812, 2.03852, 2.04455, 2.04598, 2.04895, 2.04072, 2.0493, 2.04808, 1.96351, 2.0482, 2.05022, 1.96528, 2.05526, 2.04551, 2.052, 2.04407, 2.06529, 2.04449, 2.04437, 2.04318, 1.96518, 2.06585, 2.06245, 2.07019, 2.04206, 2.06261, 2.04849, 2.04248, 1.9661, 1.96841, 1.96696, 1.96891, 2.04767, 2.04798, 2.05911, 2.04908, 2.06584, 1.95446, 1.90696, 2.0829, 1.90546, 1.90433, 1.95533, 1.90486, 2.00998, 1.95701, 1.9082, 1.90383, 1.90564, 1.90945, 1.91083, 1.9109, 1.91141, 1.90994, 1.91273, 1.91391, 2.08932, 1.91619, 1.91319, 1.9141, 1.91367, 2.08713, 1.91348, 1.91145, 1.91337, 1.91264, 1.96118, 2.0958, 1.91343, 1.91346, 1.91327, 1.91123, 1.96357, 1.91182, 1.91048, 1.91089, 1.97574, 1.97639, 1.83953, 1.94539, 1.96272, 1.83385, 1.93756, 1.93295, 1.87656, 1.82338, 1.82341, 1.94164, 1.82398, 1.81874, 1.94116, 1.93875, 1.92028, 1.86613, 1.92999, 1.92859, 1.81086, 1.80985, 1.9138, 1.80975, 1.94435, 1.80927, 1.85814, 1.85836, 1.80962, 1.80758, 1.80655, 1.80661, 1.80498, 1.93812, 1.90333, 1.80362, 1.8047, 1.80499, 1.80372, 1.89766, 1.80344, 1.92821, 1.80369, 1.92042, 1.92985, 1.79825, 1.79916
1.91017, 1.80889, 1.80847, 1.80936, 1.80517, 1.80613, 2.0616, 2.06213, 1.8042, 1.80659, 1.80432, 1.85537, 1.85452, 1.85499, 1.80367, 1.80067, 1.80386, 1.80252, 1.80138, 1.80275, 1.90644, 1.85479, 1.80276, 1.80176, 1.8033, 1.80101, 1.80012, 1.79974, 1.89273, 1.79921, 1.79674, 1.91532, 1.79778, 1.9101, 1.91081, 1.79674, 1.88307, 1.89614, 1.89483, 1.79474, 1.90024, 1.79559, 1.79632, 1.79668, 1.79544, 1.79645, 1.79976, 1.87433, 1.87463, 1.87253, 1.87186, 1.94752, 1.87187, 2.03395, 1.86795, 1.95195, 1.94547, 2.05464, 1.95213, 1.95312, 1.94729, 1.86657, 1.93955, 2.03441, 1.95771, 2.03407, 1.93981, 1.94095, 1.941, 1.94127, 1.95919, 1.93525, 1.86315, 1.93813, 1.93859, 1.96171, 1.94142, 1.94144, 1.86283, 1.96552, 1.86882, 1.96291, 1.94776, 2.04515, 1.96637, 1.95532, 1.95549, 2.04462, 2.0715, 2.03289, 2.01995, 2.01844, 2.01838, 2.01798, 2.01767, 1.94577, 1.94407, 1.9442, 1.94361, 1.94803, 2.02501, 2.03013, 2.04488, 1.94623, 2.04733, 2.04599, 1.95213, 2.02784, 1.95159, 2.02933, 2.05923, 2.05182, 2.05454, 1.95552, 2.05403, 2.05937, 1.95891, 2.03456, 2.05174, 2.05647, 2.03666, 2.03646, 2.03868, 2.03605, 1.96525, 1.96569, 1.96539, 2.05723, 2.03842, 2.04892, 2.05135, 2.04386, 2.055, 2.05265, 2.05188, 2.05452, 2.04783, 2.04114, 2.04872, 2.05568, 2.042, 2.04158, 2.04351, 2.04367, 1.96657, 2.04504, 1.96864, 1.9682, 1.96653, 2.04395, 2.05818, 2.06847, 2.04874, 1.90902, 1.99913, 1.90671, 1.9064, 1.90682, 2.09431, 2.00704, 1.90724, 1.90855, 1.90753, 1.97426, 1.95863, 1.95864, 1.95999, 1.97548, 2.00613, 1.90794, 1.91072, 1.96462, 1.99741, 1.96156, 1.91346, 1.91161, 1.91647, 1.97244, 2.0031, 1.91457, 1.91177, 1.91205, 1.96259, 1.91043, 1.91405, 1.91115, 1.91195, 1.90987, 1.91153, 1.9088, 1.98459, 1.90971, 1.9097, 1.90989, 1.9727, 1.93187, 1.83905, 1.93776, 1.83358, 1.9389, 1.88123, 1.87963, 1.8267, 1.82498, 1.82086, 1.94431, 1.86973, 1.8163, 1.81483, 1.81484, 1.81479, 1.86608, 1.81357, 1.86218, 1.81105, 1.81046, 1.81116, 1.80935, 1.94396, 1.94256, 1.8062, 1.80749, 1.80729, 1.80433, 1.8041, 1.92469, 1.85497, 1.94023, 1.93731, 1.93417, 1.93461, 1.90555, 1.80381, 1.9306, 1.92926, 1.92842, 1.80065, 1.80649, 1.92742, 1.80019
2.06262, 1.81114, 1.81292, 1.80836, 1.81071, 1.81221, 1.80953, 2.0826, 1.80888, 1.80969, 1.80668, 1.80828, 1.85586, 1.80306, 1.80627, 1.80381, 1.80252, 1.8029, 1.80456, 1.80127, 1.80196, 1.80247, 1.8975, 1.80149, 1.80208, 1.80262, 1.80279, 1.80105, 1.80204, 1.85086, 1.85277, 1.89783, 1.91736, 1.80022, 1.80021, 1.90499, 1.90396, 1.79934, 1.79804, 1.90309, 1.79829, 1.79928, 1.90926, 1.79972, 1.80039, 1.80217, 1.80207, 1.87142, 1.94693, 1.94778, 1.873, 2.03095, 2.02845, 1.94827, 1.9538, 1.95512, 1.94869, 1.94608, 1.94415, 1.9458, 1.94441, 1.94602, 1.94243, 1.94288, 1.94111, 1.94135, 1.95709, 2.05814, 1.94022, 2.03845, 1.93704, 1.86164, 1.9618, 2.05918, 1.9364, 1.93849, 1.94062, 1.94033, 1.94203, 1.94207, 1.9664, 2.05844, 1.87081, 1.94871, 2.04358, 1.9553, 1.96912, 2.04518, 2.0431, 2.03933, 1.94423, 1.94479, 1.94624, 2.03828, 2.02064, 1.94434, 1.9443, 1.94483, 1.94635, 2.02441, 2.02344, 2.02433, 2.02343, 2.04273, 2.02524, 2.02612, 2.02679, 2.04886, 2.02806, 2.0292, 2.03139, 2.04151, 1.9543, 2.03659, 2.04663, 1.95288, 2.04825, 2.05278, 2.04536, 2.04662, 2.0498, 2.04873, 2.04811, 2.0423, 2.04029, 2.03934, 2.04231, 2.04267, 2.04789, 2.06912, 2.04644, 1.96511, 2.05808, 2.043, 2.04423, 2.06259, 2.05569, 2.05812, 2.04334, 2.05783, 1.96693, 2.04399, 2.06402, 1.96651, 1.9685, 1.96915, 1.97019, 1.9678, 1.96892, 2.04571, 1.96901, 2.0489, 2.04802, 1.97177, 1.9696, 1.95772, 1.90734, 1.90783, 1.90694, 1.99992, 1.90461, 1.90742, 2.08667, 2.08576, 1.95766, 1.95785, 1.99658, 1.95888, 1.9636, 1.91173, 1.91381, 1.96289, 1.96221, 1.96504, 1.96321, 1.91451, 1.99394, 1.91566, 2.10354, 1.91111, 1.91207, 1.91242, 1.96502, 1.96179, 1.91083, 2.11044, 1.90968, 2.08142, 1.91268, 1.91283, 1.91044, 1.95935, 1.96025, 1.91369, 1.91344, 1.99082, 1.98913, 1.83593, 1.83384, 1.83159, 1.93837, 1.82744, 1.82558, 1.91741, 1.82319, 1.82163, 1.82108, 1.94427, 1.94212, 1.81491, 2.03428, 1.94456, 1.90629, 1.81163, 1.80954, 1.80893, 1.81103, 1.808, 1.81039, 1.80707, 1.80952, 1.80703, 1.94578, 1.80232, 1.85736, 1.80516, 1.85594, 1.80495, 1.803, 1.80513, 1.80616, 1.80393, 1.80377, 1.85292, 1.85624, 1.80181, 1.92006, 1.92765, 1.85138, 1.92051
1.81164, 1.81455, 1.80795, 1.81048, 1.81325, 1.81193, 1.81026, 1.80752, 1.80866, 1.80916, 1.85801, 1.80964, 1.80622, 1.8577, 1.80681, 2.08752, 1.8046, 2.06829, 1.80359, 1.90158, 2.06625, 1.91377, 1.90635, 1.80382, 1.80408, 1.85444, 1.89903, 1.899, 1.80229, 1.80326, 1.80519, 1.80219, 1.79724, 2.05975, 1.91099, 1.79971, 1.8001, 1.80123, 1.79736, 1.79814, 1.79656, 1.80051, 1.80237, 1.85161, 1.80167, 1.80159, 1.80321, 1.95229, 1.95298, 1.87583, 1.87535, 1.952, 1.94668, 1.94579, 2.03146, 1.94635, 1.95283, 1.94594, 1.94504, 1.95153, 1.94473, 1.94391, 1.943, 1.94444, 1.945, 1.96194, 1.94192, 1.86495, 1.86222, 1.94178, 2.03928, 2.03995, 1.96176, 1.96238, 1.86251, 2.05033, 1.96837, 1.86445, 1.94131, 1.86574, 1.86868, 2.05438, 1.87016, 2.04587, 1.95872, 1.95623, 1.95768, 1.96177, 2.08004, 2.02186, 2.04142, 2.02191, 2.03422, 2.03354, 2.02448, 2.02229, 2.02454, 2.02599, 2.02411, 1.94684, 1.94661, 1.94873, 2.02466, 2.03765, 2.02494, 2.04909, 2.03983, 2.04076, 2.04332, 2.05457, 2.04629, 2.03074, 2.05218, 2.06263, 2.04475, 2.03877, 2.06235, 2.05813, 1.96004, 2.04707, 2.03757, 1.96234, 1.96137, 1.96385, 2.04415, 2.05781, 2.04147, 2.06204, 2.03829, 2.06339, 1.96495, 2.05123, 1.96711, 2.04307, 2.06278, 2.05593, 2.04916, 2.06901, 1.967, 2.05166, 2.04473, 2.06614, 2.06858, 2.04285, 1.96389, 1.9687, 1.96682, 1.96885, 1.97263, 2.05013, 1.96836, 2.05233, 2.04826, 2.11493, 2.00597, 1.90703, 1.90937, 1.99969, 2.00694, 2.09551, 2.01097, 1.90464, 1.90988, 1.90746, 1.95948, 1.97425, 1.90926, 1.96302, 1.91037, 1.91056, 2.09979, 2.10418, 1.91393, 1.9133, 1.91136, 1.91392, 1.91423, 1.91262, 2.10449, 1.96254, 1.91373, 1.9624, 1.91379, 1.91047, 1.91005, 2.00079, 1.9129, 1.91288, 1.9117, 1.91179, 1.90988, 2.10796, 2.08042, 1.90888, 1.91049, 1.84139, 1.83716, 1.93929, 1.83373, 1.83178, 1.82794, 1.82817, 1.8268, 1.82424, 1.98997, 1.82098, 1.82008, 1.94179, 1.93975, 1.81396, 1.94404, 1.81549, 1.94234, 1.81246, 1.81027, 1.81168, 1.85989, 1.85812, 2.01045, 1.80709, 1.9337, 1.80923, 1.80727, 1.93855, 1.89948, 1.80628, 1.8033, 1.80664, 1.80508, 1.80398, 1.93579, 1.93301, 1.93137, 1.91555, 1.80398, 1.80083, 1.80176, 1.80144, 1.80274, 1.80031
1.81607, 1.86503, 1.81277, 1.81359, 1.8129, 1.81316, 1.8116, 2.06724, 1.80976, 1.81026, 1.8109, 1.81083, 1.8096, 1.81007, 1.80826, 1.89215, 1.80734, 1.80713, 1.80684, 1.80707, 1.80748, 1.80597, 1.90922, 1.90964, 1.91068, 1.80465, 1.90574, 1.80296, 1.80286, 1.80478, 1.80058, 1.98669, 1.80352, 1.803, 1.90371, 1.89981, 1.80119, 1.90703, 1.80226, 1.80202, 1.80048, 1.80187, 1.80373, 1.80259, 1.98776, 1.80586, 1.80904, 1.87311, 1.87571, 1.94922, 1.87326, 1.87507, 1.95193, 2.03375, 2.03025, 1.94992, 1.94592, 2.03171, 1.94786, 1.94287, 1.94361, 1.95945, 1.9437, 1.96079, 1.96021, 1.94141, 1.9442, 1.94121, 1.94227, 2.03825, 2.03831, 1.96527, 1.94088, 1.96495, 2.04206, 1.94075, 1.94182, 1.94061, 1.94157, 1.86802, 1.86794, 1.86896, 1.94794, 2.06671, 1.9681, 2.04584, 2.04536, 2.06526, 2.08403, 1.94541, 2.03619, 2.04507, 1.94655, 2.02328, 2.02368, 2.02362, 1.95117, 1.94558, 2.02343, 2.02693, 2.02674, 2.02463, 2.02585, 2.03186, 2.02852, 2.02793, 1.95025, 2.04473, 2.03896, 2.04144, 2.04624, 2.05165, 2.05601, 2.03163, 2.03284, 1.95833, 2.03586, 2.03615, 2.03745, 2.04987, 2.03864, 2.04009, 2.03927, 2.0421, 1.96467, 2.04515, 2.05894, 1.96689, 2.03996, 2.04107, 2.05969, 2.05485, 2.04701, 2.06002, 2.0658, 2.07253, 2.07389, 1.96854, 2.04828, 1.96682, 2.05873, 2.04631, 2.05921, 2.05353, 1.9679, 1.96577, 1.96584, 1.96832, 1.96836, 2.05615, 2.06317, 2.05502, 2.04588, 1.90976, 2.09633, 1.90983, 1.90817, 1.90789, 1.9103, 1.90798, 1.9079, 1.90629, 2.01047, 2.00409, 1.90847, 2.08626, 2.08332, 1.91166, 1.91086, 1.91323, 1.98584, 1.91291, 1.91334, 2.12147, 1.91173, 1.91435, 1.9134, 1.91362, 2.10329, 1.91105, 1.91414, 2.1083, 2.09366, 1.91195, 1.90921, 1.91124, 2.08928, 2.10072, 2.08227, 2.07748, 1.907, 2.07945, 2.08423, 2.08431, 1.90869, 1.83748, 1.83768, 1.83268, 1.94274, 1.93868, 1.93843, 1.8282, 1.8262, 1.82273, 1.99371, 1.81552, 1.81979, 1.94424, 1.92128, 1.81553, 1.9485, 1.91306, 1.81311, 1.90886, 1.81282, 1.946, 1.80694, 1.80854, 1.80551, 1.80698, 1.80778, 1.8066, 1.80652, 1.80597, 1.8053, 1.94076, 1.80441, 1.80404, 1.93546, 1.80495, 1.92793, 1.8968, 1.80283, 1.80017, 1.855, 1.80295, 1.80089, 1.85178, 1.92489, 1.92233
1.81959, 1.81822, 1.81428, 1.816, 1.8164, 1.81641, 1.81681, 1.81439, 1.81314, 1.81092, 1.81663, 1.80886, 1.81274, 1.8109, 1.81147, 1.9091, 1.81089, 1.80913, 1.80742, 1.80829, 1.80613, 1.807, 2.06707, 1.80763, 1.80389, 1.80657, 1.80263, 1.80496, 1.90806, 1.80716, 1.80717, 1.80447, 1.85497, 1.85493, 1.85657, 1.85502, 1.85441, 1.80354, 1.80256, 1.80285, 1.80446, 1.80555, 1.80607, 2.06518, 1.80679, 1.80724, 1.8103, 1.87702, 1.87645, 1.95566, 1.95501, 1.87408, 1.9481, 1.94927, 1.95473, 1.95421, 1.95711, 1.87034, 1.95581, 1.86943, 1.94552, 1.94457, 1.94246, 1.94471, 1.94466, 1.96027, 1.94059, 1.94104, 1.9618, 1.96248, 1.86173, 1.93877, 1.93907, 1.93948, 1.96647, 1.94201, 2.04489, 1.86505, 1.94333, 1.94281, 1.97036, 1.94576, 1.87268, 1.94967, 1.97021, 1.95557, 1.88342, 1.88991, 2.05902, 2.04638, 2.05326, 1.94738, 1.94855, 2.03065, 1.94567, 2.0265, 1.94786, 2.02765, 2.0268, 2.02613, 2.02782, 2.03123, 2.02819, 2.02521, 2.02776, 2.02705, 1.95212, 2.04596, 2.03902, 2.03857, 1.95456, 2.03954, 2.05062, 2.04433, 2.05071, 1.95864, 1.9596, 1.96035, 1.96118, 2.03903, 2.03991, 2.03924, 2.03927, 2.03793, 2.0407, 2.04546, 2.04861, 2.04416, 2.05089, 2.05195, 1.96698, 2.06346, 2.03942, 2.03867, 2.05226, 2.05293, 2.0424, 2.04127, 2.04238, 2.06048, 2.05434, 2.04145, 2.04336, 1.96706, 2.04127, 1.96803, 1.96737, 1.96776, 1.96927, 1.96907, 2.04491, 2.04807, 2.0695, 2.06351, 1.91162, 1.91101, 1.9071, 1.9099, 1.90745, 2.01352, 2.005, 1.90884, 1.91061, 1.90919, 1.90718, 1.91074, 1.91164, 1.91347, 1.91183, 1.91253, 1.91019, 1.91414, 1.91381, 1.99906, 1.9135, 1.91304, 1.9137, 2.08406, 1.91254, 1.91299, 1.91252, 1.91072, 2.0846, 1.90998, 1.90973, 2.09816, 1.90637, 1.91163, 1.90937, 1.90627, 1.90681, 1.90783, 1.90768, 2.08818, 1.90704, 1.83844, 1.83577, 1.83504, 1.83433, 1.93863, 1.94124, 1.82664, 1.82471, 1.82343, 1.82189, 1.87175, 1.87027, 1.81662, 1.81639, 1.81439, 1.81405, 1.81387, 1.81101, 1.94106, 1.81053, 1.80996, 1.80997, 1.80973, 2.02149, 1.80395, 1.8068, 1.80505, 1.80595, 1.94414, 1.80578, 1.80378, 1.80341, 1.8028, 1.9365, 1.85568, 1.80586, 1.8546, 1.80391, 1.80496, 1.93018, 1.93066, 1.80498, 1.80331, 1.93195, 1.8023
1.86997, 1.92341, 1.86937, 1.86931, 1.82003, 1.86832, 1.81747, 2.08218, 1.81641, 1.81643, 1.81529, 2.06898, 1.81544, 2.06901, 1.8135, 1.81084, 1.81325, 1.81248, 1.81365, 1.81053, 1.8107, 1.81052, 1.85903, 1.81045, 1.81024, 1.8067, 1.81028, 1.80718, 1.8051, 1.91323, 1.80746, 1.80715, 1.80986, 1.89642, 1.80703, 1.8072, 1.80599, 1.85615, 1.80646, 1.99244, 1.98725, 1.80523, 1.8576, 1.91921, 1.80836, 1.80966, 1.81283, 2.0339, 1.87878, 1.87753, 1.87862, 1.95196, 1.9593, 1.95099, 1.95522, 1.94959, 1.9481, 1.96247, 1.94811, 1.94856, 1.94714, 1.86664, 1.9618, 1.9446, 1.94546, 1.94037, 2.04915, 1.94308, 1.94016, 2.0448, 2.04409, 1.86562, 2.04396, 1.9412, 1.94088, 1.94102, 1.94171, 1.94415, 1.94339, 1.9415, 1.87087, 1.94675, 1.94956, 2.05917, 1.87954, 1.97234, 1.96209, 2.05187, 2.05462, 2.05517, 2.02763, 2.0284, 2.02435, 2.04933, 2.02418, 2.02468, 1.94816, 1.94766, 1.94873, 1.9489, 1.94992, 2.02733, 2.02708, 2.02948, 2.04156, 2.04258, 2.05564, 2.05125, 2.05527, 1.95465, 2.04961, 2.04361, 2.03638, 2.05197, 2.03627, 2.06462, 2.03938, 2.04561, 2.03792, 2.04018, 2.03927, 2.04884, 2.0612, 2.05256, 2.04232, 2.0419, 2.04346, 2.04741, 2.04882, 2.06539, 1.96679, 1.96982, 2.05979, 1.96867, 2.04492, 2.05207, 2.04464, 2.04564, 2.0446, 2.06641, 1.96823, 2.06158, 2.05869, 2.04534, 2.04328, 1.97004, 1.96987, 1.96977, 1.96911, 2.04663, 2.04954, 1.97164, 2.04776, 1.9128, 1.91096, 1.91385, 1.90908, 2.01058, 1.95944, 2.01387, 1.90701, 1.90761, 1.90852, 1.9092, 1.91006, 1.90855, 1.91062, 2.09342, 1.91093, 1.91134, 1.91448, 1.91054, 2.00981, 1.91492, 1.91432, 1.91368, 2.09852, 1.96481, 1.96337, 1.98868, 1.98684, 1.91053, 2.09677, 2.10486, 1.90954, 1.91009, 2.10293, 1.90787, 1.90989, 1.90924, 1.90944, 1.95655, 1.95806, 1.90656, 1.95486, 1.8874, 1.83511, 1.83028, 1.83114, 2.11459, 1.82814, 1.94527, 1.87437, 1.94415, 1.82183, 1.8202, 1.81895, 1.93781, 1.81577, 1.94496, 1.86282, 1.86204, 1.86224, 1.92779, 1.91756, 1.80998, 1.93865, 1.94198, 1.8094, 1.92307, 1.93689, 1.80671, 1.80458, 1.80659, 1.85436, 1.80452, 1.9249, 1.85416, 1.85224, 1.80626, 1.93719, 1.80233, 1.80154, 1.86006, 1.86044, 1.92463, 1.92046, 1.80307, 1.96211, 1.80257
1.82251, 1.82132, 1.99304, 1.82062, 1.81817, 1.81777, 1.82071, 1.81823, 1.81766, 1.81817, 1.81759, 1.92012, 1.9211, 1.81634, 1.81527, 1.81096, 1.91647, 1.81398, 1.81387, 1.81297, 1.81056, 1.81212, 1.86142, 1.81161, 1.81158, 1.81113, 1.8121, 1.81077, 1.88674, 1.80964, 1.80721, 1.85875, 1.85847, 1.85772, 1.85892, 1.85757, 1.80938, 1.85852, 1.80794, 1.80739, 1.808, 1.80978, 2.06575, 2.06598, 1.81261, 2.07961, 1.87803, 2.03161, 2.03507, 1.95267, 1.95821, 1.87601, 1.87637, 1.95336, 1.95901, 2.03491, 1.95093, 1.94969, 2.05466, 1.95125, 1.94418, 1.94448, 1.94747, 1.94812, 1.9457, 1.94228, 2.05525, 1.96906, 1.94177, 1.96584, 1.9663, 1.93873, 1.86479, 1.8639, 1.94454, 1.94409, 1.94303, 2.06186, 1.94487, 1.86866, 1.94648, 1.9723, 1.9515, 1.95102, 1.9531, 2.06181, 1.96192, 1.97389, 2.0641, 2.02755, 1.94889, 2.02809, 2.03085, 2.0253, 2.02706, 2.02524, 1.94809, 1.94923, 1.94907, 2.02682, 2.03038, 2.03041, 2.02847, 2.04502, 1.95172, 2.02744, 2.0273, 2.02678, 2.03382, 2.03164, 2.03024, 2.05482, 1.95873, 1.95917, 1.95823, 2.05989, 1.96003, 1.9605, 2.04872, 2.06309, 2.03882, 2.06248, 1.96523, 2.05868, 2.04539, 2.05203, 2.0427, 2.05092, 2.04288, 2.04774, 2.05311, 2.04521, 2.05876, 2.04608, 2.05138, 2.04532, 2.0464, 2.04685, 2.05093, 1.96951, 2.0531, 2.04665, 2.05563, 2.04409, 2.04496, 1.97079, 1.96958, 1.97019, 1.9695, 1.96959, 1.9687, 2.07416, 2.06972, 1.91398, 1.91213, 1.90878, 2.08696, 1.91137, 1.91008, 2.00524, 2.07906, 2.00842, 2.08405, 1.90696, 1.90802, 1.90991, 1.96696, 1.90971, 1.9104, 1.9125, 1.91337, 1.91328, 1.91183, 2.10356, 1.90988, 1.91365, 1.9115, 2.08373, 1.9114, 1.90928, 2.08744, 2.08671, 2.09872, 1.97, 1.96159, 1.96231, 1.90525, 2.07996, 2.08089, 1.90972, 1.95877, 1.95658, 1.95526, 1.90463, 1.95682, 1.97551, 1.9721, 1.9251, 1.88929, 1.826, 1.82418, 1.93164, 1.8246, 1.82269, 1.87176, 1.81841, 1.81718, 1.81698, 1.86928, 1.81638, 1.81353, 1.81168, 1.92564, 1.92277, 1.92465, 1.81065, 1.80854, 1.80896, 1.80638, 1.80678, 1.94404, 1.80576, 1.80353, 1.80307, 1.80184, 1.85437, 1.85445, 1.85453, 1.8046, 1.93507, 1.80322, 1.80412, 1.80402, 1.86242, 1.80168, 1.93254, 1.80485, 1.92825, 1.79953, 1.85089
1.87582, 1.87391, 1.82348, 1.82436, 1.82356, 1.81984, 1.81857, 1.81835, 1.82325, 1.82023, 1.82078, 1.81714, 1.81869, 1.81766, 1.81659, 1.81705, 1.86664, 1.86792, 1.81463, 1.81612, 1.81598, 1.81447, 1.81262, 1.81642, 1.81458, 1.81373, 1.80962, 1.81415, 1.80959, 1.81292, 1.81128, 1.81075, 2.07349, 1.92008, 1.91551, 1.80974, 1.81146, 1.80944, 1.80982, 1.81069, 1.81128, 1.81204, 1.81182, 1.89599, 1.81148, 1.81304, 1.81558, 1.95671, 2.03548, 2.03801, 1.95974, 1.95191, 1.95905, 1.9539, 1.87523, 2.03809, 1.95917, 2.04754, 1.94937, 2.04821, 1.94801, 1.96295, 1.94863, 1.86856, 1.96536, 1.94559, 1.94639, 1.94427, 1.96891, 1.9422, 1.86582, 1.9408, 1.86498, 1.94078, 1.9429, 1.93917, 1.94354, 1.94442, 1.97327, 1.86927, 1.94741, 1.94801, 1.95215, 1.9542, 1.95796, 1.97222, 1.96532, 2.05174, 2.05213, 2.04829, 1.94928, 2.02742, 2.02744, 2.03902, 2.03811, 2.02742, 2.02654, 1.95107, 1.9509, 1.95046, 2.03252, 2.03463, 2.02771, 2.02745, 2.02829, 2.02874, 2.03484, 2.03311, 2.03411, 2.06016, 2.03268, 2.03459, 2.03397, 2.04907, 2.05875, 2.0468, 2.05148, 2.0511, 2.04891, 2.05152, 2.04856, 2.06311, 1.96576, 2.04925, 2.05637, 2.0435, 2.03862, 2.05191, 2.0578, 2.04456, 2.0448, 2.04371, 2.04368, 1.96912, 2.05344, 2.05229, 2.06629, 1.96824, 2.04432, 2.04528, 2.05838, 2.06316, 2.04683, 2.04854, 2.05164, 1.96959, 1.9689, 2.04942, 2.04934, 2.05158, 2.06486, 2.07605, 2.07187, 1.91284, 1.91258, 1.91145, 2.08319, 2.09266, 1.90836, 1.91, 1.90955, 1.90781, 1.91026, 2.00392, 1.91058, 2.00335, 1.96897, 1.96798, 1.95923, 1.96222, 1.99474, 1.9644, 1.99292, 2.09139, 1.90969, 1.91073, 1.9112, 1.9129, 2.10529, 1.91315, 2.10049, 2.10354, 1.90899, 1.95914, 1.96007, 1.90657, 1.9073, 1.90592, 1.90578, 1.90578, 1.90945, 1.90482, 1.95631, 1.95477, 1.95576, 1.83216, 1.88442, 1.83075, 1.82869, 1.82735, 1.93694, 1.93097, 1.82138, 1.82029, 1.81994, 1.86852, 1.8187, 1.8658, 1.81603, 1.81527, 1.81276, 1.81134, 1.89572, 1.86261, 1.80879, 1.81056, 1.80961, 1.8075, 1.80751, 1.80401, 1.80601, 1.80503, 1.94271, 1.8048, 1.80415, 1.93727, 1.80233, 1.80185, 1.94232, 1.80707, 1.80523, 1.80139, 1.80572, 1.92273, 1.91907, 1.80388, 1.80349, 1.80195, 1.80417, 1.80269
1.82597, 1.82639, 2.09083, 1.82564, 1.82509, 1.87426, 1.87291, 1.87249, 1.82256, 1.82013, 1.91983, 1.81965, 1.87141, 1.81796, 2.09564, 2.0914, 1.91073, 1.91363, 1.91633, 1.81803, 1.81922, 1.82027, 1.81493, 1.81675, 1.81521, 1.81521, 1.81543, 1.81349, 1.81465, 1.81432, 1.91549, 1.81082, 1.8123, 1.81346, 1.81255, 1.81343, 1.81364, 1.91496, 1.81127, 1.81018, 1.81095, 1.81162, 1.91023, 1.81372, 1.81612, 1.81646, 2.0339, 1.88032, 1.88003, 1.8801, 1.95303, 1.94967, 2.04089, 1.95592, 1.95208, 1.96194, 1.95084, 1.95076, 1.94863, 1.94691, 1.96416, 1.94786, 1.86951, 1.86893, 2.05161, 1.94879, 1.94477, 1.86646, 1.86516, 1.94136, 1.94193, 2.0625, 1.94105, 1.94265, 1.94144, 1.942, 1.97343, 1.94547, 1.94595, 1.97274, 1.94789, 1.94906, 1.97553, 1.97668, 1.9759, 1.96183, 1.97507, 1.9729, 2.07574, 1.90984, 1.95123, 2.02736, 2.02772, 1.95109, 2.02766, 2.02809, 1.95075, 1.94984, 2.03103, 1.95172, 2.03011, 2.02996, 2.0417, 2.04903, 2.02902, 2.03037, 2.03594, 2.03187, 2.0484, 2.04469, 1.95641, 2.03496, 2.0369, 2.04567, 1.95921, 1.95982, 2.04761, 2.03856, 2.0386, 1.96193, 1.9649, 2.04719, 2.05963, 2.04871, 1.96893, 2.04416, 2.04401, 2.06253, 2.04533, 2.07218, 2.04819, 2.04853, 2.04623, 1.9689, 2.05824, 2.05652, 2.04563, 2.06576, 2.05915, 2.05926, 1.96947, 1.96994, 2.05141, 2.04814, 2.04704, 2.04769, 2.04868, 2.05113, 2.05068, 2.05049, 2.06582, 2.06863, 2.0529, 2.0492, 2.08756, 1.96151, 1.91011, 1.90753, 1.90717, 1.96146, 1.96281, 1.90957, 1.91018, 1.90964, 1.90959, 1.91003, 1.9135, 1.91204, 1.91133, 1.90969, 1.99455, 1.96333, 1.9628, 1.90917, 1.91153, 2.09407, 1.91115, 1.91073, 1.91365, 2.09665, 1.9106, 1.91092, 1.9102, 1.90789, 1.90831, 2.10019, 1.90978, 1.90643, 1.90998, 1.90263, 2.10424, 1.90564, 2.0788, 1.90362, 1.90304, 1.83238, 1.83269, 1.83095, 1.82759, 1.82592, 1.82566, 1.93395, 1.82237, 1.8216, 1.81794, 1.93045, 1.81539, 1.81529, 1.81671, 1.81433, 1.81456, 1.93463, 1.81069, 1.88744, 1.81176, 1.92763, 1.80836, 1.85986, 1.93932, 1.93726, 1.80397, 1.93992, 1.80666, 1.93749, 1.93468, 1.80375, 1.80548, 1.80399, 1.80307, 1.80481, 1.80615, 1.80639, 1.8073, 1.85458, 1.85282, 1.80424, 1.80305, 1.92601, 1.89905, 1.92901
1.82833, 1.82992, 1.82715, 1.82749, 1.82786, 1.87656, 1.90727, 1.82475, 1.82414, 2.08927, 1.82141, 1.82422, 1.82179, 1.82118, 1.81868, 1.82133, 1.82032, 1.81983, 2.07562, 1.81988, 1.82001, 1.82042, 1.81886, 1.81973, 1.81442, 1.81413, 1.81461, 2.07634, 1.81455, 1.91758, 1.92047, 1.81131, 1.9137, 1.81527, 1.8144, 1.91645, 1.81352, 1.81427, 1.81322, 1.81576, 1.81477, 1.81392, 1.81618, 1.81639, 1.99313, 1.81705, 2.0373, 1.95874, 2.0413, 2.04129, 2.03958, 1.963, 1.95485, 1.96184, 2.05854, 1.87634, 2.04831, 1.97232, 1.96727, 2.04152, 1.95004, 1.87213, 1.94636, 1.87174, 1.94683, 1.94775, 1.94461, 1.86852, 1.86868, 1.944, 1.94123, 1.94271, 1.94389, 1.94509, 1.86637, 1.94409, 1.86906, 1.86887, 2.06642, 2.06384, 1.95117, 1.97621, 2.05421, 1.95812, 1.97863, 1.96235, 1.97543, 1.97596, 2.05283, 2.0316, 2.02756, 2.02739, 2.02757, 1.94962, 2.0422, 2.03066, 1.95007, 2.02957, 1.95246, 1.9507, 1.95112, 1.95155, 2.02833, 2.02691, 2.02939, 2.03312, 2.03266, 2.03279, 2.03445, 2.03523, 2.04156, 2.04499, 2.04953, 2.04806, 2.0578, 2.05091, 2.05081, 2.05208, 2.03884, 2.03863, 1.9648, 1.96486, 2.0647, 2.05865, 2.04194, 1.96777, 2.05609, 1.97229, 1.96897, 2.04958, 2.04493, 2.04552, 2.04873, 2.05222, 2.04565, 2.06281, 2.06499, 2.05076, 2.05287, 2.04894, 2.05744, 1.97058, 2.04542, 2.06214, 1.97181, 2.05101, 1.9721, 1.97291, 1.97201, 2.05334, 1.97384, 2.05133, 2.06692, 1.91482, 2.00127, 2.07649, 2.08376, 1.91031, 1.91008, 1.90745, 1.969, 1.90925, 1.90699, 1.90945, 1.90737, 2.00184, 1.99993, 1.91307, 1.96707, 1.96825, 1.91209, 1.91156, 2.10781, 1.91362, 2.10069, 1.91208, 1.91107, 2.09649, 1.91293, 1.91126, 1.95977, 2.09113, 2.08443, 1.90834, 1.9071, 1.90567, 1.99297, 1.99102, 1.90732, 1.90337, 1.90324, 1.90447, 1.90361, 1.9024, 1.90003, 1.83241, 1.83066, 1.94335, 1.82688, 1.93486, 1.82379, 1.82421, 1.82213, 1.82057, 1.82059, 1.93203, 1.93144, 1.81714, 1.93674, 1.81352, 1.93724, 1.93222, 1.80737, 1.81081, 1.81051, 1.85796, 1.80796, 1.80925, 1.80699, 1.80611, 1.80556, 1.80338, 1.80483, 1.93856, 1.80374, 1.80412, 1.80368, 1.80244, 1.80082, 1.80356, 1.9346, 1.93163, 1.80156, 1.8029, 1.85544, 1.85367, 1.92937, 1.92669, 1.89774, 1.92653
1.8319, 1.89651, 1.82812, 1.83028, 1.82754, 1.82918, 1.8873, 1.82573, 1.87718, 1.82436, 1.82512, 1.82355, 1.8224, 1.82285, 1.82241, 1.92682, 1.82085, 1.92321, 1.91554, 1.91671, 1.82033, 1.8693, 1.90662, 1.81699, 1.81862, 2.07605, 1.82012, 1.91385, 1.81699, 1.81579, 1.81701, 1.8685, 1.81448, 1.94435, 1.81629, 1.86682, 1.81627, 1.86501, 1.81755, 1.81668, 1.817, 1.81687, 1.81641, 1.81658, 2.07541, 1.81831, 1.819, 1.88086, 2.04084, 1.96551, 1.96573, 1.95901, 1.95775, 1.96545, 2.0452, 1.95243, 1.87581, 1.96594, 1.95241, 2.06296, 1.94826, 1.96837, 1.9486, 1.86894, 1.94783, 2.05617, 1.94582, 1.94715, 1.94458, 1.96979, 1.97192, 1.94222, 1.97475, 1.97515, 1.86772, 1.9442, 1.97585, 1.94455, 1.97596, 1.94798, 1.8735, 1.97815, 2.0548, 1.9783, 1.96083, 1.96487, 1.96734, 1.89277, 2.07609, 2.03244, 2.03905, 1.95286, 2.03067, 2.03102, 2.03538, 2.02856, 2.03136, 1.95117, 2.03068, 1.9514, 1.94973, 2.03172, 2.02955, 2.0459, 2.02877, 1.95483, 2.05008, 2.04741, 2.0446, 2.05393, 2.06942, 2.05452, 2.02776, 2.04097, 2.06137, 1.96298, 2.05961, 2.05523, 1.96542, 2.04003, 2.05363, 2.05612, 1.96741, 2.06215, 2.0621, 2.05595, 2.04117, 2.04322, 2.06163, 1.97243, 1.97008, 2.05919, 2.06761, 2.04284, 2.06973, 2.04875, 2.04864, 1.9723, 1.9704, 2.07003, 2.05974, 2.04827, 2.04952, 2.05148, 2.05325, 2.05059, 2.05466, 2.05199, 1.97237, 2.05329, 2.05853, 2.04861, 2.05219, 1.91567, 1.91619, 2.08296, 1.9114, 2.00872, 1.91098, 1.91097, 1.95851, 1.95831, 1.90786, 2.00669, 1.90954, 1.90845, 1.90796, 1.99711, 1.96714, 1.96866, 1.91338, 1.9128, 1.91016, 1.96656, 1.91376, 1.90975, 1.91127, 1.9136, 2.10018, 1.91177, 1.99295, 1.96047, 1.9594, 1.90872, 1.90738, 1.90501, 1.90485, 1.90576, 1.9989, 2.10058, 1.90248, 2.08261, 1.90361, 1.90335, 1.90046, 1.93569, 1.82795, 1.82692, 1.82767, 1.82603, 1.87238, 1.82156, 1.86955, 1.93085, 1.86864, 1.93285, 1.93182, 1.92841, 1.81657, 1.81087, 1.81417, 1.81052, 1.86223, 1.93139, 1.9293, 1.93165, 1.93201, 1.9059, 1.93831, 2.00667, 1.8037, 1.80609, 1.93229, 1.80483, 1.93751, 1.93868, 1.9126, 1.80583, 1.80587, 1.80308, 1.80456, 1.85477, 1.91742, 1.91716, 1.80605, 1.85341, 1.80248, 1.80449, 1.92499, 1.92408
1.8351, 1.83064, 2.10814, 1.83282, 1.83352, 1.82769, 1.83002, 1.82825, 1.83054, 1.83041, 1.82707, 1.82392, 1.82632, 1.92425, 1.82497, 1.82525, 1.82334, 1.82159, 1.8213, 1.8216, 1.82376, 1.87201, 1.82136, 1.82203, 1.8216, 1.82151, 1.82004, 1.81846, 1.81992, 1.92172, 1.91693, 1.91936, 1.81738, 1.89969, 1.8197, 1.92456, 1.81836, 1.81622, 1.91584, 1.81853, 1.8191, 1.81957, 1.91761, 1.99708, 1.97939, 1.87099, 1.98616, 1.96535, 1.96362, 1.95867, 2.04356, 1.95824, 1.9662, 1.96629, 1.95585, 2.06678, 2.04686, 1.95182, 1.87496, 1.95112, 1.95132, 1.97028, 1.95139, 1.95059, 1.94966, 1.9761, 1.97523, 1.97519, 1.94483, 1.86882, 1.94565, 1.97578, 1.94552, 1.9442, 1.97617, 1.94393, 1.94504, 1.97785, 1.97714, 1.87204, 1.87491, 1.95366, 1.95632, 1.95641, 1.97958, 1.96346, 1.9686, 1.98037, 2.06242, 2.02709, 2.0277, 2.04672, 2.03775, 2.03125, 2.03521, 2.03068, 2.03362, 1.95302, 1.9528, 1.95259, 1.95457, 2.03259, 2.03129, 1.95347, 2.04799, 2.04559, 1.95583, 2.0289, 2.05243, 2.03516, 1.95805, 1.95853, 2.06138, 2.06163, 2.03783, 2.0406, 2.03927, 2.05502, 2.04955, 2.04188, 2.04972, 2.06278, 2.05254, 2.05588, 2.04829, 2.06826, 2.04566, 1.96901, 2.05244, 2.0556, 2.06317, 2.0658, 1.971, 2.0592, 2.07265, 2.06231, 2.04903, 2.05649, 2.04973, 2.04945, 2.0653, 2.06185, 2.05147, 2.04877, 1.97259, 2.05119, 2.05541, 2.05211, 2.05461, 1.97299, 2.05303, 2.05159, 2.07028, 1.91395, 2.08341, 2.08243, 1.90968, 1.90902, 1.91005, 1.90809, 2.08213, 1.90851, 1.90771, 1.90768, 1.90897, 2.00539, 1.90756, 1.90759, 2.08481, 2.0828, 1.90766, 1.90967, 1.91304, 1.91301, 2.00111, 1.96236, 1.91296, 2.08316, 2.09449, 1.91064, 1.91247, 1.91072, 1.91099, 1.90835, 1.99662, 1.90564, 1.90688, 2.09383, 1.90546, 1.95268, 1.90448, 1.90242, 1.90278, 1.90351, 1.90003, 1.88296, 1.87964, 1.82739, 1.82376, 1.82185, 1.87351, 1.93341, 1.8199, 1.86823, 1.91407, 1.9178, 1.8673, 1.86733, 1.86487, 1.8645, 1.81287, 1.81407, 1.81098, 1.81006, 1.90236, 1.98702, 1.90406, 1.90278, 1.89992, 1.93357, 1.93559, 1.8584, 1.80063, 1.80371, 1.85808, 1.80112, 1.8004, 1.8036, 1.80397, 1.85597, 1.92003, 1.85583, 1.85468, 1.91537, 1.85482, 1.91524, 1.80447, 1.80136, 1.80342, 1.80596
1.83585, 2.08642, 1.83386, 1.83245, 1.83343, 1.83494, 1.83157, 1.83026, 1.83009, 1.82991, 1.82962, 2.11275, 1.82767, 1.83008, 1.82722, 1.8244, 1.82517, 1.929, 1.82442, 1.82783, 1.82545, 1.82403, 1.82441, 2.10635, 1.90951, 1.82162, 1.82285, 1.82339, 1.82168, 1.8215, 1.82324, 1.82187, 1.8721, 1.87146, 1.82151, 1.93996, 1.82065, 1.87163, 1.87123, 1.81807, 2.00067, 1.82114, 1.82211, 1.90588, 1.82031, 1.87313, 1.96271, 1.88573, 1.96159, 1.96118, 1.95996, 1.95859, 1.957, 1.95864, 1.9549, 1.97161, 1.97142, 1.95382, 1.95234, 1.95187, 1.97465, 1.87238, 2.05899, 1.95133, 1.97383, 1.94782, 1.94621, 2.05497, 1.97571, 1.97944, 2.05589, 1.94617, 2.05438, 2.05537, 2.06632, 1.97835, 1.97909, 1.94815, 1.9511, 1.95051, 1.95179, 1.98143, 1.98197, 1.98307, 1.96218, 1.96337, 1.96981, 2.05981, 2.06013, 2.05217, 2.04773, 2.05199, 2.06537, 2.03194, 2.03799, 2.05201, 1.95623, 1.95459, 1.95303, 1.95321, 1.95438, 2.03278, 2.03226, 2.03178, 2.05031, 2.03533, 2.05676, 1.95735, 2.03905, 2.05196, 2.05562, 2.03592, 2.05928, 2.0729, 2.04104, 2.03927, 1.96503, 1.96499, 2.04365, 2.04334, 2.04188, 2.0593, 2.04399, 1.96935, 2.05552, 2.05499, 1.97013, 2.0482, 1.9724, 2.06891, 1.97225, 2.04565, 2.06221, 2.06186, 2.07039, 1.97238, 2.04975, 2.04946, 2.04846, 2.04958, 2.05092, 2.05538, 2.04977, 2.06155, 2.05095, 2.05519, 2.04946, 2.05497, 2.05206, 2.05308, 1.97339, 2.05878, 2.07999, 1.91154, 1.91051, 1.91336, 1.91133, 1.90897, 1.95907, 1.95749, 1.90637, 2.01122, 1.90618, 2.00798, 1.90741, 1.90601, 1.90458, 1.90768, 1.90798, 1.90781, 2.10827, 1.9105, 1.96253, 1.91161, 1.91159, 1.91277, 2.09203, 1.96244, 1.9625, 1.91268, 1.91287, 1.91057, 1.91144, 1.91014, 1.90889, 1.90721, 1.90524, 1.90513, 1.90412, 1.90387, 1.9014, 1.90241, 1.9031, 1.90042, 1.89815, 1.8816, 1.87934, 1.92493, 1.82423, 1.82055, 1.82092, 1.82111, 1.94317, 1.91718, 1.9165, 1.91389, 1.91382, 1.90758, 1.81388, 1.86514, 1.86116, 1.81042, 1.81284, 1.81096, 1.81021, 1.89649, 1.85903, 1.85783, 1.80775, 1.80582, 1.80413, 1.8038, 1.80521, 1.93541, 1.87554, 1.80441, 1.80197, 1.80224, 1.86311, 1.80376, 1.93545, 2.10924, 1.93148, 1.80235, 1.80586, 1.92985, 1.80429, 1.92367, 1.92164, 1.91991
1.88719, 1.88779, 1.83932, 1.83755, 1.83752, 1.83401, 1.83632, 2.09158, 1.82898, 1.83042, 2.08664, 1.8307, 1.82867, 1.8296, 1.82994, 1.82851, 1.82701, 1.82678, 1.82875, 1.82722, 2.00749, 1.82574, 1.8234, 1.82382, 1.82676, 1.82766, 1.82416, 1.82618, 1.82076, 1.98929, 1.87392, 1.91715, 1.82148, 1.82339, 1.87235, 1.92201, 1.82277, 1.82216, 1.82249, 1.99956, 1.91964, 1.82308, 1.87201, 1.87309, 1.82609, 1.82326, 1.96364, 1.9694, 1.96901, 1.96871, 1.95902, 1.96149, 1.96005, 1.95907, 1.9587, 1.95847, 1.95735, 1.95322, 1.95843, 1.95349, 1.95137, 1.95092, 1.94922, 1.94983, 1.9514, 1.94768, 1.94716, 1.97855, 1.94776, 1.94713, 1.94619, 1.94825, 1.94521, 1.94524, 1.94635, 1.97951, 1.94762, 1.87203, 1.98113, 1.95163, 1.98264, 1.98262, 1.88219, 1.98246, 1.96234, 1.98205, 1.98241, 1.89642, 2.09479, 2.03351, 2.03495, 2.05946, 2.02992, 2.03375, 1.95495, 2.03134, 2.03414, 1.95477, 1.95486, 1.95415, 2.03411, 2.03353, 2.03399, 2.03945, 2.03608, 2.04237, 2.04621, 2.05159, 1.95856, 2.05775, 2.05288, 2.03106, 1.96457, 1.96172, 2.05546, 2.04203, 2.04218, 2.04261, 2.04489, 1.96844, 2.045, 2.0649, 2.0683, 2.06842, 2.07712, 2.07372, 2.06911, 2.05134, 2.05555, 2.04766, 2.06055, 2.06364, 2.04561, 2.05596, 1.97376, 2.05902, 2.0614, 2.0625, 1.97297, 2.04887, 2.05363, 2.05047, 1.97265, 2.0603, 2.04909, 2.04787, 2.05753, 2.05598, 2.05884, 2.07426, 2.05265, 2.05321, 2.05163, 1.91372, 1.91191, 2.09739, 1.95995, 1.9077, 2.01083, 1.95922, 2.02605, 1.90723, 1.90588, 1.90423, 1.908, 2.10111, 2.09996, 1.90762, 1.90637, 1.90845, 1.91077, 1.91118, 2.10499, 2.09059, 1.91054, 1.91387, 2.0074, 2.00571, 1.96496, 1.96384, 1.96253, 2.09658, 2.08263, 1.90961, 2.09708, 1.95832, 1.95788, 1.95672, 1.95493, 1.95214, 1.90388, 1.89959, 1.95026, 1.8972, 1.83739, 1.88321, 1.82762, 1.82777, 1.82545, 1.8232, 1.821, 1.82319, 1.92339, 1.91698, 1.81842, 1.91735, 1.81454, 1.81635, 1.81427, 1.91272, 1.81429, 1.92162, 1.8094, 1.81119, 1.81311, 1.85882, 1.91365, 1.80728, 1.91468, 1.85577, 1.85449, 1.93645, 1.80326, 1.92861, 1.80398, 1.80621, 1.90377, 1.80154, 1.85509, 1.80333, 1.80121, 1.92906, 1.80072, 1.92609, 1.80367, 1.92613, 1.80101, 1.8028, 1.89621, 1.80286
1.89077, 1.88983, 1.88965, 1.83539, 1.83549, 1.93066, 1.92988, 1.83269, 2.10473, 1.8342, 1.83186, 1.8831, 1.91782, 1.83164, 1.8317, 1.92696, 1.92907, 1.83083, 2.08967, 2.10341, 1.83083, 1.82844, 1.82826, 1.82686, 1.82396, 1.82474, 1.82572, 1.82803, 1.92393, 1.82383, 1.82456, 1.92329, 1.92687, 1.92544, 1.82216, 1.82455, 1.87505, 1.92653, 1.82458, 1.92491, 1.82681, 1.82424, 1.99743, 1.99464, 1.8274, 1.99742, 1.96593, 1.97044, 1.96385, 1.97251, 1.96222, 1.96037, 1.95917, 1.95974, 1.9584, 1.95896, 1.95613, 1.95668, 1.9744, 1.97692, 1.9544, 1.98259, 1.9547, 1.95268, 1.94843, 1.94862, 1.98183, 1.98004, 1.98273, 1.98135, 2.05634, 1.98142, 1.98226, 1.86995, 1.94816, 1.98275, 1.94858, 1.95194, 2.07645, 1.95515, 1.95505, 1.95503, 1.96039, 1.96189, 1.88586, 1.98396, 2.06241, 2.06187, 2.06078, 2.05932, 2.03774, 2.03504, 2.03521, 2.03485, 2.03443, 1.95691, 2.03771, 2.03733, 1.95564, 1.95544, 1.95802, 2.03857, 2.03419, 2.03806, 2.03667, 2.03465, 2.04947, 2.05394, 1.95875, 1.96245, 1.96173, 2.05115, 2.05601, 2.0665, 1.96571, 2.06586, 2.06593, 2.06237, 2.06535, 2.04603, 2.0457, 2.04535, 2.04598, 1.96997, 2.08636, 2.04652, 2.04886, 2.04895, 2.04847, 2.06278, 2.04852, 2.05739, 2.05864, 2.05182, 2.05804, 2.05999, 2.05578, 2.05326, 2.05592, 2.06949, 1.97549, 2.05222, 2.05178, 2.05136, 2.04921, 2.05455, 2.05805, 2.05783, 2.05668, 2.05265, 1.97644, 2.05255, 2.05228, 2.11012, 1.96245, 1.99015, 1.99253, 1.95924, 2.00046, 2.03051, 1.95815, 1.95536, 2.0013, 1.90627, 1.90723, 1.90752, 2.01162, 1.90694, 1.90614, 1.9095, 1.91017, 2.09658, 1.91057, 1.91118, 1.91162, 1.91142, 2.01664, 1.96426, 1.91488, 1.91588, 1.91316, 1.91171, 1.91257, 1.90865, 1.90937, 1.90709, 2.09478, 1.95701, 1.95578, 1.90335, 1.90219, 2.08645, 1.90148, 1.89702, 1.89588, 1.90359, 1.82974, 1.82858, 1.82729, 1.82357, 1.8235, 1.82275, 1.81981, 1.90419, 1.81831, 1.91404, 1.91359, 1.90036, 1.81459, 1.81289, 1.81045, 1.81269, 1.92405, 1.8902, 1.85844, 1.85994, 1.85783, 1.85875, 1.85671, 1.93384, 1.80566, 1.80629, 1.80633, 1.80506, 1.80271, 1.90335, 1.80334, 1.8011, 1.85703, 1.80284, 1.91642, 1.93051, 1.91139, 1.9092, 1.80278, 1.80405, 1.80196, 1.8528, 1.80039, 1.80175
1.89196, 1.89247, 1.89281, 1.84181, 1.83901, 2.11381, 1.83872, 1.8382, 1.88747, 1.88755, 2.11233, 1.83468, 1.83359, 1.8354, 1.93411, 1.8342, 1.83343, 1.95086, 1.88047, 2.09625, 1.82908, 1.82995, 1.82791, 2.11501, 1.93027, 1.93091, 1.82747, 1.82784, 1.82864, 1.93175, 1.82334, 1.92744, 1.92498, 1.82741, 1.82848, 1.82532, 1.82693, 1.87618, 1.91132, 1.82662, 1.87704, 1.82679, 1.92084, 1.82684, 1.87887, 1.8784, 1.96979, 1.96473, 1.97469, 1.9735, 1.96411, 1.96329, 1.97297, 1.9603, 2.06187, 2.04994, 2.06242, 1.95702, 1.95666, 1.97711, 1.95274, 2.05709, 1.94953, 1.95155, 1.95492, 1.95259, 1.94834, 1.87268, 1.98246, 1.98287, 1.98483, 1.94891, 1.87156, 1.94805, 1.94685, 1.94752, 2.06154, 1.87528, 1.95121, 1.95152, 2.06245, 1.95805, 1.95848, 2.06483, 1.98765, 1.98563, 1.89545, 2.073, 2.06579, 2.04668, 2.03513, 2.03516, 1.95918, 2.04524, 2.0525, 2.03818, 1.95687, 1.95808, 1.95763, 1.96133, 1.96118, 2.03991, 2.04561, 2.05243, 2.03625, 2.04874, 2.03779, 2.0388, 2.05594, 2.04942, 2.05106, 2.05106, 2.04642, 2.03203, 2.05544, 2.05043, 1.96729, 2.05875, 2.05954, 1.96942, 2.08682, 2.0461, 2.0692, 2.04875, 2.06932, 2.04798, 2.04976, 2.06176, 1.97245, 2.06269, 2.06515, 2.06538, 2.06922, 2.04896, 2.06267, 1.9749, 1.97502, 2.06266, 2.05972, 2.05964, 2.05216, 2.07257, 2.05196, 2.05311, 2.05734, 2.05809, 2.05604, 2.05964, 2.0543, 2.05558, 1.97553, 2.06265, 2.05203, 1.9119, 1.91058, 1.91076, 1.96056, 2.00949, 1.99831, 1.90759, 1.90749, 1.90612, 1.90596, 1.90726, 1.90616, 2.0104, 1.90625, 1.9056, 1.90725, 1.95824, 1.95926, 1.90928, 1.95831, 1.9097, 1.90794, 1.91321, 1.9135, 2.09103, 1.91416, 1.97199, 1.96675, 1.91253, 1.90959, 1.9107, 1.90739, 1.90736, 1.90474, 2.07432, 1.90363, 2.08985, 1.90121, 1.89918, 1.9015, 1.89797, 1.8357, 1.93341, 1.83126, 1.82474, 1.82444, 1.87341, 1.82342, 1.91693, 1.82038, 1.86909, 1.81811, 1.81654, 1.91097, 1.81729, 1.81703, 1.81498, 1.91051, 1.86222, 1.80992, 1.89538, 1.8625, 1.80835, 1.91752, 1.80452, 1.806, 1.80962, 1.80498, 1.80277, 1.80282, 1.92907, 1.92689, 1.8032, 1.85224, 1.85472, 1.80352, 1.91733, 1.91392, 1.80342, 1.8547, 1.85305, 1.80309, 1.9248, 1.80186, 1.80098, 1.9269, 1.92526
1.84473, 1.84489, 1.84332, 1.84486, 1.8435, 1.89254, 1.89209, 1.8897, 1.83931, 1.8411, 1.838, 1.83792, 1.83691, 1.93796, 1.83632, 1.93611, 1.83628, 1.83663, 1.88469, 1.88281, 1.83298, 1.83419, 1.83432, 1.82886, 1.82929, 1.83004, 1.92346, 1.82818, 1.83061, 1.82745, 1.93591, 1.82553, 1.82742, 1.92789, 1.82509, 1.82749, 1.8279, 1.82536, 2.08709, 1.87846, 1.87851, 1.91357, 1.94087, 2.00422, 1.83124, 2.00556, 2.05225, 2.05403, 2.05528, 1.96405, 1.97623, 1.88632, 1.97655, 1.97911, 1.95971, 2.07728, 1.9584, 1.97903, 1.95849, 1.87933, 1.9542, 1.87559, 1.98285, 1.98287, 1.952, 1.95264, 1.9508, 1.87301, 1.98381, 2.08419, 1.95342, 1.95233, 1.94848, 1.94851, 1.94862, 1.95329, 1.95356, 1.98718, 2.06209, 2.07354, 1.9583, 1.95556, 1.95831, 1.98584, 1.8905, 1.96858, 1.97224, 1.98726, 2.07728, 2.03859, 1.96163, 2.03693, 2.0385, 2.03921, 2.03502, 1.96153, 1.96042, 2.03446, 1.95995, 1.96023, 1.95937, 2.03706, 2.0469, 2.03644, 2.0588, 2.03586, 2.04888, 2.05266, 2.03951, 2.06307, 2.02982, 2.05731, 1.9657, 2.05547, 2.06528, 2.06384, 2.05218, 1.96869, 2.06238, 1.97083, 1.97039, 2.06297, 2.08159, 2.07285, 2.05511, 1.97284, 2.04973, 2.04967, 2.0665, 2.0549, 2.06286, 2.0583, 2.0573, 2.05225, 2.05118, 2.05291, 2.05151, 2.05205, 2.05433, 2.05147, 2.0496, 2.04913, 2.05405, 2.05466, 2.05476, 2.05456, 2.05634, 2.05761, 2.05588, 2.0578, 2.05148, 2.07185, 2.08046, 1.91089, 1.91307, 1.90875, 2.10861, 1.90864, 2.01751, 2.00073, 1.95495, 1.9045, 1.90345, 1.90398, 1.9054, 1.90713, 1.90479, 1.95692, 1.95648, 1.99557, 1.95796, 1.90979, 1.95931, 1.91024, 1.912, 1.90961, 2.08325, 2.10303, 2.09355, 2.09069, 2.09774, 1.99973, 2.08924, 1.90783, 1.90728, 1.90375, 2.07956, 2.10397, 2.08072, 1.90206, 2.07637, 1.90066, 1.89926, 1.89759, 1.83214, 1.83135, 1.82857, 1.82592, 1.82726, 1.82486, 1.82413, 1.82112, 1.8207, 1.82017, 1.81668, 1.81672, 1.8159, 1.81646, 1.81543, 1.81366, 1.90328, 1.86901, 1.9101, 1.81056, 1.8592, 1.85866, 1.85729, 1.93328, 1.80461, 1.80351, 1.80294, 1.80268, 1.805, 1.92658, 1.80079, 1.93103, 1.8024, 1.93173, 1.92951, 1.92998, 1.89821, 1.80517, 1.80422, 1.79987, 1.80556, 1.92378, 1.91994, 1.80252, 1.91789, 1.80277
1.8463, 1.84586, 1.84705, 1.84675, 1.94094, 1.89429, 1.89381, 1.8439, 1.84185, 1.84414, 1.84166, 1.84364, 1.90297, 1.88911, 1.83781, 1.83533, 1.83742, 1.83765, 1.83707, 1.93075, 1.93514, 1.83464, 1.83326, 1.83153, 1.83383, 1.88211, 1.83051, 1.83131, 1.92168, 1.87881, 1.82872, 1.93382, 1.8285, 1.82767, 1.93116, 1.8299, 1.93395, 1.82993, 1.83022, 1.83057, 1.98906, 1.88042, 1.83116, 1.83093, 1.83242, 1.83362, 1.9767, 1.9772, 1.96747, 1.97871, 1.96875, 1.97854, 1.88928, 1.96294, 1.96334, 2.05907, 2.0609, 1.95942, 1.98358, 2.06152, 1.98505, 1.95476, 1.985, 1.95227, 1.9517, 1.98423, 1.87343, 1.9513, 1.98726, 1.95109, 1.95105, 1.95115, 1.98698, 1.98697, 1.95194, 1.95475, 1.95062, 1.9898, 1.9555, 1.95568, 2.0805, 2.06617, 1.98846, 1.88527, 1.9724, 2.0687, 1.97259, 1.98774, 2.08058, 2.05408, 2.05508, 2.05572, 2.06288, 2.03846, 1.9625, 2.05591, 1.96136, 1.96118, 2.03819, 2.03757, 2.04179, 2.03928, 2.06227, 2.04137, 1.96233, 2.04066, 2.06046, 2.04168, 2.05935, 2.06884, 2.03731, 2.04371, 2.04203, 2.05831, 2.05668, 2.0377, 1.96954, 2.06002, 2.06987, 1.97163, 2.06291, 1.97328, 2.07607, 2.05076, 2.07009, 2.06155, 2.0693, 2.05985, 2.05174, 2.05862, 2.05139, 2.05223, 2.05958, 2.06269, 2.05458, 2.05542, 2.07453, 2.06512, 2.05237, 2.05048, 2.05334, 2.06582, 2.06236, 2.05977, 2.05809, 2.05562, 2.05695, 2.05599, 2.05909, 1.97901, 1.97638, 2.05423, 1.97737, 1.96902, 1.96592, 2.00297, 1.9094, 1.90926, 1.90883, 1.90814, 2.00854, 2.08701, 1.90441, 1.9033, 1.90703, 2.08957, 1.90615, 1.90593, 1.90482, 1.95802, 1.95784, 1.9587, 1.91012, 1.9104, 2.08437, 1.91163, 1.91068, 1.91023, 2.09465, 1.9105, 1.91074, 1.91013, 2.0824, 1.90811, 1.90763, 2.08101, 1.95588, 1.95431, 1.90157, 2.08682, 1.90017, 1.90026, 1.89965, 1.89783, 1.88583, 1.83247, 1.82927, 1.82503, 1.87816, 1.87404, 1.90031, 1.8219, 1.81966, 1.81737, 1.86853, 1.81646, 1.81658, 1.90422, 1.81305, 1.81102, 1.81215, 1.90659, 1.81184, 1.80961, 1.85933, 1.8085, 1.85754, 1.8078, 1.80597, 1.80601, 1.89538, 1.89233, 1.85451, 1.80187, 1.80296, 1.80338, 1.80308, 1.92878, 1.92956, 1.80266, 1.92523, 1.92741, 1.80097, 1.80192, 1.80304, 1.79957, 1.80004, 1.80084, 1.80204, 1.90728
1.85034, 1.84961, 1.84797, 1.84767, 1.84818, 1.8491, 1.89633, 1.93033, 1.84396, 1.84575, 2.02092, 2.10053, 2.10675, 2.10822, 1.84105, 1.8419, 1.84133, 1.835, 1.83733, 1.83774, 1.83807, 1.83738, 1.83375, 1.83495, 1.88359, 1.83417, 1.83416, 1.83053, 1.88239, 1.88288, 1.83223, 1.83094, 1.83185, 1.83064, 1.83118, 1.83229, 1.88036, 1.82917, 1.83099, 2.00783, 1.83101, 1.83244, 1.8307, 1.83326, 1.9217, 1.83262, 2.05621, 2.05915, 2.05924, 2.06554, 1.96945, 2.05858, 1.96562, 1.96644, 1.98508, 1.98333, 1.96006, 2.06097, 1.95921, 2.08434, 1.95772, 1.95844, 1.98679, 1.98595, 1.95508, 1.9893, 1.98971, 1.95116, 1.87591, 1.87439, 1.9548, 1.99065, 1.95163, 1.95155, 1.9925, 1.95324, 1.95273, 1.95391, 1.99304, 1.95583, 1.95743, 1.99042, 1.99084, 1.99103, 1.89351, 1.89998, 1.89924, 1.90135, 2.08009, 2.0485, 1.96606, 2.0497, 2.05567, 1.96358, 2.04511, 1.96247, 1.96294, 1.96135, 2.03971, 2.04018, 2.04513, 2.03813, 1.96266, 2.03936, 1.96512, 2.06771, 2.04258, 2.04343, 2.04248, 2.06221, 2.07073, 2.0473, 2.05995, 1.96914, 2.05183, 1.96921, 2.05103, 1.97177, 2.06129, 2.0659, 2.06482, 2.06913, 2.08327, 2.06538, 2.07728, 2.05182, 2.05194, 2.08753, 2.07023, 2.06184, 1.97559, 2.06282, 2.05276, 1.97433, 2.05939, 2.04991, 2.06691, 2.05967, 1.97577, 2.05454, 2.05301, 2.07609, 1.97528, 1.97587, 1.97664, 2.05679, 2.05586, 2.06216, 2.05929, 1.9755, 1.97659, 2.05229, 2.0528, 1.91162, 2.08709, 2.09771, 1.91005, 1.90957, 1.90645, 1.90669, 2.08502, 2.00937, 1.90675, 2.08769, 2.09002, 1.90398, 1.90387, 1.90406, 1.90782, 1.90802, 1.90768, 1.90928, 2.00862, 1.90793, 2.08641, 1.91074, 1.91122, 1.91159, 1.96139, 1.91125, 1.91145, 1.90961, 1.95925, 1.90724, 1.95742, 1.95582, 1.90439, 1.90194, 1.90194, 1.90027, 1.90059, 1.90011, 1.89893, 1.89667, 1.83428, 1.83393, 1.83064, 1.82802, 1.82553, 1.82372, 1.82236, 1.82236, 1.87055, 1.86848, 1.89469, 1.90454, 1.81711, 1.81373, 1.81372, 1.81288, 1.81036, 1.86005, 1.91768, 1.91711, 1.91649, 1.92438, 1.80651, 1.80733, 1.80804, 1.92158, 1.93088, 1.80713, 1.80504, 1.92871, 1.92733, 1.9273, 1.92393, 1.85194, 1.80134, 1.80028, 1.92264, 1.91791, 1.80401, 1.80236, 1.89695, 1.9251, 1.80066, 1.79928, 1.80107, 1.85858
1.85196, 1.90152, 1.93508, 1.85078, 1.85487, 1.85, 1.84744, 1.85084, 1.84568, 1.84523, 1.84443, 1.84474, 1.94149, 1.89286, 1.89379, 1.89235, 1.89343, 1.89145, 1.83967, 1.83906, 1.84042, 1.83736, 1.83662, 1.95743, 1.88561, 1.83846, 1.89708, 1.88524, 1.83529, 1.9347, 1.82909, 1.83384, 1.8324, 1.83102, 1.93414, 1.93423, 1.83404, 1.83206, 1.8304, 1.83076, 1.83158, 2.01379, 1.83341, 1.83447, 1.83521, 1.88524, 1.89412, 1.89373, 2.05926, 1.98213, 1.96861, 1.89093, 2.0626, 1.96521, 1.96575, 1.96242, 1.96236, 2.06521, 1.9602, 1.96023, 1.95818, 1.96154, 1.98635, 2.07857, 1.95521, 1.87727, 1.99281, 1.95472, 2.08238, 1.99008, 1.87533, 1.87474, 1.98978, 1.99193, 1.95456, 1.9525, 1.87829, 1.87883, 1.88208, 1.99413, 2.07636, 2.06959, 2.07021, 1.99317, 1.89357, 1.9741, 1.89955, 2.07002, 2.07025, 2.04152, 2.04312, 2.04135, 1.9658, 2.04399, 2.04294, 1.9656, 2.04432, 2.04536, 2.04874, 2.04965, 2.04732, 2.04728, 2.04048, 2.04299, 2.04209, 2.04448, 1.96567, 2.04308, 2.04158, 2.07592, 2.04527, 2.04473, 2.05585, 1.97051, 2.04787, 2.04217, 2.06804, 2.06493, 2.05331, 2.07408, 1.97335, 2.06715, 1.97584, 2.06544, 1.9729, 2.06618, 2.06525, 2.06355, 1.97546, 2.06411, 2.05456, 2.07693, 2.05346, 2.06015, 2.06867, 2.05925, 2.05797, 2.07264, 1.97623, 2.07006, 2.06049, 1.97591, 2.05384, 2.07332, 2.05578, 2.05766, 2.05642, 2.05986, 2.06008, 2.05571, 2.05942, 2.06719, 2.0647, 1.91316, 1.90818, 1.91044, 1.90846, 1.91047, 2.11083, 1.91001, 2.10078, 2.10736, 1.9078, 1.90641, 1.90615, 1.90622, 2.10434, 1.90615, 2.11088, 1.90683, 2.08915, 2.11186, 1.91, 1.90945, 1.90975, 1.90886, 1.91369, 2.00758, 1.91129, 2.09709, 1.91134, 1.91003, 1.90982, 2.07704, 1.90306, 1.90698, 1.90661, 1.90569, 1.90416, 1.90272, 1.90148, 1.89906, 1.89638, 1.83912, 1.83445, 1.83069, 1.82974, 1.92289, 1.82668, 1.82233, 1.82154, 1.82126, 1.81916, 1.81761, 1.81601, 1.90892, 1.81624, 1.81487, 1.81147, 1.81325, 1.81255, 1.81107, 1.81096, 1.91744, 1.80803, 1.89968, 1.92324, 1.93129, 1.92906, 1.80339, 1.80171, 1.80217, 1.80459, 1.9311, 1.8039, 1.80057, 1.85224, 1.85266, 1.79929, 1.93069, 1.80322, 1.80044, 1.92496, 1.80167, 1.80048, 1.92044, 1.92245, 1.92353, 1.80051, 1.84984
1.85516, 1.85576, 1.94806, 1.85433, 1.85208, 1.95113, 1.85143, 1.84783, 1.85103, 1.85094, 1.84856, 2.10847, 2.13011, 1.84509, 1.84722, 2.00743, 1.93377, 1.89276, 1.94418, 1.83974, 1.83941, 1.84351, 1.94474, 1.94501, 1.83866, 1.94375, 1.83743, 1.83735, 1.94432, 1.9307, 1.83547, 1.93105, 2.02101, 2.02152, 1.93723, 1.92312, 1.92376, 1.83366, 1.83213, 2.01483, 2.01982, 2.01541, 1.83639, 1.83405, 1.88527, 1.88542, 1.88634, 1.89637, 1.97347, 1.9715, 1.97259, 1.97494, 1.96814, 1.98605, 1.98682, 1.98746, 1.96467, 1.88583, 1.96033, 1.96161, 1.96119, 1.95995, 1.95986, 1.95697, 1.87947, 1.88019, 1.95456, 1.9542, 1.95778, 1.99412, 1.99427, 1.99362, 1.95222, 1.95355, 1.9558, 2.07179, 1.95677, 1.95624, 2.08724, 1.88261, 1.96164, 1.96401, 1.96552, 1.99585, 1.89581, 1.97518, 1.97755, 1.99442, 2.07985, 1.96934, 2.06585, 2.0443, 2.04869, 2.05939, 2.05589, 1.96591, 2.04561, 2.04602, 2.04936, 2.04802, 2.04839, 2.04892, 1.96645, 2.04387, 2.04386, 2.04235, 2.07318, 2.07256, 1.9667, 2.0536, 1.96893, 2.06255, 2.05045, 2.04681, 1.97168, 1.97309, 1.97363, 1.97507, 2.05246, 2.06429, 2.05275, 1.97547, 2.06569, 2.0591, 2.05802, 1.97523, 2.06845, 2.07254, 2.07229, 2.05288, 2.06964, 2.05428, 2.05313, 2.08266, 2.06893, 2.0563, 1.97596, 2.07569, 1.97678, 2.05152, 2.05261, 2.05451, 2.06236, 2.05573, 2.05338, 2.05793, 2.05551, 2.05902, 2.05522, 2.0579, 2.05195, 2.05389, 2.07052, 2.00724, 2.09649, 2.1029, 1.90854, 2.10372, 1.90994, 1.90807, 1.90693, 2.09518, 2.00029, 2.08434, 1.90737, 1.90591, 2.10746, 1.90692, 1.90528, 1.90586, 1.90752, 1.90878, 2.00655, 2.00113, 1.90797, 1.9068, 2.09984, 1.9114, 1.90907, 2.08239, 2.08939, 2.07914, 1.90968, 1.90775, 2.10036, 1.90455, 1.90603, 1.9032, 2.0897, 1.90013, 1.90087, 1.95156, 1.94977, 1.95083, 1.8338, 1.8831, 1.87973, 1.82703, 1.8243, 1.8219, 1.90651, 1.90447, 1.81934, 1.81757, 1.81822, 1.86659, 1.90697, 1.81294, 1.91129, 1.81125, 1.91486, 1.80984, 1.80711, 1.92354, 1.80587, 1.92199, 1.92256, 1.80574, 1.80229, 1.85406, 1.88057, 1.80233, 1.80317, 1.8047, 1.80513, 1.8032, 1.92523, 1.8036, 1.8028, 1.80323, 1.80236, 1.80114, 1.8017, 1.92326, 1.79881, 1.79985, 1.92148, 1.91955, 1.85238, 1.84894
1.85901, 1.85814, 1.85919, 1.90524, 1.90687, 1.85398, 1.95414, 1.95181, 1.85246, 1.85192, 1.90055, 1.85137, 1.84967, 1.84847, 1.89793, 1.84615, 1.89626, 1.89606, 1.84715, 1.96232, 1.84185, 1.84282, 1.94071, 1.84213, 2.02695, 1.89223, 1.94694, 1.83901, 2.02251, 1.94619, 1.94285, 1.8868, 1.83535, 1.83492, 1.88543, 1.88614, 1.88561, 1.88442, 1.83491, 1.83395, 2.01463, 2.02058, 2.01397, 2.01957, 2.09646, 2.00733, 1.97394, 1.974, 1.97527, 1.97619, 1.98731, 1.96921, 1.971, 1.96679, 1.89297, 1.96658, 1.96498, 1.96416, 1.96252, 1.99036, 1.9911, 1.9589, 1.99217, 1.99273, 1.9939, 1.95649, 1.88006, 1.87903, 2.07089, 1.95847, 1.95175, 1.95488, 1.95509, 1.99526, 1.87908, 1.88017, 1.95659, 1.99604, 1.88252, 1.88327, 2.07403, 1.96181, 1.99771, 1.96949, 1.99912, 1.99656, 1.97778, 1.99679, 2.07876, 1.92727, 2.06033, 2.06964, 1.96927, 2.05911, 2.04554, 1.96979, 2.04678, 1.96867, 2.04745, 2.04816, 2.05118, 2.04924, 2.04493, 2.06629, 2.06296, 2.04491, 2.04586, 2.04779, 2.04796, 1.97026, 2.0479, 1.9692, 2.0606, 2.06468, 2.05564, 2.07963, 2.05544, 1.97286, 2.06029, 1.97542, 2.05213, 2.05321, 2.06329, 2.07646, 2.06454, 2.05935, 2.08329, 1.97676, 2.05581, 2.07968, 2.06218, 2.05513, 2.05494, 2.05531, 1.97595, 2.06294, 2.06234, 2.07207, 2.06223, 2.06001, 2.0552, 2.05395, 2.05439, 2.05299, 2.05793, 2.05565, 2.05871, 1.97638, 2.05929, 2.0628, 2.05387, 2.06238, 2.05384, 1.91376, 1.91113, 1.91153, 1.90748, 1.90615, 1.90734, 1.90638, 1.90696, 1.90468, 1.90733, 2.01095, 2.00987, 1.90743, 1.90739, 1.95555, 1.95655, 2.06872, 1.90734, 1.90624, 1.90886, 1.90956, 1.90867, 1.90742, 1.9096, 1.90925, 1.90912, 1.90984, 1.90787, 1.90777, 2.08022, 1.9081, 1.90707, 1.90552, 1.90416, 2.00062, 1.90101, 1.89998, 2.11299, 1.98811, 1.95199, 1.90296, 1.83415, 1.88072, 1.87949, 1.91467, 1.92074, 1.87346, 1.93762, 1.81917, 1.81794, 1.8165, 1.86644, 1.8135, 1.91454, 1.86213, 1.81287, 1.8098, 1.9181, 1.90299, 1.91859, 1.80502, 1.80649, 1.80691, 1.80542, 1.80318, 1.89975, 1.85353, 1.91049, 1.90939, 1.8057, 1.80332, 1.80241, 1.92864, 1.7994, 1.92879, 1.80291, 1.79954, 1.80362, 1.91284, 1.92456, 1.7995, 1.80234, 1.8006, 1.85108, 1.92309, 1.79949, 1.80112
1.85969, 1.85872, 1.94451, 1.94262, 1.90996, 1.85727, 1.85619, 1.8574, 1.95642, 1.85322, 1.85524, 1.85209, 1.95504, 1.84913, 1.84847, 1.84756, 1.84894, 1.84861, 1.84505, 1.84507, 1.84095, 1.89395, 1.84529, 1.9478, 1.84247, 1.84119, 1.84286, 1.84384, 1.83716, 1.83632, 1.83832, 1.83716, 1.83704, 1.88903, 1.8887, 1.83526, 1.88681, 1.83771, 1.88811, 1.83525, 1.94079, 1.83697, 1.83779, 1.83503, 1.83675, 1.83772, 1.97258, 1.98782, 1.97612, 1.97345, 1.97439, 1.97363, 1.97363, 1.99223, 1.96964, 1.96935, 1.96733, 2.08939, 1.96613, 1.96326, 1.96335, 2.07625, 1.9604, 1.99611, 1.96477, 1.88236, 1.88184, 2.09005, 1.95573, 1.96168, 1.88038, 1.9563, 1.95703, 1.99729, 2.07685, 1.87917, 1.95671, 2.07857, 1.96295, 1.9622, 2.00005, 1.96612, 1.96874, 1.96987, 1.97552, 1.9993, 1.90641, 1.99805, 2.08818, 2.08104, 2.07296, 2.04951, 2.04887, 2.04925, 1.96876, 2.05347, 2.04223, 2.04753, 1.96982, 1.96894, 2.04868, 2.04843, 2.04642, 2.04548, 2.04595, 2.04543, 2.04866, 2.04701, 2.06222, 2.06362, 2.04978, 2.06288, 2.0621, 1.97372, 2.05554, 2.06285, 2.04967, 2.06649, 2.0615, 2.06556, 2.07202, 2.06337, 2.0534, 2.06239, 2.0642, 2.06382, 1.97986, 1.97902, 2.07397, 2.07379, 2.06588, 2.06191, 2.05344, 2.05363, 2.06924, 2.07866, 1.97868, 1.97995, 2.08331, 2.05436, 2.05478, 2.05512, 2.06205, 2.0596, 2.05397, 2.05896, 2.05926, 2.05625, 2.05658, 2.05612, 2.06939, 2.05248, 2.06162, 1.91311, 1.91009, 1.90992, 1.90856, 1.90643, 1.95841, 1.90617, 2.10158, 1.90705, 2.00789, 1.90685, 2.11264, 1.9064, 1.91009, 1.90695, 1.95825, 1.95563, 1.90619, 1.958, 1.90743, 2.11467, 1.90784, 1.90804, 1.90836, 1.90782, 2.08646, 1.90751, 1.90678, 2.0832, 1.90775, 1.90717, 2.10053, 2.081, 1.9045, 2.08683, 1.90313, 1.95206, 1.90251, 1.89969, 1.89974, 1.89744, 1.88276, 1.8815, 1.82568, 1.82388, 1.82296, 1.82103, 1.81884, 1.86804, 1.88994, 1.88964, 1.81388, 1.81275, 1.81179, 1.81027, 1.80952, 1.92132, 1.80587, 1.92194, 1.92306, 1.80219, 1.92484, 1.80331, 1.80667, 1.91742, 1.8016, 1.80279, 1.85223, 1.92238, 1.8028, 1.80159, 1.85431, 1.85258, 1.80068, 1.91196, 1.80217, 1.80223, 1.79996, 1.79618, 1.80109, 1.80015, 1.85159, 1.79972, 1.79877, 1.80012, 1.7976, 1.79841
1.86155, 1.95903, 1.86436, 1.86452, 1.91201, 1.95658, 1.85681, 1.85876, 1.85617, 1.85629, 1.95992, 2.11012, 2.03546, 1.85292, 1.95237, 1.8512, 1.85076, 1.95249, 1.84876, 2.03057, 1.84706, 1.84534, 1.84478, 1.96183, 1.84581, 1.89615, 1.94552, 1.94844, 1.95413, 1.84163, 1.84188, 1.95074, 1.83876, 1.83758, 1.94835, 1.83905, 1.83864, 1.83568, 1.83386, 1.93565, 1.93798, 1.83914, 1.83804, 1.83877, 1.83745, 1.83887, 1.90176, 1.90212, 2.07673, 2.07565, 2.07657, 2.07047, 2.07576, 1.97263, 1.97059, 1.97043, 1.99499, 1.96525, 1.96812, 1.96525, 1.96467, 1.96415, 1.96221, 1.88341, 1.96386, 1.95894, 1.88224, 1.95916, 1.88162, 1.95817, 2.00002, 1.95866, 1.95814, 1.95721, 1.96211, 2.00024, 1.8819, 2.00157, 2.00148, 1.96244, 1.8892, 2.09351, 2.07955, 2.07677, 1.89947, 1.99941, 1.99932, 2.09427, 2.09954, 2.07369, 1.97343, 2.04929, 2.04812, 1.97233, 2.07511, 2.05461, 2.04884, 2.04642, 1.97151, 2.04974, 2.0514, 2.0455, 2.05101, 2.04867, 2.04773, 2.04803, 2.06708, 2.04813, 2.06585, 2.05439, 2.05156, 2.05068, 2.0601, 2.06721, 2.05589, 2.06928, 2.06539, 1.97763, 2.06238, 2.06222, 2.05443, 1.97899, 2.06328, 2.05277, 2.06008, 2.06364, 1.97858, 2.06512, 2.07656, 2.06319, 2.06826, 2.0718, 1.97888, 1.97879, 2.06909, 2.06476, 2.06186, 1.97721, 2.07223, 2.07333, 2.05818, 1.9766, 2.05577, 2.05608, 2.0559, 2.05524, 2.06112, 2.05862, 2.05483, 2.05539, 2.05806, 2.05466, 2.07684, 2.00458, 1.90967, 1.90785, 1.90774, 1.90614, 1.90836, 1.90691, 1.90973, 1.90696, 1.90495, 1.98651, 1.98523, 2.0092, 1.9062, 2.08676, 2.08441, 1.90582, 1.90952, 2.08651, 2.08679, 1.90648, 2.09427, 1.90515, 1.90506, 1.95868, 1.90609, 1.90948, 1.90739, 2.09319, 1.90777, 1.90634, 1.90429, 1.90382, 1.90325, 1.90263, 2.08747, 1.90294, 1.90328, 1.90314, 1.90154, 1.89972, 1.92528, 1.92659, 1.92446, 1.8257, 1.93005, 1.93108, 1.86926, 1.86873, 1.87143, 1.81199, 1.81111, 1.80972, 1.81087, 2.02725, 1.90989, 1.85681, 1.85596, 1.80416, 1.85429, 1.90559, 1.80398, 1.80098, 1.80462, 1.80299, 1.80267, 1.85169, 1.91105, 1.9088, 1.977, 1.92486, 1.80259, 1.80073, 1.92833, 1.92665, 1.8002, 1.91323, 1.80217, 1.80133, 1.79975, 1.79828, 1.92844, 1.92759, 1.80063, 1.80114, 1.92168, 1.92389
1.91631, 1.96308, 1.86658, 1.96245, 1.8647, 1.95969, 1.96138, 1.91074, 1.91087, 1.91093, 1.859, 1.85792, 1.85564, 1.85489, 1.85287, 1.854, 1.85168, 1.9003, 1.89957, 1.85099, 1.84791, 1.84832, 1.8478, 1.84855, 1.84588, 1.89556, 1.89509, 1.84358, 2.03232, 2.03022, 1.84294, 1.84274, 1.84417, 1.83853, 2.02571, 2.02686, 1.93447, 1.88892, 1.88904, 1.83956, 1.83976, 1.83868, 1.83811, 1.9389, 1.94095, 1.84248, 1.98141, 1.99634, 2.07369, 2.07908, 1.97773, 2.0795, 2.07897, 1.97308, 1.99714, 2.09015, 1.9689, 2.09472, 1.99676, 1.88884, 1.99917, 1.96556, 1.96259, 1.96381, 1.96483, 1.95917, 2.0008, 2.00045, 1.88348, 1.96008, 2.00279, 2.00235, 1.8817, 1.95883, 1.95853, 2.00337, 2.00369, 1.96278, 1.96499, 2.09683, 2.00134, 2.0034, 1.9734, 1.97342, 1.97599, 1.9028, 2.0007, 2.00272, 2.09998, 2.06285, 2.0771, 2.05201, 2.05139, 2.06933, 2.05077, 2.05949, 2.05419, 2.05547, 2.05133, 2.05296, 2.05169, 2.05451, 1.97244, 2.05027, 2.07699, 2.04926, 2.04934, 2.04897, 2.08572, 2.08084, 2.07259, 1.97261, 2.06963, 2.05267, 2.06709, 2.05917, 2.05876, 1.97691, 1.97849, 1.97897, 2.06553, 2.0914, 2.063, 2.06318, 2.06678, 2.06236, 2.07972, 2.07032, 1.97929, 2.06397, 2.07498, 2.05502, 2.05942, 2.05726, 1.97895, 2.06668, 2.0663, 1.97946, 2.05902, 2.06146, 2.05437, 2.05334, 2.07719, 2.08608, 2.0599, 2.05681, 2.05603, 2.05905, 2.05531, 1.97896, 2.06191, 2.05788, 2.05639, 1.91069, 2.11001, 1.90984, 2.08836, 2.09616, 1.90723, 1.90585, 2.0199, 1.90769, 1.90676, 2.09724, 1.9064, 1.90448, 1.96956, 1.96834, 1.96406, 2.0883, 1.90688, 2.10677, 2.09709, 2.00686, 2.0056, 1.90511, 2.10602, 1.90802, 2.08201, 1.90648, 2.00669, 1.90586, 1.90618, 1.90366, 1.90307, 1.90274, 1.90342, 1.90313, 1.90146, 1.90087, 1.90174, 1.90268, 1.90043, 1.89927, 1.92696, 1.83037, 1.82847, 1.92142, 1.92779, 1.92742, 1.81838, 1.92999, 1.81495, 1.81465, 1.81318, 1.86187, 1.81058, 1.85824, 1.80911, 1.80877, 1.85481, 1.85503, 1.85496, 1.80486, 1.80317, 1.80284, 1.91389, 1.92259, 1.80325, 1.80478, 1.92407, 1.80339, 1.80236, 1.92769, 1.80284, 1.80308, 1.85465, 1.85065, 1.92642, 1.80023, 1.80333, 1.80295, 1.9237, 1.80271, 1.79687, 1.79839, 1.80098, 1.79833, 1.84869, 1.92175
1.87017, 1.86704, 1.91766, 1.91731, 1.86699, 1.93683, 2.14529, 1.8635, 1.91425, 1.91113, 1.91186, 1.97541, 1.96117, 1.96245, 1.85853, 1.9562, 1.97328, 1.97416, 1.97726, 1.85236, 1.95909, 1.9615, 1.8501, 1.95855, 1.89958, 1.85048, 1.84861, 1.89964, 1.84329, 2.03052, 1.90066, 1.84482, 1.84465, 1.94929, 1.84372, 1.84507, 1.95104, 1.89141, 1.84061, 1.93289, 1.89084, 1.84051, 2.0209, 1.84123, 1.842, 1.84433, 1.90627, 2.07656, 2.07768, 2.07519, 2.08258, 2.08245, 1.97632, 1.97672, 1.97497, 1.9748, 1.96987, 1.9694, 1.99979, 2.09794, 1.96551, 1.99954, 1.9706, 1.9656, 1.88608, 1.9627, 1.96202, 1.88585, 1.95889, 1.96157, 1.88252, 2.00452, 1.95853, 2.09305, 1.96066, 1.96181, 1.88448, 2.08829, 1.96343, 1.96683, 1.96659, 2.08983, 1.89695, 1.9724, 1.97706, 2.00045, 2.00292, 1.99248, 2.10034, 1.9761, 2.06583, 2.06914, 2.07, 2.05108, 2.05167, 2.04917, 2.05509, 1.97447, 1.97241, 2.05313, 2.0555, 2.06503, 2.06653, 2.05039, 2.05079, 2.07286, 1.97507, 2.05235, 2.05902, 1.97353, 2.07026, 2.05173, 2.05128, 2.07619, 1.97865, 1.97697, 1.97903, 1.97917, 1.97644, 2.08046, 1.97994, 1.98248, 2.06292, 2.06533, 2.06346, 1.98059, 2.06327, 2.06327, 2.06281, 2.06525, 2.08012, 2.05771, 2.06545, 2.07433, 2.05794, 2.09016, 2.07724, 2.05842, 2.07547, 2.05734, 2.08064, 2.07629, 2.07617, 2.05587, 2.06173, 2.0582, 2.05833, 2.05932, 2.06264, 1.97641, 1.977, 2.06685, 1.9795, 1.96241, 1.91104, 1.91027, 2.1044, 1.90699, 2.10993, 1.90598, 1.90595, 2.01256, 1.90587, 2.10591, 2.08806, 1.9584, 1.95865, 2.0087, 1.90656, 2.01757, 1.90737, 2.08852, 2.00823, 1.90482, 1.91014, 1.90801, 1.99417, 1.9061, 2.07639, 1.9081, 1.90605, 1.95632, 1.95531, 1.90487, 1.90291, 1.99441, 2.09781, 1.90326, 1.90252, 2.079, 2.07655, 2.07562, 1.90149, 1.88472, 1.83173, 1.94786, 1.9306, 1.88524, 1.82719, 1.82012, 1.81981, 1.93252, 1.81681, 1.81661, 1.90339, 1.81132, 1.80778, 1.80771, 1.80583, 1.93306, 1.80565, 1.80498, 1.80289, 1.80312, 1.8015, 1.80009, 1.80241, 1.80348, 1.80072, 1.80085, 1.80137, 1.80249, 1.92756, 1.80055, 1.93044, 1.8529, 1.80297, 1.80019, 1.80121, 1.80267, 1.91868, 1.92117, 1.91136, 1.80167, 1.80044, 1.98576, 1.92366, 1.92107, 1.92427, 1.79817
1.86863, 1.96231, 1.87132, 1.95747, 1.8705, 2.12514, 1.86793, 1.86821, 1.86459, 1.86347, 1.91477, 1.95177, 1.95294, 1.85985, 1.85888, 1.8612, 1.85825, 1.90613, 1.85632, 1.94865, 2.03862, 1.85346, 1.96551, 1.85081, 1.85137, 1.85086, 1.84941, 1.84894, 1.89936, 1.84777, 1.94452, 1.89709, 1.8448, 1.96455, 1.91958, 1.89295, 1.89312, 1.83952, 1.84279, 1.8423, 1.84418, 1.94507, 1.84421, 1.84404, 2.03556, 2.03566, 1.98442, 2.07697, 1.9829, 1.98251, 2.08428, 2.07902, 1.97688, 1.97789, 1.97576, 1.89647, 1.9731, 1.89573, 1.97102, 1.89307, 1.96882, 2.00117, 2.00084, 1.96543, 1.96528, 2.00337, 1.88935, 1.96159, 2.00502, 1.96206, 1.96198, 1.96168, 1.96087, 1.96259, 1.96291, 1.96172, 2.00573, 1.88702, 1.96717, 1.88974, 1.96922, 2.0064, 2.00681, 1.90021, 1.90134, 1.98131, 1.98723, 2.00533, 2.08815, 1.9796, 1.97848, 1.98, 2.0675, 2.05452, 2.06985, 2.05197, 1.97604, 1.97567, 1.97538, 1.9756, 2.05514, 2.05232, 2.05137, 1.97569, 1.97586, 2.05329, 2.05149, 2.06538, 2.06358, 2.05207, 2.07186, 2.07225, 2.07569, 2.06389, 2.06889, 1.97952, 1.97935, 2.06417, 2.05538, 2.06826, 2.07359, 2.06338, 2.06325, 2.06398, 2.06636, 2.06428, 1.98185, 2.06783, 2.06513, 2.06529, 1.98041, 2.07283, 2.07371, 2.07342, 1.98521, 2.06688, 2.05998, 2.07335, 2.06246, 2.07425, 2.06028, 2.05978, 2.05587, 2.05512, 2.05582, 2.0615, 2.06063, 2.06336, 2.05577, 2.07259, 2.05614, 1.97919, 1.91038, 2.09987, 1.98609, 1.90728, 1.90668, 1.90735, 1.90637, 1.90534, 1.9048, 2.01104, 2.00817, 1.90436, 1.90533, 2.09709, 2.01117, 1.90658, 1.90671, 2.00139, 2.00393, 1.90669, 1.90685, 1.90595, 1.9073, 1.90673, 1.98939, 1.90564, 1.90566, 1.90704, 1.90595, 1.90632, 1.907, 2.00097, 2.0815, 1.90578, 2.09279, 1.90296, 1.90243, 2.09775, 2.07858, 1.90384, 1.90174, 1.83559, 1.83216, 1.82999, 1.8764, 1.87429, 1.82115, 1.86941, 1.91861, 1.81528, 1.81485, 2.14572, 1.81037, 1.93464, 1.8064, 1.93027, 1.80614, 1.80391, 1.80372, 1.92841, 1.92816, 1.93142, 1.92856, 1.80031, 1.92789, 1.9277, 1.80144, 1.79982, 1.79933, 1.80301, 1.80222, 1.80127, 1.79934, 1.92477, 2.12945, 1.80124, 1.79871, 1.80216, 1.92478, 1.79899, 1.79862, 1.79941, 1.79854, 1.92091, 1.79883, 1.79577, 1.85432, 1.79646
1.92223, 1.92223, 1.95893, 1.95942, 1.87314, 1.87105, 1.86962, 1.86854, 1.96952, 1.86667, 1.91543, 1.96592, 1.96877, 1.8625, 1.86063, 1.96984, 1.96894, 1.85942, 1.85971, 1.8579, 2.02741, 1.85537, 1.85535, 1.8545, 1.85383, 1.85083, 1.85151, 1.85088, 1.84827, 1.84814, 1.84836, 1.84794, 1.8486, 1.96512, 1.84635, 1.84456, 1.84573, 1.84508, 2.02551, 1.9478, 1.84122, 1.84438, 1.84488, 1.84494, 1.84555, 1.84769, 1.91015, 2.00278, 1.98438, 1.98505, 2.08256, 1.97994, 1.98166, 1.97867, 1.98122, 2.08371, 1.97567, 1.9748, 1.97245, 1.97206, 1.97119, 1.96945, 1.96942, 1.96638, 2.10118, 1.96601, 1.96272, 1.88695, 2.00614, 1.96188, 1.88609, 2.00765, 2.00422, 2.08978, 1.88591, 1.96348, 1.9656, 1.88805, 2.00834, 1.96815, 1.96904, 1.97243, 1.97449, 1.97591, 1.90316, 1.98459, 2.00715, 1.9898, 2.09377, 2.06987, 2.07931, 1.97921, 1.97876, 2.05473, 2.05565, 2.06195, 1.97767, 1.976, 1.97705, 1.97782, 1.97598, 2.05897, 2.06097, 2.05241, 2.05942, 2.05646, 2.05491, 2.05486, 2.05477, 2.07979, 2.07002, 2.07559, 2.06252, 1.97927, 2.08249, 2.0697, 2.0691, 2.07231, 1.97943, 2.07081, 2.07555, 2.06146, 1.98183, 2.07953, 1.98108, 2.06565, 2.07296, 2.06791, 2.06296, 2.07328, 2.06971, 2.08093, 2.06521, 2.06789, 1.9839, 2.09079, 2.06612, 2.05999, 2.07798, 2.05777, 2.05678, 2.05898, 2.06513, 2.06504, 2.06207, 2.05977, 2.06048, 2.06221, 2.05903, 1.97751, 2.0567, 2.06956, 2.0571, 2.02598, 1.90838, 1.90729, 2.08915, 1.90726, 2.08073, 1.99633, 1.95362, 1.95532, 1.95543, 1.95504, 1.95443, 1.90583, 2.09089, 1.90701, 1.90427, 1.90837, 1.9073, 1.90471, 1.90614, 1.90649, 1.90698, 1.9057, 1.90628, 1.99285, 1.90794, 1.9069, 1.9061, 1.90471, 2.08348, 1.90533, 1.90409, 1.9052, 1.90443, 1.90288, 2.09054, 2.07632, 1.90034, 1.90377, 1.90303, 1.93033, 1.83419, 1.829, 1.82868, 1.82466, 1.90709, 2.11603, 1.81476, 1.93125, 1.81281, 1.92364, 1.81138, 1.80885, 1.80662, 1.93054, 1.80443, 1.85442, 1.80389, 1.93711, 1.80259, 1.80013, 1.8514, 1.9129, 1.85121, 1.93206, 1.93414, 1.8965, 1.93202, 1.92904, 1.80259, 1.85247, 1.80222, 1.80077, 1.85198, 1.91121, 1.9069, 1.79908, 1.92941, 1.79922, 1.92054, 1.8006, 1.79969, 1.79735, 1.79601, 1.85359, 1.85326, 1.91864
1.92423, 1.92406, 1.87576, 2.11563, 1.92363, 1.87352, 1.87143, 1.86785, 1.97038, 1.97782, 1.87089, 1.86881, 1.86528, 1.96956, 1.86625, 1.9697, 1.95496, 1.86296, 1.91142, 1.96359, 1.85906, 2.04501, 1.96862, 1.85746, 1.85579, 2.04386, 1.85428, 1.85273, 1.85069, 2.04313, 1.8514, 1.89936, 1.85084, 1.95872, 1.96177, 1.89808, 2.03188, 1.84502, 1.95374, 1.84531, 2.02736, 1.84431, 1.84514, 1.84826, 1.848, 1.84986, 1.98879, 1.98862, 2.08984, 2.08611, 2.00452, 1.98167, 2.08422, 1.98118, 1.97962, 1.97945, 1.97696, 1.97588, 1.97582, 1.97107, 1.89421, 1.96959, 1.96864, 1.96947, 1.96674, 1.96532, 1.88984, 1.96394, 1.96493, 1.96406, 1.88678, 2.0079, 1.96423, 1.96395, 1.96964, 1.88848, 1.96625, 1.96755, 1.96884, 1.96967, 1.96903, 2.00801, 1.97714, 2.10378, 2.01211, 1.98678, 1.91326, 2.10051, 2.09522, 2.08008, 2.07211, 1.97964, 2.05691, 1.97941, 2.05481, 1.97916, 1.97641, 1.9786, 1.97776, 2.05504, 2.05595, 2.0592, 2.05599, 2.05591, 2.08555, 2.0755, 1.9771, 1.97888, 1.97993, 2.07038, 1.97766, 2.07451, 2.07396, 2.0583, 1.97983, 2.05578, 2.08139, 2.06188, 2.07299, 1.98271, 2.0808, 2.06977, 2.0724, 2.06651, 1.98353, 1.98349, 2.09082, 2.07866, 1.98343, 1.98199, 2.07628, 2.07592, 2.07577, 2.06515, 2.06903, 1.98242, 1.98175, 1.98309, 2.06388, 2.07209, 2.05805, 2.05809, 2.0742, 1.97882, 2.05845, 1.97927, 1.98285, 1.97896, 1.98019, 1.97907, 2.08283, 2.07153, 2.08315, 2.02351, 1.9088, 2.10403, 2.10145, 1.90615, 1.90666, 1.90642, 1.90393, 1.90265, 1.90062, 1.95448, 1.95594, 1.95529, 1.95475, 2.08813, 1.90493, 1.90682, 1.90639, 2.12833, 2.13065, 1.90645, 2.10485, 1.90653, 1.98797, 1.9058, 2.01444, 1.99872, 1.90677, 1.90428, 1.90378, 1.90378, 1.90428, 1.90414, 2.09376, 2.09341, 2.08068, 2.07896, 2.06278, 1.99442, 1.90351, 1.93123, 1.83081, 1.82881, 1.92992, 1.82083, 1.93234, 1.93205, 1.81726, 1.93212, 1.81373, 1.81059, 1.8108, 1.93391, 1.92703, 1.85678, 1.80393, 1.80571, 1.80258, 1.93398, 1.93127, 1.80358, 1.80028, 1.79845, 1.79816, 1.91465, 1.80247, 1.926, 1.85156, 1.8515, 1.80247, 1.92943, 1.79767, 1.80115, 1.87808, 1.80093, 1.80091, 1.80203, 1.8003, 1.79995, 1.90037, 1.79952, 1.79995, 1.89409, 1.92689, 1.7977, 1.85418, 1.92307
1.87752, 1.93024, 1.92777, 1.93718, 1.92593, 1.87577, 1.87224, 1.87199, 2.05839, 1.87004, 1.87143, 1.86983, 1.86856, 2.0477, 1.97257, 2.05535, 1.86668, 1.86637, 1.86142, 2.05024, 2.04893, 1.91009, 2.04671, 2.04648, 1.85863, 1.85685, 1.85497, 1.85588, 1.85324, 1.85296, 1.85236, 1.85112, 1.85113, 1.94747, 1.85179, 1.9505, 1.84979, 1.9594, 1.84626, 1.84893, 1.84912, 1.85049, 1.84701, 1.84735, 1.85001, 1.85076, 2.00784, 1.98823, 1.91106, 1.90992, 1.98621, 1.98405, 1.90756, 2.00743, 1.98175, 2.0094, 2.00811, 1.97625, 2.08373, 1.97578, 1.9727, 1.9718, 1.97226, 1.89341, 2.00994, 2.08657, 1.96714, 2.01323, 2.10107, 2.08684, 1.96581, 1.96721, 1.88976, 2.1065, 1.88901, 2.09413, 1.89243, 1.89282, 2.01049, 2.01026, 2.01027, 2.01056, 1.90022, 1.98198, 1.90736, 2.0905, 1.99017, 2.01038, 2.12334, 2.05646, 1.98313, 1.98202, 2.07754, 2.05888, 2.05721, 2.06596, 1.97893, 1.97785, 2.06232, 1.97941, 2.05988, 2.05604, 2.05586, 2.05513, 2.05666, 2.05678, 2.06624, 2.07723, 2.0733, 2.07592, 1.97979, 2.05584, 2.05678, 1.98222, 2.06913, 1.9834, 2.06292, 1.98187, 2.07472, 1.98342, 1.98476, 1.9823, 2.06883, 2.06927, 2.07226, 1.98601, 2.06592, 2.05847, 2.07141, 1.98323, 1.98419, 2.0788, 2.07349, 2.07336, 2.08091, 2.07942, 2.08356, 1.98215, 2.05956, 2.06829, 2.07999, 2.0737, 2.05523, 2.05487, 1.97891, 1.97875, 1.97788, 1.97796, 1.98007, 2.07339, 2.05955, 2.06346, 2.06465, 1.91064, 1.9094, 1.90763, 2.10674, 1.90721, 2.0909, 2.10429, 1.90547, 1.9034, 1.90371, 1.95443, 1.95471, 1.90596, 1.9061, 1.90466, 1.90417, 1.9077, 2.00091, 1.90897, 1.90856, 1.90594, 1.90867, 2.10418, 2.01023, 1.9072, 1.90852, 1.90671, 1.9572, 1.90648, 1.90464, 1.90495, 1.90487, 2.07972, 1.90371, 1.90347, 2.08709, 2.0763, 1.90383, 2.07478, 1.9055, 1.88284, 1.83044, 1.82818, 1.82086, 1.94134, 2.02791, 1.81657, 1.81608, 1.93198, 1.93145, 1.86211, 1.85972, 1.80919, 1.80738, 1.85401, 1.80387, 1.80464, 1.93102, 1.80281, 1.80257, 1.93765, 1.93542, 1.80035, 1.79966, 1.79906, 1.9276, 1.80309, 1.85219, 1.80099, 1.92734, 1.92667, 1.79904, 1.80127, 1.80041, 1.92685, 1.91677, 1.80032, 1.80064, 1.80007, 1.92702, 1.79631, 1.92479, 1.79779, 1.79965, 1.84819, 1.79702, 1.90803
1.9291, 1.87866, 1.87927, 1.8783, 1.98245, 1.9787, 1.87857, 1.97536, 1.87373, 1.8753, 1.92357, 2.13083, 1.87119, 1.87134, 1.87062, 1.96832, 1.86649, 2.05209, 1.97522, 1.86202, 2.05659, 2.05824, 2.14557, 1.86231, 1.86185, 2.03424, 2.03064, 1.90742, 1.91901, 1.90502, 1.90604, 1.95238, 1.85263, 1.96185, 1.85094, 1.85141, 1.85035, 1.95326, 1.9569, 1.95666, 1.84852, 1.8509, 1.85099, 1.8514, 1.85216, 1.85446, 1.99287, 1.99053, 1.98888, 1.98792, 1.98698, 2.01182, 1.98641, 1.98342, 1.98206, 2.01027, 1.90388, 2.10437, 2.08944, 1.97614, 1.97232, 1.97391, 1.89679, 1.97273, 1.96963, 1.96884, 1.8925, 1.9691, 1.96902, 1.891, 1.96546, 2.01011, 1.96609, 1.96807, 1.96928, 1.96701, 1.96817, 1.96769, 1.9708, 1.9745, 1.97686, 2.08705, 2.00995, 1.90586, 1.98567, 1.98689, 2.08802, 1.99174, 2.0901, 2.08622, 2.06294, 2.06059, 1.98402, 2.06303, 2.05971, 2.05344, 2.05887, 1.97891, 2.06483, 1.98066, 1.97953, 2.06284, 2.05771, 2.06676, 2.05559, 2.06821, 2.07511, 2.07382, 2.07481, 2.05683, 2.05881, 2.0584, 2.07559, 1.98481, 2.0979, 2.07403, 2.07245, 1.98436, 2.06637, 2.07246, 2.06434, 1.98379, 2.06193, 2.06616, 2.07647, 2.07677, 1.98598, 1.98559, 2.07596, 2.06601, 1.98452, 2.08993, 1.98347, 2.07752, 2.06281, 2.08372, 2.07948, 2.06909, 1.98144, 1.98065, 1.98116, 1.97973, 2.0706, 2.05862, 2.05668, 1.98071, 1.97969, 2.05592, 1.97908, 2.06664, 2.05608, 2.0612, 2.07574, 1.91051, 2.01091, 2.10469, 2.10809, 1.90582, 1.9069, 1.90577, 2.01306, 1.90598, 1.90401, 1.90389, 1.90407, 1.90117, 1.90278, 1.90447, 1.90631, 1.90787, 1.90679, 2.02269, 1.90435, 1.90937, 1.90769, 2.00246, 1.90696, 1.9046, 1.90532, 1.90769, 2.08924, 1.90383, 1.90619, 1.90667, 1.90422, 1.90046, 1.90342, 1.9059, 1.90409, 1.90468, 1.90477, 2.07556, 2.08301, 1.83127, 1.89118, 1.92085, 1.90429, 1.8232, 1.81923, 1.81639, 1.86484, 1.88691, 1.86334, 1.92887, 1.85996, 1.91233, 1.80492, 1.80621, 1.80415, 1.934, 1.93155, 1.80207, 1.93519, 1.91707, 1.85112, 1.80026, 1.85034, 1.79877, 1.93041, 1.89918, 1.90465, 1.92897, 1.93424, 1.79964, 1.79786, 1.79964, 1.80132, 1.802, 1.92356, 1.79899, 1.92425, 1.92715, 1.79931, 1.79899, 1.79802, 1.79609, 1.79657, 2.08996, 1.79716, 1.84735
1.88154, 1.87941, 1.88086, 1.8806, 2.05912, 2.06077, 1.99105, 1.99417, 1.87847, 1.92664, 1.87654, 1.92522, 1.87254, 1.9235, 1.87217, 1.97713, 1.87013, 1.87044, 1.95838, 1.9774, 1.86796, 1.8665, 1.86467, 1.8615, 1.86369, 1.86119, 2.03657, 1.90879, 1.90831, 1.90827, 1.85829, 1.85797, 1.9798, 1.85518, 1.90456, 1.85274, 1.90318, 1.90138, 1.90263, 1.85095, 1.90159, 1.85252, 1.8525, 1.85159, 1.95806, 1.85508, 1.9935, 1.99077, 1.91684, 2.0143, 1.98931, 2.01435, 2.01453, 2.01372, 1.98551, 1.98265, 1.98276, 1.98136, 2.01583, 1.9799, 1.97777, 1.97692, 1.97564, 1.97167, 1.9736, 1.97072, 1.97197, 1.97064, 1.89184, 1.89236, 1.96838, 1.96427, 2.08941, 1.96887, 1.96956, 1.96843, 2.01354, 1.9726, 2.10765, 1.89725, 2.01399, 1.97887, 2.01385, 2.09016, 1.98743, 2.11092, 1.99254, 1.9214, 2.10485, 2.07051, 2.06315, 2.08125, 2.08884, 2.08031, 2.07566, 2.07416, 1.98027, 1.98222, 1.9807, 1.98034, 1.98021, 2.05915, 1.97998, 1.98244, 2.08238, 2.05886, 2.0968, 1.98342, 2.07948, 2.07688, 2.05951, 2.0659, 2.06627, 2.06734, 2.07421, 2.07284, 1.98302, 2.06965, 2.07034, 2.07869, 2.07929, 2.08071, 2.06237, 1.9828, 2.0629, 2.07173, 2.06838, 2.06955, 2.06943, 2.07244, 2.05993, 2.07787, 1.98443, 2.07592, 2.07636, 2.07365, 1.98299, 2.07643, 2.06832, 2.05806, 2.05855, 2.05954, 1.98021, 2.09046, 1.98011, 1.97883, 1.97902, 1.98092, 1.97859, 2.05903, 2.0585, 2.07036, 2.0558, 1.91272, 1.91244, 1.91011, 1.95793, 1.90476, 1.90555, 1.90558, 2.0122, 1.90578, 2.00803, 1.90199, 1.90443, 2.01196, 2.01128, 1.9049, 1.90369, 2.10079, 1.90655, 1.9059, 1.95587, 1.90835, 1.90659, 1.90577, 1.90333, 1.90494, 1.90668, 1.95485, 1.98892, 1.95489, 1.9904, 1.9537, 1.95286, 1.90437, 1.90372, 1.9028, 1.90497, 1.90407, 1.9032, 1.90279, 1.90131, 1.88204, 1.8786, 1.82423, 1.82141, 2.11158, 1.81733, 1.81718, 1.81021, 1.89124, 1.86186, 1.80791, 1.80582, 1.80606, 1.80328, 1.93009, 1.86668, 1.8034, 1.8022, 1.93749, 1.80229, 1.80195, 1.80234, 1.80045, 1.79925, 1.85114, 1.93069, 1.92853, 1.92569, 1.79978, 1.80109, 1.79922, 1.92791, 1.92654, 1.79815, 1.79728, 1.92404, 1.85093, 1.80061, 1.7981, 1.92471, 1.92871, 1.80072, 1.79708, 1.79592, 1.79621, 1.79569, 1.79602
1.9873, 1.9858, 1.98587, 1.98647, 2.06583, 1.87958, 1.88259, 1.87971, 1.93004, 1.88017, 1.87951, 1.92835, 1.97703, 1.87355, 1.8728, 1.92288, 1.92234, 1.87194, 1.87143, 1.87085, 1.86837, 2.05566, 2.05699, 1.95607, 1.9139, 1.91464, 1.91296, 1.91147, 1.91171, 1.85807, 1.85877, 1.85832, 1.85736, 1.85797, 1.90669, 1.85468, 1.85561, 1.85437, 1.85201, 1.90562, 1.90419, 1.85487, 1.94278, 1.85496, 1.94187, 1.85543, 1.99323, 1.99393, 2.01379, 2.01716, 1.99234, 1.91363, 1.99203, 1.91133, 1.98472, 2.09375, 1.90624, 2.09956, 1.98025, 1.903, 1.97865, 1.97597, 2.10355, 1.97451, 1.89661, 1.97222, 1.89615, 1.97191, 1.89434, 1.97049, 2.01413, 1.96738, 2.01734, 2.01721, 1.96875, 1.97105, 1.97148, 1.89671, 1.89742, 2.0979, 1.90051, 2.0169, 1.98281, 1.9828, 1.98944, 1.91443, 1.92064, 2.11168, 2.10764, 2.1067, 2.0937, 1.98616, 2.06922, 2.07069, 2.07535, 2.07628, 1.98306, 1.98127, 1.98202, 1.9799, 2.06538, 2.06025, 2.06126, 2.06027, 2.07851, 2.05982, 2.06056, 2.06202, 2.05943, 2.05946, 1.98306, 1.98354, 2.07168, 1.98297, 2.07105, 2.08146, 2.05935, 2.06198, 2.08084, 1.9861, 2.06352, 2.07845, 2.07615, 1.98594, 2.08238, 2.07413, 2.07724, 1.98577, 2.0835, 2.07293, 1.98653, 1.9869, 2.06206, 2.08594, 2.07702, 2.0787, 2.07651, 2.09666, 2.06137, 2.07966, 2.05959, 2.05855, 2.0571, 1.98039, 1.979, 1.98249, 1.97964, 2.06402, 2.05764, 1.97891, 2.05825, 2.057, 2.07233, 1.9134, 1.96122, 2.0048, 2.01066, 1.90654, 2.01359, 1.90336, 1.90031, 1.95231, 1.95187, 1.90309, 1.90351, 1.90345, 2.1041, 1.90543, 2.10258, 1.90314, 1.95665, 1.9545, 1.95567, 1.96175, 1.90799, 1.95443, 1.90545, 1.90655, 2.00981, 1.90628, 1.95463, 1.9033, 1.90169, 1.90474, 1.95265, 1.90309, 2.08684, 1.90296, 1.90035, 1.90168, 2.00248, 1.90436, 1.90491, 1.93429, 1.93335, 1.82321, 1.82002, 1.81779, 1.8173, 1.93437, 1.81426, 1.80927, 1.81203, 1.80965, 1.80716, 1.93553, 1.80432, 1.9323, 1.80338, 1.80328, 1.80254, 1.80202, 1.80188, 1.85117, 1.80249, 1.80136, 1.85173, 1.79951, 1.92238, 1.79988, 1.79963, 1.92841, 1.79942, 1.79703, 1.80005, 1.79975, 1.79854, 1.91139, 1.92615, 1.91974, 1.91801, 1.80029, 1.79847, 1.79867, 1.79881, 1.79734, 1.79809, 1.79659, 1.79568, 1.79658
