1.59805561749596,1.59460907854985,1.59750463035715,1.59890784909872,1.6010380125555,1.59772325922443,1.60096515306613,1.5987058895102,1.6012460821443,1.60064063497092,1.601584838051,1.6028366839048,1.60186315298177,1.60268662260472,1.60202038058055,1.60422605529466,1.60466144461656,1.60546343227277,1.60642242305421,1.60668485379689,1.60854193430457,1.60755594239852,1.60913780621997,1.60711471431767,1.61085629262451,1.60920697118297,1.61179447321556,1.61134914582008,1.61256884312438,1.61460213615732,1.61516662980066,1.61626253575843,1.61690330929912,1.61803718717336,1.69450309345814,1.69620180744493,1.69734344854351,1.69832358866023,1.69938695656009,1.70033645615036,1.70023076569636,1.70075851956447,1.70089718666142,1.70239754520244,1.70332156307161,1.6195799699539,1.61587523936834,1.61505204390146,1.61551644214045,1.61448004584468,1.6161283350228,1.61590460984443,1.61644914845117,1.61710982198744,1.61659333107811,1.61628621122236,1.61631411345596,1.61680226724523,1.61714254825089,1.61791532098624,1.61814430295419,1.61824580934891,1.6178713806596,1.61983624505399,1.61854259888669,1.61923056400873,1.61863091011556,1.61980238580431,1.62112762795196,1.62103259746322,1.62097797625262,1.62184866069528,1.62005978984748,1.62195702576466,1.62076098598315,1.62274824972227,1.62226658606241,1.62340367723434,1.62214528374873,1.62367419134724,1.62250755982922,1.62442270371058,1.62335499938495,1.6252961983733,1.62341760064554,1.62565654574457,1.62399250089681,1.62661468909823,1.62598971770643,1.6270966523048,1.6262598176126,1.62710018266607,1.6269102536531,1.62832155909577,1.62746997426808,1.62878454964455,1.62748435227444,1.62912034613533,1.62833641865111,1.63037317642574,1.62869637065521,1.63038241590621,1.63022197624602,1.63127536698065,1.6303717410903,1.63154829982055,1.63308048771554,1.63233397995501,1.63327722995429,1.63341317971248,1.63488319751517,1.63429190678398,1.63495750418409,1.63701136706252,1.63564648899089,1.63523220932191,1.63836318986,1.63779913308777,1.63795718753712,1.63721285500934,1.63954458537427,1.64180346152449,1.6413660402739,1.64360140959138,1.73721359602495,1.74060367057395,1.73581888905871,1.7391735966593,1.73885420442591,1.73963862333724,1.73921920008866,1.73988459608272,1.74017401245013,1.74064694162194,1.74165359763636,1.74328008542516,1.74367534962002,1.74560265282543,1.74555609033455,1.74743122072587,1.74571249334917,1.74610524893939,1.746287138373,1.74695874898942,1.74878645079225,1.75012259527018,1.74940136506642,1.75013150030634,1.7479892245555,1.74826573991425,1.74797519754189,1.75164680926697,1.75056509939065,1.75085196190537,1.75200869567394,1.752252493398,1.75401487833605,1.75411655064875,1.75430355545499,1.75421419173835,1.75616385245166,1.75535142283017,1.75591722769983,1.75571243499622,1.75559746630355,1.75547236520545,1.75631673643489,1.75615346090263,1.75484618121189,1.7554815013373,1.75547750916992,1.75554445922162,1.75547477141134,1.75534496867638,1.75543070075269,1.75589623231919
1.59526585027872,1.59770691933469,1.59641477538655,1.59953807457453,1.59811851573212,1.59959360830323,1.59875028163387,1.60009455472554,1.59995357518446,1.60092409671452,1.6014278619333,1.60184448403637,1.60242105019034,1.60233731561993,1.60323610595832,1.60365905377264,1.60439506086256,1.60488840190492,1.6063976376893,1.60721575053414,1.60798373076706,1.60869561750816,1.60827939708606,1.6090794233021,1.60961367745361,1.61121795922798,1.61139576785447,1.61167665866716,1.61374158652655,1.61528020439222,1.61621809914512,1.62342469931767,1.62895463628885,1.63304957676349,1.6910394996868,1.69188490004325,1.69178679436558,1.69526915684822,1.69561883176492,1.69614629463616,1.69658111417035,1.69679831372039,1.69682698373967,1.69743640927142,1.69834188860368,1.63018516461805,1.61592258582027,1.61535827332339,1.6152043372247,1.61521108829936,1.61556415960441,1.61578214092613,1.61575268885722,1.61578397397416,1.61596516461826,1.61627711892542,1.61621296958424,1.61684927727423,1.61692751203564,1.61754593918327,1.61765376789241,1.61800370605094,1.61827581138599,1.61875936898342,1.6187913701314,1.61905262339748,1.61901710675238,1.61960411170483,1.62016138173597,1.62022649932706,1.61982480083403,1.62039014838462,1.62095011756699,1.62118379992692,1.62142514356527,1.62193440691487,1.62215624599119,1.62246051894301,1.62246694011597,1.6226878256318,1.62295882690961,1.62326558113029,1.62389769765832,1.62402422101599,1.62457991171786,1.62449272611347,1.62524908943616,1.62543702709778,1.62630934312451,1.62635137057612,1.62688714423609,1.62695759112443,1.6274100532992,1.6277005876719,1.62819078148664,1.62821719908657,1.62841149268174,1.62851312696364,1.62900926132227,1.62926025750176,1.62969820891742,1.62970377319172,1.63033495645427,1.63096737674134,1.63135949029808,1.63116231095891,1.63163224485625,1.63205077424808,1.63254311646197,1.63354879639534,1.63430443685837,1.63442208555462,1.63468102822153,1.63479721490128,1.63597626302032,1.63614453177592,1.63649997127418,1.63754231689485,1.63779966277957,1.63812016183736,1.64103488309829,1.64595085763659,1.65067882947425,1.65407140628478,1.74005196007386,1.74171552266665,1.7431488785289,1.74320329865612,1.74290027384677,1.7430856316389,1.74411800614329,1.74566185909069,1.74705092213139,1.74794993464742,1.74840213711268,1.74858551781028,1.74864657968644,1.74866344779764,1.74866733709733,1.74866808752898,1.74866820859625,1.74866822485624,1.74866822665938,1.7486682268224,1.7486682268342,1.74866822683486,1.74866822683489,1.74866822683489,1.74866822683489,1.74866822683489,1.74866822683489,1.74866822683489,1.74866822683489,1.74866822683489,1.74866822683489,1.74866822683489,1.74866822683489,1.74866822683489,1.74866822683489,1.74866822683489,1.74866822683489,1.74866822683486,1.74866822683389,1.7486682268115,1.74866822643103,1.74866822147763,1.7486681707913,1.74866775588309,1.7486650066753,1.74865017977515,1.74858530282591,1.74835841996683,1.74774280314732,1.74650724136205,1.74480630879888,1.74340996626308
1.59834436477623,1.59454076848032,1.5989271779229,1.59738890506748,1.60010126069148,1.59739078022087,1.60021769250749,1.59823970136927,1.60043992051625,1.60041885401132,1.60097146995092,1.60215409271059,1.60155307184749,1.60312681367351,1.60257613942983,1.60413931107871,1.60422661334423,1.60518341071274,1.60555115813164,1.60773110579242,1.60785980669944,1.60847971062207,1.60920108100087,1.60943724047967,1.61084671625075,1.61114010066953,1.6129015712214,1.61224093962721,1.61417693412796,1.61703296659721,1.61874774032542,1.69477539887617,1.69534604923081,1.69624895966766,1.69575497967642,1.69616249265419,1.69708147946785,1.69882668513251,1.69940380103916,1.70064047533958,1.70078526049365,1.70065731203658,1.69814788983505,1.7019394372009,1.70241188877232,1.70406527643378,1.61367653485632,1.61505270084552,1.6147414531725,1.61525064457643,1.61516084148312,1.61541156026974,1.61515244287143,1.61504583815083,1.6159349353748,1.61523237204479,1.61682665400463,1.615827633074,1.61756545574406,1.61622914993807,1.61801814558728,1.61663901389371,1.61935978667121,1.61720615572123,1.61944050034622,1.61811641253937,1.61991162045798,1.61833055616175,1.62068944357007,1.6190836855336,1.62053588791988,1.61924013281154,1.6214115998971,1.62035435053781,1.62193818755558,1.62076179139708,1.62251700340506,1.62102965962786,1.6228539797145,1.62148210082981,1.62298523069504,1.62229035672002,1.62365508440304,1.62373622969064,1.62421781608752,1.62427960538013,1.6249574486736,1.6249533957563,1.62579303121577,1.62604626178052,1.62662649484423,1.62716759874168,1.62675982222054,1.62766225173019,1.62805799851435,1.62825973188963,1.62814877183669,1.62822246054756,1.62873895386049,1.62864728620746,1.62966119712344,1.62967316374296,1.62996323718153,1.63070096402619,1.6311179354692,1.63177851493175,1.63103028382032,1.63195021928948,1.63192500603715,1.63315134558414,1.63397366398988,1.63338770433371,1.63454440203555,1.63453881653839,1.63579073177268,1.63604917017779,1.63271609134617,1.63351104594862,1.63779840769146,1.63970407911717,1.6409459861153,1.7355946068109,1.73542859424795,1.73564965922304,1.73733249469484,1.73799843776693,1.73887239266964,1.73930861199107,1.73976163079696,1.74009724457754,1.74001254375496,1.74004439644809,1.74128938699265,1.74730996099358,1.74180395736349,1.73953045885263,1.74143562283344,1.74645168861902,1.74401001748517,1.74514679373227,1.74490223172166,1.74447366813506,1.7448309785981,1.74471381166236,1.74601065135168,1.74485176021531,1.74637106872898,1.74942986150237,1.74923743264973,1.74839859091604,1.74859234506319,1.74813726506695,1.74753793381,1.75030933533885,1.74938517577521,1.75429625098884,1.74931484472974,1.75385072862365,1.75297984234447,1.75288348435297,1.75265467437408,1.75284492696168,1.75460748862249,1.75356147753137,1.75409919857083,1.75455346059642,1.75388071284155,1.75599734512031,1.75571684690939,1.7550846898076,1.75479126837794,1.75562295923917,1.75518645661823,1.75541585692702,1.75490856429271,1.75475546197263
1.59540707634701,1.59749979131203,1.59624718606592,1.59934844848291,1.59829353113559,1.59940689004156,1.59857178001563,1.59972472457723,1.59944449933416,1.60053264425606,1.60093910186379,1.60174438282027,1.60234434456709,1.60272815627702,1.60340689425819,1.60404608068191,1.60513493765175,1.60556109035132,1.60576211460572,1.60797268832732,1.60814290929238,1.60909540523492,1.61054405716646,1.61142063405159,1.61212446954156,1.61266483126416,1.61360786840033,1.61519295033517,1.62254212447691,1.62783216074769,1.63291023400012,1.68977872894726,1.69006666971284,1.6904447680393,1.69307091430512,1.69360351462778,1.69426954235744,1.69523515786028,1.69574948383816,1.69635196119926,1.6964207451429,1.69550192283531,1.69482722432835,1.69593588835463,1.69748362045052,1.63543691298557,1.61427816519574,1.61514682058855,1.61521056184086,1.61482725828078,1.61528203243212,1.61479005557314,1.6153113596892,1.61534911902983,1.61528336278808,1.61588935473818,1.61568799648718,1.61684416795931,1.61624682525254,1.61751226130103,1.61677639697722,1.61828652640252,1.61748463199627,1.6187150650261,1.61783061098758,1.61942590909295,1.61826999256897,1.61999710900371,1.61883306554326,1.61999559556172,1.61922366966242,1.62047972550824,1.6199760330397,1.6211526948201,1.62049002318563,1.62158467829311,1.62088557269342,1.62197461286448,1.62135576800058,1.62244280383484,1.62199336188152,1.62297439778004,1.62277754541601,1.62376313344882,1.62357507936414,1.62442801619734,1.624538128641,1.6255021762316,1.62558901105716,1.62627020778009,1.6267898265757,1.62735611105847,1.62745095647099,1.62803619634892,1.62811758126112,1.62833679063718,1.6282587152828,1.62849591133296,1.62823517584551,1.62888822517542,1.62912988698923,1.62978661178165,1.63021238375509,1.63069226991426,1.63117965866746,1.63122488321752,1.63152084560074,1.63196926001329,1.63234432272601,1.63315753154566,1.63336608508043,1.63383180576766,1.63418493466582,1.63495174086239,1.63579203922562,1.63652712799486,1.63704790341945,1.63781007153901,1.64322827764619,1.64719731450754,1.65165848367089,1.74000400119205,1.74161473178176,1.74313290303687,1.74322510634707,1.74289770284818,1.74304187325842,1.74403119536522,1.74556038068542,1.74696697190702,1.74789702694034,1.74837581859794,1.74857497847322,1.74864314142273,1.74866252763782,1.74769465028263,1.74740315352359,1.74866820313242,1.74866822419419,1.74866822659474,1.7486682268174,1.7486682268339,1.74866822683485,1.74866822683489,1.74866822683489,1.74866822683489,1.74866822683489,1.74866822683489,1.74866822683489,1.74866822683489,1.74866822683489,1.74866822683489,1.74866822683489,1.74866822683489,1.74866822683489,1.74866822683489,1.74866822683489,1.74866822683489,1.74866822683489,1.74866822683489,1.74866822683489,1.74866822683489,1.74866822683489,1.74866822683489,1.74866822683483,1.74866822683299,1.74866822679454,1.74866822619661,1.74866821900504,1.74866815033067,1.74866762045003,1.7486642798457,1.74864699470891,1.74857392945841,1.74832583020276,1.7476702934688
1.59810403935869,1.59478029937053,1.59664970031649,1.59849123295415,1.60055245050581,1.59767296776038,1.60014237585315,1.59814751680216,1.60033451419911,1.59923458302418,1.60116796458897,1.60170480759246,1.60270505750469,1.60272314353121,1.60384087509935,1.60482278300649,1.60529005686324,1.6061521033357,1.60722178929133,1.60737718204303,1.61012945511248,1.61023409185542,1.61195681236364,1.61208457973402,1.61329340810993,1.61419904665051,1.61741405097882,1.61602430414413,1.69305184541097,1.69321371592183,1.69392389267586,1.69446889555522,1.69484905137673,1.69648535733507,1.69710416367725,1.69723463917716,1.69764904201256,1.69804990655898,1.70047792657869,1.70133444520243,1.70065883207557,1.69923521030923,1.69842776173442,1.6966512730122,1.69483265756405,1.62951000711608,1.61309073339325,1.61507647422289,1.61388437302032,1.61617568657778,1.61359558179883,1.61512161797064,1.61472870789853,1.6154921301653,1.61543773554222,1.61446816246334,1.61695173580115,1.61491068626654,1.61815989900069,1.61509892553196,1.61911782257229,1.61599444079506,1.61972901415923,1.61607399351221,1.61967169264655,1.61705974634359,1.62019585390359,1.61770852910847,1.62048991901534,1.61732134431044,1.62077463923927,1.6183319566676,1.62150434606919,1.61898169122966,1.62171142550663,1.61946451956021,1.62181118146323,1.62003399294334,1.62223843775576,1.62076771911408,1.62316072348317,1.62116598107192,1.62382376536799,1.62181277789209,1.62418243821336,1.62300045304912,1.62436773104248,1.62535265107798,1.62564278666961,1.62514998214382,1.62705102525705,1.62741394706068,1.62727424155928,1.62863880920794,1.62778978022663,1.6279001783716,1.62882569185319,1.62740205728514,1.62825611796766,1.62765394341217,1.62938818959088,1.62926185133296,1.62927245692346,1.63231969174933,1.63051943830214,1.63054928584968,1.63096005755972,1.63229346071374,1.63267150213613,1.63243170250422,1.63266172425411,1.63306762799088,1.63412348206506,1.63439220957428,1.63525634823755,1.63574428775531,1.63615161146549,1.63789583806257,1.73276859189537,1.73490169730192,1.73440681113345,1.73599740741222,1.73452355005186,1.73558252387152,1.73747763182877,1.73737007006124,1.73841576423545,1.74024402926228,1.74055893178051,1.74030481223095,1.74056442263537,1.74072754821072,1.73787460052348,1.73729350118285,1.73872558915053,1.73671271225759,1.73645884742304,1.7415806518826,1.74244202062962,1.73888733647576,1.74470251947383,1.7451285629977,1.74589827308807,1.74545293619364,1.74547197912856,1.74772020040157,1.7462731605402,1.74824314863369,1.74783574660873,1.74838654695463,1.74647174712586,1.74636746745597,1.74612590409687,1.74574689880438,1.74552586850017,1.74615950435799,1.74981955996865,1.75439700109563,1.74958546473079,1.75261352387977,1.75303996050752,1.75288690940308,1.75185366123006,1.75126196341001,1.75120720102578,1.75412911813794,1.75434663773598,1.75482066843934,1.75506539617038,1.75357987852518,1.75340701652265,1.7537386080446,1.75423159555154,1.75445038819685,1.7541907373969,1.75413448493949
1.59484788596884,1.59680098716979,1.59596338463367,1.59697646744933,1.59718215993543,1.5983094140147,1.59916034095987,1.60025176657852,1.59992927879788,1.60107468107349,1.6012189125938,1.60244864141071,1.60282873884255,1.60385225888637,1.60430136551742,1.60531748243741,1.60587647726953,1.60618064289369,1.6079586431944,1.60858942700338,1.60949537353071,1.61034976383257,1.61197192850569,1.61337282658405,1.61502959912591,1.62243664704524,1.62765580086784,1.63217784611038,1.68730818934668,1.68830326492349,1.68879982138449,1.69148833843712,1.69218785946249,1.69295125646417,1.69368718897647,1.69406273769542,1.69435687957076,1.69481316776082,1.69520523606983,1.6959142860243,1.69574653740243,1.69328626597663,1.69256498559574,1.69291087058318,1.6933736494744,1.6244762757622,1.6131443077807,1.61407039354101,1.61454173133714,1.6143790709184,1.61484189621279,1.61434853995734,1.61487379052919,1.6149717489472,1.61496974135176,1.61582224590069,1.61540358089189,1.61679909077299,1.61589858533989,1.61743880691827,1.61610342445359,1.61800070124085,1.61656416289818,1.61855480085287,1.61687407478942,1.61972468786247,1.61798201025752,1.62006520619558,1.61799311062131,1.61957275215786,1.61871079514688,1.62017693178155,1.61941823240617,1.62033812090645,1.61965935815982,1.62052206746054,1.62007955506022,1.62120489292113,1.62067550911162,1.6217376661572,1.62117186641806,1.62233585322804,1.62243172463537,1.62315305547022,1.62325843105521,1.62444437211141,1.62467247282613,1.62528903518165,1.62583715312824,1.62626059396355,1.62772571700399,1.62836247093358,1.62778524183642,1.62782143198692,1.62787852228848,1.62853014156706,1.62821761194833,1.62832297898065,1.62752349897835,1.628418203258,1.62830552897716,1.62942985523832,1.6297721595207,1.6299045736203,1.63072044498865,1.63084069821338,1.63131085621662,1.63319665142929,1.6334261561115,1.63281103778679,1.6329217959983,1.63341965684251,1.63356786510799,1.6352331395082,1.63913916853823,1.64307976711537,1.6471617327932,1.64961166044799,1.73992501619187,1.74144301653904,1.74311849633303,1.74324883497499,1.74287713318453,1.74295851075582,1.74387953044017,1.74537089111596,1.74679990079078,1.74778506742851,1.74831638909123,1.74854936409237,1.74863354221974,1.74865653731927,1.74865070416378,1.74860540285847,1.74845954211633,1.7460177657907,1.74365669908026,1.74571573060143,1.74445123618181,1.74325939436153,1.74287963551289,1.74309470768385,1.74321751632459,1.74212489325075,1.74025795495302,1.69764119202161,1.697507126642,1.74030569228149,1.74222386189166,1.74323476229721,1.74306845433341,1.74287594081581,1.74330267726782,1.74453373362302,1.74609125079924,1.7473591130782,1.74811872881844,1.74847584082701,1.74861177330863,1.74865431287047,1.74866534533332,1.74866772620319,1.7486681541529,1.74866821807708,1.74866822596781,1.74866822676534,1.74866822683045,1.74866822683442,1.74866822682774,1.74866822669327,1.7486682247544,1.74866820326287,1.74866801534164,1.7486666976258,1.74865921775145,1.74862473946307
1.59689358930934,1.59421808021684,1.59767923889268,1.5951553447581,1.59698754903068,1.59746872245054,1.60076623752927,1.59998220719215,1.60161465762529,1.6006016412445,1.60274753247512,1.60164868771362,1.60398829296096,1.60353694845326,1.60537662937432,1.60591101979615,1.60698311230814,1.60742953980678,1.61047610760992,1.60947661225022,1.61106335077898,1.61191870541662,1.61344747221531,1.61705353903001,1.61693645029541,1.69204498315438,1.6912571633108,1.6932053736422,1.69242995335654,1.69365255417155,1.69390818227761,1.69498671068858,1.69496550045495,1.69699124586213,1.69653997145506,1.69689105554957,1.69689512028079,1.69743041932457,1.69831562991957,1.69869484155124,1.69729785480414,1.69539699921452,1.69748939770166,1.69660859215756,1.69553039346699,1.61402693307025,1.61302406324535,1.61283470202244,1.6136280586644,1.61402394820472,1.61372608836214,1.61507458615275,1.61402377453834,1.61402814247929,1.61583501250332,1.61456008731121,1.61704833323702,1.61450103460642,1.61822609431136,1.61437248646037,1.61850156406259,1.61394366604143,1.61907997944499,1.61492625719393,1.62001535657894,1.61746319515769,1.62086016979464,1.61910476956707,1.61960318395167,1.6171969534169,1.62023329020775,1.61858709986169,1.62047165128959,1.61877834406845,1.61996157196222,1.61891778528403,1.62042012267335,1.62006759980867,1.62134513772355,1.61990614130384,1.62176057937008,1.62157768144016,1.62332870674071,1.62181588375749,1.62365388619017,1.62438469623647,1.62533921789635,1.61906986518356,1.61992797859292,1.62002624229031,1.62057248530813,1.62387323119892,1.62707898617946,1.62062159463534,1.6235151948514,1.62760426845084,1.62901951843778,1.62685177391155,1.6281174482305,1.62632072974641,1.62895556384095,1.62819221379814,1.62993249866095,1.62952782819918,1.62986449251978,1.63115731783176,1.62899169975945,1.63362473947467,1.63409669203113,1.63182524929774,1.63287281705039,1.63272231020222,1.63266127861279,1.63729286156486,1.72762870569887,1.7283766964678,1.73049001512029,1.7311543657327,1.73162330838366,1.73296128915727,1.73345260767269,1.73398385311712,1.73479211949337,1.7351318963651,1.7365003015185,1.73630733703445,1.73680474332116,1.73752929046598,1.73774637590865,1.73858693114841,1.73826313914533,1.73824333172896,1.73782661720595,1.73721013556458,1.73932903360141,1.73460955535938,1.73516825853846,1.73463292270924,1.73427036419769,1.73492453629102,1.7375562778317,1.74214999248038,1.75130999381635,1.73822424461474,1.73980575352617,1.64403276463902,1.64602733274993,1.74917137691803,1.74995716230928,1.75013255424842,1.74926580652503,1.74812713434395,1.74781043635864,1.74496393286607,1.74806091944251,1.74597705683088,1.7490528551721,1.75007853358976,1.74781807979415,1.75074166765064,1.74677772831959,1.74782335550882,1.74865936472117,1.74883073628381,1.74881887482079,1.75075886631931,1.75067734687551,1.75043698915639,1.75121955959607,1.75210000230757,1.75161674776532,1.75133036522597,1.75168687817966,1.75169327460204,1.75300320944644,1.75315480381032
1.59488868299948,1.59641959484651,1.59636203771958,1.59723804610957,1.59655057343707,1.59767924376193,1.60018606842122,1.60115295448967,1.60124140500194,1.60230478328838,1.6026781797703,1.60363603103288,1.60430761244167,1.60535346333142,1.60602610630729,1.60682657249836,1.60807018836674,1.60916945558658,1.6101960071869,1.61114622635442,1.61146438359987,1.6185734071585,1.62350639188843,1.62852895659789,1.63248726188912,1.6862079235599,1.68680166224159,1.6891672459701,1.68948758372024,1.690538754557,1.69173325464202,1.69247876456932,1.69296270545035,1.69334343854804,1.69361740615252,1.69360013912493,1.69350845054983,1.69376108467466,1.69405398355325,1.69366774584808,1.69246314298298,1.69117058023302,1.69090324651089,1.69232194230222,1.69246025748014,1.61375822060624,1.61333648340875,1.61243587228685,1.61356736891691,1.61381611113679,1.6140430081918,1.61420659556199,1.61404620471118,1.61468521402427,1.61440898099895,1.61568325633732,1.61482564183932,1.61591354162549,1.61572637222934,1.61664885913601,1.61532754517838,1.6172993940558,1.61570527846378,1.6180362617254,1.61616837442304,1.61781666085141,1.61712562107582,1.61829750636128,1.6177425019591,1.61921824507144,1.61846702317483,1.61970561010867,1.61929761742024,1.61970159521093,1.6190525877497,1.61967104768963,1.61966303285922,1.62063544566599,1.62032357828929,1.62100751205462,1.62043896699541,1.62161596784043,1.62121475794835,1.62253618561878,1.62263948930127,1.62293560284543,1.62334359308779,1.62065582633017,1.62030728711993,1.62036805851464,1.62026275685607,1.62256807228249,1.62250378644843,1.62243126759972,1.62443595011611,1.62517199340491,1.62662747224307,1.62760167492663,1.62685352880211,1.62788008230488,1.62749016006248,1.62877791537762,1.62895788854982,1.62972513362442,1.62992861560359,1.62991962781359,1.62929159929925,1.6304828730736,1.63132359618046,1.63286324428044,1.63293141840394,1.63386297351227,1.63445672006767,1.64447380549604,1.73985415220078,1.73919703098097,1.74187618506262,1.74248925371729,1.74218610833202,1.74257903462846,1.74319625006609,1.74423800868307,1.74472299838143,1.74536547095041,1.74632616427626,1.74666290694477,1.74860398707862,1.7485711854627,1.74838982878603,1.74792863071958,1.74701653084117,1.7456188100012,1.74408001576899,1.74306651456448,1.74290043121562,1.74321358822638,1.74314169659082,1.74076597278873,1.74002858729711,1.65742663495339,1.65569915051485,1.65326147473869,1.65140372336107,1.64890884371211,1.64725503051237,1.64446220177402,1.64545113890784,1.64863675751554,1.65118038614978,1.65394408567501,1.65703709615242,1.65958854401381,1.74018264337742,1.74196075817659,1.74318951316596,1.7431408308673,1.74289371469363,1.74319217857124,1.74432410900831,1.74588269822051,1.74721649705657,1.74804466042448,1.74844517445409,1.74860137815589,1.74865138102389,1.7486646508584,1.74866758753014,1.74866813084321,1.7486682147964,1.7486682255337,1.74866822591987,1.74866821713936,1.74866813439573,1.74866751060881,1.74866366408138,1.74864418154277
1.59536890591159,1.59535127221343,1.59838884625268,1.59678091563905,1.59762104373353,1.59780485870542,1.59899614736413,1.60022342837131,1.60250234917134,1.60291529343104,1.60303887185904,1.60576371106952,1.60559743463641,1.60584120879887,1.60792256196585,1.60798234798117,1.60941469860459,1.61157743555098,1.61251834558288,1.61277183990353,1.61255121479434,1.68776217706933,1.68848238190641,1.68891390866916,1.69061135400108,1.68990930952432,1.69226357371339,1.69243555683479,1.69260108444663,1.69304579505057,1.69445789129985,1.69453213406237,1.69492577202174,1.69481786092783,1.69651285474583,1.6962312047973,1.69557187066437,1.69615410559383,1.69628202198239,1.69599372381948,1.6951484666004,1.69591776352288,1.69641217301699,1.69606043660495,1.69567536400533,1.61367075352101,1.61322794005091,1.61286900873117,1.6134608787204,1.61357769267145,1.61384628919545,1.61327348306829,1.61486059557033,1.61299080089185,1.61582856341352,1.61344160675696,1.6160350701925,1.61454271791983,1.61834185199192,1.61553079730644,1.61798155350949,1.61363191031785,1.61906326012419,1.61445379291145,1.61878751828451,1.6144798353006,1.61873905217875,1.61606958562689,1.61978755992405,1.61712606682605,1.61947889068502,1.61837592972097,1.62036038718205,1.61991785554652,1.61808126597075,1.61870989975564,1.62032541842327,1.61948674127722,1.62150717078818,1.61924044161675,1.62168460141215,1.61957145224057,1.6224817008286,1.62051706301239,1.62331798715945,1.62173972100308,1.62363182026449,1.62062689530041,1.62154289540822,1.62026019230929,1.6205338118686,1.62275364395614,1.62255638758225,1.62256012213907,1.62514494960499,1.62347850044051,1.62691046526392,1.62644197234225,1.6282461694444,1.6259561989123,1.62831596416096,1.62706994704746,1.62911992797274,1.62931867001958,1.62942502115842,1.6295042737053,1.62949996442395,1.62990331701927,1.62846295584005,1.63372244428787,1.63495643832619,1.63519033558373,1.63476137249255,1.72689252525093,1.72857399950283,1.73095130399422,1.73105590382446,1.73155087681113,1.73154506156253,1.73291231785872,1.73367629583138,1.73549001568698,1.73615997542737,1.73680043829389,1.73707233389019,1.73691192648975,1.73910996044093,1.73777963498795,1.73599722494914,1.73613349554744,1.73638378724674,1.73658085364566,1.73638552129922,1.73624461593704,1.7355896086331,1.73535838374322,1.73774687814865,1.72892282351781,1.73617998296093,1.64185627654793,1.64171199588534,1.64238662906042,1.64224179121893,1.64262050445282,1.64320789896464,1.64283942405965,1.64302511240748,1.64332314610852,1.64416363090604,1.6450417041269,1.64488805318977,1.64537927344076,1.74186149634169,1.74520070993054,1.74471882773551,1.74220898249927,1.74799858158649,1.74257181843385,1.74485017533529,1.74523308878134,1.74520546750774,1.74591728377861,1.74578348407793,1.74595505357713,1.74588503237088,1.75135302820376,1.74786379535256,1.74826956589042,1.74895372996785,1.74930992873698,1.74929746989512,1.74981561435079,1.75059168885373,1.75089105043703,1.75072024854103,1.754001772163
1.59524550100592,1.59588122033601,1.59729589016559,1.5975749521796,1.59741546852262,1.59792504326324,1.60022999973362,1.60116502798672,1.60302814975039,1.60326000731821,1.60364133122135,1.60551967488792,1.60603667467286,1.60756204591336,1.60915412823523,1.61091504710064,1.61220523972864,1.61754376274336,1.6221982027108,1.62664619041056,1.63028103886086,1.6842072027308,1.68497056271819,1.68651448879538,1.68888464115179,1.68919867879969,1.69026938316315,1.69096546447737,1.69125105491008,1.69170845195758,1.69206581097695,1.69216941880349,1.6923045091154,1.6923617567577,1.69255148954427,1.6928358133861,1.6927681043428,1.69272792242739,1.69320653230864,1.6937905407677,1.69067012315677,1.69039399637444,1.69138499182337,1.69153136833915,1.62689771265821,1.61360066799972,1.61318184277714,1.61341764060786,1.61313248217798,1.61368473241264,1.61309535412825,1.6140135225753,1.61324786649139,1.61468013242135,1.61359302386601,1.61538434933134,1.61408474574358,1.61533387004845,1.61446932599375,1.61603929968227,1.61471735182002,1.61622706854335,1.61586811215977,1.61746575587902,1.61557963321948,1.61701918201071,1.61689710109396,1.61846073175098,1.61793030139144,1.61867217541025,1.61835953558116,1.61939884953417,1.619097102849,1.61925572677809,1.61875900645906,1.61953405639742,1.61923164012464,1.62036041525811,1.6196930691343,1.62078410102281,1.61995898068316,1.62141929172956,1.62050139140621,1.62213723393878,1.62157612335855,1.62298007605476,1.62220707004155,1.62257750395358,1.62183957336064,1.62318071731913,1.62252460464888,1.62330863266404,1.62212521319959,1.6225645567587,1.62228286550598,1.62248297378075,1.62706117344363,1.62785787403161,1.62702205978534,1.62796702431923,1.62728694099099,1.62842387094259,1.62841318782205,1.62906924442851,1.62933308629646,1.63009745339836,1.63054426725174,1.63068203177923,1.63173765519993,1.63379073544485,1.63904020592106,1.642976164927,1.64758294040465,1.73796178427874,1.73902677436678,1.73862099248191,1.74043071587008,1.74078671971017,1.74056150590211,1.7407339650496,1.74109113564891,1.74221998864965,1.74315879249885,1.74344357416065,1.74322696187056,1.74305681698918,1.74542142076762,1.7455451301666,1.74402005401116,1.74303637418844,1.74289694449201,1.74322755402994,1.74313093428984,1.74160305270481,1.73999879484638,1.65450177478329,1.65213313509836,1.64889655656568,1.64563864063143,1.64235809929637,1.64252828058693,1.64222860197651,1.64209530603077,1.64267099264646,1.64290010591563,1.64316044543125,1.64373864135308,1.64364663527897,1.64394015111151,1.64452012196395,1.6455334682345,1.64582318309249,1.65005830852627,1.65374674309925,1.65719389844434,1.66042468496502,1.74027791192271,1.74215353218372,1.74322251675868,1.74308901482127,1.74288466814475,1.74327570912251,1.74448363582459,1.74604724385635,1.74733451595182,1.74810929334377,1.74847341708755,1.74861145672682,1.7486543581612,1.74866538434848,1.74866773869913,1.7486681568105,1.74866821751315,1.7486682140906,1.74866811470575,1.74866737240233
1.59512428719302,1.59574314988467,1.59728117512045,1.59693468884034,1.59812678102025,1.59883443806093,1.60098204822998,1.60248353919682,1.60356415696721,1.60417982255894,1.60361622049134,1.60622359801018,1.60718095448307,1.60875953767734,1.61087119444812,1.61371255458799,1.61476903022905,1.68762226349506,1.68711055760018,1.68713728691881,1.68725407051195,1.68755566016856,1.68793665122349,1.68839596068651,1.69069550933945,1.69077719651001,1.69230200771077,1.69216448141309,1.6918035282855,1.69234811682341,1.69275303573103,1.69299023387818,1.69327910711309,1.69395355498282,1.69325250975763,1.69475267481589,1.69390236949172,1.69509347750347,1.69533773342456,1.6972345709204,1.69323785237871,1.69413459497392,1.69596789860655,1.69570173776244,1.6138228909399,1.61349317959908,1.61354719156548,1.61273686479837,1.6138944772548,1.61201864586586,1.61437779432766,1.61146043259102,1.6154840923214,1.61169351837041,1.61619056131308,1.61249614596782,1.61718158644834,1.61281774997556,1.61664257525486,1.61342151150073,1.61729959197977,1.61566107087228,1.61582756886548,1.61477555058138,1.61738473095061,1.61509972755912,1.61803321476921,1.61715567967499,1.61970081879433,1.6174367784658,1.61870129873549,1.6210066215108,1.61807805852314,1.61766119779134,1.62007782307203,1.61795320711564,1.62058445267922,1.61832243254987,1.62120129865227,1.61828916874831,1.62190565705099,1.61907220964369,1.6224752367939,1.61926741284874,1.62365809798612,1.62093129233742,1.624203444268,1.62115585205778,1.62458389460753,1.62201843382103,1.62504354318369,1.62252858397483,1.6239442557973,1.62150174149179,1.62162045264391,1.62277935180928,1.62663694889422,1.62600017525773,1.62826139237299,1.62664782498719,1.62858668235111,1.6273900439246,1.62878590875753,1.62843492242762,1.62924329233294,1.62938809990543,1.63132369611727,1.63056934690179,1.63254196153974,1.63201482525326,1.72494324787238,1.7274343669083,1.72816477761138,1.73020063092271,1.73120932271223,1.73241343944964,1.73304836073083,1.73373067660083,1.7345678997836,1.73569164128356,1.7367163789528,1.73738593599878,1.73750075156458,1.73744613917234,1.73712347435215,1.73639949049824,1.73527680980229,1.73480816273286,1.73567424583626,1.73506194756875,1.73370638069803,1.73607807454053,1.73816564466602,1.73607636306279,1.73412989243579,1.64021135293113,1.6402386890828,1.63999454797223,1.64021367582937,1.6423078445697,1.63956928977901,1.64060108168927,1.64105121425172,1.64124704783807,1.64268771910398,1.64185719876586,1.64343593633176,1.64227401424159,1.64269324565047,1.64375184892531,1.64437507740369,1.64480957396153,1.64541529020563,1.64571719289561,1.64644572934464,1.64700151171196,1.74571472040554,1.74585484030491,1.74442250180328,1.74515612721298,1.74516010753892,1.74467626492073,1.74413829624514,1.74341728214825,1.74319958665755,1.74561888220558,1.74559488326747,1.74643683831283,1.74704295740065,1.74717253549725,1.74729739598085,1.74738503030788,1.74758719083349,1.74773312948096,1.74763774578294,1.75088526204059
1.59560515715063,1.5965986296579,1.59747998703194,1.59753417769491,1.59804670796198,1.60026826902444,1.60147398435285,1.60349419232489,1.60406450639927,1.60405152834346,1.60514140693387,1.60744036802745,1.60889708449852,1.61585969060815,1.62091522784155,1.62589671883669,1.62983329891588,1.6845891881708,1.6850645104752,1.68582546124057,1.68655740686163,1.68715001956641,1.68775743239751,1.68856730887325,1.68929945421115,1.68994090783868,1.69048030286646,1.69048498469537,1.69034751526987,1.69061111920333,1.69086452068581,1.69108144988193,1.69136758945647,1.69132248342426,1.69176598745454,1.69158170947751,1.69214742044081,1.69335049089851,1.69236007280089,1.69162708447891,1.68733543216852,1.68915306572357,1.68971619754422,1.62840229782643,1.61390869449012,1.61366660006236,1.61299143855765,1.61375626782233,1.6126532102784,1.61372207836058,1.61229583050497,1.61389559392496,1.61246260081856,1.61447204967985,1.61299604596449,1.6152243254676,1.61374548310408,1.61569227345068,1.61384152550893,1.61640990197292,1.61453427568681,1.61587275496156,1.61588765714913,1.61655625005578,1.6161326320248,1.61701075540401,1.61721846635203,1.61860299318007,1.61824045742308,1.61805067387956,1.61787937482914,1.61822951615021,1.61842052502295,1.61856892718104,1.61822302125053,1.61938814632444,1.61876899208994,1.62016019531183,1.61910430588047,1.62040814900802,1.6202193191531,1.62182596630567,1.62008086480396,1.62185942618514,1.62077170276744,1.62253958619165,1.62251325150517,1.62360163324426,1.62204900811017,1.62389887667316,1.62239154650029,1.62474197315161,1.62252459678535,1.62425340944437,1.62390530611888,1.62392601570066,1.62628241592649,1.62695857224648,1.6264825899014,1.62774073911327,1.62729695937951,1.62834267460374,1.62831151862479,1.6285619918693,1.6292634157045,1.6311073998319,1.63183362236494,1.63775212025712,1.64129956870193,1.64542339038692,1.73219862036594,1.73469074829474,1.73323239307275,1.73643402618296,1.73612826423003,1.73627262142367,1.73648714103757,1.73725654047438,1.73802901906811,1.7382205458769,1.74000820333752,1.74062308453007,1.74069678205831,1.74086316266713,1.74097020777645,1.74075937476817,1.74224940096533,1.74297598163233,1.74288246984766,1.74324552079333,1.74311933110924,1.74147808169666,1.73994112112389,1.64924279472446,1.64626293349731,1.64058476232355,1.6404367866872,1.63972389614447,1.63912255735678,1.63964041372482,1.64024735519814,1.64062729734685,1.64123855213768,1.64080025301651,1.64044231099927,1.64069000733646,1.64104662402905,1.64183420776771,1.64268350794077,1.64352272813864,1.64429751736855,1.64488312326453,1.64549302933087,1.64562839757296,1.64790048787561,1.64779438871801,1.65615339178643,1.74016772119769,1.74193502325868,1.74318564342505,1.7431490286145,1.74289903417402,1.7431834271523,1.74430764930615,1.74587113612601,1.74721388206776,1.74804705324316,1.74844812524447,1.74860316578958,1.74865213229575,1.74866488978611,1.74866764709741,1.74866814263041,1.74866821596801,1.74866821699567,1.7486681399137
1.59575586279708,1.59736699842568,1.59803132405252,1.59831707106959,1.59906580559367,1.60179647421795,1.60216468173499,1.6041992888988,1.60405569925089,1.60695895017694,1.60659118407389,1.60982622447174,1.61237050999429,1.68430815596534,1.68486637863013,1.68520630570291,1.68571840328573,1.68610091997864,1.68702693903686,1.68748530925655,1.68807974540211,1.68848762413316,1.6888493774173,1.68968970910248,1.69014610330229,1.69080491982509,1.69056289364218,1.69069545539934,1.69084366841228,1.69141410752442,1.69169555959973,1.69200897639236,1.69261461985548,1.6924207848297,1.69242518599167,1.69244670671416,1.69290839981536,1.69617170421663,1.69315501115371,1.69303890647411,1.69173989748156,1.69155815531968,1.69271224121966,1.61483360163692,1.61443789856753,1.61296162537016,1.61405963264247,1.61208281529965,1.61440791425195,1.61127077169626,1.61456326081792,1.61089709061298,1.6151142453939,1.61089894680299,1.61614033982935,1.61154361227026,1.61644863362454,1.61256626686877,1.61667704537295,1.61452411049905,1.61665006808339,1.61561064523681,1.61696185934455,1.61623830521022,1.61664638982302,1.61617740919886,1.61810006392926,1.61792635866337,1.61876761060171,1.61728354887838,1.61786283806992,1.61775735075432,1.61923752216684,1.61663548575761,1.6187949814609,1.6177092885842,1.62040289661325,1.61791353510038,1.62101755190846,1.61972171162727,1.62117652609731,1.62163258033968,1.62242829009852,1.61900740324519,1.62264882388156,1.62124215044674,1.62266245115443,1.62072216146495,1.62477200777955,1.62040568275745,1.62581192679158,1.62123824041588,1.62649350277557,1.62172468727093,1.62648314052951,1.62303303329399,1.62683696111068,1.62481333355461,1.62734709825986,1.62616094862547,1.62781954009679,1.62754288560801,1.62890300002411,1.628690296433,1.62981007329747,1.63346091262943,1.63399497123393,1.70667555547181,1.70893883420802,1.7275475666833,1.73002694029746,1.73179082255943,1.73431310146525,1.73268207073391,1.73294766009279,1.73458034588807,1.7359692151713,1.73688888422112,1.73786255997298,1.7387459177191,1.7377078986117,1.7375108428998,1.73694165776801,1.7358007682393,1.73446854159849,1.73356215971977,1.73290687631494,1.73208974084042,1.73438950357415,1.73505212932451,1.73469166770354,1.7338591041722,1.7339154870358,1.63796517044521,1.63771025283072,1.63773308941017,1.63824964420986,1.63888628757465,1.63839913943772,1.63835263505829,1.63731403567605,1.63969516607481,1.63830390648148,1.63854695804174,1.63965751313871,1.6397749566877,1.63928283273162,1.64188028008207,1.64198680049261,1.64273367544427,1.64363474612784,1.64362951090301,1.64354345587016,1.64458654818798,1.64729207216264,1.64649714862357,1.64607844898961,1.73931146997644,1.73757852912143,1.74724973378285,1.74749025795789,1.73855536150141,1.74130725925819,1.74230400883873,1.74275097415445,1.74231046229835,1.74240344573082,1.74258231261768,1.74298096838121,1.74528112817731,1.74508974052171,1.74496856427491,1.74528260955651,1.74497610283799,1.74438511609005,1.74686185671878
1.59613090483433,1.59839562570593,1.59912901239165,1.59966858700743,1.60028297585884,1.60168736634895,1.60244554853952,1.6030226485293,1.60348886095119,1.61304137418927,1.6184638712794,1.62355391480652,1.62743886363778,1.68274566378309,1.68438163206809,1.68471132533908,1.68501201585617,1.68588965454128,1.68662386444551,1.68723102117855,1.68778790875441,1.68806971815904,1.68817370621171,1.68849206427313,1.68867041259778,1.68885585829269,1.68888283083182,1.68896559912568,1.68917008769746,1.6896086793974,1.68983030963652,1.69028846819024,1.69154525063207,1.69112704383024,1.69062132683849,1.69035842712987,1.69000465190494,1.6886658914968,1.68860395633304,1.68823279885127,1.68806818722973,1.68792825637604,1.68766455030516,1.62820456605503,1.61359670168656,1.61340184842115,1.61269465129606,1.61367054832984,1.61226425857136,1.61349605036849,1.61193664096835,1.61351423669851,1.61200622097814,1.61388162320859,1.61264945638966,1.61451439843218,1.61334144469026,1.61513138478699,1.61377861005243,1.61499763223849,1.61557419457234,1.61625209804193,1.61653784767606,1.61633889129826,1.61616721776116,1.61723555489792,1.61707818603944,1.61811282356594,1.61802102104139,1.61758385925532,1.61719182923376,1.61775086040152,1.6177339430496,1.61782051070547,1.61785382137557,1.61893034240791,1.61886008148225,1.61980797040441,1.6190813022465,1.62003975919299,1.62007158171338,1.62014306699906,1.61979556511778,1.62171313721424,1.62012034096278,1.62156709994661,1.62073287121117,1.62264885058162,1.62090312435147,1.62409756392778,1.62208519749068,1.62468945148436,1.62264577895094,1.62534967624964,1.62377151242723,1.625790222231,1.62496476512001,1.62661897398758,1.62615078093372,1.62734507093853,1.62725430637139,1.62833678556571,1.62863494492933,1.62919080195637,1.62985404171084,1.63501515408636,1.64191324021741,1.70684869604828,1.71386695597888,1.73164945094645,1.73255915600266,1.73261080744855,1.7311965810349,1.73421131383978,1.73485688879437,1.73543527255902,1.73549529507454,1.73642888245521,1.73607013175916,1.73628937299852,1.73822107245228,1.73858669954686,1.73793284950607,1.73834790233658,1.73967391605818,1.74075247324736,1.7416070216089,1.74311625139972,1.7382974187054,1.73983867872644,1.64889730053779,1.64649972152106,1.64256360710958,1.63905594885876,1.6388042894374,1.63852214559781,1.63933497261748,1.63931749748597,1.63869738357818,1.63789449985311,1.63742152231777,1.63770992611199,1.63804533587583,1.6385706367797,1.63901092583832,1.63951577851944,1.64025725358571,1.64131449340663,1.64239498598708,1.64255106326281,1.64242310006078,1.64261994012496,1.64383412575562,1.64423055791572,1.6449864897353,1.64591117010832,1.64631087890595,1.6533348657228,1.65804644308715,1.74027848242105,1.74214724294073,1.74322140293175,1.74309182501869,1.74288858813261,1.74327525813826,1.7444835830734,1.74605225113065,1.74734282667239,1.74811665924881,1.74847786312622,1.74861345544443,1.74865505751296,1.74866557952988,1.74866778272949,1.74866816447881,1.74866821330025
1.59700621764608,1.59907288327025,1.59939608699129,1.60029900884721,1.60469383463472,1.60525859578037,1.60487487799222,1.68308999733297,1.60392927852661,1.66776256899567,1.6691796658651,1.67048890220841,1.68546466952179,1.68372413117812,1.68565507861541,1.68571761781944,1.6859037253772,1.6863609451282,1.68732342655136,1.68790857731978,1.68854526350473,1.68867731783246,1.68836707355862,1.68849699989044,1.68882100792323,1.68854503338023,1.68923092255787,1.68918831251498,1.68950746023371,1.69040449497226,1.69016805818326,1.69042415941498,1.69256770555642,1.69175614897766,1.69107083869367,1.69119363237977,1.6914415403538,1.69152099891106,1.69109690008671,1.69239788296194,1.69171735145247,1.69423380945379,1.6938400070957,1.69637409483127,1.61349697889233,1.6121740292638,1.61393932137527,1.61167603568175,1.6140230798558,1.61082364118567,1.61415135342442,1.61072800639039,1.61402674893803,1.61123123022261,1.61464170851003,1.61196108478871,1.61513687175784,1.61291703108303,1.61583776001515,1.61207516945801,1.61499614557931,1.61441228612982,1.61330102975684,1.61263757317093,1.61512680203874,1.6162040798331,1.61678087402812,1.6171950408341,1.61870480329386,1.61720834904801,1.61678418745183,1.61728004421254,1.61707667147891,1.61763969657416,1.61755544853589,1.61846310138731,1.61996725889034,1.61845908496744,1.6204764782404,1.618503062507,1.62063680542305,1.61824761670461,1.6217312499538,1.61901036331865,1.62308382877285,1.61913673842041,1.62280866709887,1.61872876475248,1.62426084586538,1.61967141710288,1.62563683078139,1.62090428966456,1.62609876887302,1.62165475257261,1.62690489311711,1.62356171007975,1.6269544419882,1.62495073173677,1.62733823762696,1.62631737059942,1.62761775107065,1.62773559630492,1.62908819719417,1.62975238509455,1.62121003190636,1.63517955077225,1.70610127935292,1.70770145279315,1.71685361755885,1.72906514211164,1.7208641906717,1.72617108381033,1.73060512935681,1.725482446772,1.72548182286619,1.72751034416762,1.73178149018735,1.73297964532394,1.73768750224096,1.73827440359089,1.73729131233287,1.73593982057594,1.73459467954158,1.73339830348616,1.73238072532713,1.73155341397847,1.73076239525217,1.73192567731256,1.72751187166353,1.72753119598984,1.63590628754339,1.63611000790369,1.63516640421291,1.63571295418725,1.63512056324677,1.64019348583768,1.6397395954832,1.63581698458436,1.63629862146185,1.63700607620546,1.63687617444065,1.63706411589179,1.63748464073123,1.63813667208676,1.63845275623226,1.63837077070779,1.63924373675667,1.63974184658686,1.63894358915734,1.64061892194121,1.64065426241788,1.64040376556368,1.64150782954977,1.64224013572775,1.6437272898031,1.64416250300655,1.64443052028225,1.64642470149601,1.64685019609023,1.73525926678175,1.73629647428485,1.73593426983345,1.7411562796023,1.74017972368379,1.73993613682127,1.73951016628186,1.74013528999221,1.74190988514158,1.74439376818913,1.74276513969391,1.74239431379866,1.74247687083261,1.7423974255246,1.74288857429188,1.74326424986541,1.74341625358897
1.59842334520641,1.59991481124293,1.60142343481562,1.60247773624638,1.61139173889693,1.61700423377889,1.62238100556533,1.6805645978977,1.68057433390044,1.67821937128635,1.67916757152664,1.68103832637065,1.68531292537287,1.68480072662853,1.68521210572232,1.68597104492596,1.68616119555777,1.6865007120201,1.68661507951453,1.68693589371701,1.68736551385529,1.6883020688259,1.68786092642308,1.68747322288598,1.68743493200376,1.68753263326643,1.68777003120311,1.68803103350974,1.68849934140545,1.68914314350797,1.68905968792007,1.68824681688215,1.68761279799415,1.6890482730412,1.69006164386941,1.69046965972002,1.69045404197132,1.69105058493906,1.68953965772807,1.68877003972408,1.68792462878065,1.68913713410485,1.68826749501366,1.68795585856409,1.61281859198718,1.6128760561023,1.61235287213036,1.61302859460841,1.61201290847237,1.61275221385062,1.61186388402889,1.6127561317103,1.61222606005622,1.61323794127057,1.61302781027766,1.61383119758135,1.61337914093689,1.61418854278274,1.61362561387632,1.6133845219905,1.61299982848599,1.61220824921183,1.61249731407132,1.61312081990951,1.61406132420926,1.6155944825299,1.6167898901053,1.61704596489542,1.61710711949163,1.61693318761481,1.61715705761789,1.61693392391659,1.61741050340448,1.61705247568451,1.61782282770984,1.61755288075084,1.6177937331548,1.61835764635744,1.61879453728452,1.61941006895951,1.61912514733616,1.62013947945942,1.61937659100479,1.62113948474454,1.61980942307604,1.62166544111835,1.61994114531779,1.62259652189203,1.62036427756567,1.62356278881303,1.62143884542834,1.62430217316221,1.62211032729743,1.62495261740127,1.62336465114768,1.62529744321786,1.62535312448852,1.62658958532347,1.62640622886198,1.62808837349196,1.62778691354165,1.62854133178799,1.62905582279439,1.63047677850387,1.63762869267425,1.64204450908847,1.71131972392,1.71310084668944,1.72801357140951,1.72927113067,1.73135646860667,1.73138069069123,1.73149689385142,1.73428633627992,1.73602944409221,1.7343290245815,1.73604893307825,1.73668566382884,1.73573646859715,1.73427994202226,1.73530106252263,1.73604282047837,1.738790739074,1.73908881557089,1.73779197064578,1.73839111856748,1.74131044658465,1.73986351200675,1.64604705495159,1.64148869575497,1.6366237757859,1.63627045686111,1.63527656837387,1.63487306391891,1.6345755795516,1.63471644025378,1.6348520262361,1.63544952896043,1.63596338635018,1.6364145750612,1.63675593046114,1.63671221963352,1.63715087518954,1.63753256189411,1.63774097959213,1.63800729655588,1.63769002756414,1.63753697187475,1.63809127494207,1.63904812417376,1.63928100360487,1.64005805982682,1.64051630717347,1.64117187804331,1.64117238045024,1.64279923966445,1.64397896933273,1.64674371368983,1.64687220024265,1.65674041767308,1.74020750004282,1.74201004087227,1.74319850071477,1.74312963089959,1.74289789809498,1.74321735218881,1.744372911228,1.74594175829061,1.74726767740044,1.74807842725849,1.7484626893895,1.74860865844396,1.74865383568725,1.74866532724951,1.74866774042903,1.74866815920212
1.59964058527832,1.60239275797147,1.60456371193102,1.60532411136442,1.67929638005721,1.67715777372586,1.68153119803229,1.681653042203,1.68184914299323,1.68231050538987,1.68270670480688,1.68487464668892,1.68660729344311,1.68560406432585,1.68632588454012,1.68678073702286,1.68816840211696,1.68659984947501,1.68661692913045,1.68654236205886,1.68694519328145,1.68822334098298,1.68763220077313,1.68751471642656,1.68756609398621,1.68765405053384,1.68825422654801,1.68845556344294,1.68888701901666,1.69134833936865,1.68982253453665,1.68942383286941,1.68919081461399,1.68954835068821,1.69051933010511,1.69079346544978,1.69096240863104,1.68930924403022,1.69029760771826,1.68329823020799,1.69031455853226,1.68106721460792,1.6808239899253,1.68108463156506,1.6128598154971,1.61218432447765,1.612957168411,1.61162880311703,1.61276391947221,1.61148593722129,1.61230753849241,1.61200023336446,1.61258551433359,1.613108024287,1.61334004813977,1.61401493216301,1.61330720426628,1.61354008070489,1.61346100798151,1.61275239959873,1.61105215071467,1.61150657581764,1.61127526575862,1.61234837716656,1.6124389299064,1.61332175283,1.61565672253307,1.61682436261921,1.61657635251334,1.61713136618271,1.61604594651837,1.61779989254825,1.61616475135888,1.61788373396275,1.61605344230732,1.61831414405681,1.61631271181321,1.6181466141441,1.6179844517796,1.61866118254574,1.61967762782884,1.61900186190299,1.62073269571858,1.61872447728962,1.62149130139071,1.61820536618431,1.62290612901244,1.61927177618693,1.62380880647729,1.61927615728347,1.62490819391771,1.62002573073526,1.62570324316448,1.62102236434322,1.62519089982493,1.62373551242592,1.62559067049887,1.62577063353783,1.62718638199944,1.62811009344648,1.62982126264954,1.62932866072546,1.62917118588986,1.63155464149905,1.71018632174598,1.71126466264983,1.71765325551636,1.71785817211644,1.71442725359518,1.71758617200996,1.71776018181891,1.71918063682383,1.72063659793555,1.72005285643108,1.71959506158943,1.7304911275521,1.72532787527891,1.72341193467646,1.72635346619019,1.73591448134038,1.73440921043735,1.73406194614003,1.73204239506383,1.73188580254872,1.73240317902163,1.73095744120092,1.73378996783599,1.72902002501573,1.63478955342188,1.63452085382087,1.63404702215597,1.6336637071667,1.63451076600422,1.63417672818772,1.63401294500864,1.63455559501743,1.63473089917478,1.6349239045223,1.63534012478793,1.63584583136944,1.63517031502476,1.63593077580881,1.63620071066909,1.6365818249267,1.63673546154229,1.63632850101515,1.63731480197327,1.63752238628844,1.6377571735528,1.63870959397943,1.63861263052175,1.63948608346906,1.63980715513455,1.64042855069051,1.64117769402065,1.64166766719437,1.64314996946375,1.64472050138168,1.64546549332834,1.64735175495358,1.73439001352442,1.73822002039721,1.74004347747775,1.73916734074829,1.73866118920722,1.73772998827714,1.73756494830463,1.73817832461422,1.73819182773613,1.7404192501692,1.73977599091048,1.73944350262417,1.73930171623302,1.74099030760542,1.74183500324948,1.74278859184895
1.60938484896177,1.61394622557077,1.6185578802701,1.62280833269009,1.67898601984423,1.67777872387377,1.68153399305808,1.68211284978845,1.68259502737905,1.68274384679342,1.68271730244308,1.68427711426408,1.68750716529458,1.68720412233175,1.68734074046174,1.68740307157202,1.68739814237785,1.68669719862409,1.68666411841985,1.68643509228284,1.68554691057463,1.68490923609166,1.68634895346228,1.68742409998895,1.68706701315857,1.68701015792156,1.68799955574306,1.68773875410574,1.68779592085414,1.68726358660032,1.68839467773171,1.68785998553009,1.68747657857387,1.68799672687384,1.68916984908481,1.69038324260387,1.69079995844869,1.69058730992566,1.68723361328779,1.68417301124341,1.68368640449757,1.68514707446609,1.68043584844795,1.6261715359449,1.61198540324116,1.61205689374139,1.61202143041248,1.61224771180797,1.61208301796814,1.61216709587767,1.6119918358375,1.61218953611305,1.61276550669625,1.61271615563029,1.61354324921162,1.6131178017859,1.61351699012989,1.61346547848116,1.61353294925496,1.61333006798616,1.61043217992169,1.61076536207735,1.61179845479356,1.61241423168706,1.61232152656947,1.61310756009857,1.61626301033138,1.61669463679694,1.61675844314475,1.61640239823396,1.61700470489905,1.61664725453059,1.61733219367688,1.61651953110336,1.61752567995272,1.61661925123047,1.61768267850955,1.61711368826345,1.6182910690731,1.6185020087334,1.61908249101078,1.61965261639989,1.61940426227392,1.62039670165801,1.61955493111343,1.62105362575945,1.61958131619379,1.62209111706847,1.62012622672367,1.62228962320955,1.62176982085015,1.62415415498914,1.6221055163381,1.6244550185848,1.62266887046733,1.62412529826234,1.62675396435789,1.62652700150612,1.6265951008241,1.63051065586939,1.6305197440408,1.63101477914724,1.63088107302624,1.64059078186583,1.72028482483631,1.7204965716742,1.72621597607088,1.72780730250555,1.72694996641532,1.72768994668282,1.72718049113794,1.72899118763434,1.73042354701385,1.73147966222862,1.73458759779113,1.73223453779151,1.73428772103911,1.735723728488,1.7351910766354,1.73300706152064,1.73436636930533,1.73211261235366,1.73622336260113,1.736693568176,1.73520085766486,1.73383274245693,1.73919805343369,1.64203629336686,1.6354734608803,1.63440468887407,1.63393666835727,1.63371641278432,1.63398071354884,1.63383177375946,1.63382140975701,1.63405338724465,1.63418076236305,1.63455046532712,1.63488456740368,1.63538645025982,1.6359300165405,1.63600911430357,1.63593920740043,1.6362709169718,1.63646978413309,1.63681445317333,1.63741770949457,1.63770475696819,1.63800531440266,1.63827453066281,1.6387356946014,1.63905321780262,1.63976945591034,1.64027385722662,1.64077212156708,1.64130132422924,1.64424552934601,1.64558218978138,1.64570958032741,1.64471863367259,1.74000715674215,1.74162546387069,1.74313587233508,1.74322354114576,1.74290103564001,1.74304863148795,1.74404383270979,1.74557819327952,1.74698536632783,1.74791137030187,1.74838451464941,1.74857916183859,1.74864475936178,1.74866303475017,1.74866726375219,1.7486680776387
1.67706556613458,1.67781659068656,1.67784667870159,1.67760277009081,1.67830272248848,1.67882886347821,1.68048301197245,1.68137351111772,1.68172231217172,1.68238771146621,1.68264856028171,1.68243926122792,1.68792842476566,1.68624969336049,1.68683219322802,1.68767581524598,1.68782498366047,1.68579291606801,1.68751338707108,1.68700800973245,1.68706571707976,1.68535820340009,1.68538772770934,1.68782980844105,1.68476362828795,1.68544477115209,1.68752494347192,1.68705147136997,1.6874885537795,1.68800532719469,1.68949114010812,1.68812495615518,1.68771335420471,1.68858731906716,1.68870332397724,1.69015788661117,1.68956420647841,1.69185121990775,1.68576947572666,1.68553993669818,1.6849327291763,1.68573196455134,1.68273809079374,1.61280354800856,1.61249747812247,1.61603290954598,1.61253539614573,1.61265721759915,1.6125319207445,1.61651149624058,1.61186428800912,1.61309889845937,1.6113331997629,1.61445564099733,1.61159713254672,1.61433933651535,1.61240798387763,1.61342656058148,1.61266413375675,1.61335819973904,1.60956261165724,1.61055921217397,1.61213341647069,1.61244975153608,1.61242068077877,1.61377421591998,1.61601506886027,1.61659378235675,1.61561356072831,1.61706440853275,1.61651228624216,1.6161585082776,1.62025624434656,1.61623150482573,1.61612595972889,1.61808842046704,1.61536631568573,1.61831656221875,1.61684002498779,1.61890669304701,1.61883604339354,1.61914696333648,1.62002299994398,1.61908021306544,1.62115425287242,1.61889864509391,1.62183637326336,1.61839899372142,1.62278873232948,1.62213677230682,1.62225251196703,1.62024667835564,1.62577734061506,1.62106482123203,1.62607606332086,1.62462984134365,1.62577907238115,1.62673890441196,1.62801549294618,1.62911395757199,1.63108750809098,1.63113662614354,1.63242899728208,1.7117580269944,1.71150571253095,1.71491384930076,1.71398130368644,1.71363466377023,1.71794235120214,1.71672684990937,1.71886526229851,1.71926972372165,1.71958891455618,1.71999525937414,1.71906021341536,1.72070813720642,1.72092908451932,1.71896962922261,1.72087086861245,1.72327352012443,1.72540568746841,1.73541548693608,1.73365998929646,1.73318090740235,1.73136394433082,1.73024281966988,1.72720109876592,1.63235599062568,1.63272732570397,1.63284787995754,1.63331588987686,1.63266008043515,1.6333612119565,1.63294534725306,1.63300090154435,1.63356442819775,1.63357796034285,1.63363432212339,1.63489008288357,1.63485281608513,1.63572936927685,1.63411831731127,1.63537652159137,1.63523617353173,1.63635773545956,1.63600079730584,1.63724824860403,1.63680352976373,1.63728655235285,1.63791291212472,1.63764047806661,1.63840304823172,1.63878793844487,1.63959403253823,1.64011112063426,1.64106186229343,1.64332422053289,1.64466465355954,1.64337598378203,1.64416221787361,1.73081817036204,1.73102184021482,1.73653164958109,1.73638287875974,1.73263904541472,1.73650168773246,1.73637531413172,1.73514739016565,1.73567463773535,1.7372949379697,1.73725245196772,1.74251097100241,1.7400930151032,1.74069346562934,1.74033542518416,1.73886200915701
1.67791677414546,1.6783479040334,1.67854217578274,1.67870309596776,1.67905823019456,1.6800376242606,1.68114449933886,1.68218686776516,1.68239816627085,1.68237537564873,1.68239155659851,1.68203263987613,1.68172901557754,1.68071670039857,1.68301167880097,1.68251014933103,1.6833814948365,1.68394788556809,1.68254540418913,1.68306408926036,1.68380687751411,1.68387028489991,1.68261665600239,1.68284708636781,1.6827940764712,1.6828617857778,1.6842757847957,1.68532865749902,1.68614777013944,1.68678866401005,1.68636678330533,1.68695262326639,1.68687608987573,1.68718810445425,1.68677139797503,1.68449035428794,1.68336737642004,1.68241299036438,1.68325919010181,1.68300187843304,1.68274267455451,1.68254348020699,1.62690488882299,1.61232288524505,1.61216262498985,1.61180723706569,1.6123457445599,1.61210673952968,1.61223611570599,1.61193955273259,1.61252334898368,1.61194369329285,1.61305744237685,1.61226513544502,1.61350162286723,1.61257775257425,1.61334688366929,1.61196173970344,1.61110624301981,1.60988640203597,1.60989424809562,1.61038552500713,1.61187099218211,1.6118516339406,1.61273662975497,1.61352064454582,1.61609272050643,1.61568781996269,1.61619388573073,1.61597860449194,1.6166666938031,1.61600266561598,1.61685710670101,1.61586381327872,1.61724720687498,1.61615805353978,1.61753802932347,1.61695441258471,1.61819404047353,1.6181775861137,1.61892355011915,1.61913596519427,1.61924735874791,1.61986649946341,1.61954598277327,1.62057200351684,1.61955456003673,1.62136741432537,1.61989627304517,1.62208640992355,1.62182694588669,1.62381785316047,1.62207097799782,1.62453735841386,1.62298592858739,1.62486400483787,1.62569932071421,1.62600689438839,1.62909902982585,1.62984528166476,1.63569403351947,1.63999325824777,1.64463613495872,1.71948538369197,1.72342540627356,1.72346054765928,1.72492129572151,1.72588207552859,1.72392352337124,1.72501283806657,1.72561959704543,1.72645869529566,1.72722957695647,1.72795355476919,1.73000709837521,1.73019585646128,1.73052988191721,1.73164414584028,1.73220852542948,1.73257984106411,1.73185390608187,1.72983564647813,1.73227811015221,1.73139339636822,1.73251284672324,1.73085677647539,1.64053943507051,1.63267800048667,1.63323495318256,1.63337997919506,1.63319162417603,1.63289493589969,1.63258807261695,1.63273883678632,1.63263884333341,1.63317342817586,1.63321003124816,1.63360205696428,1.63358819398272,1.63350401234687,1.63359632546205,1.63416031968857,1.63456879970602,1.63505493933348,1.63518406699361,1.63578545419988,1.63681046146407,1.63693261856075,1.63709065051905,1.63786813842663,1.63814778435511,1.63829770866406,1.63877858374697,1.63937119731773,1.63991492508913,1.63974140232814,1.63951371546828,1.64038661206688,1.64219099838886,1.64503543484489,1.65335019485037,1.74004788659298,1.74171242839633,1.74314915437365,1.7432044948973,1.74243529488201,1.74236856589803,1.74412034569422,1.74509553507701,1.74599220389089,1.74695931750936,1.74701120904706,1.74737892849942,1.74864742725193,1.74866370458858,1.74866739993064
1.67778264990756,1.67753023268982,1.67792694571083,1.67827744623372,1.67884221378862,1.67946998380501,1.68140602426794,1.68187352453687,1.68091554164922,1.68121009113744,1.68168545056151,1.68232015814993,1.68349094517039,1.68433209990329,1.68326448584808,1.68284997752247,1.68545933435978,1.68254517387608,1.6832317430748,1.68384941247422,1.68395056573703,1.68351559319363,1.68432757706251,1.68417669232784,1.68373487348393,1.68363570029991,1.68508896255095,1.68629808924566,1.68608715676255,1.68650525475938,1.68683033208586,1.68654315446771,1.686378442962,1.68685130849067,1.6875180617353,1.68665399138178,1.68637305128113,1.68554434953387,1.68439079366784,1.68396173136501,1.68345456775322,1.68283351322944,1.6137863999354,1.61285347603699,1.61193048554641,1.61310181592526,1.61126315600626,1.61401298517612,1.61064522163344,1.61123912792575,1.61454284529759,1.6134724142295,1.61099017921921,1.61417564895652,1.61192472115422,1.6135807548248,1.61155783261491,1.61042877189641,1.61031581337991,1.6091538841873,1.61003563622919,1.61006390980087,1.6127575998539,1.61107978974126,1.61640990653898,1.61092194429459,1.61505599586439,1.61550130323389,1.61534561987545,1.61638942789721,1.61549412308297,1.6174082819992,1.61500256727684,1.61769303093504,1.61520354265288,1.61785984673178,1.61539071994033,1.61884188960795,1.6168881124915,1.61904725415091,1.61822608571104,1.6190963392629,1.61912093024436,1.61881414931706,1.62060404276816,1.61867415474071,1.62116804763585,1.61887818084,1.62274671710089,1.61922507492411,1.62465150191724,1.61977440126177,1.62536575750512,1.62115763728292,1.62547417111389,1.62246018385092,1.62616472322525,1.62507699500302,1.62969305681218,1.6285826452375,1.71222158006565,1.71125631154289,1.7114960389555,1.71162411306282,1.712298595165,1.71464844886929,1.71532954774692,1.71558341922471,1.71790523572744,1.71795231531009,1.71837362966551,1.71854276779913,1.719244721778,1.71949568577869,1.71932584884585,1.71976082076137,1.7194298536376,1.7192663168198,1.71860856758885,1.72272158423041,1.72722205281977,1.73463866761412,1.73133272514879,1.73218718300108,1.72580335920729,1.72489467879445,1.63035039938301,1.63135100171161,1.63042585266373,1.63301020579871,1.6327314050051,1.63101487804071,1.63204241168838,1.63164804038029,1.63219656605703,1.63220958453258,1.632897557086,1.63263403794258,1.63335218126021,1.63279777697673,1.63368123621801,1.633277426708,1.6334625433128,1.63388147199368,1.63483969326626,1.63506583699881,1.63641702320883,1.63557475770659,1.63585091393153,1.63698246517503,1.63673315060133,1.63838711505066,1.63776787975593,1.63737533142664,1.63814103026548,1.63905339338026,1.63966808518939,1.64047965160608,1.6407986796232,1.64395852456775,1.6444109930545,1.7373099759762,1.7307678042082,1.73388991437545,1.73563225788543,1.73147787191989,1.732280841434,1.73399250124191,1.73479794991963,1.73595404224653,1.73651591072798,1.73691879398077,1.73687511103868,1.736774608641,1.73825420754588,1.73941382164675
1.67892771997005,1.67939090236166,1.6797085613843,1.67979893553537,1.6800610652266,1.68063335450462,1.68128037945436,1.68169256769087,1.68158304921794,1.68186293793652,1.6821103676159,1.68205760565135,1.68235935535026,1.6823946868175,1.6818424857494,1.68153800670589,1.6803332895558,1.68219901509558,1.6826414653227,1.68308207601819,1.68360340898198,1.68396374778783,1.68373946373443,1.68373745124332,1.68347243610107,1.68368742139188,1.68402347894434,1.68425556984788,1.68536739843113,1.68578420746413,1.68603459269476,1.68585303253401,1.68569970279285,1.68579274104205,1.68543250682965,1.68558675044997,1.68491220461996,1.68433861013345,1.68362367374514,1.68251178696039,1.68238830576305,1.68222651037529,1.6133131072603,1.61254532440114,1.61253669373385,1.61165617083252,1.61295099248701,1.61172097609992,1.61245076381521,1.61135517366895,1.61218904278822,1.61171707376099,1.6131485143631,1.6121524001047,1.61356088291464,1.61279983597307,1.61295538188999,1.61164790818182,1.61081389540468,1.6114034033753,1.61115663691523,1.61164750468966,1.61115976993691,1.61098845672295,1.6105791955412,1.61032394190319,1.61559065185265,1.61560077113609,1.61562511420839,1.61548853695485,1.61618035807473,1.61590653839901,1.61662783535172,1.61600654431651,1.61724272401019,1.61624706475045,1.61750023374645,1.61698839016168,1.61791481054616,1.61774929553651,1.61857378216391,1.61869408199019,1.6191119470684,1.61928941633585,1.61950113446423,1.61994666454824,1.61969665229946,1.62101211687622,1.62047036177965,1.62225755025887,1.62132130138867,1.62340179071177,1.6223250936465,1.62447300762138,1.62352625766371,1.62447980700335,1.624498774526,1.6259428705004,1.63548171625199,1.64055018576774,1.71077961142374,1.71661734933708,1.71477859371046,1.71472082894698,1.71764666370438,1.71794617375992,1.71828322270668,1.71874997455433,1.71944863999506,1.72046299006473,1.72240811859906,1.72335835228071,1.72421464382858,1.72531349601267,1.72567376201282,1.72622283858039,1.72690980064038,1.72800995122252,1.73106126711099,1.73119210463978,1.73174136487066,1.72998782413132,1.73147026256102,1.73107478139314,1.6425830846491,1.63759358741702,1.6307835971624,1.63081300179641,1.62990137596637,1.63008461308728,1.63008843667149,1.63096822364721,1.63097212269451,1.63183733502991,1.6315079613803,1.63228189199323,1.6321734362308,1.63267188445865,1.63268981947537,1.633278131057,1.63330209834223,1.6336290502147,1.63357230304378,1.63404488208058,1.63400790321792,1.63460932226055,1.63457530988866,1.63554502704456,1.63514518497759,1.63569931090583,1.6360322162707,1.63643556159325,1.63737785829352,1.63775574460417,1.63806787373181,1.63856074266667,1.639207442163,1.63995969654059,1.64069972819187,1.6445523683397,1.64571167666745,1.73996546843704,1.73910378215653,1.74138165977672,1.74051268273599,1.74081274707239,1.74037498933855,1.74169910424542,1.74248308655467,1.7426997010058,1.74454935491153,1.74427150815617,1.74481676531167,1.74649244655857,1.74663420897998,1.7464566014304
1.67863250325119,1.67940313105502,1.67961526001671,1.6792243809572,1.67912837621359,1.67943501156336,1.67985081776774,1.68019552168857,1.6802740211655,1.68091528457279,1.68094380897318,1.68081645606206,1.68138243970846,1.6819481509719,1.6823739014891,1.68247268989929,1.68154668980119,1.68143324742871,1.68155173902631,1.68177670430732,1.68389235916011,1.68369042957748,1.68302304099439,1.68286630420948,1.68279489036331,1.68268416636569,1.68379562829592,1.68322984494222,1.68532495401736,1.68528335364435,1.68562611368549,1.68559939202877,1.68485720148265,1.6851566848067,1.68517910097684,1.68537448439575,1.68495735683108,1.68477635767174,1.68397205394525,1.68309974037727,1.68347857372478,1.68501647549851,1.61316873266235,1.61322584145192,1.61082747016326,1.6130572225591,1.6109163114615,1.6140334867026,1.60930976371387,1.61358716084334,1.60969830324537,1.61410340504303,1.61078380833481,1.61392916367382,1.61238336262661,1.61428525927823,1.61339721658629,1.61376838244753,1.61403879943355,1.61145807530314,1.61253150448309,1.61218509191681,1.61153443484513,1.61126076721725,1.61101322767149,1.61126208474994,1.61586408030162,1.61516129411591,1.615235832982,1.61539639498709,1.61522306693229,1.61647656715461,1.61532363753111,1.61719769847918,1.6158416648832,1.61801641501433,1.6162230837417,1.61778310628392,1.61656288494377,1.61804023508987,1.61740367062218,1.61944421652175,1.61838739618818,1.61957049197591,1.61917169521329,1.61940457475698,1.6202644837788,1.61979258403266,1.62215202966101,1.62022244428146,1.62326830532119,1.62109886612633,1.62440211251956,1.62327476376369,1.62478873141882,1.62753725237676,1.62380363914729,1.62780697040568,1.69895239954717,1.70712025716612,1.70417807261512,1.71180631958014,1.71199676371002,1.71279148705047,1.71479600148051,1.71545440095987,1.71584194421971,1.71675680621351,1.71747763329094,1.71742143539762,1.71816741599171,1.71819317639271,1.71759747224456,1.7191562005647,1.71810479663083,1.71843454700042,1.71848239592154,1.71951798068565,1.71608408171029,1.71916340044189,1.72193174426468,1.73106049841317,1.73057579426054,1.72958051961764,1.63011347656289,1.63012354594346,1.63074182868774,1.62972900146794,1.62965511566008,1.63006660120715,1.63103500351701,1.62930748497352,1.63123070942634,1.63030125653307,1.63186041379294,1.63069342005216,1.63252222179795,1.63112693221537,1.63254471235481,1.63258061731605,1.63353704165145,1.63288431819146,1.63371462125938,1.63297822155645,1.6338703515365,1.63346444896383,1.63484889616866,1.6346046797401,1.63520932789818,1.63446185271017,1.63521187762246,1.6351773326334,1.63745606614952,1.63724180629703,1.63722072742604,1.63790274539082,1.63819979953432,1.63981757023687,1.64064292365322,1.64257625575289,1.6448317409518,1.73184997415221,1.72957458653334,1.73055245750956,1.73246753277133,1.73169904233526,1.73246207025966,1.73302739765102,1.73514606806896,1.73660099627333,1.73648689888293,1.7373799994041,1.73752233023196,1.73735961583472,1.73732309602,1.73740860697203
1.68033123844862,1.68064317827155,1.68072028654723,1.68056238714202,1.68052868284701,1.68052574979837,1.68045098482167,1.68064906588291,1.68094315158618,1.68115309480626,1.6811028322654,1.68111029856996,1.68146351508269,1.68147628592584,1.6809692939429,1.68093147861126,1.68124943299125,1.68122474465057,1.68143459387062,1.68136299703412,1.68036482639006,1.67987232663544,1.68099026957942,1.68152336808955,1.68266475912156,1.68347198352557,1.68406281698322,1.68393143384639,1.68433136749092,1.68550084176236,1.68596002512078,1.68577451291052,1.68494431243519,1.68465454588723,1.68455628481462,1.68447087271727,1.68413484403825,1.68382298288732,1.68231252886257,1.6817829567188,1.68095436269353,1.68182182100685,1.61304167195939,1.61238992453666,1.61216123292921,1.61101643268744,1.61228339842186,1.61060422614546,1.61220036292633,1.61073658891033,1.6123749634426,1.61116245610354,1.61276999391682,1.61216863078096,1.61340317957335,1.61346042602938,1.61377699405567,1.61423355278458,1.61400327659153,1.61361784404499,1.61316853444321,1.61251118949787,1.61230556280507,1.6118099135781,1.61093282104299,1.61165672742932,1.61426260485391,1.61468362794865,1.61463839382924,1.61481389240976,1.61530134330605,1.61542222395445,1.6160780143177,1.61582380960042,1.61699699641088,1.61654692052734,1.61732363751738,1.61674425873953,1.61742035245038,1.61701816031699,1.61822146451901,1.61793349491947,1.61900055363025,1.6184889611996,1.61978865722689,1.61936617299973,1.62021384553696,1.62050133796524,1.62104537716881,1.62181361533724,1.62190252805584,1.62302349528655,1.62302623452008,1.62464194100737,1.62473327782739,1.62571626978791,1.62548874365147,1.63769735374143,1.70193068761296,1.70615195382173,1.70476471960794,1.71396085427379,1.7114663331217,1.71029559949451,1.71064578046046,1.71190130436414,1.7126177575433,1.71373241436659,1.7152859752691,1.71669436340209,1.71809975483905,1.71937550147028,1.71998376847902,1.72028274664464,1.72032666317445,1.72095530039467,1.7227179640016,1.72461471905309,1.72825786701041,1.72895017092157,1.73110140785456,1.7277876730121,1.73107823717437,1.73371685379738,1.63033986365113,1.63045543995785,1.63015991925276,1.63028266619486,1.62952115693268,1.6302501095272,1.62942048648502,1.63079364124598,1.63014479238578,1.63108692193843,1.63033988790558,1.63127162221314,1.63088307399497,1.63158107354387,1.63151381953454,1.6325616889918,1.63254985245612,1.63309970729474,1.63296243520394,1.63338760468447,1.63313452005137,1.63383638909961,1.63383341710138,1.63453411459167,1.63434138724628,1.63475736998575,1.63486320950519,1.63573817915849,1.63626486550682,1.6368137621816,1.63701726913059,1.63747956405525,1.63777324010805,1.63845366670853,1.64083055889324,1.64044652593701,1.64482004478565,1.65199704390831,1.73619603632809,1.73963701889826,1.73821010636622,1.73931067237324,1.73922215095182,1.74005599350128,1.73842306527132,1.73869412738091,1.74042918327889,1.74132861037688,1.74177085604819,1.74377745083297,1.74351409522395,1.743627204787
1.67990161624068,1.67929744608432,1.68081188684685,1.6807230211996,1.68036921823286,1.67937938471834,1.6791246447375,1.67920677262005,1.68008047098515,1.68020248079676,1.67969654691235,1.67957345728465,1.68005673787622,1.68005627282455,1.68018253154952,1.67969250876208,1.67983437565524,1.6797166348952,1.67989021031666,1.68007701733964,1.68080243461467,1.6812441955497,1.68149430737197,1.68113202114704,1.68181835350328,1.68206337880326,1.68282828578749,1.68107144576562,1.68327491510313,1.68389270010426,1.68534374553678,1.68401560180029,1.68239924550729,1.68565579697085,1.68242545152758,1.68371039048807,1.6828752467945,1.68531573039314,1.68337255356492,1.68712932366571,1.68213649709802,1.67651271876541,1.61295380754466,1.61347933375372,1.61038009926516,1.61233809560055,1.60942095938095,1.61258310627736,1.60884306755749,1.6135832861713,1.60966437679109,1.61283924288519,1.61051261512387,1.61321300267129,1.61269905240069,1.61329500248866,1.61435552257462,1.61351244314193,1.61424158406479,1.61255986561013,1.6139494927927,1.6144777043859,1.61429206009524,1.61537304139433,1.61144536079695,1.61269525976894,1.61333903587961,1.61383484522381,1.61417968343321,1.61415634808684,1.61452561547283,1.6158424401138,1.61472008860272,1.61645916818529,1.61594703785261,1.6174107618016,1.61631593298102,1.6174966222703,1.61594601239004,1.61766195369316,1.61654857412201,1.61891489494604,1.61673474129256,1.61981813849936,1.61819813271299,1.62080486575438,1.61892307993898,1.62137009046559,1.62042878213627,1.62181186222601,1.62222922725731,1.6225378154739,1.62348883343587,1.62444263326908,1.62437824603321,1.62512709667452,1.6256529622616,1.70482750037007,1.70686379041385,1.70839994269605,1.70919015338093,1.71258896397562,1.71188607123633,1.71168645017501,1.71232415329381,1.71335790627318,1.71460348338322,1.7164130487511,1.71656893397325,1.71717366411878,1.7159815998442,1.71781247531079,1.71784724446254,1.71639672623723,1.71706826375313,1.7162440149283,1.71839478190468,1.71573103915946,1.71937280297777,1.71806936899817,1.71812488575911,1.72313587966202,1.72629381757093,1.72580162830463,1.63037542246446,1.63027257867464,1.63014210585873,1.62926918738219,1.62979411796379,1.62865348381495,1.62994063175441,1.62825076681572,1.62962745883701,1.62910561722959,1.63092733219737,1.6292521886862,1.63112258868742,1.62965409485015,1.63149037778488,1.6311542868888,1.63258553871592,1.63183697276952,1.63316639829243,1.63230537352324,1.63281926043942,1.63262790720591,1.63369360069646,1.63278820786057,1.63431795817856,1.63329514486473,1.6339509065862,1.63509924520319,1.63580324755216,1.63588833128803,1.63626515371088,1.63660822534712,1.63719444666319,1.63808757184266,1.63990057868193,1.64014935035029,1.64298204901821,1.64330973261007,1.726454103028,1.72890682325034,1.7309942407503,1.73212074258859,1.73205015452449,1.73137802410792,1.73514208086413,1.73561003655889,1.73648379136558,1.73767767385455,1.73828690151094,1.73726100176744,1.73795151778191,1.73772320561443
1.67666738350512,1.6773335547605,1.67628507254892,1.67684810316353,1.67808877773488,1.67995406711868,1.67995596896837,1.67929446452091,1.68032306121817,1.68118547411588,1.68097097577141,1.68049549372317,1.68057409652182,1.68066342343942,1.68083233483677,1.68053372274835,1.68028506498707,1.68014065677697,1.67998676549196,1.67997575098411,1.68035154805006,1.68096927181088,1.68091917902682,1.68102129250448,1.68098522492894,1.67928538585974,1.68045318069521,1.67926087147758,1.67924698051019,1.67898497246296,1.67674479394013,1.6795147143684,1.68057299961433,1.68215241435354,1.68324018165256,1.68305310185169,1.68272007574996,1.68159905481263,1.68115081661209,1.68035113937991,1.68076149253517,1.62668015457106,1.61353396126509,1.61311905714386,1.61088668692791,1.61012070988098,1.61116616338752,1.61008102981074,1.61147563550469,1.61071415409409,1.61233085615404,1.61154304752468,1.61259121050185,1.61248870661813,1.61329411427425,1.61358302515575,1.61384608778652,1.61409644355277,1.61364376626561,1.614195218626,1.61378390321152,1.61366910323044,1.61296837741828,1.61284496648391,1.61299058922385,1.61312790985347,1.61363141747182,1.61346562987103,1.6139955773732,1.61405710522079,1.61472922762541,1.61478769077476,1.61554062778015,1.61538910480138,1.61639807366964,1.61602546385145,1.61684211499118,1.61629288975101,1.61653294528787,1.6168278940147,1.61787952520903,1.61726765445129,1.61899905669203,1.61798904387435,1.62003861881775,1.61892518939221,1.62044987084614,1.62070404264175,1.62184199702943,1.62174710382453,1.62264005946884,1.62259435193849,1.62358266057135,1.62565921550199,1.62641641057031,1.63360370942742,1.63846259868387,1.70206250551885,1.70319010497623,1.70436927348408,1.70573831797491,1.70874704299492,1.70811768457456,1.70755678319901,1.7076160070079,1.70833500647562,1.70928331349989,1.71051369613437,1.71186666966696,1.71418884628696,1.71325635548873,1.71360184957737,1.71382694138055,1.71388670708414,1.71506001473364,1.71712610194102,1.72005434666861,1.72333357905749,1.72430584439909,1.72806395289846,1.72633840950243,1.72712098591565,1.63868384313738,1.63631232975361,1.63063713435051,1.63031313488725,1.63007333475886,1.62945384624249,1.62878721282707,1.62917262965251,1.62837279487066,1.62887540153211,1.62934148120176,1.6298716501181,1.62933564592626,1.63008661442937,1.62998187656681,1.63057905048707,1.6305673129147,1.63143520352724,1.63190153092309,1.63246828631596,1.63264928063935,1.63300590452149,1.63260990636262,1.63306978805741,1.63289971008626,1.6333933523651,1.63325231066015,1.63389563328817,1.6338295297133,1.63458028390497,1.63506899529092,1.63598250552755,1.63618547791446,1.6364538156556,1.6365947866645,1.63678690066311,1.64046988876801,1.64048623698982,1.64430406419641,1.64404337921369,1.65109301593462,1.73947012887312,1.73935098582003,1.73721641154261,1.73764045326024,1.73829073261668,1.73600536008648,1.73637979303873,1.73665668103907,1.73768195050771,1.73861264042373,1.74054615263934,1.74179890173931,1.74192407371574
1.67715655353844,1.67699853531261,1.67715475623163,1.67730992773476,1.67731963036838,1.67630411030458,1.67777619051911,1.67749253505823,1.67839254091257,1.67807131019617,1.67869416357632,1.67950454275233,1.67892240330949,1.67939639851472,1.68030603749623,1.67949073475537,1.67877901282652,1.67893378271845,1.678366525359,1.67828456132679,1.67811673247461,1.67862159042292,1.6786644021999,1.67943759098532,1.67968000564284,1.68022443065457,1.68030566377799,1.68045496217291,1.67855330598598,1.67877751247952,1.67852679000928,1.6786666855016,1.68133847739502,1.68152602043023,1.68261448336065,1.68164498037133,1.68218287057744,1.68225342510744,1.68224333721501,1.6830832358364,1.68189223614526,1.6147703872491,1.61308656863081,1.61409032910894,1.6102415513173,1.61103852358419,1.60927068725319,1.61125576897988,1.60966564496005,1.61076303618259,1.61279877891678,1.61258170615853,1.61248048230148,1.61279988507256,1.61384372698144,1.61329974190411,1.61442699657589,1.61361973270761,1.61413057172618,1.61467063818526,1.61420856482656,1.61436472079138,1.61268914862545,1.61342653835218,1.61234209209751,1.61380402984342,1.61257987220436,1.61370687087464,1.61303429505503,1.61473157828839,1.61358418064553,1.61534259832571,1.61437905196131,1.61618713161331,1.61495687931674,1.6165122422997,1.61552594328087,1.61670567202059,1.61584587045402,1.6191893420975,1.61585194021429,1.61945751866733,1.61646013469477,1.62080358569843,1.61711036936846,1.62131543170826,1.62005672633946,1.62113625429391,1.6201556325209,1.62307359159824,1.62220328470371,1.62345293514926,1.62448138702557,1.6271728551418,1.62683778828475,1.70324654354171,1.70632583659039,1.70547291394993,1.70636710125197,1.7087729679673,1.70830166356156,1.70840418849336,1.70822077595107,1.70820178619336,1.70925226101039,1.71016732692476,1.71127526812721,1.7127728342629,1.71489492424024,1.71603533413861,1.71264119980005,1.71334343762709,1.71394549066743,1.71487680789155,1.71567832755073,1.71460147795469,1.71592761433639,1.7141187810456,1.71395454286303,1.71353977257612,1.72340320841266,1.71304725414357,1.61999832133323,1.62080614913605,1.63015485314113,1.62897439829898,1.62761964750695,1.62822807093955,1.62872651336593,1.62779487656772,1.62829955963492,1.62788158998064,1.62936205915756,1.62839341376933,1.62903831906477,1.62912919637029,1.62987627729614,1.63008198883001,1.63033992695688,1.63058800400255,1.6317844279817,1.63131925913895,1.63306053240797,1.63264945506428,1.63308906349239,1.63557489900102,1.63318133317458,1.63237978649711,1.63311822772457,1.63266261230387,1.63378736175043,1.63365094652455,1.63479028892007,1.63587620538254,1.63536589287364,1.63583558669136,1.63633189524454,1.63695599783119,1.63942017618211,1.64122802735839,1.6429770214497,1.64188407570107,1.64103562825217,1.72794380011244,1.72969631034929,1.73257352176311,1.73278500168997,1.73291635314749,1.73325155056808,1.73426809878986,1.73671858142889,1.73673468037218,1.73857215126274,1.73889622459001,1.73745416952587,1.73876318867919
1.67891286311672,1.67763439054492,1.67731935890301,1.67732315690105,1.67624091040706,1.67722938609101,1.67669999514762,1.67749207876179,1.67645944536092,1.67731467274746,1.67856004794943,1.67949615571443,1.67964622466081,1.68025830407257,1.68065801094187,1.68031399296512,1.67988374302437,1.67925392412428,1.67891736956382,1.67833377738505,1.67758054993677,1.67830404060347,1.67868881807893,1.67960265591706,1.68014279386774,1.68045645933518,1.68026887799858,1.68072018699981,1.68067571034348,1.68043745679607,1.6804298556395,1.68055781985308,1.68074940241019,1.68050954595579,1.68110108121293,1.68159432020064,1.6814853701684,1.68161409926468,1.68237055990911,1.68273499924242,1.62789618308047,1.61441654004179,1.61251265643568,1.61128776054806,1.61095632866116,1.61063211216968,1.61060805078495,1.61027385520141,1.61080471005099,1.61077500777453,1.61191084885861,1.61220292562937,1.612697412664,1.61306807977304,1.61373114380525,1.61436845582354,1.61395555745628,1.61446891289713,1.61448664522079,1.61485297859312,1.61475919377527,1.61408563225074,1.61377442275143,1.6130619180318,1.61340381319412,1.61290210342909,1.61345257393703,1.61311821292949,1.61383861029727,1.61357818002997,1.61446665518518,1.61415451709761,1.61514693763758,1.6147008895716,1.6156380798465,1.61528042846061,1.61632548603799,1.61595889014259,1.61640902567161,1.61688524080486,1.61806287334566,1.61736478283412,1.61903496331645,1.6179340853552,1.62040598986967,1.61885622623055,1.62098680730101,1.62109070873582,1.62240827950667,1.62201079616173,1.62304072581944,1.62374118782272,1.62571986056226,1.63343406662362,1.63896770270999,1.69985259803997,1.70184450861257,1.70211222369229,1.70229088728558,1.70396178794973,1.70434329099424,1.7046764807844,1.70462997750146,1.70494026787615,1.70549731105195,1.70598236785354,1.70661383393562,1.70744795575528,1.70831787225643,1.7090967914643,1.70872408408012,1.70852020629706,1.70884609061664,1.70977840295175,1.71152775442225,1.71357131894907,1.71603197151176,1.71708638958744,1.7196817116396,1.72240027934957,1.72226669348409,1.72495200641388,1.62217546085695,1.62307159712928,1.62596267070049,1.6264639910776,1.6271969629883,1.62765816089592,1.62770082460627,1.62792654772044,1.62810760461794,1.62812991681241,1.62853484936695,1.62838202570596,1.62884672250959,1.62885507855889,1.62962388198788,1.62960284218509,1.63020935809357,1.63040930692935,1.63115089281147,1.63220277893402,1.63292364792538,1.63330518953986,1.633194145787,1.63346965934781,1.63303005974246,1.63307509273909,1.63270628586246,1.63315466406014,1.63313532798085,1.63353778416606,1.63387412593508,1.63407701910292,1.6350966939201,1.63562054377997,1.6359961614489,1.63649823889511,1.63907412429709,1.63879950850455,1.63934945243538,1.64191945432432,1.64344647668925,1.73460968840004,1.73468156211808,1.73417036898627,1.73427911794306,1.73298902439717,1.73358538755437,1.73559654794744,1.73329321413519,1.73721323020874,1.73576413834695,1.73836994016377,1.74004815437029,1.73981623702465
1.6756913365861,1.6756223270358,1.67584076920702,1.67582905413261,1.67533080525262,1.67576180868853,1.67563719470927,1.67618555267851,1.67569466406397,1.67583927460842,1.67764749658066,1.67930916856833,1.67894527907845,1.67746883167332,1.67790051692606,1.68026363678486,1.67487222733729,1.67709032563178,1.67614545052082,1.67692194508477,1.67668657058335,1.6772481942754,1.67743169786673,1.67819361918592,1.67879630619685,1.6793443844157,1.67902564187214,1.67971451037148,1.68097402326532,1.6782813527373,1.67924031605822,1.67918469880643,1.6793933232117,1.67970019100479,1.68058492016784,1.68034271533567,1.68137400391054,1.68187283932456,1.68205516692126,1.68454469015405,1.61492867883332,1.61296546030699,1.61186905088688,1.61089901305182,1.61080422234596,1.61027948409291,1.61052801965361,1.61005903908781,1.61093507205327,1.61040239049826,1.61064878627368,1.61292402896321,1.61249704570336,1.61296169198725,1.61369583865713,1.61598067621357,1.61213241031458,1.61603238827723,1.61531727979358,1.61101914794064,1.61026651123332,1.61272580397141,1.61323265482776,1.61361576133624,1.61262669749178,1.6135128012512,1.61257546788869,1.61408919705333,1.61271037377881,1.61429608293499,1.61314276765153,1.61515127279716,1.61354776298014,1.61561550842961,1.61363394720228,1.61646005267762,1.61470739075959,1.6170435834113,1.61564747242709,1.61585252033112,1.61902855375653,1.61890879946691,1.61676911164972,1.61994079093049,1.61837489155401,1.62131462863185,1.61926030679394,1.62309352271899,1.62057278539468,1.62357292061221,1.62284658553172,1.62516989774785,1.6255845074058,1.70285307156327,1.7028946022075,1.70312924233674,1.70496205299628,1.70536331663534,1.70503556831886,1.70623056203353,1.70622910401753,1.70573869450497,1.70610664311639,1.70627825797307,1.70658457497249,1.70757190454796,1.7073716381116,1.70817719090722,1.70898424091173,1.70989055247176,1.70942443903097,1.70935279196872,1.71059791585461,1.71215486827691,1.71402382307496,1.7133302932609,1.71374701021751,1.71053746113294,1.7132708174963,1.71352645166767,1.71325016466108,1.72029965452179,1.62127348537722,1.62379429181229,1.62553091177541,1.6263489087918,1.6267873697985,1.62697025887409,1.62667552104041,1.62773058309044,1.62769767086879,1.62832038764723,1.62704990839279,1.62896101328074,1.62705797305323,1.62963580063088,1.62771899970447,1.63021868418093,1.62875960297673,1.63049472412046,1.6304681873516,1.63370110320416,1.63334645658373,1.63305832474973,1.63341115776166,1.63346463014193,1.63292061291797,1.63279936700302,1.63254108917946,1.6322084195625,1.63297018110145,1.63257498767507,1.63345391096299,1.63351640074612,1.63450395278076,1.63438024410724,1.63625063371471,1.63578418341658,1.6388889323655,1.63851660486088,1.63907081948548,1.64073127253562,1.64692605371773,1.72987492333264,1.73052136688616,1.73310193654781,1.73175815588875,1.73281319935605,1.7286242359987,1.72852769138879,1.73622943624891,1.72803979390893,1.73774625499339,1.73552798584868,1.73591304641747,1.73775580535734
1.67302482393327,1.67477858741796,1.67674261366405,1.67708307272502,1.67762631871124,1.67755148779575,1.67701591050444,1.6761405221825,1.67500325159005,1.67287995764687,1.67103767928104,1.67233819767087,1.6757396031882,1.67677744932131,1.67543710698529,1.67399106936617,1.67462458671477,1.67558634968434,1.67629783141272,1.67679400685415,1.6766901173014,1.67722362437135,1.67795299051938,1.67875229180841,1.67996020151482,1.67943211219475,1.67974360077441,1.68097039597311,1.68058420304609,1.67948203833114,1.67874900475275,1.67864251040307,1.67960459467882,1.68011772736973,1.68030872036788,1.68081961843984,1.68132074371959,1.67935595322738,1.6772152202629,1.67572889596778,1.62738543500423,1.61324748733572,1.61068134608821,1.61056341406459,1.61027190697283,1.61074128487056,1.60994485701885,1.61045160710491,1.6102551276108,1.61104406059406,1.61097748156438,1.61202294430439,1.61210793419242,1.61271927486749,1.61235624630509,1.61205058098373,1.61125780702921,1.61104715231659,1.61081737029228,1.61063180307717,1.60985725906348,1.61080765122048,1.61125994077635,1.61252313845394,1.61272879817514,1.6128003161683,1.61306254671026,1.61318631058739,1.61357021229024,1.61352896444069,1.61418790697821,1.61387934781889,1.6146613208502,1.61436388426609,1.61508717301216,1.6149902614844,1.61570828778104,1.61582308313269,1.61682739810648,1.61691257324413,1.6182313742323,1.61764372992289,1.61855775202001,1.61847828168353,1.62015044965479,1.61941909000504,1.62142291247064,1.62125557998898,1.62233163561159,1.62276557281807,1.62317615524182,1.62663559861688,1.63671144030027,1.69860441366417,1.69949835788744,1.69945089185771,1.69969380851116,1.70124361592453,1.70112833755222,1.70189257373931,1.70189399420518,1.70204775027347,1.70232759185036,1.70255914179944,1.70357522715862,1.70424677829021,1.70384434234579,1.70422416838409,1.70476087380984,1.70513714543832,1.70556115330048,1.70591627894422,1.70668239075908,1.708060437401,1.71094469195821,1.71195754166983,1.71228044946947,1.71169597833768,1.71250418990259,1.7139718467084,1.63747179593416,1.63188636620788,1.62749289810104,1.62700635245307,1.62674079022593,1.62637785804978,1.62696044773168,1.62666380615058,1.62718080226724,1.62672146344222,1.62767655269303,1.62678402249217,1.6280198254115,1.626952930805,1.62838684138762,1.62754273122617,1.62904346200444,1.62824374365193,1.62946305593863,1.62913574995009,1.63002611371537,1.63046146954217,1.63121038890342,1.63359856962625,1.6336956553175,1.63377685573173,1.6327409257948,1.63253057797186,1.63227347386862,1.63239653252217,1.63242607759755,1.63272782651741,1.63293011801109,1.6334657071022,1.63376556747898,1.63427735329959,1.63505317194223,1.63646108802315,1.63875824816225,1.63868086372342,1.63855046733435,1.64263269269377,1.64376798107385,1.73007500813247,1.72919714248561,1.72996179745017,1.73317150883489,1.73053269323151,1.73225691416466,1.73219486039206,1.7328487405973,1.73669623417154,1.73268844090892,1.73753294607693,1.7370467496929,1.73525783951524
1.67168949130201,1.67313569751037,1.67537332679645,1.67588766578148,1.67558810245076,1.67591867655352,1.67411853389598,1.67415135486521,1.67370857127075,1.66598182200025,1.66579037477154,1.66694148899039,1.67470699000799,1.67595391490076,1.67632051574108,1.67517710043254,1.67438493815778,1.67497401189245,1.67475375223129,1.67502633934447,1.67470824094774,1.67529404066076,1.67566927085042,1.67625572893865,1.67884265658779,1.67683714162832,1.67696551631662,1.67764056659583,1.68133942742829,1.67507515634815,1.67572630892677,1.67751955345875,1.67660420432034,1.67955881563403,1.67906992085507,1.67953219505265,1.67968334364319,1.67646002742937,1.67824898282739,1.67819809674727,1.67702242676427,1.61289358216821,1.61142087892466,1.60973971933237,1.61109403093469,1.60951298467575,1.61089271686215,1.6086226917103,1.61140715408231,1.60997028086856,1.61178523905454,1.61058313135273,1.61270293205108,1.6117357562725,1.61286658437913,1.60404092451095,1.6098679263424,1.60374715115717,1.60945263668056,1.60852309702075,1.60968485048975,1.60968006357068,1.60930033209354,1.61174485846515,1.61289393869978,1.61185740862979,1.61327672278009,1.61262092685295,1.61350573217372,1.61392695640296,1.61369284517878,1.61428658460402,1.61371479586552,1.61521736281318,1.61421523862717,1.61562587895397,1.61445427236509,1.61601005366474,1.61606500811855,1.61769182708149,1.61789744299714,1.61802397678502,1.61790008422622,1.61925896972119,1.61921250371917,1.61951058070994,1.62085280994636,1.62202273225019,1.62237295276117,1.62286877894105,1.6244754117617,1.62621967808246,1.70165794284911,1.70067027886301,1.70435532164957,1.70276241743822,1.70204214316366,1.70278154118047,1.70468528888697,1.70500718196796,1.70505023055994,1.70524648268918,1.70516309623622,1.70589738721366,1.70428182738495,1.7067668999532,1.70579100092555,1.70606009764901,1.70604430057567,1.70598852681088,1.70624395538653,1.70653951568348,1.70719019516269,1.706881317194,1.71264924866332,1.70593992640988,1.70557862115056,1.70874129603873,1.7080316724067,1.70840933687984,1.61989269821365,1.62649322072302,1.62748267593245,1.62667678541263,1.62593985629196,1.62563806715373,1.62651543636933,1.62746512461435,1.62548078190233,1.6278412798299,1.62491659696019,1.62837669025843,1.6248995951559,1.62875272906438,1.6250852949982,1.62941975538872,1.62627701576173,1.62947021357925,1.62703350700466,1.62926751362876,1.62826285943321,1.63017957918149,1.63012735688459,1.63427436855832,1.63391812875688,1.63329774978558,1.63177986151843,1.63193826930881,1.63178267896796,1.63188835821083,1.6319133628595,1.63196494884795,1.63232173575004,1.63256227234123,1.63297558411595,1.63327651604564,1.63358120127346,1.63560308656965,1.63812485800881,1.63786008920948,1.63730574051301,1.64126724076325,1.64167421881821,1.72533684570019,1.72354215787263,1.73169328388109,1.71707538555263,1.72069062893661,1.71993336968234,1.72884475867391,1.72132880870984,1.72348276356165,1.7296755168081,1.72053054008818,1.72289790569487,1.73207350146521
1.67310820042886,1.67375829153198,1.67302139285852,1.67417230569146,1.6731551060709,1.67478220945575,1.67434575669978,1.67504379900181,1.67499895732194,1.6690780868799,1.66412933267156,1.66526183577197,1.67470507143908,1.67549030557171,1.67715445833787,1.67650620783068,1.67579574041316,1.67519197911221,1.67517664512506,1.67535563936716,1.67565052619249,1.67572567980109,1.67546380866389,1.67514148458043,1.67393832651084,1.67380192585281,1.67353740881775,1.67317070108553,1.6726058317256,1.67501830861508,1.67642891112337,1.67753783324446,1.6779493501433,1.67800563580869,1.67894415188734,1.67803043437532,1.67722571078998,1.67617065348416,1.67677290860533,1.67723133296887,1.62601119840652,1.612213837726,1.61226315949934,1.60996827162277,1.60944835727918,1.61029232632104,1.60893948612424,1.61001698176119,1.61006242997495,1.61105376791633,1.60999528532339,1.61141396677088,1.61070912954115,1.61153790585244,1.61225240938241,1.60744290921976,1.60832726589685,1.60894043563779,1.60924783458633,1.60959201697337,1.6099067948938,1.61075551502578,1.60933490537218,1.61196056255586,1.611464004903,1.6126446318907,1.61230913880652,1.61326059550926,1.6130121622088,1.61347156145147,1.6137276852138,1.61382687584491,1.61442412147223,1.61435498309916,1.61526407186645,1.61525095254024,1.6153896604137,1.61606625706231,1.61618593051111,1.61710615181753,1.61710999506713,1.6177936501141,1.6179569105904,1.61922408687288,1.61946175126945,1.62001716601944,1.62136188776589,1.6212895640954,1.62242176130312,1.6249128433589,1.63226933050569,1.63811253796636,1.69686203281299,1.69674842445315,1.6975728295371,1.69866415574189,1.69861600522318,1.69882450205959,1.69918946327951,1.69954023064869,1.69952886335486,1.70001390534584,1.70019109387352,1.7004499467163,1.700687435352,1.70182217116149,1.70114242380088,1.70144293876334,1.7019280159304,1.70251026379064,1.70327867459983,1.70350928975875,1.70418650920951,1.70506030476714,1.70555941316192,1.70395739205872,1.70396280450101,1.70515473489861,1.70594348751349,1.63732276070187,1.6255413170117,1.62639307955524,1.62667550587472,1.62636576686591,1.62657902999141,1.62595533640287,1.62679015238487,1.62588210731251,1.62701356415997,1.62563545791306,1.6272824146546,1.62579780185003,1.62764629180383,1.62603059092104,1.62786116682678,1.62674289555118,1.62825112398469,1.6274625244676,1.62848315979924,1.62810746813062,1.62876739569734,1.6292235191042,1.63000395217034,1.63160341723446,1.63151008731842,1.63131865544527,1.63134812986564,1.63150826272457,1.6318354452635,1.63224827714043,1.63205614287869,1.63173565053645,1.63188438444635,1.63227893536545,1.63254437952686,1.63254757113786,1.63262018768189,1.63527630505057,1.6351041923358,1.63550581306171,1.63647315127319,1.63932926797654,1.63971944001781,1.64887798739244,1.72926780612979,1.72918417923723,1.73034261961074,1.73106808792179,1.73227804120166,1.72974701487044,1.73175491457271,1.73225872968246,1.72971347648136,1.7321601438245,1.73100336147928,1.73068805954209
