1.56749094375518,1.6212289780706,1.62130257906913,1.62195971945992,1.54449599409134,1.51024686024881,1.32769743291377,1.27013954022994,1.24372258759107,1.20702745478256,1.1558971863316,1.14515930215875,1.15002104816445,1.15452798939103,1.14718284001641,1.14019977274425,1.14579794570677,1.15230310123091,1.13827108515705,1.12140172539886,1.10320678569498,1.06830896430689,1.06806800035389,1.0679405309534,1.06764927317212,1.04869786660556,1.04721043647339,1.04264313574398,1.08564588787772,1.13059009553757,1.19741877146174,1.60758074983066,1.58925855974486,1.58820738203462,1.50253942578523,1.47453016269564,1.18422216048659,1.15327570523701,1.13669877844528,1.11401856479511,1.11723275040573,1.12877995516525,1.13001607854741,1.17553640363111,1.1594604897542,1.15047404685074,1.13330766853526,1.1336029451752,1.18379702806902,1.37500740236845,1.38789393721916,1.40409345793147,1.32908747992482,1.26799141554582,1.22033646319068,1.22078000228739,1.22014847463632,1.28221374755716,1.28076836977534,1.27963346284924,1.26085066243557,1.24261610783307,1.17172569823708,1.08914462224285,1.08937789408607,1.10074424314142,1.13629549316784,1.3066473305458,1.28721329973164,1.28496403817424,1.24441671310219,1.19189781660506,1.07795567328442,1.07310622663882,1.07225990675351,1.15191490059491,1.13234077022096,1.11856502790935,1.10226600833913,1.08464172081471,1.03363358501732,1.03462277452913,1.03412411162411,1.03206473408718,1.02815847789055,1.02015579809877,1.01188296559636,1.0087928244752,0.995908801410038,0.973600784829312,0.962939807902163,0.961066741173919,1.00471082481271,1.07767893870327,1.0598594990253,0.9957209621062,0.995324803549953,0.998490858380409,0.996034661737711,0.996807864125368,0.99633930967475,1.04094657120653,1.09130141029814,1.22961459022692,1.25186106937905,1.34589243724339,1.34284632909612,1.04432146700118,0.968299180846249,0.96711161389352,0.961439439615826,0.959620395789106,1.03536334610823,1.25532477666376,1.27486580135714,1.28151759659548,1.0653921988459,0.93830488935421,0.941579277834657,0.951967174997647,0.952278210842231,1.00094585853494,1.07501682414247,1.14056482687367,1.11785622912337,0.861058949358046,0.858317255819567,0.838405874102221,0.846914298884729,0.852657281991682,0.864466126320194,1.04154520410993,1.038954197447,1.039396335251,1.03990932577835,0.935194070210828,0.891735476092369,0.848906348102418,0.84965083844453,0.850345210927978,0.981991341265123,1.07917037765816,1.07832087013043,1.00435287230094,0.970414669933908,0.907757079963702,0.892791597590662,0.892702100981135,0.893431827269575,0.910677420695913,1.06203609336084,1.22117464350872,1.23368682932319,1.23573791506852,0.991638580814346,0.882740609656251,0.881779437781895,0.880760704422552,0.950387731670817,1.04641143858035,1.07074189590099,1.13080733688877,1.11129016938351,1.08966505908535,0.963361588753731,0.940625688135374,0.939387387807637,0.939707693844792,0.942440678787632,0.942832858967894,0.964235012155745,0.95637045426479,0.95500301043924,0.932670899799339
1.57089513415929,1.62188292303296,1.62262512655008,1.62604968005071,1.60502533804333,1.59728528066434,1.34351089384488,1.26450466843959,1.25867658518031,1.23611993357134,1.15725964210373,1.13994044404434,1.15251535151263,1.16125861772244,1.1498663248859,1.13027504270787,1.15251757837338,1.16373259890193,1.15040186472016,1.14353852907303,1.12413076018305,1.06075993436064,1.06717968982379,1.068047902922,1.06809674847906,1.05328595309691,1.0484784018741,1.03618026046197,1.11447053903097,1.6538523711412,1.66252595227769,1.69199147832529,1.59859845063162,1.59455270557839,1.52683577224187,1.58573996778225,1.1949419620009,1.16512236441776,1.1552775681948,1.09448842784301,1.12123510094497,1.12767168018122,1.12985547674348,1.19535991954683,1.15206719230507,1.13410529884173,1.13403700831097,1.13509008094728,1.20580147669098,1.3550300999505,1.37021640853212,1.45451995108673,1.32731899957929,1.21186084830795,1.20083316724074,1.17405969807204,1.21423959949481,1.31463992454179,1.27916703904021,1.2783229479555,1.25056533722654,1.23624936589543,1.17107262699512,1.0899496915178,1.08885330566396,1.11558895357132,1.12365770084983,1.35471999698131,1.29240628344387,1.29837169731171,1.24684093195569,1.24947325518161,1.0745397983839,1.07329844178108,1.07261015542892,1.19960006950983,1.11880864092734,1.03916003174566,1.08754005842546,1.03399776290858,1.0331142078575,0.974019151230591,1.02169569832108,1.0325273529674,1.03083181783301,1.17394859968374,1.00864102521165,0.987379078557023,0.992541605610349,0.993886287305794,0.965652996124569,0.923926159844525,0.993856940570837,1.10027637833736,1.04279930985754,0.993597368432469,0.998827535392106,0.989750001290373,0.99852803513579,0.973851363495028,0.993871800059013,0.992295255535942,1.09401682305546,1.2232573952672,1.25964330908279,1.34709583401981,1.34439333269338,0.980379525392884,0.978415904666973,0.977358483621616,0.962757197294107,0.95436756600912,1.03409311892286,1.26468001657992,1.27096673227868,1.35354990797962,1.07774817773702,0.935760083171686,0.945204907581738,0.965812615727921,0.959660267281977,0.952925798485972,1.07735037997895,1.21710000000007,1.11158787012755,0.841367067773001,0.850657082004348,0.821962821881286,0.835632515846548,0.825084184642578,0.868828479249915,1.08633996166832,1.01602363748401,0.931800833333282,1.03944020694129,1.22979004286363,0.912201559345,0.848958754921406,0.849787068861976,0.851204512188976,0.976229738488993,1.14330993448771,1.09158230760197,1.38462000000007,1.00263086100858,0.921327336709761,0.890864138771133,0.845815337197974,0.891479826871644,0.932508947541931,1.05651293302949,1.2111560631006,1.23072065146063,1.2369339044387,0.986422230379545,0.831917143981373,0.856089842864297,0.832462127043465,0.955809765367396,1.02496006656486,1.0516165633615,1.17351990573696,1.08966505908535,1.0699300943567,0.955704519930026,0.936899700468681,0.937963266905812,0.937063190460734,0.906297543204466,0.836976750486534,0.98850728810357,1.24908000000003,0.959994686764346,0.906848965802872
1.57354559637074,1.70270522774827,1.69589334753726,1.69861296241141,1.61143501884981,1.50356133985867,1.35932061266039,1.29467325986542,1.27274759891959,1.16195696514809,1.16296842643093,1.16705115964878,1.17188278237352,1.1772479408832,1.1651134050745,1.15519254525445,1.16413305953659,1.17694841801103,1.16902977280068,1.15981898876408,1.21252224170439,1.63307739617499,1.1572330513748,1.11317991169689,1.08852425360326,1.0773464108159,1.07711735378129,1.07697842788383,1.14262631651585,1.66759272925515,1.67065169064922,1.67286303317263,1.60170905568645,1.60505265325127,1.36462621578767,1.32931999999874,1.20255931428835,1.2003000158772,1.17025856837459,1.13241997956114,1.12757443699962,1.10636662786342,1.11523966154479,1.11030231340999,1.13928348873992,1.11858286075042,1.15473928110787,1.16806418164022,1.22806250743085,1.48706000000007,1.36095574407172,1.31691847008318,1.31948916852843,1.19106781388988,1.18800168678193,1.17946236012894,1.2123029642393,1.39631000000007,1.26454638384429,1.19356010572749,1.21794351067357,1.20279001077422,1.170555491133,1.08976059314017,1.0900918868799,1.08329372282277,1.08319950026356,1.05712089645932,1.09294382579118,1.12212986792244,1.10507146549374,1.05874491868003,1.0598786539203,1.0056700679558,1.06249909146322,1.22486991793157,1.10367936472639,1.0415200153172,1.12157667019402,1.36875190687229,1.03169387453014,1.02779984895601,1.01245786305129,0.970191523258444,1.0152963895489,1.16440499707819,1.00751852062182,0.995414066335293,0.993930952683731,0.977980071983666,0.969033063535194,0.970818630512155,0.976081407890296,1.11371351808368,1.02917412573276,0.98450925712968,0.997584244341999,1.00250078696739,0.996832506557774,0.978422214217444,0.992935993320811,0.989953191788766,1.09944710242091,1.17404003438476,1.26883542235053,1.40042987103981,1.3783333947615,1.38871572574,0.984094720965284,0.964613767675775,0.965827423477222,1.00451211685247,1.03041536121722,1.18196,1.22982062808002,1.32011836956571,1.10154162279084,0.916967326174082,0.948453179360486,0.952373598050636,0.966248051066966,1.0803596998055,1.08001617023968,1.09721319992625,1.10496383538286,0.875748685151692,0.860838855169796,0.821189414456583,0.861283567328469,0.882233577646096,0.876748400815113,0.987572245397871,1.00324104060082,0.931000166666615,1.03804777760394,1.24875995713647,0.931015174138649,0.852570214597586,0.878820581360773,0.908122837476938,0.967539688331847,0.968520053048387,1.06343883123482,1.18853000000003,1.03546392791348,0.890828000850839,0.889968986525114,0.857014631391797,0.890823117081238,0.986069981686207,1.05030624968771,1.04202741641416,1.22714852717688,1.26390012054606,0.9817434964922,0.883165718411741,0.881218459656475,0.881008158644706,0.961038275231211,0.965920984159847,1.02357553404279,0.963966035501061,1.03088679032477,0.965196968710056,0.948970399352932,0.899571463562464,0.899370062718525,0.85154475425563,0.879914294869708,0.853328336889693,1.01486476690508,1.30031993986653,0.963240100733986,0.929965216760564
1.57527282816293,1.68234799543031,1.69361378832094,1.69086859185235,1.61582254402511,1.4933046710353,1.37479580794656,1.29664660968836,1.28419681131602,1.25594272838524,1.22283762550674,1.17704160315833,1.18877838478281,1.20477679240111,1.2047981840292,1.20531937481157,1.20669217352833,1.20818869049633,1.26015867625446,1.64743995237306,1.64290476715213,1.64405635809548,1.5986163943107,1.60672976324626,1.23149102643118,1.19942004220911,1.16313097015924,1.11486001413527,1.17088928101605,1.74799611663435,1.73667003968708,1.73567817573693,1.53882408484574,1.17536004941027,1.2206394576578,1.21307994141356,1.21655783186864,1.22158195999584,1.19334415249082,1.12872254813602,1.13170193812591,1.13552047454136,1.171292925001,1.2198447845821,1.17681860866266,1.15327074183714,1.15995052829699,1.16984688959601,1.25061609748577,1.31797952633024,1.33668606352682,1.36499981927522,1.31896994594874,1.24459989188538,1.18602517371648,1.184128425792,1.20975957126123,1.20538895713752,1.25375913092896,1.24250909009301,1.23051109458913,1.16972721448728,1.170122481438,1.08871703780036,1.09011058466354,1.08340100233809,1.08043915040108,1.07019006562518,1.0691761782674,1.06589592238006,1.09816313001439,1.1155807279591,1.06211332018822,1.05599065303409,1.04855315048811,1.04045587634927,1.08671092298982,1.38402000000007,1.15573892020184,1.35369812792717,1.02988922566114,0.991377249335941,0.99573759693432,0.985147517318757,1.0107621202569,1.16421640323821,1.00793596346285,0.992716136442103,0.993291003208492,0.994048281852926,0.9714657524297,0.938680249971692,0.961586534429026,0.950161458481697,1.01805113300114,1.0089187753667,1.02314072940491,1.04972652396956,1.00100107103337,0.942678121716349,0.994842121721649,1.06679000000175,1.10723538863818,1.30075391370778,1.27885939365263,1.36717445037763,1.36820871724849,1.34747745077161,0.985279293970864,0.935233215082179,0.969810129519866,0.998650740852381,1.0261271687158,1.08803005917243,1.20398469538457,1.32988179182635,1.13086141466986,0.957596346000609,0.967695893133377,0.979923165940064,0.979358508699483,1.02932864926332,1.08239739057525,1.093904356724,1.1389432086356,1.31000998078208,0.906280882509444,0.883600535163503,0.869003082321488,0.877111578974574,0.87603650840328,1.14640000000007,1.07210922101776,1.22429837358792,1.0647877542275,0.881179999965666,0.949669146539516,1.0017598489352,0.89852870528009,0.852534906815464,0.963789648169155,0.990815976106348,1.03244498658031,1.00139011524896,1.06903565046311,1.27581000000007,0.889000697152187,0.839616946915169,0.89177235239345,0.894094148504223,1.052304289151,1.16055999973265,1.22366412013661,1.27363404698754,0.978494739535453,0.828660556151004,0.879853175768882,0.878889739564062,0.96615635508335,1.06410993176258,1.06974515140639,1.25609998772906,1.21199261875496,1.22970897044869,0.939708595661608,0.901728770149152,0.900411461315174,0.848763395485544,0.916800315935803,1.01149003984667,1.04173481922746,1.27842006013357,0.964800864679049,0.877886725309691
1.57655318941463,1.69839201445351,1.69395148469505,1.69064509354109,1.61806317708096,1.49802402330564,1.38885583251642,1.35027374949093,1.29405579908451,1.2519263674976,1.24475000503208,1.2372887165263,1.28790946716883,1.66171000000007,1.37397497438896,1.34612002042209,1.33326429726024,1.30945008310795,1.35481438044179,1.50658001117575,1.64282135916992,1.6528218216295,1.59191694714361,1.53462006019684,1.26579692320922,1.21885992437429,1.19522089570846,1.14939002357817,1.19906192760215,1.7510097474344,1.73999529743345,1.74385822413342,1.53875618655316,1.21600999716998,1.23018190574759,1.24429802758513,1.24937449400265,1.25388546706408,1.22524661290321,1.20601334582365,1.20692777965947,1.20630900538878,1.1989832944566,1.19292824305532,1.18872398113587,1.1841360818865,1.2158749891514,1.24389001709965,1.27424225886034,1.31675645303289,1.31629795071806,1.31472060620289,1.31708968651893,1.17233302186796,1.18519298734162,1.21150664558889,1.21120929850452,1.34182998486596,1.26916152638616,1.30161280431411,1.26831678698016,1.25726225157729,1.19753392373346,1.17880993065654,1.09259848151051,1.07576479086174,1.07641318217431,1.04371018638775,1.07007020604945,1.07074452171052,1.07089431483661,1.07046756128085,1.06581583899791,1.02616928620248,1.03304919973031,1.01990014439914,1.05440816727458,1.02954014744053,1.12036197720647,1.40299996520068,1.02759045433256,0.986182223096961,0.999690766781456,1.00403242171928,1.00093380647249,0.987744513303354,1.00896564782611,1.16949990248184,1.1142872981363,1.17533997007909,0.974539013763535,0.970016511272206,0.968148040945517,0.981547445889563,1.02337787776718,1.28923000000007,1.03946603989543,1.02943400241768,1.00644383343642,0.995802403256235,0.995973629006904,1.12761414297286,1.11638759553769,1.20499995596019,1.2567650014903,1.26138450431899,1.36893000363325,1.3960898806387,0.987406773245293,0.960775032351121,0.973586291512738,0.976965603576281,1.02400169417491,1.11525988421432,1.17939777594487,1.36053805323283,1.33178880629209,1.31390573744349,0.971419207280306,0.974705678246143,0.977065749616726,1.02799637821956,1.08450016565837,1.20189550682195,1.21405389676001,1.26243998121142,0.926180157567747,0.892422168381689,0.863699870220051,0.85406984097787,0.866481014655124,1.00353000059566,1.03778592308646,1.21472162641218,1.09596129302197,1.19916000000007,0.968736570758054,0.96396332641146,0.89969149050016,0.859750164128119,0.957615799151132,1.00652902020455,1.05007617268784,1.27596000000007,1.13311433044718,1.11446007264211,0.888642190051407,0.844529201695488,0.89978241045875,0.930339908182806,1.05461898715252,1.21851921126569,1.22080542382125,1.26132573916062,0.973922846799484,0.830794533494565,0.88980491471269,0.906683678267915,0.970808453198431,0.985028999999957,1.07412704989653,1.17888998308958,1.19984101379445,1.22071091282901,0.929516710364903,0.903239507803356,0.900325132922306,0.919045761641149,0.936917347005448,1.02623659994881,1.06944024093924,1.19334000000003,0.972188637916384,0.86040852537859
1.57740565961898,1.69454226887656,1.69266023296823,1.6913500915691,1.61865542006724,1.51111894125736,1.41102206132137,1.33786028731485,1.30305770768789,1.29241737642538,1.31676326858276,1.34540496743475,1.37672262149246,1.43504223872151,1.40152349448066,1.3667576507575,1.36006847149362,1.34819334358578,1.39020759844232,1.55556756061035,1.62417987773321,1.62488628466698,1.58799785885534,1.55612417148006,1.30959453925015,1.27616451937802,1.24357355932819,1.20533958545823,1.2051328628771,1.26122887502327,1.33109385897321,1.53861306513984,1.53865435109751,1.32932310242319,1.2887716208629,1.26221435037683,1.25961769687198,1.2572488252415,1.24079734014125,1.20759532998842,1.20731593334916,1.20710593086139,1.21168271266282,1.22012368023616,1.22825431000065,1.23470802913278,1.25741793462731,1.26959264973158,1.29352866506331,1.31674064561159,1.31686132454118,1.31666288525464,1.3172726387802,1.18085478114245,1.18456155112613,1.21113607231401,1.21167051270542,1.23990023142075,1.25400636683243,1.28600734124941,1.2750894632598,1.26827636775151,1.22014800505948,1.14754355447998,1.09438278309442,1.07440669632983,1.07401374172094,1.07171264291468,1.07012157666868,1.06975560770904,1.07015852261602,1.06997882990807,1.07035097231234,1.07110682591764,1.07163747549838,1.07218222077079,1.07298199548176,1.07180438354088,1.07292526417691,1.0451509754778,1.02536601282588,1.02534796991599,1.00324303111222,1.0008926423676,0.999433167897088,0.99268715742391,1.00970717672527,1.11737496120179,1.09454969805477,1.07689717724299,0.977748162400477,0.968667559440233,0.966911240987487,0.988893298205824,1.02934569943788,1.07480100211495,1.05926579674139,1.030516499772,1.01488905299315,0.996441510098357,0.996570532683878,1.05343245608033,1.08704655666214,1.19097500029198,1.2526894140352,1.30600871366394,1.36856653073845,1.37911719047419,0.989782019469446,0.992171103841938,0.992322331047452,1.00208168120349,1.02319063803836,1.08487574848031,1.15625386243029,1.35124146850955,1.34071199231281,1.33170639842787,0.969850210603103,0.973462194864077,0.975067754185662,1.03550951649758,1.08606261041819,1.19293824088964,1.22482796818396,1.22832379602631,0.947163646853048,0.874722727264851,0.860100619519558,0.857317824334377,0.864980650514441,0.935306980760855,0.96828210975073,0.972307900487205,0.984290689949926,0.984404075657584,0.970239591437374,0.968513022187216,0.91320102590958,0.910837315379235,0.951459505994047,1.00861690741193,1.06678432018851,1.18287010442202,1.15274653044102,0.975578510218616,0.888688573444766,0.887923959552821,0.8993889822403,0.97271168254923,1.05700464695157,1.15942662859555,1.15960823255049,1.14823844229721,0.969995896757513,0.903632264835484,0.904300812156699,0.908589100270809,0.975107041145024,1.03660940276581,1.07854582101141,1.1601715428882,1.1430453154228,0.968317780474025,0.920680654728628,0.900895754174444,0.899777319113792,0.922664989728892,0.950290756812089,1.03156731313593,1.09841316585595,1.13094370866257,0.981289783924496,0.869876347594162
1.57934170082637,1.71558997666656,1.71067435169037,1.70631401172673,1.61846871960104,1.52363981469327,1.43686299254698,1.3263801558462,1.31459703206625,1.24494008441128,1.34896399469977,1.72269565661011,1.68503762504224,1.71112989294357,1.42440839682338,1.37793167716357,1.36658322362093,1.33415250853199,1.42371773089335,1.61856020344972,1.62575081224249,1.62803401451439,1.58781886338016,1.57205694804061,1.35560502624154,1.33511867579699,1.27042279411706,1.20554490294919,1.20513103095252,1.19452440324325,1.29727779477817,1.73083000000007,1.53861309076516,1.71348000000007,1.29924984590882,1.26734090603537,1.30360095135909,1.34737421810272,1.26595129178196,1.20935456575711,1.20839297496869,1.18063013425484,1.2314383298337,1.25478097677494,1.24689403763902,1.23992152104798,1.26895469960272,1.28874992519128,1.31572741866321,1.33683551598302,1.33500014141485,1.3339000846361,1.32772568770298,1.17336143310834,1.18412598889253,1.2226165714138,1.20276690331303,1.18445849492439,1.2407702370892,1.35459998729095,1.28881184238223,1.3123399933603,1.24287247133567,1.09629748199114,1.09560385141887,1.06697380931668,1.10791499340773,1.12997990666214,1.14236169986201,1.17968318756615,1.19419235610165,1.21662829955556,1.09700837206553,1.0964851010067,1.0904095366902,1.30312000000007,1.07434081540518,1.06846784575658,1.07215730737339,1.02658245896963,1.02450546462851,1.04769780441102,1.00607178958621,0.997774740630797,0.998777491381061,0.989470349566081,1.00950209873197,1.35525000000007,1.07689717724183,1.05835011530069,0.980778185602553,0.929636590182514,0.964122738768857,0.996064277141549,1.03455877500045,1.09755986942352,1.07480052881859,1.03131553481587,1.02243805805025,0.942443081771088,0.996828668052163,0.997187751590149,1.06292415797444,1.17695004403981,1.24997564135872,1.36764653055798,1.36775494524206,1.38157912241904,0.989964594343028,0.994860995803798,0.993168829865189,1.01829041480123,1.02106910134436,1.06339002839286,1.13457121999646,1.36911987062497,1.35300252655319,1.37528647476714,0.967181351399758,0.969971903600071,0.972389526497851,1.04278549768864,1.08706534699653,1.18106909494801,1.22984811884996,1.26086994437788,0.966237867509051,0.84985929511602,0.854630981907956,0.85100092036621,0.864454247154926,0.860362162771968,0.944784792017117,0.890614056407478,0.984070762157344,0.983207799583381,0.97534538726636,0.998094839751634,0.914505823166642,0.906485086398103,0.94664579504374,1.01045007509035,1.08268384020274,1.25693006770271,1.18287067235469,0.918829946425379,0.889307887901095,0.861032175830621,0.899446520490228,1.05476347187577,1.05910565736156,1.15885664421657,1.15943512305003,1.1341700964335,0.965515847624867,0.902515259886498,0.904025765170864,0.91098779463249,0.978912427521226,1.09627421023134,1.08580678907246,1.22693000000007,1.12544220038666,0.86014773306037,0.866701962999866,0.887035262224459,0.899100289942548,0.928325976891432,0.965711193510424,1.03638441653259,1.1309437088986,1.18583000000003,0.990490216460215,0.87634432372756
1.58685656170408,1.69049066389195,1.72186210076376,1.75498258770347,1.61822717444996,1.56063723696027,1.46560048680463,1.3803399999799,1.43276861123983,1.47072001193982,1.50214509269098,1.7339343207337,1.66101828474464,1.64045524295054,1.44863500494442,1.3919520232666,1.39968278447319,1.50173030058458,1.49733606531796,1.62226568793147,1.62503177547074,1.62606835687519,1.58597695505333,1.55091007295448,1.38278769842979,1.34320141701764,1.29793175680829,1.25016029242869,1.22826813459534,1.2095110531925,1.23754599980186,1.22670517799184,1.30394648688338,1.27509014154239,1.31059486663455,1.62017000000007,1.32217187938064,1.33255747552547,1.28743024125182,1.20936947280666,1.23996260089971,1.26078001948411,1.28107707976901,1.29941517011315,1.31756027046984,1.40809992396214,1.33584397355357,1.33224677566234,1.32521914191267,1.40699993577424,1.35307075679151,1.3538665228648,1.32965148089123,1.18521685490252,1.18436104376454,1.15414020844188,1.19765769082267,1.19906070860248,1.20156219099218,1.18214318222893,1.26572444213249,1.33761990240366,1.26923889004152,1.26067445841747,1.18365210453443,1.14570994113634,1.12116911420036,1.09539014380128,1.16126256795935,1.18173464683814,1.20416897069927,1.21914159041947,1.09928003005874,1.07788146831085,1.08455292585739,1.05281018335299,1.07944108082298,1.41881000000007,1.07354088157445,1.02365536118494,1.02328401345106,0.994562652435484,1.01284383408509,1.02247499827067,1.00762645891317,0.99337627615469,0.996817135591478,0.99638411588743,1.00988047990926,1.01578481048219,0.983373583301019,0.928942606902735,0.962057589707119,0.961159505365652,1.03884755813219,1.26583000000003,1.11261158242298,1.03346592270629,1.02746452014631,0.993828593615775,0.996740328077942,1.00001870648224,1.02029140713374,1.02061076853538,1.24900580002592,1.34897942832529,1.34739857867766,1.25628000429522,0.985879365094934,0.962928155884005,0.983850417713771,0.984228618028351,0.983956517807007,0.980715926143794,1.11424429449432,1.3198562783895,1.34169654560378,1.3611733895159,0.965052102899559,0.967236351837307,0.9704520483268,1.08824218644849,1.08771469971634,1.13203003540669,1.23964668736207,1.39188999423927,0.985878972918929,0.936125019985052,0.904667055678022,0.850343801506068,0.867933923261807,0.87106600473324,0.978360554782278,1.28175000000007,1.16377436619678,1.19015991390479,0.969246653786544,0.930534602701631,0.915796230331633,0.895975587127812,0.942703402247163,1.00526493076021,1.0978116228508,1.27792288098236,1.25736034509358,1.26384992350975,0.889986527418175,0.889789711033228,0.90093127238105,1.05089346859803,1.0619723971757,1.18859093972707,1.20049963415857,1.21855359206385,0.96054980386173,0.871566580949763,0.893196512075179,0.893670409476675,0.982342968578779,1.05914013580148,1.07976096374189,1.07328937343701,1.10694138073227,0.816336046376617,0.857416892536156,0.840168118415959,0.899497105870672,0.930634534989418,0.974352914665692,1.20800990016928,1.17212044778296,1.23447995402608,1.00056293869882,0.868337938539841
1.59912584212537,1.77989993074385,1.73862166513951,1.7692772563101,1.62081139109026,1.55801557758479,1.49639323392916,1.46863747602742,1.49461970187088,1.51138003974739,1.53417686697418,1.54705998376171,1.65476386467715,1.63732542077841,1.47450447299759,1.40435103508777,1.40685235218791,1.40868600414885,1.49406982403017,1.52232993917112,1.56365553031805,1.78904000000007,1.58209422249573,1.46149999999991,1.41054663002551,1.3694695339509,1.32619444544957,1.26125972856358,1.24712585893393,1.23731463569285,1.24924846634128,1.26769706387438,1.32411010475377,1.35395982340186,1.32584927432399,1.27317006744137,1.31472971359473,1.30522900547908,1.30077974092097,1.29542975892077,1.28926954013759,1.28084515189906,1.29071151855011,1.2986558122591,1.33523111837342,1.35148220387133,1.34143269102624,1.31495408078402,1.31910877610152,1.31518443714488,1.35236742336566,1.35174869952631,1.33150749504031,1.22090997388189,1.20646672604667,1.19487994969143,1.19562288308741,1.19571667641674,1.20287219908249,1.20311122387737,1.24235689374988,1.17537000673773,1.27536950799422,1.28146471924984,1.2177615526046,1.16769873425697,1.16314958801273,1.15859285014357,1.19246388167434,1.22605991840462,1.21390300816359,1.1137157209579,1.11536865003691,1.11836387067117,1.1036567145058,1.08510915897426,1.09333235407454,1.10427488680158,1.08022877977506,1.07628454528805,1.05400150759768,0.981359547748933,1.03502908119144,1.06037128279791,1.03348971955084,0.987885110326024,0.997292023482064,0.998724037217052,1.00356124304248,0.989231095228763,0.985693456514059,0.973959464677382,0.97552164970599,0.993727267679093,1.04202386998717,1.31578991338563,1.29396767903627,1.35310166666672,1.05748095235386,0.996469532260882,0.996384353118821,0.959243142761443,1.02026354878359,1.24722218323144,1.24867830004362,1.3496819216717,1.34743519831893,1.30841003222634,0.984341370680898,0.985659940277462,0.983643956722587,0.983841371389248,0.984492093373776,1.05013222304885,1.09506454071061,1.32857379829893,1.23032975470219,1.19592999999998,0.963185248945866,0.938070699646414,0.949219886986532,0.968608112294009,1.06042253068376,1.28587990406573,1.2617045577832,1.32562001940507,1.0063920967796,0.955981282459001,0.932814429938189,0.912463135011246,0.946961679260609,0.980538007708475,1.01194098897958,1.1589833603278,1.15182547483755,1.13298737890506,0.957924460846598,0.867084063805544,0.91830773709275,0.924088417385914,0.938945097378251,0.935246969351913,1.11178053336009,1.27764035895936,1.25512621732004,0.89292470439124,0.890984003461484,0.878719264954786,0.904186828437651,1.03257005681801,1.06754640473737,1.20331178399719,1.20712198002787,1.21397164445221,0.954755189056651,0.896191887540682,0.893919246494306,0.893482063439997,0.984711596964907,1.07824997474779,1.13240343909368,1.24474003991858,1.20164763281254,1.20805255107611,0.917343262701062,0.878496063732718,0.900718334296769,0.942508201309275,0.98398034015226,1.06091002124756,1.15285684359336,1.21198033325096,1.00909778773674,0.879463153575455
1.61083019768362,1.69906509415418,1.69880690613612,1.6986442032411,1.63568236244081,1.57076715623897,1.51734368552137,1.46140271519131,1.50509772112049,1.54152677496669,1.5509130640382,1.73180990484685,1.66146683074801,1.6341296942905,1.50221485021199,1.40783319504676,1.40768983329479,1.38254010351813,1.49235252303423,1.49182442137986,1.51539921626167,1.47827006362328,1.57679299880619,1.58186974082258,1.43913202218925,1.37645037912685,1.35492211962592,1.32249674225473,1.32923191374264,1.35048808963379,1.38078049910147,1.71832000000007,1.35877196291055,1.28138005412038,1.36860241515126,1.56726533646682,1.56708321669939,1.56883533494257,1.43746409041911,1.40037999999037,1.35787969364106,1.30563000092917,1.35816667817119,1.70307000000007,1.42890189644398,1.38973981125461,1.38782191697189,1.38565667264873,1.38919047246748,1.3921819290884,1.40738431767348,1.4345370720861,1.33610435764391,1.2364599398872,1.22087837134218,1.17569245171624,1.21019832494064,1.22649994342241,1.28130463253278,1.64456000000007,1.40143033201965,1.3807000946103,1.31041635916456,1.28474115204065,1.25248076510893,1.2234760800937,1.23118957524564,1.2409747142668,1.27198703711671,1.56264000000007,1.29392998703662,1.26190001742059,1.16852242017854,1.13314978146769,1.12231830432857,1.11328132065968,1.10396129408117,1.04353011927181,1.08232401454829,1.0831184738739,1.06124785418298,1.04016824579436,1.04348277700582,1.0468124933337,1.06238934761116,1.08012285195898,1.07169055637686,1.08125526033181,1.00989314302,0.989038037470142,0.988088245601205,0.942365245089935,0.97686236750583,0.983614469843532,1.04087267790087,1.26352004335706,1.27943679434785,1.35646833333338,1.08503425681407,1.11605989090773,1.0182597903123,1.01927645239486,1.02014871374645,1.2368783210614,1.24326419972798,1.41868998075721,1.36153633622673,1.41234995625658,0.983692026291141,0.983073320218776,0.982006471938619,0.979283139970446,0.98521003362967,1.05021185018915,1.05040919684616,1.04303012130905,1.0697287813149,1.07925885373609,0.963940224600408,0.93746475275608,0.940110254094843,0.940944195557353,1.04584777918889,1.11934984453047,1.26131321741789,1.38984998635579,1.02794436653783,0.941625889067569,0.938260650425122,0.936366492915708,0.973008225056651,1.03652678463982,1.05106780627957,1.12353992686343,1.10405469199439,0.92325407290499,0.946981851506412,0.927254905266986,0.930867798505204,0.933081385022637,0.960456648772688,1.10165007154153,1.12389394106187,1.26480668529837,1.25053677606429,0.912765045476267,0.896354381875617,0.83907707173928,0.908801278416611,0.978355080965038,1.0743614270429,1.26307993725901,1.20876552636892,1.21116370435448,0.949479430948271,0.854974121753483,0.86920221461814,0.854707120661173,0.987272802424935,1.27330999771092,1.20526766523696,1.26373994117333,1.19731862066253,1.00275999999996,0.925367507465447,0.904721987696373,0.902711122573616,1.00528121918268,1.00573258535847,1.12075993390652,1.13457009814856,1.22292971272309,1.02082378528684,0.876525032909307
1.63184558195493,1.69910146750134,1.69877024473517,1.69886205692139,1.66238417654984,1.6097203752954,1.52792041796356,1.51422509693539,1.51328137157409,1.54154234322851,1.56587710864391,1.69715966586848,1.67792122612654,1.65529249473982,1.5316948883029,1.50278474889021,1.50247079621016,1.50199873846421,1.50811193992238,1.51090271268238,1.52893221006144,1.54662839368374,1.57130686466998,1.56633602593767,1.46880985082286,1.42355622416117,1.38265979765428,1.32837975284152,1.3324777433453,1.34894323391078,1.41216941464623,1.61347032758475,1.60944019741386,1.60211050194762,1.59383346217065,1.58791162682778,1.58108928798381,1.57446259662705,1.52882374649108,1.52736631335612,1.52389190624321,1.51768181798274,1.50737295172863,1.49846412273892,1.46773447680982,1.4552979264345,1.44724648915817,1.43677731048569,1.42538241878439,1.41156270432425,1.42124992332144,1.4280194827598,1.35471437017767,1.25345472926004,1.25070865702956,1.24627342411139,1.25198921420731,1.25366690090624,1.31571799285215,1.46076141687657,1.42759025438812,1.40003364126042,1.32793596580438,1.30893258544082,1.25966314976208,1.24955498837378,1.24908207662397,1.2465760919622,1.30416553203205,1.36065569217034,1.32736008633821,1.29392998703684,1.19621905440341,1.14621358077988,1.14079395166417,1.13474208550693,1.12666087088641,1.11770416846688,1.10639432245272,1.09672563429201,1.08967396549849,1.08472037351027,1.08094548056003,1.07700378493223,1.07339443569767,1.06836857241759,1.06203775148322,1.04865700642714,1.01962983579115,0.999320550744115,0.991133693549464,0.979758662762076,0.97917855810163,0.980372636168743,1.04018980337104,1.23628436518207,1.23630668148245,1.10818274791783,1.06689748798796,1.04810673165347,1.01758516608468,1.01704087542927,1.01425919048513,1.01063721027099,1.00702207100039,0.999797678032968,0.993184336021806,0.990555832412197,0.985514944873602,0.982607149684836,0.981152191867609,0.981505837285548,0.986752408660947,1.05152277655992,1.05186528120174,1.05549859475593,1.06165926983869,1.06023242591826,0.966378707002955,0.939723179469141,0.94105390914729,0.942356732404064,1.02930760872608,1.12596117891615,1.2598017658476,1.26076800657546,1.0507620143199,0.988493771235213,0.972109393096049,0.963259775851878,0.98294766758005,1.05123261614631,1.06046249593351,1.07326513538542,1.08820823564651,1.01221498419374,0.968391437893769,0.930832691744148,0.932500407904165,0.933692883993552,0.973630099096757,1.11928449186694,1.13513959523544,1.23930467437644,1.23707804413703,0.974454247510064,0.901225783484536,0.901192763677067,0.913950004355324,1.0089774999741,1.08197831420531,1.18400220279485,1.2089427904312,1.20973721335426,0.945039058396674,0.903501728868446,0.903458498895028,0.926018533205116,0.992025576357581,1.11670494631108,1.18527466535869,1.18836158912301,1.19247804019751,1.05433579098543,0.93476311309405,0.903841749794398,0.902859241775858,0.970740827856715,1.00637498863839,1.08537903226413,1.12025096650391,1.15524687532691,1.03318425462606,0.875164680941731
1.66845886421856,1.71226784246013,1.70891084024489,1.70506887621065,1.70868993112226,1.73113687726353,1.5434703074272,1.51599125769115,1.51330294627347,1.54194278691462,1.58082523190334,1.73788999572429,1.71168826698519,1.71345412907856,1.5590415065915,1.50260391644973,1.5021779999781,1.50054054988584,1.51057846007134,1.51653502696396,1.58005386073739,1.76445635525107,1.59553030822831,1.56154857235545,1.49990757657842,1.47654992315699,1.40369512923918,1.32333443549917,1.33898104192843,1.3474035262803,1.44491201966009,1.71904594279392,1.71952850558316,1.72041394279165,1.61103152471115,1.59771590187016,1.60178799748306,1.66479916804047,1.65852864899743,1.74452000000007,1.55479557460763,1.60721993712058,1.50974382047824,1.48360700064877,1.48513675286719,1.48836862022501,1.45253194541906,1.44767590094836,1.42753189771917,1.40168351332472,1.45678570634319,1.53222164828383,1.38374042420965,1.26467114063197,1.25292417058756,1.23410700825674,1.25403168505162,1.25850932204209,1.3498837939031,1.58832000000003,1.46159436291785,1.45219086730915,1.35051352477017,1.35616689206918,1.26467850581309,1.24906648275254,1.24944767911357,1.22624620837874,1.33733953464498,1.56241887556778,1.45570683698223,1.44702111011348,1.21821577126162,1.16648994749615,1.14625347013256,1.14050679469429,1.12912262200232,1.12023412709192,1.17428562750432,1.48380058747331,1.26682097063867,1.26836448491848,1.0997899167862,1.0832093971107,1.07520943617419,1.04318567471473,1.05377536334868,1.03456326561272,1.02748882775184,1.01905749650802,0.994006862035707,0.980688454201913,0.980930372955151,0.978516306843367,1.04066200599001,1.23730207116527,1.23658992177068,1.03740305533849,1.04591985029395,0.998503806113716,0.981426236420381,0.967895143718459,0.995092395463866,1.00849454373606,1.00875068190557,0.99205746128125,0.991570440521448,0.991088576163912,0.988084498634748,0.977957361628722,0.979921019777405,0.99844013430822,0.994073598524669,1.08466994176489,1.13012649793044,1.36043495313804,1.13319063966413,1.05576442873781,0.969749584262154,0.910199482881285,0.931589720549195,0.944759323145931,1.01080577312193,1.13255579270128,1.25726817875512,1.38167752824055,1.07512132076729,1.00884098416666,0.978136454614325,0.947150491780113,0.999548393883848,1.14288000000007,1.06913249466319,0.913369999999932,1.11430783006736,1.46439000000007,0.986200645171657,0.918574973496605,0.933840662526755,0.935592566684134,0.982642258070715,1.16701838304964,1.17119470811306,1.24198974882058,1.23561544606678,1.22997633737012,0.901319722315989,0.901468928509037,0.918882036805144,1.0395999190349,1.08916456300132,1.15137007291058,1.22374711489637,1.31911000000007,0.941701153473469,0.9044345359345,0.90508363417814,0.945164925068268,0.99732828849896,1.07698028753507,1.18270955384513,1.17577126494855,1.20373606227098,1.24388285590594,0.944759447427159,0.898998657914344,0.901228628210645,0.945875971930889,1.0064366010325,1.06404000515706,1.1059430616978,1.21272000000003,1.05292060119347,0.873563403819415
1.68356257617347,1.77274523308537,1.77972889132703,1.79960000006252,1.71364197482902,1.56883996971775,1.55836212161255,1.48325846182437,1.51119662440934,1.50780292233634,1.59056319548413,1.77659994962112,1.7104872835514,1.59259997573086,1.589570531203,1.58182465406216,1.54782451517338,1.51906008441052,1.55718616170255,1.59961000036233,1.6339415189554,1.76715938081288,1.62913174719139,1.57531997004178,1.53260887334122,1.42719001640753,1.41308759377913,1.38489003143065,1.43518962671314,1.75877002700698,1.75156912273849,1.76904708162724,1.71904107175125,1.63555397938122,1.62073887114479,1.59542715879701,1.60486260365765,1.65089665419155,1.65003190605061,1.48130006407649,1.5335560597021,1.38837999999993,1.52679536588859,1.59701000000007,1.51799337441885,1.44449517902778,1.45926757829224,1.47530452887972,1.4701362496079,1.46558715577439,1.49595178535927,1.52918829735984,1.49899148148431,1.48012008142362,1.43284254869544,1.38768614939399,1.39210214223019,1.3965062205711,1.43981631607957,1.76821000000007,1.46733193653889,1.33834482864422,1.34517225830835,1.28833687918328,1.27378040881223,1.26346998650896,1.32942880625367,1.53820494415801,1.54021986867014,1.54212921341895,1.4630356666269,1.44406315911745,1.23968459400063,1.18479197391797,1.15474730286576,1.15189718431728,1.15158934989824,1.15094402716827,1.20867683618157,1.49442931932027,1.26542236191354,1.1810700539591,1.11325483524577,1.09400445794338,1.07613321328518,1.07416744626103,1.07589382767151,1.07765005261877,1.05142510380336,1.00262293751541,0.997516577442809,0.987980480684822,0.985074146880011,0.977883939950973,1.04266258540261,1.24629448040377,1.25312394899892,1.39803921392528,1.0471768816154,0.962615992542681,0.969504823517613,0.970036609032497,0.98531066387897,0.981930380505698,1.01491540195569,1.40996000000007,1.09500255297346,1.43350000000007,0.98748311310772,0.960673430157359,0.976643929741061,0.984290613395486,0.986504938939037,1.23628996791028,1.17582871743154,1.3740409135701,1.3299223088976,1.34120039244042,0.973274559172988,0.925129608489998,0.921125451891242,0.919491173671508,0.991672350203559,1.0879800494101,1.25256773209454,1.37101293412792,1.1015708798811,0.991120080017162,0.983662374381719,0.976055096238453,1.01132766406344,1.04809668147786,1.07709389325018,1.28226922466357,1.27417594058474,1.30689997829806,1.00263733423264,0.952469046653065,0.944956023288383,0.935370374949587,0.990588459896198,1.09183009252313,1.1751752052248,1.23982459648053,1.22699945861875,1.21578353789215,0.901345449733915,0.901194453435658,0.923579784173784,0.92854832261934,1.09634469933516,1.25758556373614,1.24424386647693,1.24770843217276,0.939009707782158,0.866480163200855,0.908304932293603,0.935740321898834,1.00281002940172,1.06229715394084,1.18726983441308,1.23343229922161,1.24423701087026,1.25354930467233,0.953379779757518,0.894163969317085,0.898244456285134,0.868330123002154,1.0059861128914,1.03850240352678,1.09213711158141,1.33225995424832,1.07970477550676,0.898607909021086
1.6584004808166,1.70492002194524,1.78632114529582,1.89803993668368,1.71866500466096,1.7140258707773,1.56687854942243,1.48473177004527,1.51444496827001,1.54327979797374,1.60127736898636,1.70935380536881,1.70980091063979,1.76725996290005,1.59568230464552,1.58050405308643,1.56925871391586,1.57108454145208,1.5789683700117,1.70258051410314,1.71656527614671,1.75725073653007,1.66648777560848,1.64691009118123,1.5977809520935,1.58427036865905,1.57557273306653,1.56859036718873,1.59582451078985,1.63114999998064,1.74352463844764,1.77588286200812,1.71840911136177,1.65183596530389,1.63099809280246,1.61651670203504,1.60906715417118,1.60663649719872,1.64903806841234,1.68581496068273,1.65223955235593,1.74711000000007,1.54381069893202,1.43940000000053,1.5504180534809,1.67524004230207,1.69903614646848,1.73409158623653,1.73631783089751,1.77256988335142,1.57504147852521,1.54309993371544,1.52620874132768,1.50816003954726,1.4816933115843,1.44344006369238,1.49237594087031,1.69828659259429,1.69958668464151,1.69987035723383,1.47261118587917,1.41185003916374,1.36465443184866,1.33992664861123,1.34306192828448,1.3462267122086,1.3895763033873,1.61585425963109,1.56598247908889,1.53707777186305,1.4705341703399,1.29674999999997,1.2580293054557,1.16043212242879,1.15684379010866,1.15462369158076,1.2066122722677,1.48161922456475,1.47601088863546,1.45841493779503,1.26405990445291,1.20513069576941,1.12632343024626,1.10191823165742,1.07718176169916,1.0806267360809,1.08852721161936,1.09598273204039,1.06079255958432,1.04420934659913,1.02238031937314,1.00166304695606,1.01495032743282,1.02615820512275,1.04608790571531,1.18205001168388,1.25823818767634,1.38102078607482,1.04936889182923,0.966683875378419,0.969478982303383,0.99554839883448,0.988450283944885,1.0263766181926,1.01659583117481,1.01898150759463,1.06120994984078,0.983808111002884,0.985742737894896,0.97314909040996,0.970635541041014,0.96846084846722,0.977894819391179,1.12201003208772,1.14808907458225,1.35836410655475,1.31966376390844,1.30538929533012,0.976107790029936,0.959917779703633,0.91916422543757,0.917947162977125,0.971889530810402,1.23604187551535,1.24571625663694,1.37404269729697,1.13031035013467,1.01508386778345,0.997284656153327,0.988175927860125,1.01623537014392,1.04740336172152,1.08350816609404,1.24615019279453,1.26634700810653,1.25687038147551,1.01823910791128,0.961263156881839,0.948839231755343,0.942415945944922,0.997007226032501,1.12312990736804,1.17843332909719,1.28261585593404,1.20979372641929,0.85090808912098,0.902104637056872,0.918598778631497,0.928523967717526,0.928592650846985,1.10316961328229,1.15935000646819,1.24284721738528,1.26848116254418,0.936269602187957,0.914042860249187,0.911942738971913,0.943674445834949,1.00778561100673,1.07741255852398,1.19159967449236,1.25138131635791,1.24940644618161,1.25096126795723,0.962126137449603,0.918044800000698,0.913564823771674,0.925845778102572,1.00607977218216,1.02587651901871,1.07904151610659,1.31280004575178,1.1102887670976,1.18503000000007
1.65244040329819,1.66424992618335,1.79218128080399,1.87560006331642,1.72711614622431,1.72827311564162,1.57534398976361,1.5237212799603,1.51884663905667,1.51630502274183,1.61212444382573,1.73560986952604,1.70977436820802,1.61593735188219,1.60273283946453,1.57038818510124,1.56908537691444,1.52628022690086,1.58312621408458,1.62014253086226,1.72520626803598,1.77706346575716,1.69234095013114,1.66177001957333,1.61921042435059,1.54793019369155,1.5895272779413,1.60887913892929,1.61247944009411,1.73395892527824,1.7307776252128,1.72573204155713,1.7174892174721,1.68582579821013,1.64370990326548,1.63388685279605,1.62866996030148,1.51481999997254,1.64757641472517,1.68351497097193,1.64126016013968,1.40733000000003,1.57082930482387,1.72602614939594,1.72375256030323,1.76336726221304,1.75364997498485,1.77508043311707,1.738038262734,1.7241259994878,1.61542361507459,1.61654484648287,1.54548351917838,1.54443099357948,1.51318320934035,1.47606005372973,1.53531157284473,1.72623366009061,1.72410216225919,1.72231794371843,1.48109769440405,1.44536985766692,1.37489284441639,1.33538493555296,1.38849367129585,1.53025000238399,1.54243572883328,1.60924277200681,1.6023315227575,1.73099000000007,1.48335966494648,1.47948925373553,1.26976751015021,1.26619278630078,1.22531204668425,1.18938005832987,1.23871475475214,1.49837566258142,1.49107014944209,1.50021821550176,1.26234891469892,1.18992932772932,1.13688235037764,1.07590406213193,1.07492966876667,1.10251470786515,1.10826533514742,1.14560979708028,1.0724987267191,1.05222463764208,1.03254962938881,1.02284026515143,1.01887900410762,1.01577488996235,1.05019733391112,1.26588190315541,1.26233947086916,1.26398798408679,1.0530391191767,0.956394303842379,0.969949073877629,0.970716017034712,0.984691378528029,0.981213923938262,0.990923473599153,0.977769080732311,1.09394385407372,1.36872000000007,0.99351285100998,0.956274319022481,0.954079661742886,0.939874202786361,0.960707314458287,0.962152029830948,0.96207967717848,0.953945260720774,1.0413854994545,1.43773000000007,0.971327433045677,0.921688693105522,0.91429840557006,0.891641403737992,0.951359876424869,0.981637951062257,1.06789133043766,1.37207684033473,1.1617546382233,1.30373000000007,1.02520325406036,1.0254955493788,1.02433459402526,1.06731996788214,1.08786451489218,1.30491985495638,1.27936998728642,1.2791250657931,1.03336595955355,0.966159203248552,0.96345316930847,0.960855799682101,1.00314811247038,1.0632024124506,1.1804870144347,1.26636410137504,1.20789021430891,0.885083029403389,0.903866184861137,0.903800670926879,0.932932254124194,1.11616375033999,1.10864189162052,1.23381869571174,1.24214353087058,1.26684627512363,0.932967942260049,0.869174189415751,0.912995183034587,0.911866397068654,1.01405726656223,1.1606558993072,1.19599972189645,1.24388139563904,1.24424619982998,1.28267982999714,0.969776000114262,0.904506203390444,0.908986077416084,0.881352167282008,1.00743776903935,1.02326124571138,1.05118866984116,1.05289843908417,1.05112613652077,0.919964963216918
1.64356752489137,1.64444138087478,1.79693102566715,1.79828797036373,1.72877516831899,1.67478327109953,1.58405379046747,1.56584197338621,1.57030617047268,1.57680138497225,1.62296360539401,1.71021023358826,1.7047882549359,1.62588730516642,1.61318492982059,1.59324655424991,1.58415305733783,1.55986173589122,1.58986870265551,1.61375272038756,1.73043906897871,1.73212745374801,1.71401076307418,1.68814243132346,1.63704894568805,1.6160780543149,1.61534527757896,1.61334330797434,1.61522617626545,1.70997102055553,1.70997294229036,1.7119290812364,1.71484874608613,1.68319265260501,1.66043399097142,1.63747067461941,1.64073760996255,1.64346329159884,1.64508462829326,1.64400314149375,1.63178876144414,1.59805802557989,1.59701123376541,1.7237365450253,1.72333331864483,1.7412004037113,1.74623385035527,1.75930133221882,1.73949418792233,1.72399572944954,1.61421759252775,1.57640383775774,1.54539695956966,1.54714978805009,1.54984639855128,1.57335123451382,1.60264099714528,1.72505339178145,1.72382465485534,1.7226722131814,1.49137590148495,1.41387824600074,1.37611341708767,1.37196649913526,1.42127163949858,1.51375920167676,1.55680300409669,1.58781582078177,1.58920190160163,1.5899186235053,1.48524597827189,1.35795740438923,1.28299534208717,1.25540363355749,1.25412677689977,1.25552643936115,1.25798424025455,1.40602001102621,1.44610250101955,1.45019136442082,1.25972884133586,1.21425492773284,1.14833575719781,1.07416452734386,1.07328175618341,1.09015718104015,1.11134568105352,1.11217355107144,1.08990691497817,1.05172291609422,1.04804384400661,1.04489901705444,1.04376637616959,1.04277990165418,1.05414744705504,1.06163400086465,1.06297491371896,1.06153826907773,1.05738987973768,1.05592954378238,1.05514591144117,1.05335869090405,1.06768993753587,1.07576416208138,1.08864560877844,1.10607186709742,1.12504289636169,1.16100901816354,0.996737114686442,0.954406784861124,0.954822438042479,0.956892467138738,0.959447346754984,0.960979106234838,0.961587283930304,0.958552020313022,0.957327677342228,0.955456958509557,0.955135800428173,0.913516371775042,0.909005649028336,0.901783215734116,0.931150090784063,0.958204355659823,1.03432606150005,1.12912156883231,1.09574642966988,1.06329910589856,1.02478661999896,1.02432527536172,1.02237960172209,1.08534823037266,1.09269817585812,1.2638666229575,1.27999314552071,1.27994424555009,1.0481335657109,0.985645952833141,0.986929174502678,0.99018054187436,1.01076043569749,1.05729282417894,1.18131665014663,1.1899098151694,1.18945288021917,0.907255407711728,0.906745896071857,0.90761834942507,0.935410354550506,0.94534277820901,0.947817090177659,0.948054642945382,0.945771200833464,0.942466630026196,0.929250345850046,0.897969910528063,0.914384617777714,0.913978747298976,1.02016225950905,1.15962230821379,1.19960436771102,1.24135944729124,1.24213246481712,1.15632475032779,0.977520793490586,0.909133355766198,0.909346444404699,0.922299357646901,1.00988184192714,1.04962157304703,1.05048985909062,1.0509057213872,1.05038210906033,0.974611583880586
1.61616131908498,1.62119062389782,1.79883472876108,1.87352003272565,1.73162952046941,1.62439001358977,1.59178883944885,1.56117615637878,1.57387882888736,1.5846007697127,1.63374845604115,1.73010420846002,1.69752002568172,1.63840028285033,1.62463144335165,1.60687949558903,1.59907867780329,1.53374011875578,1.60136986266174,1.60651638049788,1.7326685132639,1.77039091582107,1.77989234659484,1.79652989852394,1.65023468246078,1.61723074033292,1.61647889945707,1.5698001844953,1.61859580256306,1.7113376036637,1.71057641868942,1.71320908802305,1.71461470294282,1.67946359066806,1.67431320545345,1.5317999999491,1.64952621164871,1.67803984337112,1.64422279328454,1.64232594459071,1.61947636859214,1.6012565878514,1.59841345431872,1.76281987846217,1.72462147799193,1.72732347407762,1.73872581597955,1.79720988474474,1.74115209141999,1.72222303128667,1.61293925705696,1.54542312069382,1.54239914218032,1.5138701472986,1.55045128216132,1.69030239063605,1.70358784990125,1.80999000000007,1.73146918130305,1.73070082419058,1.50076506459106,1.39149902721267,1.38195436032055,1.36777347726555,1.44877428218651,1.49443004782505,1.57135611818319,1.58711032414975,1.59072231095009,1.59164148626451,1.48896592921408,1.30345247395733,1.29536192814098,1.24988701238003,1.25280401612159,1.25372387670489,1.25837941755158,1.38166493695329,1.43987294677577,1.46377869598157,1.25578521552917,1.24455989838953,1.15981957996456,1.07326101198584,1.0727441529367,1.07345296251243,1.1121583154971,1.11592798610302,1.09998903599086,1.05105733187343,1.05018688404922,1.04241861791895,1.04240422461177,1.04074485589888,1.05730970866472,1.05960357479508,1.06444403079462,1.06534635216244,1.0685570005017,1.07352107630936,1.06854098004014,1.03503114089775,1.07880604109372,1.13561641763592,1.13785070231077,1.14330262264258,1.14345882072786,1.41648000000007,0.999704783521387,0.938191206171525,0.979876983684891,0.987891923070618,1.01667449073434,1.12862994160297,1.05114606564696,0.959347298360749,0.958287845017738,0.954484015201742,0.955547667030337,0.885982585985367,0.888765211317926,0.856778523717487,0.910966367189255,0.895331731027443,1.00096862991825,1.30526000000007,1.04479491215727,0.998138957013056,0.978707020688868,0.966517428674268,1.01779856064852,1.11127830036533,1.10739893998937,1.2407800986397,1.28898770109509,1.31249531470915,1.06236129615385,0.982553713662617,0.983491353522469,0.991245631493596,1.01870209409298,1.05125998242788,1.18130343575385,1.19100213548517,1.18990755446113,0.907257392565513,0.90774720828721,0.909199687621651,0.935945825973787,0.936593448036309,0.949314940012712,0.951795309193981,0.948305232541566,0.924189746463822,0.926082970366837,0.885502539227986,0.915215956980327,0.915064162094728,1.02583612851553,1.15852787785314,1.20157509061265,1.29412165351337,1.26002166846732,1.10473999999995,0.984030983706474,0.909452345062188,0.910777128891749,0.934224162392693,1.01268011779612,1.07482830245046,1.08089105755768,1.22157748322129,1.22197084942927,1.23279994159511
1.6118433488354,1.88971000000007,1.81965339612778,1.89076996727445,1.73491517302631,1.69140001210364,1.59853752155975,1.55917246606343,1.57648100614966,1.57793771742984,1.64438684392301,1.74238571817092,1.69024093783402,1.65123788129535,1.63339226088861,1.62614141520975,1.61628683305905,1.61602185878069,1.61467448038096,1.78289981713576,1.78552580856203,1.87895334215272,1.78744083915184,1.74747009431652,1.66280242912015,1.65214464234551,1.62091084736899,1.58969003715598,1.62015417143895,1.73039055070924,1.72509446232151,1.72990935418775,1.71279931517653,1.69597906790105,1.68359277312613,1.66531000273806,1.65605128249051,1.62092934482712,1.63648660725888,1.45358996053378,1.60449023941955,1.57840276264206,1.59418758357474,1.58905249179597,1.71155100621273,1.72081007094441,1.73303331874256,1.74431924226811,1.74335965521585,1.74495921034211,1.61164328430224,1.50962016186479,1.53911968157798,1.5356803656548,1.55241924489647,1.71429798824988,1.71710812173125,1.73266108698788,1.73200211021791,1.69547549849298,1.50924857302994,1.39963789171779,1.40124765417646,1.40295547196374,1.47791333647393,1.6622857336154,1.66270503148591,1.72816988590779,1.70217909742644,1.71687985156942,1.49877588465731,1.49572169467499,1.31560782535362,1.25101074456293,1.2527943630803,1.24118551134374,1.26194503836775,1.38850517724425,1.4300608996716,1.41419774265082,1.25064823584975,1.20498464904398,1.17034662844404,1.08970332431797,1.09886580391299,1.11686366880453,1.16881169881147,1.43016466703749,1.14126259207168,1.08748892363497,1.08486255650039,1.08228306708545,1.12155092875072,1.21718798474977,1.22801867501709,1.25706999977065,1.29157690998797,1.44207006081882,1.37019383286154,1.35642270995364,1.10942328100699,1.05736998473742,1.10401643916284,1.13781175677761,1.14031282470439,1.14350163327219,1.14319621461224,1.02286891914712,1.00339811703767,0.974836694676096,0.985375456867986,0.990090545049419,1.03186672530208,1.09767011344569,1.1357973148064,1.32594002823381,1.03733196709813,0.961555096330569,0.95824481609351,0.896369251819991,0.892249153810823,0.856768728593814,0.922649868069668,0.942871753230726,0.958798040965099,0.984681838857022,0.963023099856197,0.945282867456553,0.973782415822868,0.971083331160248,1.01311636539082,1.07831673555966,1.10273223196398,1.31295270843478,1.29706381734633,1.31517366927189,1.07586865520969,0.979054359261821,0.980444769054614,0.97767567994711,1.0256809993191,1.10493991671301,1.18096174484672,1.34335316396891,1.23960418045931,1.20519999999997,0.974890334711422,0.931461675250714,0.935246030711751,0.995609361220519,0.997185406611858,1.18413000000003,0.985299942002305,0.949256786244179,0.939931373946422,0.888368637849215,0.941551917557837,0.958318956609244,1.03104010627859,1.04376006627124,1.2018289584923,1.29372822789864,1.26048286078901,1.26197430810679,0.990682192860622,0.945645797538416,0.914256336985254,0.886816204375336,1.01504737268927,1.02287862418163,1.08471566270586,1.2259354434438,1.22118190412629,1.03431
1.60985806585011,1.63788989787613,1.81833393930107,1.80929866620912,1.73776879561643,1.61179224980146,1.6037663839748,1.56139030123567,1.58016378988177,1.63024989206879,1.65461695595999,1.66931302940013,1.68201286420741,1.65314576926629,1.64540757331403,1.62114737173678,1.61812058515587,1.54684556240238,1.61369596435229,1.6278499140508,1.78844614000697,1.87668672680861,1.79357440591024,1.68955997635901,1.68085613519286,1.6515603415515,1.62924001232085,1.60210010402693,1.62035187470848,1.62026641225709,1.66667864241794,1.75375991315322,1.71008788098691,1.56515999996609,1.70322621672173,1.71441234524341,1.68823832260307,1.68624791380124,1.64746602722746,1.43367009337943,1.61052114585168,1.61394208343987,1.62284133923786,1.657440043129,1.69448519364116,1.71319220797373,1.71244547301451,1.71143897474898,1.71054226472699,1.68217440050783,1.61036421377714,1.5651249486797,1.54610935656837,1.56913589948006,1.56349909261397,1.72180057079136,1.71989583272712,1.85201991882433,1.75192752937344,1.70161463410977,1.51229879053161,1.47076996506255,1.45591356616194,1.44079003838678,1.50949022769668,1.63142325186918,1.6627865638089,1.67788255380327,1.67705096256123,1.67485535408166,1.50617804115522,1.47978969633767,1.32943912904526,1.27285927424898,1.27715703354268,1.280810495134,1.26860298870775,1.21508999999448,1.43968032650389,1.51252000000007,1.24499936809229,1.21160144041362,1.17501625971071,1.13176526084945,1.11466123729901,1.102255029368,1.20321945401402,1.40506676048793,1.42509056952713,1.43840304851404,1.14447641749196,1.08408302106527,1.15502934326235,1.20165211838278,1.23795486251682,1.33622009103869,1.35086627389722,1.46269736164175,1.37902084944812,1.14695973458843,1.13979227862544,1.12539818467954,1.11253484697885,1.09903025869269,1.17925952231207,1.37458990022417,1.18321762548399,1.01427022270383,1.00847542587157,0.959755855553484,0.995418194019051,1.00293793284728,1.04587343679266,1.12584995419313,1.16828541627811,1.35004502259281,1.34140705023237,1.33339839559427,0.979070498793565,0.919951893125119,0.90641186325066,0.870416940922936,0.932287796586009,0.937196629492704,0.940558046933966,0.941488572492625,0.956191457141995,0.95854052239534,0.976401586454991,0.98320091898464,1.00962149442238,1.0804877799388,1.09862938871236,1.23310011730009,1.29062656363066,1.32991084651954,1.10983247686845,1.10576874695676,0.981089451582074,0.967333361938187,1.03282905221722,1.08205002635972,1.18072847422271,1.34125416358036,1.29811913603714,1.28170410280365,1.00784909103844,0.953270206036869,0.945121964929177,0.938792368876205,1.0014768242402,1.25972002049371,0.994473517395035,0.949760712755475,0.945094028600819,0.912156014212038,0.959961115324751,0.989688077058451,1.03596680411822,1.0705399174686,1.20522271176878,1.27400815256056,1.26054066035444,1.25548807133958,0.997321962895315,0.884417165970379,0.918136141821286,0.920575214453844,1.01611524655306,1.01306488221192,1.09278688502078,1.22756893803661,1.21854883442567,0.970943
1.61000458299923,1.6065481196979,1.82582941197409,1.84518990144046,1.7398033015118,1.65234691189758,1.62751897566072,1.59627918498653,1.5832789863336,1.56572011445794,1.66405443402577,1.75997990789675,1.68574575506333,1.66204196613715,1.65034011412788,1.64104001439981,1.63714621991458,1.56278455432695,1.61188530537586,1.60849068975847,1.7911541223693,1.9010599310388,1.79722180525131,1.75275282908536,1.69678648335242,1.64488008604864,1.64283157072248,1.64199855134023,1.62230374506324,1.62038368824571,1.62054947091426,1.56248005459836,1.70830735448255,1.73521131193105,1.72387377789507,1.72151736867558,1.69138770653329,1.69431315005323,1.65570148742153,1.46369994612873,1.62953696076711,1.65071474500276,1.65176190743934,1.70396985163517,1.67767131073711,1.65266682923934,1.7095413481242,1.71254845143968,1.70989509305318,1.6923621685351,1.60911509424316,1.51793785754689,1.53401742410791,1.62178996328375,1.56055522901458,0.00424869000026751,1.65804478487004,1.82655008117577,1.77733218973777,1.77844279099515,1.51595734198459,1.50606121161485,1.51438242604757,1.52294224506483,1.54648050855683,1.64725037196681,1.66257706340549,1.69345276239979,1.67764851826154,1.67212889509541,1.51402815311209,1.36355866476254,1.33741050908496,1.33483805678933,1.3436850481516,1.35026895106508,1.37590285056257,1.66677000000007,1.44779278591419,1.25718219526197,1.23954979214108,1.21025267471965,1.17599025932576,1.10474366493649,1.16730931043111,1.21527000130288,1.24949335549014,1.48840631356021,1.45428256113732,1.44394825786225,1.19057818084722,1.14274003156714,1.18809094137236,1.23069004042134,1.24686212859332,1.36069831770695,1.36710242225034,1.45696255779264,1.38413590101626,1.17364361287197,1.17233016964203,1.17289196214446,1.17198318983228,1.17195487273148,1.2130082127407,1.34013789107297,1.33781499917543,1.36008500685856,1.0345084572534,0.958535322979575,1.00332559803181,1.01842417221317,1.05905526977789,1.19309107291268,1.19785541185466,1.3773401282585,1.37829782069493,1.37621862682156,1.00139025666334,0.971575637451128,0.938985784472682,0.905627123116716,0.935665655020126,0.9706347215774,0.927983213239086,0.913065501710431,0.95456417573563,0.954732908734618,0.978301935522788,0.978499413833315,1.00807920067378,1.0947257238638,1.09591305431291,1.28600288133357,1.27697839140468,1.27161197496057,1.11375656877239,0.988361049676945,0.981687446356079,0.977008491088116,1.03989321049772,1.04223999725369,1.18110257493247,1.32971258792039,1.30935824591609,1.32917990434684,1.03720609361882,0.984644179763965,0.985252350993515,1.03279108959185,1.00843400166615,1.30492997950639,1.00434707700917,0.949772784679672,0.971900099805481,0.991244129780572,0.991819293644265,0.991675063019364,1.0408860380207,1.16994839711099,1.21025718776675,1.28828547348846,1.26201212713172,1.26261330232927,1.00355105192814,0.917175631853549,0.918764861012516,0.904726047317066,1.01995213125951,1.06069481110099,1.1022496880904,1.20767817568078,1.21304344835491,0.879921468392784
1.6213206841403,1.67062373987687,1.83181035001309,1.83407764314735,1.74066515968086,1.65496232198902,1.6354586702216,1.62628870444071,1.6219317519178,1.61337200849938,1.67255926925586,1.73111641976241,1.70658350425293,1.68741051786302,1.67136391539495,1.65881486656983,1.64429204115945,1.59452101913255,1.61201653934853,1.61066658046424,1.79270344881599,1.80047017832187,1.7995085470601,1.76764198280555,1.71279634458927,1.65069880567839,1.64743250355638,1.63265887173835,1.62225348060279,1.620567409482,1.62040877030718,1.59290659386498,1.70808440629509,1.73068857053966,1.72672796248457,1.72378048262799,1.6853543245544,1.66642150389358,1.65602542036998,1.65485510831906,1.65169549872195,1.65043673697508,1.65245614891336,1.65424732383567,1.65883401110138,1.66404298391528,1.70932302108044,1.7085777805695,1.70945091140591,1.69429159674597,1.60793682606924,1.52525086120982,1.53170615027686,1.54118906213572,1.55482492244363,1.56917351621601,1.6587405417095,1.77822662213958,1.77746697090874,1.77733579189639,1.52168249775268,1.52109811365043,1.53044681446548,1.53458142473868,1.55858278547539,1.63379534594811,1.6623103838575,1.68457402602311,1.67730146638737,1.66790829299203,1.5218626193932,1.35724785760986,1.33876331536635,1.33736362400499,1.35635400486247,1.37012728558364,1.40205955361468,1.48192785794718,1.45844407310881,1.31097878317551,1.23484118219015,1.21291172438697,1.17702428022879,1.17552908987886,1.19793546297633,1.24949335548517,1.28383655000993,1.4735299258979,1.4610532885517,1.45406809877384,1.20781081989814,1.20559339574926,1.20525270203644,1.25053883534375,1.2585713038759,1.32001888158824,1.37334229575883,1.404236452965,1.3884982488224,1.22914736486536,1.17092772845888,1.17156068484297,1.17160476626909,1.21680407234768,1.24582588010418,1.33725816471336,1.33719153406722,1.33804887580907,1.05226641320571,1.00562235461284,1.00917390859437,1.01810559715372,1.07005055311284,1.19734684819973,1.20117103437957,1.37927682059653,1.38104196452885,1.31684837914737,1.02199233304903,0.979568234233967,0.95957528100243,0.941782301444018,0.937426097438753,0.930533554834084,0.924411289778894,0.919464491622262,0.967657366797993,0.968122436912189,0.984153908167496,0.986003016343287,1.0083736211456,1.09520358510195,1.09535440999807,1.16434912395785,1.17892676699601,1.1784847240598,1.11712078537216,0.985984424105199,0.98354772983382,0.982462895645288,1.04683075142083,1.05912473247207,1.18326810650449,1.28304945711268,1.2827487795661,1.28242193128365,1.06693827284861,0.985300796217552,0.985663752310295,0.996931569165202,0.999339894104032,1.07641169470521,1.01451122018756,0.972785106373036,0.983931068193576,0.994935787283574,0.997465318232771,1.01726802342955,1.04596720141961,1.16637507714783,1.21629852078292,1.26342874548028,1.26306620289617,1.26381223594438,1.00941322529209,0.934559392047895,0.940630300815046,0.942866706265886,1.02167672953138,1.06329618782997,1.11127133606168,1.21099486817749,1.2144744971716,0.937754507803756
1.62991068664576,1.86859000000007,1.83356817752442,1.83748491707962,1.7402546442912,1.65828544606346,1.64624700565807,1.63333158833049,1.62639666528092,1.6027947204853,1.68070992614377,1.75742994668375,1.72717982126555,1.70377994414449,1.68526836360409,1.67269000038904,1.65516039190832,1.58720002563173,1.61185485557617,1.61036577073744,1.79240325538188,1.81554992698476,1.80226052205755,1.77912081309193,1.72882846397681,1.66619729985532,1.65230055464531,1.62451949500697,1.62311725971693,1.61889489566062,1.61975933536948,1.57145009921245,1.7086665912671,1.73223969083718,1.72914508773088,1.73678365097466,1.6819395331911,1.46482004929549,1.65785959921269,1.66896868173886,1.64806797364035,1.64602355052681,1.63022689530378,1.61509015039421,1.64008085738089,1.67890104283991,1.70946518306371,1.70663692897463,1.70892613006935,1.69709177033171,1.60690191365126,1.52070187627384,1.52169893966692,1.52512160092011,1.54502379245106,1.6982084428827,1.7125973403412,1.7802927275816,1.77835297351743,1.79571990164908,1.53032558766327,1.5103416891033,1.53772155383581,1.5453176701511,1.57675687465375,1.61359014602063,1.6622553337524,1.70400151130718,1.67691601233978,1.66357781877445,1.52946265085287,1.34888106128883,1.34255093489291,1.29319300014412,1.36884535555335,1.38858997381628,1.42267952747508,1.55021716854428,1.55269912558254,1.5550890735246,1.23142831633148,1.21642529935255,1.18004963048365,1.16855283613493,1.20442644489799,1.31199006723755,1.32965521271283,1.56492987924737,1.53449888654181,1.55772990763585,1.20999424803374,1.2052844830518,1.20568048520633,1.27801429993156,1.27946150602119,1.28035739626517,1.38346129716352,1.47620000000003,1.40930583866372,1.40005002362057,1.16355853951377,1.14240003712597,1.1723862471076,1.28417324891577,1.2928476032861,1.36247083585321,1.35584579638763,1.32823220059943,1.07217253717613,1.00084569274099,1.01268443667238,1.01623174383977,1.0816791786664,1.215170557851,1.21477980736269,1.39547107671472,1.38710447395285,1.29202590704441,1.04217819047843,0.98722297355306,0.972020483088386,0.949999515410475,0.942012360261929,0.882947111249257,0.919143188475963,0.910004904287555,0.972877356407126,1.02138980942248,0.990097737696423,0.993808453361817,1.00980543152046,1.09630962466999,1.09566915872344,1.14376005016906,1.17848412709302,1.17733054808474,1.11943257808448,0.97993439990963,0.9835654256876,0.981887544189819,1.05327024268293,1.07690997321019,1.18963588212315,1.28299430759405,1.28250818090337,1.28176856943355,1.09729075881198,0.957797134163283,0.986042224568331,0.987212781482395,0.991863897121688,1.28833641953569,1.0250309476355,0.960105803666632,0.990996337482951,1.00367135415872,1.00454946808027,1.04642981922115,1.05079696044523,1.16289669314465,1.22248804613711,1.26448578721168,1.264188226807,1.2654060660283,1.01499093058024,0.92609794117484,0.94275276542227,0.94396744040932,1.02349170553771,1.06558466375542,1.12154007160173,1.26790163724976,1.2184231788792,1.1828600252787
1.64382013077131,1.63317579750339,1.75187398157072,1.84258508294071,1.73880503476923,1.67921993061347,1.66078229308774,1.64459673094652,1.65570126254139,1.66481529300454,1.68978952384183,1.76931522384876,1.7840486333717,1.80904993447812,1.69504917536679,1.68884799446184,1.67962838115474,1.66140848698096,1.68312759293269,1.74455637341204,1.79053073860747,1.82906990175707,1.8139475000774,1.7450353792611,1.74957578741172,1.75043524448008,1.68072724911035,1.67406804806311,1.6920549871031,1.7626099193419,1.72169593565922,1.72283107924953,1.70902590674165,1.67834605729484,1.67814535103064,1.67385006538394,1.67246769744662,1.48817892836815,1.65999927614212,1.65865950561401,1.64537456598076,1.63013978432255,1.61998346859095,1.59888019466218,1.62523249646031,1.6471999571965,1.71163597652861,1.78403998299058,1.7237240226846,1.73039127316241,1.60604197997206,1.50324856147242,1.50273867022156,1.50237168268498,1.51142593891253,1.73728310512542,1.72375204391341,1.74446237652295,1.7452351244794,1.74644828578899,1.54176827357111,1.56069074981015,1.545530724507,1.62753989851654,1.59877564056668,1.64766993912456,1.66266122224358,1.70648819624171,1.67631464153389,1.67761870352489,1.53515775816424,1.40518998361546,1.37510097158197,1.30224706408997,1.37902252352329,1.41943989604452,1.4400749825017,1.60912832182961,1.57982402217795,1.55529076021072,1.22936543419754,1.19139236441071,1.18472070314462,1.18503982868684,1.20964630546874,1.37521989029678,1.34430783020546,1.53712000839435,1.51610804034709,1.48903011352934,1.21460841203297,1.17482018996551,1.20689047357377,1.20815070468066,1.29147574600803,1.29786497175956,1.39463239150623,1.53712111649206,1.42451809514139,1.33950999999984,1.1613179238623,1.10872014090078,1.17409281196078,1.22198141241118,1.29893425782705,1.36479648214171,1.37246608056793,1.43957001981743,1.0923208807043,1.01815087713252,1.02384760696931,1.05038452409539,1.09368725745591,1.21026652163368,1.21294908080862,1.39036319321365,1.39085818664987,1.30558417451039,1.05878394944713,1.0311475384389,0.981830194183534,0.972012444741987,0.970072047738421,0.968221462845287,0.944035407946748,0.931038004207536,0.977687563680913,0.984702177052853,0.985285474266625,0.981319739490892,1.01118440286868,1.0108821506609,1.08080713730548,1.02469004884577,1.21837216083571,1.34741995357013,1.12045723496314,1.01776981570084,0.989396966601154,0.991461447963768,1.0583923445332,1.08918996304466,1.20277338124003,1.24693208019108,1.26289497183174,1.24405842061735,1.16298155068196,1.16343994205113,0.984487193299544,0.981937708745569,0.988683541601118,1.30406358046441,1.04100981546743,1.04697703918426,1.01893163656047,1.0026015742373,1.00378492447988,1.00528681682106,1.05576081154118,1.15964455940147,1.22931811360688,1.3061200071352,1.31764797038774,1.32654241718287,1.02021478054207,0.956198817390965,0.946611110651037,0.954553432337943,1.02621832764289,1.05491726813972,1.13163581414786,1.26718827234653,1.22088406798833,0.815053108163985
1.65842889608093,1.69974988614409,1.73702052788534,1.73492483974933,1.73671546771213,1.71011462278387,1.7107455167329,1.7119785287352,1.67161161315357,1.68008528943849,1.70087156286996,1.79971464265745,1.7908497530779,1.71270465800951,1.71223333097912,1.71243035602568,1.69429930374328,1.65784175816514,1.69730381129427,1.70571001722619,1.78793357450896,1.91280993603532,1.82204931053917,1.81052726991675,1.75304745931156,1.67950046289084,1.68073365443867,1.71754439146932,1.71715293621998,1.74089990288383,1.72075886421625,1.62318000576151,1.70853275830679,1.70714226967996,1.6775111516111,1.67657283985666,1.66759331964217,1.4748810223345,1.66329908604412,1.67515137187513,1.64187006418078,1.60989002626429,1.60377000321715,1.57179018292354,1.60129613658892,1.62136014669817,1.710662698793,1.70818446077307,1.7146855743373,1.71565723779846,1.60530438843497,1.60461163965754,1.50224833869015,1.47420251368436,1.50098931491452,1.64376998124361,1.68280265617659,1.72097393208622,1.7394869349314,1.75036453072225,1.5278903190094,1.48268127207212,1.51381367619168,1.53335184866855,1.53833426704059,1.53440584538057,1.66351448422533,1.67918030072537,1.67413000453992,1.63020408754102,1.53925488122145,1.46785000000154,1.38688614639295,1.36054012218128,1.38864802325327,1.39371661622728,1.45879792286723,1.60422004802981,1.61086099688839,1.61762886148538,1.22828783482117,1.20523188640761,1.20461801474478,1.23033863376899,1.22945033300444,1.32231003574412,1.33460401469611,1.45337004654059,1.47570712882892,1.55625996605438,1.22076440441367,1.21910613851338,1.22533046972043,1.22980737370041,1.30089039297607,1.37714992842043,1.40563145924516,1.52074897751076,1.43824672457581,1.15871096166062,1.15932369295027,1.14102167097406,1.17654961927694,1.23656865541743,1.30324997030118,1.34624163447105,1.38254906213449,1.48498998018267,1.11294673540155,1.00212535479052,1.03606684170796,1.0488768722641,1.10550558715574,1.12553005510351,1.19279356845578,1.48129000000007,1.39394714219755,1.40167991772556,1.07512676689785,1.04033227620349,0.987389630725972,0.981138856787245,0.993115345580083,1.00635076876701,1.05179642834196,1.374100012924,1.01026469971019,0.930237082490968,0.991549854093393,0.99920516039397,1.05019316625942,1.14091355779706,1.14502194385054,1.321401155118,1.31569137450584,1.32310007978606,1.12034935899005,0.969174178705727,0.975889049931607,0.970219040347169,1.06369502274589,1.17003993956543,1.21601759653726,1.32923996705093,1.28946695729266,1.24165169983622,1.16397322037551,0.99416292051709,0.979149324307484,0.946715790968065,0.970987660475211,0.973751444994466,1.03690283403535,1.06034707477135,1.03675791609958,1.04890109679948,1.00139896647849,0.999295297454817,1.06083723382935,1.08402999077417,1.23602381522199,1.33194330979217,1.32989884488776,1.35837980040284,1.02549249139697,0.921310296760822,0.940009313271198,0.930082404564632,1.03091678086695,1.05478542526722,1.14067894883858,1.23510010549071,1.22578453662605,1.2263383663214
1.66881037193737,1.67371175892108,1.73997549077022,1.74248595699148,1.74454206068245,1.74765796933817,1.72193405157305,1.66003551054269,1.66376646329901,1.61809010986047,1.71371323083223,1.78676102169492,1.79042279830451,1.8134669277848,1.72487569076812,1.71103329040458,1.71391757130883,1.72948002281307,1.71794573743614,1.70334546790732,1.78470321121211,1.89026006396478,1.83895356443336,1.83813690579334,1.75597652405806,1.70696331001374,1.68154443454656,1.66136025769228,1.71689956460454,1.71356632035525,1.72018223493288,1.7350621344478,1.73337698725853,1.76769992914269,1.66678651513376,1.61995993873182,1.6580067920723,1.66816940193962,1.66508319893994,1.6323318257896,1.63727500746672,1.50203247966266,1.50018636603441,1.49605351814761,1.57199594404701,1.64773002821156,1.71182984860597,1.71494638027416,1.71530603027584,1.71634884124413,1.57660429616526,1.5015817820645,1.50129223502626,1.49334850859497,1.49829521952979,1.60606009714188,1.6718915104293,1.72102920334454,1.52883307638318,1.43776298772021,1.47007928818359,1.48195200213435,1.47968097362279,1.47540285124286,1.54184111546171,1.64118989963359,1.66471150621177,1.68176569054116,1.67205784626442,1.6177061054087,1.5441639609107,1.57760992014022,1.40988046012205,1.40745513048993,1.40864884341057,1.40614907395456,1.47597920599139,1.63025267250491,1.6232769122805,1.63671992353777,1.22799384405627,1.1852249178289,1.20318841744895,1.20027718689394,1.22691195750114,1.22210895093689,1.22655356122437,1.20915006078199,1.22373568683447,1.20563010115473,1.22763655095109,1.23595292069202,1.24117925866773,1.26062672628951,1.3105362478497,1.33987013351061,1.41618764403618,1.55238990599731,1.478852369162,1.47630159926879,1.15818029988993,1.14090837861035,1.17927354867338,1.25490987408237,1.30542937812972,1.39514186559689,1.3963583415065,1.40655670487646,1.13454084184475,1.07303537957797,1.06278469645472,1.05494930987188,1.11653995044627,1.14910504723555,1.17744430566464,1.15134010367943,1.19451684758221,1.19499138485396,1.09211368169661,1.00649772557472,1.0020017015061,0.995335814962845,1.0434229762729,1.36840018655858,1.3723329428527,1.41998995419227,1.04383990810886,0.973421015687764,1.00700308233049,1.02584991125913,1.06396364496707,1.1254335637504,1.14795669951973,1.30630948806751,1.31131419200986,1.36020990092233,1.11961090327478,0.97728081515457,0.987634084059511,1.00030107041824,1.06905942664087,1.14419006043489,1.23856822861268,1.36720380155846,1.35979208328682,1.35794324102087,1.16585353985126,0.980626927700316,0.977417169948015,0.961530855468876,0.967932188221445,0.964907123438731,1.0333848729097,1.03983718928997,1.03258588016758,0.980583942889311,0.979811591193485,0.98142390734301,1.06588972057258,1.25797501888789,1.25873332798336,1.32724021121898,1.32881837504308,1.32916384667859,1.03109227230694,0.960363732485178,0.958803910189608,0.957562067178529,1.03651730337324,1.066821440281,1.15309441187618,1.27391990540431,1.22679171559987,1.22427684249758
1.66836498932313,1.67109450776122,1.74053544053327,1.74208932041335,1.74372005323919,1.7454361792362,1.72671758336662,1.67246844471429,1.66976047748718,1.65804471261939,1.72790567621437,1.78966483071344,1.79209723891767,1.79676371572609,1.74554287535186,1.71339086203087,1.71642456864371,1.72421352495263,1.72470697384092,1.73057745622354,1.78180967146893,1.84477706322559,1.83975832215732,1.83871846935916,1.75817831840316,1.73083656120286,1.68382116482526,1.68457735360033,1.71949815704547,1.71888087219454,1.72173388188792,1.72773112751927,1.73125930301429,1.73407607157463,1.65450950112739,1.64159535706475,1.64631417340549,1.66377862191921,1.66504271610194,1.64763889490765,1.63749936796919,1.56387546364616,1.49902439717241,1.49763284347546,1.54410445896625,1.67269402136826,1.70983822547701,1.70959051184434,1.71174070460353,1.71252871553354,1.57967961098784,1.49980785562828,1.49952715125486,1.49733390771785,1.49849452420648,1.63311406518434,1.66893779538143,1.67466166754845,1.495004884239,1.452500780144,1.46361684002286,1.46776841576624,1.47169287190813,1.5139728368741,1.54501760117447,1.65249341670495,1.66428232244436,1.67138207862934,1.66371823277818,1.6474880912717,1.48469931147434,1.45169421150488,1.41120365936083,1.41055179190495,1.41155299307794,1.41204156267484,1.49596775568374,1.52562433581958,1.37949900670366,1.29075844008498,1.22822934854243,1.22497043729909,1.22246033667947,1.21639413527974,1.22838465589301,1.22760890666776,1.22655988014915,1.22569777359492,1.22550115647399,1.22791296805065,1.23029365458279,1.23257456151638,1.24484221537565,1.26100440829819,1.32124921079425,1.36050712276871,1.43033286033541,1.48216411568141,1.48248671307739,1.23431478126362,1.15769636990879,1.14617664563289,1.18172274701125,1.22897384053143,1.30984653908479,1.39634800833044,1.39800434312034,1.40195167047526,1.15744688941122,1.08769271666046,1.086734275822,1.08555354159731,1.12606470654898,1.1449213358063,1.17925151032955,1.18120997426534,1.19452720482707,1.19451670120084,1.10875814578063,1.06381952935618,1.05830727798032,1.04779261129498,1.07592935116031,1.28053690153283,1.37488555411416,1.3785250300218,1.07775999181088,1.04443816143939,1.04790580060481,1.0729715994782,1.07710605247836,1.11745737013004,1.15157993239408,1.24967723025606,1.25926105065809,1.25942776335647,1.11883010734307,1.00732731095392,1.00971103478226,1.01114005060706,1.07640113706518,1.18869558091158,1.26320823110528,1.36221272398393,1.36111141218848,1.35282256779375,1.16794972524057,0.976357309536495,0.973528469219293,0.964828731104814,0.966852606786398,0.972739742369844,1.0302449243177,1.03145850261568,1.0283517306997,0.978139861185563,0.977690681047302,1.00278377834048,1.07138776960329,1.18324981809326,1.26002822644182,1.32795731578575,1.32872659829798,1.32919969644565,1.03651844532542,0.972581767231031,0.974609494800347,1.00949999515789,1.04246883489471,1.07465483523717,1.16682541221225,1.23336996546622,1.23168227684885,0.925664729714767
1.66396888931696,1.65871868292917,1.76286010555508,1.84889002178838,1.76621192388193,1.75985481636537,1.72908415439458,1.67362356547273,1.67231651679418,1.65155831014126,1.74198790121651,1.80399753754833,1.80242275913778,1.80241226061548,1.76324549049287,1.67921019011189,1.72014978928414,1.72403546611158,1.72511694325756,1.73996384643861,1.78421100166245,1.84968759071948,1.83966531320015,1.8379675135129,1.75975683683971,1.76253921976657,1.68717484307647,1.66090021015837,1.72134122797172,1.72070320174603,1.70162731170682,1.68093956702861,1.70328531814496,1.75228993043382,1.64544754517416,1.63206980308831,1.64027257039342,1.6644490292727,1.66581467596668,1.6931798236079,1.63959184209151,1.6389897986345,1.49034716312116,1.39941845791298,1.4959725979519,1.70378925304086,1.70683536748278,1.70717413071237,1.71082341947672,1.71237077970216,1.58209258601555,1.49866671507672,1.48799033557907,1.46550012841649,1.49082698466605,1.64384151068918,1.65731098615084,1.70033991214939,1.46054487422004,1.41557563723646,1.40423014002029,1.36003642889682,1.44921670630543,1.55064747318107,1.54794422911013,1.71624994334392,1.66845155147548,1.65048135151809,1.66892784043449,1.66099390419414,1.44574449826447,1.38485121256924,1.3911935681773,1.39554464684795,1.41244042586136,1.417825253827,1.52562230144424,1.66877429440256,1.34909833710987,1.22785307016789,1.22829839322815,1.22604650756347,1.22426611501756,1.21028804654146,1.29512400071987,1.41666003889096,1.42659098166033,1.54070000000003,1.48663067425681,1.45066999999785,1.29807205423882,1.22219010199114,1.25244554398753,1.26205208409674,1.33399873065234,1.37816935768781,1.44390134170371,1.54418991675541,1.48705421448525,1.15827931734767,1.15763227442153,1.14573701687247,1.18408949933171,1.18757567128616,1.31613489500046,1.40533762946012,1.41960542415144,1.44533989945817,1.18176438588717,1.08811608261015,1.08635793148712,1.08383283383123,1.13290052234281,1.14116917334546,1.22966881259091,1.43545060453268,1.43488580923532,1.45464996610645,1.12480604134645,1.07205043199299,1.06381251355296,1.03597073165953,1.10267697570479,1.22709999999863,1.37501483387842,1.47489207328893,1.10820597740473,1.03717419505937,1.0524331759025,1.09181091792109,1.09541537040574,1.10722509744551,1.15582100544381,1.24777706529913,1.25939590922848,1.26019037716259,1.1183285065332,1.00410717621632,1.00917220899177,1.01042564495941,1.08431370766658,1.300110004465,1.29998353169326,1.38491998149258,1.36168568116836,1.34415735737299,1.16903744766674,0.960194974082441,0.944702177820324,0.897981895171724,0.965548335542118,0.978681257758114,1.02600784902814,1.30680991815822,1.02616886358875,0.968685239989153,0.976696597674522,1.02070887340098,1.07710795677687,1.13988938315877,1.26137831955299,1.32732810119403,1.32867781268249,1.32937220170882,1.04071798476601,0.971535579587605,0.977557887296656,1.03509986430811,1.04911321590365,1.08514674155065,1.18097457556882,1.35943000000007,1.23368533954125,0.856366589235603
1.73883318828953,1.81389006862852,1.83165604159977,1.86125990979053,1.77619122125084,1.75164495268768,1.73187804988266,1.6716537827241,1.68009882779206,1.69186790980403,1.75514734352141,1.80541655754733,1.80271087443851,1.78480466631593,1.77720183371419,1.78081688046857,1.7273931402495,1.66908012392392,1.71300509327523,1.70365777511345,1.79474140464001,1.83763329471186,1.83123486116079,1.81411158127165,1.75826127611706,1.6974532775445,1.69220254099235,1.73328988922286,1.72498550907427,1.72632404348517,1.64042065716786,1.57929494287834,1.55877607504686,1.54782997242967,1.52884407983201,1.48750162857673,1.55567858355391,1.69520984757933,1.6494274878879,1.64564898608691,1.64264526604184,1.44499465441985,1.43241878683984,1.40242754526741,1.45907470001348,1.48670997377937,1.54874454599349,1.70960833472409,1.71155472489155,1.71471333865702,1.58283026639506,1.43022809736034,1.42022541932261,1.4099124189185,1.46327111872725,1.64172358136117,1.45767604718068,1.39212141735232,1.40839178648431,1.41046285863659,1.39761919468642,1.34367371681515,1.41972764594515,1.45020998539435,1.52017286658096,1.6274465997218,1.6552406620238,1.68890407713473,1.65579158839103,1.66707383677192,1.41206349689715,1.37415606333387,1.37215390504604,1.36960538579167,1.42260735046098,1.55177004935592,1.57335543959301,1.65510610079419,1.32228376952372,1.23049454186845,1.21876967819401,1.20588610081391,1.22319683321948,1.32707524932083,1.32972541012076,1.33131340141193,1.45273555920099,1.63497986717083,1.59694849662795,1.5733300835801,1.32415995714098,1.27096515305255,1.28067084215052,1.289644474712,1.34444713649033,1.36780707217219,1.45857569092949,1.50611425064461,1.49151676145629,1.46804588115239,1.21285788374408,1.15722135607031,1.1945183873318,1.2001014841469,1.32439520911238,1.41694861945337,1.45414104594604,1.50325002307543,1.20753227155024,1.11990026114587,1.11024714362834,1.10073557790717,1.15444485552894,1.28092310520999,1.29207167284737,1.43585521644522,1.43501487285581,1.36309999999997,1.14038572627618,1.10627265804909,1.08164670335673,1.01655005952409,1.1292034767807,1.37321125301411,1.37421696029057,1.46880792671117,1.13959516822251,1.03893490356288,1.05632972059021,1.06253454415127,1.09774945153889,1.1532057767624,1.15993556252009,1.36047152532555,1.35716373963297,1.41307005042492,1.1221306605705,1.01284238702923,1.01140380390011,0.999089904259346,1.09223876381375,1.30114803576802,1.3003296633453,1.42011993459963,1.36378688663028,1.3405723860663,1.16824302403389,0.895776135339062,0.923541325791676,0.897789248693754,0.964419529643193,0.964365416541729,1.02212702364132,1.28065008184189,1.02335990768146,0.959633047585066,0.977885438875742,0.980967084591612,1.08226445207039,1.15174056894793,1.26201920660056,1.31249107308176,1.34335432143875,1.36691500663899,1.03995592266842,0.984121281343885,0.980853363801803,0.97631600998944,1.05611024141619,1.16425000381233,1.19641906605196,1.30222996320422,1.2349604721312,0.908716940478755
1.7478357504844,1.89312428993831,1.88920529276017,1.95587000000007,1.79275486313881,1.74188445774458,1.73810279737212,1.69643644704529,1.69905722165993,1.70222857254206,1.76555584423868,1.81473323906838,1.81846728588744,1.81762808069957,1.77345480701225,1.7246764271043,1.73721216015731,1.74771397413657,1.73739352738183,1.72651740035929,1.80927391333384,1.8370269047802,1.82616199685357,1.75645271786942,1.75663191754464,1.75514972563175,1.66902321477122,1.59835920463666,1.61744881675244,1.64561988628652,1.60587645147017,1.58063498112406,1.54583534932502,1.50558277949024,1.5040794247074,1.50180818383993,1.47652351045797,1.46305998852835,1.52913027276127,1.67185074884896,1.67447051929584,1.68796735348003,1.42342657273929,1.38793860046691,1.43008501709336,1.44780993559445,1.51918904798409,1.71040263008826,1.71087913864033,1.70105456723092,1.58317748750575,1.40613247129905,1.4085142703355,1.41088401263954,1.38664913496305,1.34632518276566,1.37598674131894,1.40236077823122,1.40652044511853,1.41027522443521,1.38606679479723,1.37743368031753,1.38622163522843,1.39503036723933,1.4977976807586,1.63729466731867,1.65959792020628,1.64710646870198,1.65729827346729,1.65365031898076,1.32269954603349,1.26855999070989,1.34935973068726,1.45873993255626,1.43571882702278,1.61893241057507,1.61150715303237,1.66355956675997,1.29866066180349,1.22130792717163,1.2155578631669,1.20347464918493,1.22463097187723,1.30977414939006,1.35512538431737,1.37881994528306,1.48387233221863,1.59825842570792,1.60769087342278,1.61786569038973,1.33064227915888,1.32915691222638,1.32912409469209,1.337433443974,1.35371225139391,1.36526213511622,1.48333778427444,1.52234582967587,1.49488020542674,1.23981995838816,1.22852146711339,1.18385997328905,1.2323908774139,1.275,1.33327846003704,1.54017990663854,1.52527132452521,1.53292615769785,1.23467524025482,1.1975899938208,1.16077791791042,1.11716997896197,1.17050017578576,1.25354004258453,1.30076743541508,1.48293458294603,1.47519560215523,1.46836162341586,1.15531892139969,1.0960171986628,1.11216613109431,1.12260616032937,1.15526791981639,1.27807003859167,1.31996981905201,1.04677999999993,1.17236053862406,1.42580000000003,1.12459671062776,1.09806263346854,1.09861685165516,1.13924406919152,1.16243719770347,1.17828998064636,1.35287456660274,1.44368989882443,1.12940181776872,1.03756958006443,1.02311449513216,0.9885452575629,1.09965138739993,1.18196008016661,1.21571540325116,1.16938005150386,1.36679339213052,1.37882981886263,1.16598542842486,0.939081365855033,0.946024659629128,0.951837343914511,0.985012378134931,1.00704772801384,1.01875649529895,1.01766131505008,1.01883132614692,0.994903667247572,0.99676072739943,1.05576004995125,1.08747482470691,1.11587895071608,1.26187955881958,1.37653000433568,1.35190798109865,1.35613812902217,1.03810719449115,0.973705888583766,0.98427198715575,1.01755980386328,1.06346370263105,1.22636505752218,1.23259640414371,1.28826003425899,1.23675120285523,0.989566499999365
1.75770696356173,1.96153000000007,1.88679271414323,1.88036447043673,1.80736929823348,1.73970881323972,1.74048372874892,1.74037848641272,1.747860384572,1.77756003721438,1.79255526914624,1.83298303138866,1.82374756554682,1.76633160995935,1.76977084836475,1.8142398874483,1.74995061741986,1.74979433708768,1.74983820572686,1.86114991777068,1.83065262053836,1.83812380921182,1.81941913163459,1.80850387897805,1.71830398280145,1.64435990370031,1.62751911666754,1.59753787206874,1.59654492371989,1.59587389252751,1.56784936363653,1.53378990563704,1.51373213405885,1.48904959371232,1.47685078941111,1.44387684034639,1.44482525844838,1.44457973403362,1.4947421622936,1.70584986682069,1.67760941581119,1.68177445618914,1.41535844097753,1.38645540904817,1.38717342561874,1.37000502512066,1.49419252922583,1.71260756425437,1.71168639874005,1.72634016751212,1.58404124430177,1.38015578009046,1.37822383442706,1.30588107928176,1.33395663074674,1.34672943601542,1.34795914288352,1.34365281405731,1.35577432044503,1.35919392885157,1.35010092398618,1.33034065436792,1.33725644670747,1.34574703836035,1.48354051480159,1.63940256305699,1.6584500178117,1.67155640768029,1.47848280807637,1.23335283882095,1.23211192671089,1.23172253159492,1.32241449969555,1.32925001290213,1.41559112072944,1.59674646831798,1.60519010028678,1.63038999983211,1.27768328426487,1.2143594980109,1.21341736041314,1.19945240081392,1.22340099261775,1.36964015446741,1.38947358871698,1.60272006845104,1.6199034308951,1.65871522609622,1.64977695801747,1.64190399320287,1.33165042564892,1.31678051819905,1.33007807752062,1.38513992515764,1.39671784325903,1.52681434592137,1.53512776996894,1.55574612472148,1.49691966989353,1.44740000983326,1.23302153702286,1.23118206054066,1.23338942051537,1.34650640854846,1.34520368879723,1.50523497002368,1.51948986465954,1.52276146375951,1.26300066432589,1.19762995474379,1.1728862776461,1.16911994376868,1.17217806863092,1.22369047586566,1.31058592974602,1.50827626312798,1.5043904600275,1.50862140605104,1.16937674124777,1.0598900997942,1.12996438642776,1.14625994694367,1.1704932410067,1.39990487506042,1.41088534739428,1.52681066240815,1.51836974034816,1.50868219861925,1.14577982757233,1.09642869569417,1.09906972590826,1.10499381343807,1.1640660175345,1.33611081114007,1.34643218539758,1.42650005075078,1.1416795433824,1.05387710595142,1.04041749142276,1.03336789592457,1.10600783124349,1.22292957133097,1.22687037002728,1.37183630246931,1.3690202678871,1.33411076808319,1.16368298051742,1.12168002885613,0.966329183023209,0.921926094811977,0.999244660590403,1.01275919450104,1.01432876552708,1.01107575875625,1.01472884961215,0.985021952436893,0.997543519294921,1.07917989681345,1.09220285597729,1.11352147209918,1.26084036330894,1.40351990598711,1.34838688565036,1.34356782576244,1.03590701357115,0.992475090226204,0.987355543283703,0.964412162108912,1.07104858501578,1.19826009050692,1.23577843626039,1.24278808531561,1.23881287926867,0.986364500000634
1.7692970492144,1.88711392558849,1.88617777550911,1.88318663201256,1.81781841179699,1.78568171715553,1.74479361040623,1.7457554153754,1.74975226149224,1.78971224459689,1.80317336090354,1.83019025214388,1.82674991612499,1.79646863395378,1.76508819698228,1.75730902409438,1.75061874971384,1.7502912096124,1.75032809915673,1.81118278968718,1.81194652245317,1.81287894298832,1.78169290880834,1.7400078520853,1.69841875747094,1.62189323249268,1.61421803705534,1.58529052515175,1.58134360605246,1.5572400188715,1.5368362560265,1.51739629629706,1.49900607668325,1.47556407275532,1.4709567285895,1.4375074438162,1.43438304200841,1.4268795228619,1.42327648221329,1.4174486079483,1.40934765737615,1.40154926132313,1.39511920996479,1.38657802428465,1.38725169550017,1.38727630939713,1.48052219666383,1.69061375060789,1.690739066131,1.69148928056612,1.58523133737352,1.37699177803417,1.37630234089276,1.31730369817862,1.32342741794777,1.34561340369679,1.34790899941919,1.35094687593628,1.35395075618668,1.35574398366437,1.34378699740154,1.33233019970952,1.33367026698433,1.40287379720703,1.46677973360539,1.64008218572035,1.65902963380252,1.66141213020874,1.47767737200364,1.25718967744993,1.23190479852147,1.23121503151138,1.30928502739771,1.34651274346178,1.39853840691866,1.42361831921912,1.3966930464731,1.30027467004407,1.25669695333297,1.21350713249875,1.21168669497127,1.20629230500886,1.22157801524469,1.37242068597183,1.41816172638413,1.618009544162,1.62938445354175,1.65751846150075,1.65455814896621,1.62680872856052,1.3329462810022,1.33283709458668,1.33220521420605,1.35448062357607,1.4136773109297,1.53523992726658,1.53884038409911,1.54638743478198,1.49803006917751,1.38526493181928,1.24965954595177,1.24989806611122,1.24900153749567,1.29995721882635,1.3442121218633,1.34339915248038,1.34267964771526,1.33662646149343,1.29224909789328,1.25428995772733,1.18397593737915,1.18261350190143,1.18325181947967,1.22351447518925,1.32426539858837,1.48944533283016,1.49848565551582,1.49852061117283,1.18216309010163,1.14025888951446,1.14010962866167,1.1719331814398,1.1858931927249,1.23008898553228,1.41815420836369,1.52401341034375,1.52237167485089,1.50014340887841,1.16504672690347,1.10020954017627,1.10153989567328,1.10343132947995,1.16719683193698,1.22396472133188,1.26553880792465,1.26797956762481,1.15492600345461,1.05529446754088,1.05479185038175,1.05384346214633,1.10810238114785,1.22956844431601,1.23162776810853,1.37085633821706,1.37004592851054,1.34773331734017,1.16168439675738,1.03213856709782,0.990835679178782,0.989833984688746,1.00292497085611,1.01396151413917,1.01405371356598,1.01288480530515,1.01432232658301,1.00343744185726,1.00425206272849,1.05210303604821,1.09624533012894,1.12413520209046,1.25879619781937,1.25739126647842,1.25760127442289,1.24089805535368,1.03423217945952,1.01795430518143,1.0040156460697,1.0008526736982,1.07845303329263,1.1685642347441,1.23906701927135,1.24129533463958,1.24017128358777,1.02647847170164
1.78838189141187,1.8884193898074,1.88878559146837,1.89018896877465,1.83377931791092,1.86214988789588,1.74451604271663,1.74656115904463,1.75136058720557,1.89813832788005,1.84073484979536,1.83983437790382,1.82720135178485,1.82673192095297,1.74683983745061,1.71324162177234,1.71028194280978,1.64145003935644,1.7353326558319,1.81219552853705,1.81348725751894,1.8155823907531,1.76759433810484,1.70313531423577,1.68539312161568,1.61720993137694,1.60300255154673,1.57707127926908,1.57563813005746,1.46309004900509,1.4835051564777,1.47512565072462,1.47819273784626,1.45628907295952,1.45609109695298,1.42898464781543,1.43232670729178,1.38819435849887,1.39206931923902,1.35668023090751,1.3950083320714,1.39360061655901,1.38838557336816,1.38563081085567,1.38660954363519,1.38668034109833,1.46799714478055,1.69201559105208,1.69180242542063,1.69373605070952,1.5861942752366,1.37452384426774,1.3736605580055,1.30680522497202,1.31950703164516,1.35999536847735,1.4110884390386,1.66397217434639,1.65876186778103,1.662041422538,1.34027626213675,1.32287671592891,1.33159725307652,1.44201994858376,1.4488146964074,1.64193807517303,1.6588189685425,1.66967931962963,1.47665877780208,1.27830382335664,1.23349792761671,1.18256188086923,1.29780622440068,1.36439998202129,1.37775500965151,1.46043994633589,1.37270993697932,1.24547145586752,1.23349359868778,1.18605221215306,1.19765541053565,1.1521400744646,1.21982493153873,1.37518320017612,1.44822880966345,1.67447816137386,1.67392255857752,1.67075537889787,1.65733200823309,1.60324010404666,1.33442180461639,1.33315354074675,1.33359941492155,1.33154217136208,1.4324843648185,1.60552632782342,1.59225185696552,1.57817321653314,1.49900634306383,1.33182000000065,1.24873680333841,1.24992221357805,1.24646028358437,1.24345582016372,1.34402577718411,1.34327211704776,1.34287815807878,1.3338849314936,1.33623427863512,1.33923561326216,1.18366753858751,1.18261082959283,1.18330676838668,1.22341834934679,1.3379056838844,1.47701389625486,1.49737837727286,1.49664411266695,1.19326216626019,1.1396462951425,1.1404931404122,1.23741990876796,1.21390069685678,1.06116999999993,1.42313507419898,1.54139787734773,1.52260363655428,1.47290504693931,1.18200817986836,1.08805165639779,1.10249904519048,1.10241863949304,1.17207457984276,1.17811778406484,1.26180514210478,1.27007289386668,1.17331307621852,1.03734671605116,1.05386367289852,1.0524099100574,1.10991763697077,1.23927589094065,1.24394594767688,1.4685999148628,1.42012174449035,1.39989489287009,1.15945051583385,0.934839061567847,0.989422302433066,0.986740668110664,1.03371117616932,1.10745,1.1418351107229,1.31106995954702,1.0558152845504,1.00240300470942,1.00459051268312,1.00533042233708,1.09937235474395,1.13518715934601,1.25737007807776,1.25473864202613,1.25657861268887,1.20958005898331,1.03441916650469,1.03751320047708,1.00742590784171,0.995072126745245,1.08535419171506,1.13003005041471,1.24190595647206,1.26052990960734,1.24029468508024,1.23358681646938
